0.171805 0.022736 -0.915659
0.172260 0.040689 0.954103
0.160152 0.041488 -0.369865
0.165298 0.036890 -0.375146
0.171757 0.031806 -0.918501
0.172307 0.056919 0.955264
0.165250 0.035970 -0.346379
0.159840 0.040935 -0.352613
0.163234 0.046869 -0.343657
0.171257 0.041251 -0.338738
0.168514 0.041238 -0.383846
0.163783 0.047702 -0.377513
0.166132 0.050947 -0.388256
0.160111 0.056224 -0.383833
0.171757 0.039999 -0.921727
0.171765 0.055506 -0.929157
0.172393 0.072989 0.956435
0.172109 0.053892 -0.331420
0.161028 0.058416 -0.337275
0.163794 0.064954 -0.327513
0.172113 0.061896 -0.325654
0.161986 0.061607 -0.394944
0.171828 0.056100 -0.398471
0.173575 0.073426 -0.406651
0.171782 0.066542 -0.934811
0.172386 0.089334 0.956855
0.169039 0.085720 -0.409554
0.170593 0.070584 -0.598467
0.155732 0.071680 -0.611632
0.161540 0.076935 -0.604966
0.165015 0.065985 -0.608164
0.171812 0.074760 -0.937925
0.171851 0.088389 -0.942430
0.172336 0.105767 0.956655
0.163992 0.096665 -0.411993
0.173611 0.090086 -0.414353
0.172465 0.105000 -0.422772
0.160495 0.104825 -0.414421
0.167875 0.088078 -0.583094
0.161184 0.093377 -0.587669
0.165332 0.082375 -0.594375
0.171951 0.104856 -0.947211
0.172359 0.121930 0.957437
0.167140 0.116410 -0.426259
0.171484 0.104488 -0.450329
0.161569 0.110899 -0.466373
0.162867 0.112243 -0.456005
0.168879 0.102637 -0.466366
0.167926 0.101620 -0.482842
0.160640 0.109882 -0.482816
0.161013 0.110151 -0.499221
0.168004 0.101899 -0.499338
0.167985 0.102057 -0.515827
0.161275 0.110292 -0.515660
0.167188 0.101125 -0.532375
0.160579 0.109368 -0.532253
0.159371 0.107937 -0.549159
0.166112 0.099672 -0.549273
0.165226 0.098391 -0.566664
0.157750 0.106659 -0.566474
0.164470 0.097409 -0.576783
0.171872 0.121889 -0.951717
0.172386 0.138090 0.957681
0.166651 0.115917 -0.436604
0.158256 0.124193 -0.436548
0.164425 0.113679 -0.446446
0.166343 0.130793 -0.953185
0.172307 0.154541 0.955737
0.169886 0.134487 -0.962329
0.160076 0.142754 -0.962348
0.170176 0.136141 -0.976666
0.161721 0.144263 -0.976607
0.155906 0.138771 -0.983831
0.167161 0.133617 -0.983297
0.172248 0.171057 0.954753
0.172040 0.154197 -0.302428
0.153910 0.152655 -0.313083
0.158370 0.157276 -0.307379
0.164224 0.146290 -0.311345
0.172331 0.187410 0.957402
0.173377 0.170853 -0.291189
0.160958 0.176670 -0.292870
0.169004 0.165631 -0.296447
0.172414 0.203786 0.958580
0.172407 0.220363 0.955574
0.164156 0.195354 -0.278142
0.171084 0.202647 -0.269311
0.172414 0.236843 0.954264
0.173050 0.220361 -0.253903
0.153769 0.219290 -0.264223
0.158218 0.224576 -0.258183
0.167088 0.213545 -0.263068
0.172489 0.253071 0.958043
0.173854 0.236969 -0.238073
0.168123 0.229997 -0.247395
0.172516 0.269417 0.959476
0.168703 0.247005 -0.231401
0.153803 0.252459 -0.233478
0.158271 0.257988 -0.226946
0.173268 0.252468 -0.224675
0.172439 0.285990 0.955295
0.172026 0.272037 -0.208531
0.159669 0.275316 -0.211318
0.171990 0.263803 -0.215787
0.172367 0.302453 0.953915
0.172068 0.288961 -0.192797
0.161117 0.292044 -0.195850
0.172069 0.280689 -0.200740
0.172345 0.318710 0.956745
0.172072 0.295616 -0.184997
0.171853 0.304164 -0.172930
0.172296 0.335059 0.957595
0.166311 0.311077 -0.166981
0.170640 0.317256 -0.154931
0.172237 0.351531 0.956885
0.172874 0.338679 -0.122887
0.160647 0.340791 -0.127965
0.170448 0.329305 -0.137829
0.164051 0.326460 -0.146954
0.173282 0.369245 0.962022
0.171404 0.350357 -0.106484
0.158194 0.355383 -0.109368
0.168118 0.344428 -0.118007
0.168501 0.377595 0.965433
0.173366 0.383483 0.968526
0.179459 0.375553 0.966305
0.173192 0.373504 -0.057573
0.163390 0.375330 -0.064017
0.171864 0.367471 -0.072388
0.170308 0.361059 -0.088797
0.163783 0.359102 -0.098332
0.172489 0.400570 0.972825
0.168615 0.377157 -0.053394
0.171588 0.383031 -0.039479
0.172479 0.416922 0.974985
0.170850 0.404285 0.008946
0.160593 0.407042 0.005046
0.171898 0.399204 -0.006547
0.170245 0.393981 -0.021960
0.163644 0.391876 -0.031070
0.172454 0.433170 0.976947
0.172678 0.422439 0.090561
0.158874 0.422252 0.072679
0.162082 0.423616 0.084149
0.171945 0.417996 0.072698
0.172035 0.414615 0.055610
0.173230 0.411082 0.038089
0.168041 0.409653 0.023253
0.164723 0.408637 0.014344
0.173264 0.450639 0.972050
0.171910 0.430988 0.124121
0.171103 0.436882 0.139669
0.172705 0.426491 0.107403
0.167738 0.425206 0.096683
0.168249 0.458882 0.968369
0.170334 0.453625 0.830116
0.162443 0.456720 0.812574
0.162905 0.457012 0.825021
0.171874 0.451831 0.812445
0.171897 0.451240 0.796240
0.162000 0.456336 0.796419
0.171876 0.450492 0.779972
0.161334 0.455725 0.780196
0.160397 0.455213 0.764233
0.171834 0.449699 0.764124
0.171839 0.448932 0.748318
0.158544 0.454875 0.748270
0.157369 0.454662 0.731843
0.171863 0.448467 0.731944
0.158014 0.454677 0.714192
0.171866 0.448538 0.714240
0.157988 0.454453 0.697183
0.171881 0.448150 0.697034
0.171898 0.446719 0.681670
0.171928 0.446368 0.665091
0.156697 0.453737 0.648170
0.171943 0.447264 0.647213
0.156396 0.453778 0.632217
0.171957 0.447266 0.631442
0.171948 0.446528 0.616741
0.171966 0.446755 0.600301
0.157074 0.454306 0.583363
0.172013 0.447628 0.582885
0.156614 0.454300 0.567115
0.172022 0.447549 0.566746
0.171999 0.447217 0.551358
0.171993 0.448226 0.534672
0.157866 0.455358 0.518079
0.171999 0.449694 0.517901
0.157467 0.455749 0.501923
0.171977 0.450465 0.501893
0.171962 0.450911 0.485860
0.157164 0.455888 0.485806
0.159073 0.456145 0.468829
0.171973 0.451597 0.468693
0.160883 0.456537 0.451699
0.171988 0.452415 0.451416
0.161261 0.456816 0.435629
0.171958 0.452989 0.435465
0.171939 0.453680 0.419506
0.162345 0.457140 0.419551
0.170915 0.455162 0.403703
0.163519 0.457389 0.410480
0.164749 0.457746 0.398734
0.171079 0.454663 0.255567
0.161862 0.456808 0.239819
0.163157 0.457203 0.249586
0.171923 0.452828 0.239849
0.159451 0.455707 0.223110
0.171892 0.450966 0.222900
0.171874 0.448160 0.205246
0.171879 0.445514 0.188942
0.172825 0.443023 0.173188
0.167981 0.442323 0.156058
0.165103 0.441559 0.145088
0.171071 0.460076 0.959806
0.171316 0.460325 0.945161
0.170183 0.459836 0.928679
0.169384 0.459607 0.912077
0.168721 0.459419 0.895487
0.167268 0.458911 0.879303
0.165393 0.458178 0.863162
0.164251 0.457700 0.846449
0.163846 0.457532 0.836567
0.165587 0.458015 0.386259
0.166243 0.458281 0.370904
0.167125 0.458649 0.354111
0.168127 0.459066 0.335812
0.168761 0.459245 0.317994
0.168696 0.459164 0.301869
0.167528 0.458747 0.287523
0.166102 0.458272 0.272665
0.165010 0.457904 0.260599
0.187641 -0.438918 0.319131
0.179773 -0.440819 0.324593
0.173489 -0.443819 0.318779
0.181783 -0.441469 0.313983
0.189752 -0.418290 0.972832
0.184751 -0.426091 0.968490
0.186919 -0.420896 0.566492
0.179789 -0.424321 0.570725
0.173495 -0.426971 0.566294
0.180566 -0.424725 0.560886
0.189004 -0.401028 0.980129
0.188912 -0.384899 0.977583
0.188795 -0.368812 0.971973
0.187132 -0.351158 0.968102
0.180626 -0.344872 0.966358
0.182430 -0.336210 0.966200
0.190581 -0.336038 0.967413
0.188485 -0.320135 0.965266
0.193807 -0.325562 0.966793
0.188635 -0.303751 0.962677
0.188610 -0.287439 0.961427
0.188575 -0.270940 0.961288
0.188589 -0.254535 0.961010
0.188628 -0.238167 0.960857
0.188624 -0.221621 0.961267
0.188613 -0.204994 0.961760
0.189043 -0.211763 -0.904143
0.189042 -0.215497 -0.904145
0.188650 -0.188493 0.961455
0.190721 -0.206364 -0.909651
0.188748 -0.188806 -0.908931
0.188683 -0.172041 0.960710
0.188631 -0.172598 -0.910769
0.188657 -0.155581 0.960105
0.188526 -0.156376 -0.911475
0.188630 -0.139169 0.959279
0.188472 -0.140083 -0.911520
0.188656 -0.122823 0.957885
0.188456 -0.123646 -0.911920
0.188676 -0.106423 0.957142
0.183222 -0.117550 -0.425403
0.177625 -0.109507 -0.414369
0.187817 -0.104132 -0.421057
0.188455 -0.107389 -0.912030
0.188661 -0.089894 0.957896
0.184627 -0.089097 -0.409083
0.181370 -0.098725 -0.411071
0.188460 -0.091410 -0.911429
0.188647 -0.073512 0.957064
0.189724 -0.073741 -0.407037
0.173693 -0.073055 -0.396743
0.188465 -0.075283 -0.910716
0.189045 -0.058319 0.953859
0.176304 -0.057269 -0.395021
0.188542 -0.057219 -0.402823
0.188487 -0.058936 -0.910240
0.183814 -0.053555 0.951346
0.189031 -0.040109 0.951017
0.194777 -0.045066 0.952601
0.188540 -0.041216 -0.400431
0.178315 -0.041242 -0.393781
0.188491 -0.042593 -0.910340
0.188632 -0.024485 0.951060
0.179586 -0.024811 -0.393097
0.188548 -0.024891 -0.398765
0.188451 -0.026303 -0.910887
0.174595 -0.008176 0.951693
0.188631 -0.008224 0.951181
0.180100 -0.013291 -0.392810
0.186982 -0.008387 -0.397086
0.188409 -0.009980 -0.911497
0.177664 0.007873 0.951405
0.188117 0.009181 0.951190
0.180514 0.002379 -0.392471
0.176782 0.007634 -0.386366
0.176759 -0.008206 -0.385973
0.180522 -0.002798 -0.392373
0.188359 0.006382 -0.912728
0.182304 0.016237 0.951384
0.180442 0.016265 0.951393
0.193245 0.015392 0.951352
0.188120 0.022596 0.952115
0.180481 0.000764 -0.344460
0.172883 0.006969 -0.350765
0.178888 0.011511 -0.343294
0.186940 0.006880 -0.340538
0.186940 0.007432 -0.397338
0.180252 0.013018 -0.393103
0.188468 0.023250 -0.399963
0.179222 0.023308 -0.394078
0.188286 0.022737 -0.915703
0.188650 0.040501 0.954302
0.176828 0.039703 -0.396068
0.188491 0.039596 -0.403006
0.188239 0.031576 -0.918028
0.188698 0.056734 0.956269
0.188844 0.055949 -0.408005
0.181013 0.035486 -0.607053
0.173205 0.040373 -0.610984
0.179620 0.046299 -0.605572
0.187774 0.039577 -0.598277
0.188231 0.039769 -0.921539
0.188212 0.055508 -0.929063
0.188771 0.072811 0.958077
0.188469 0.050261 -0.327460
0.188454 0.058077 -0.323489
0.183665 0.068813 -0.410201
0.188200 0.066610 -0.934424
0.188774 0.089190 0.958958
0.179979 0.079720 -0.412270
0.188884 0.073367 -0.415638
0.188499 0.088141 -0.423616
0.182221 0.067380 -0.583565
0.176617 0.075591 -0.583930
0.179352 0.079195 -0.570939
0.183728 0.073046 -0.565589
0.180370 0.064282 -0.591780
0.188207 0.074829 -0.937527
0.188250 0.088385 -0.942301
0.188744 0.105671 0.959094
0.183069 0.099568 -0.426704
0.183094 0.084591 -0.466137
0.177055 0.092862 -0.466286
0.178623 0.094863 -0.453779
0.183953 0.088950 -0.449786
0.182196 0.083269 -0.482763
0.176110 0.091527 -0.482838
0.181875 0.083156 -0.499622
0.176204 0.091410 -0.499517
0.181673 0.083041 -0.516423
0.176199 0.091274 -0.516167
0.175389 0.090369 -0.532663
0.181161 0.082147 -0.532863
0.174302 0.089242 -0.549490
0.180532 0.081014 -0.549653
0.180182 0.080394 -0.559304
0.174257 0.086908 -0.565807
0.188388 0.104872 -0.948106
0.188764 0.121863 0.959765
0.182205 0.098767 -0.436614
0.174863 0.107055 -0.436580
0.180265 0.096810 -0.444157
0.188587 0.116427 -0.952300
0.188791 0.138028 0.960369
0.188640 0.120630 -0.962135
0.177990 0.128187 -0.962169
0.187934 0.118441 -0.975251
0.178489 0.127880 -0.976521
0.172454 0.122443 -0.983946
0.182233 0.117015 -0.983223
0.188747 0.154462 0.959063
0.180615 0.129875 -0.311619
0.170560 0.136237 -0.313664
0.175145 0.140828 -0.308395
0.186908 0.136239 -0.305435
0.188711 0.170923 0.957707
0.188176 0.159359 -0.292833
0.179944 0.162163 -0.294531
0.188208 0.151052 -0.297368
0.188761 0.187209 0.958520
0.188800 0.203536 0.958383
0.188731 0.186355 -0.273361
0.170478 0.186355 -0.281428
0.175111 0.191583 -0.275573
0.183576 0.180565 -0.279653
0.188764 0.220081 0.955865
0.188258 0.206592 -0.257760
0.178055 0.209990 -0.260404
0.188267 0.198341 -0.264603
0.188727 0.236556 0.954324
0.188240 0.224254 -0.242515
0.179061 0.227197 -0.244736
0.188248 0.215979 -0.249380
0.188746 0.252820 0.955553
0.188218 0.241431 -0.226253
0.179621 0.243925 -0.228731
0.188249 0.233183 -0.234248
0.188746 0.269209 0.956281
0.188687 0.285887 0.955330
0.180855 0.261151 -0.213556
0.186457 0.267133 -0.203751
0.188673 0.302405 0.956158
0.181396 0.277919 -0.198208
0.186499 0.283913 -0.187696
0.188739 0.318616 0.958946
0.187107 0.297048 -0.172726
0.177229 0.308357 -0.162845
0.189882 0.306725 -0.155985
0.181003 0.293784 -0.182206
0.188741 0.334956 0.960599
0.185572 0.312483 -0.150403
0.175008 0.323433 -0.142980
0.189373 0.318410 -0.139295
0.188690 0.351468 0.961517
0.188192 0.339981 -0.111405
0.179042 0.342068 -0.114577
0.187962 0.331420 -0.122864
0.182382 0.327547 -0.131944
0.188702 0.363572 0.964173
0.188218 0.345338 -0.102978
0.174746 0.356286 -0.094410
0.188541 0.353942 -0.088959
0.188876 0.384255 0.972664
0.188791 0.371693 0.968036
0.188173 0.368416 -0.055998
0.179528 0.375222 -0.047614
0.188128 0.373637 -0.044804
0.188531 0.362035 -0.073035
0.183330 0.360024 -0.082558
0.188922 0.400651 0.976420
0.187737 0.386006 -0.022292
0.174625 0.388893 -0.027042
0.188178 0.378009 -0.036489
0.188915 0.416968 0.978432
0.188251 0.405379 0.039193
0.176201 0.406478 0.023026
0.179449 0.407913 0.032234
0.188247 0.401356 0.023010
0.188232 0.397496 0.007416
0.187739 0.393745 -0.006285
0.182004 0.392690 -0.016002
0.188850 0.433153 0.978287
0.188616 0.422431 0.107330
0.178684 0.424165 0.101170
0.188207 0.418843 0.091067
0.188209 0.414665 0.073491
0.188260 0.410336 0.056666
0.182904 0.408993 0.043668
0.188672 0.446256 0.971589
0.187304 0.437525 0.173089
0.176194 0.439157 0.156028
0.178925 0.440475 0.167488
0.188226 0.434117 0.156488
0.188216 0.430937 0.139956
0.188611 0.426906 0.123988
0.183462 0.425453 0.112186
0.188444 0.452175 0.959770
0.179292 0.456866 0.959777
0.179561 0.457075 0.945144
0.188336 0.452557 0.945130
0.188307 0.451231 0.928622
0.178425 0.456421 0.928667
0.188267 0.450616 0.911999
0.177616 0.455984 0.912059
0.176952 0.455646 0.895461
0.188225 0.450336 0.895377
0.175503 0.454967 0.879279
0.188212 0.449044 0.879157
0.188211 0.447275 0.863038
0.173629 0.454116 0.863138
0.188184 0.446277 0.846451
0.172476 0.453520 0.846410
0.188160 0.445491 0.829570
0.188199 0.444656 0.813015
0.188242 0.444275 0.796703
0.188220 0.444299 0.780181
0.189433 0.443364 0.763750
0.185965 0.443309 0.748307
0.184846 0.443061 0.731985
0.185646 0.443116 0.714808
0.185464 0.442969 0.697871
0.183553 0.442328 0.682025
0.183346 0.442245 0.665338
0.185050 0.442791 0.647714
0.185033 0.442758 0.631740
0.183450 0.442232 0.616703
0.183677 0.442208 0.600300
0.185427 0.442585 0.583116
0.185167 0.442520 0.566955
0.184069 0.442357 0.551303
0.188203 0.442542 0.533252
0.188292 0.443980 0.517883
0.188302 0.444373 0.501848
0.188302 0.444575 0.485791
0.188280 0.445731 0.468951
0.188268 0.446596 0.452032
0.188264 0.446250 0.435858
0.188247 0.446429 0.419704
0.188212 0.448114 0.402927
0.188196 0.449035 0.386694
0.173779 0.454992 0.386254
0.174462 0.454961 0.370891
0.188220 0.448793 0.370896
0.188229 0.449674 0.353928
0.175356 0.455261 0.354075
0.188223 0.451414 0.335667
0.176337 0.455827 0.335767
0.176934 0.456118 0.317949
0.188266 0.452009 0.318058
0.176892 0.455993 0.301895
0.188369 0.451441 0.301951
0.188398 0.450497 0.287454
0.175723 0.455475 0.287511
0.174320 0.454892 0.272642
0.188393 0.449808 0.272657
0.188357 0.448361 0.256273
0.188274 0.446577 0.239807
0.188242 0.445348 0.222839
0.189308 0.443112 0.204714
0.184333 0.442165 0.188907
0.181229 0.441418 0.178398
0.203396 -0.420464 0.944301
0.195443 -0.424161 0.949199
0.189353 -0.426461 0.944270
0.196849 -0.424764 0.937998
0.196644 -0.424718 0.445745
0.195458 -0.424295 0.456664
0.189435 -0.426301 0.451399
0.203145 -0.420602 0.451852
0.205409 -0.400830 0.980259
0.205214 -0.413928 0.972466
0.205371 -0.384725 0.980143
0.205253 -0.368626 0.975318
0.205149 -0.352376 0.971135
0.205076 -0.335912 0.969168
0.205018 -0.322919 0.967330
0.205020 -0.314906 0.965833
0.205034 -0.303524 0.964024
0.205022 -0.287149 0.963070
0.205000 -0.270582 0.963447
0.205004 -0.254206 0.962729
0.205013 -0.237909 0.961359
0.205004 -0.221339 0.961112
0.205004 -0.204670 0.961520
0.199028 -0.211958 -0.904205
0.199017 -0.214094 -0.904207
0.205042 -0.188214 0.961338
0.198839 -0.211968 -0.905065
0.204882 -0.198542 -0.914464
0.205150 -0.188363 -0.910316
0.205079 -0.171818 0.961052
0.205169 -0.172383 -0.909948
0.205075 -0.155347 0.961111
0.205064 -0.156117 -0.910895
0.205070 -0.138955 0.961213
0.204995 -0.139824 -0.911137
0.205099 -0.122749 0.961278
0.204972 -0.123500 -0.911480
0.205117 -0.106447 0.961325
0.204965 -0.107326 -0.911425
0.205104 -0.089866 0.961329
0.200178 -0.089148 -0.424077
0.192873 -0.089122 -0.415835
0.197488 -0.098618 -0.427476
0.204972 -0.091338 -0.910795
0.205089 -0.073462 0.959791
0.204775 -0.073103 -0.420262
0.195955 -0.079539 -0.412515
0.204979 -0.075206 -0.910349
0.205087 -0.057383 0.956133
0.199726 -0.057212 -0.409913
0.197889 -0.068883 -0.410951
0.204964 -0.058861 -0.910319
0.205070 -0.042385 0.953123
0.202201 -0.041227 -0.408769
0.204946 -0.042529 -0.910637
0.205020 -0.034129 0.952095
0.205036 -0.024533 0.951844
0.203933 -0.025041 -0.407826
0.204927 -0.026250 -0.911006
0.205029 -0.008307 0.951149
0.206328 -0.008062 -0.408480
0.204875 -0.009944 -0.911604
0.203468 0.009023 0.950392
0.205790 0.005561 -0.408674
0.204769 0.006399 -0.913237
0.196957 0.015329 0.951336
0.203460 0.025029 0.952265
0.201882 0.023183 -0.408426
0.203507 0.022674 -0.916371
0.205027 0.040311 0.954704
0.199605 0.039504 -0.409570
0.197284 0.031337 -0.917866
0.205073 0.056556 0.957324
0.197917 0.050531 -0.410811
0.198447 0.038786 -0.581600
0.194728 0.043769 -0.586825
0.196856 0.032879 -0.590636
0.203478 0.037726 -0.922400
0.204223 0.055605 -0.931085
0.205136 0.072655 0.959570
0.196812 0.049337 -0.326759
0.203271 0.055321 -0.320098
0.204609 0.055053 -0.420807
0.194490 0.061390 -0.413423
0.200158 0.072108 -0.424646
0.199377 0.057066 -0.482204
0.195848 0.063229 -0.498964
0.196065 0.063515 -0.487832
0.200092 0.055007 -0.498786
0.195471 0.062759 -0.515616
0.199993 0.054541 -0.515324
0.199488 0.053706 -0.531909
0.194834 0.061952 -0.532196
0.198780 0.052324 -0.548571
0.193842 0.060590 -0.548935
0.197980 0.050544 -0.565278
0.192674 0.058793 -0.565960
0.190508 0.054973 -0.582253
0.197188 0.048971 -0.575878
0.198469 0.065662 -0.934254
0.205155 0.089075 0.961164
0.197725 0.082361 -0.427381
0.200171 0.072468 -0.436280
0.192965 0.075255 -0.450721
0.194957 0.078294 -0.441095
0.197817 0.066971 -0.450512
0.196620 0.064590 -0.465795
0.191223 0.072805 -0.465963
0.191403 0.070522 -0.482458
0.196360 0.064020 -0.476689
0.204234 0.071493 -0.938941
0.205686 0.089048 -0.947714
0.205155 0.105601 0.962024
0.197612 0.082239 -0.431420
0.190704 0.087947 -0.436550
0.200427 0.104905 -0.951048
0.205184 0.121817 0.962850
0.197476 0.113986 -0.953033
0.198678 0.104572 -0.975091
0.188084 0.105315 -0.983707
0.193137 0.109611 -0.978475
0.197154 0.099227 -0.982797
0.205214 0.137988 0.963389
0.204828 0.121564 -0.303202
0.186940 0.120182 -0.313014
0.191474 0.124802 -0.309018
0.197119 0.114000 -0.311852
0.197312 0.113913 -0.962110
0.196802 0.113394 -0.969901
0.205205 0.154418 0.962489
0.205190 0.170847 0.960795
0.197814 0.147406 -0.295702
0.204940 0.154338 -0.286853
0.205203 0.187100 0.959591
0.205903 0.171360 -0.275431
0.188682 0.171333 -0.284236
0.194533 0.177499 -0.277657
0.201210 0.166473 -0.281497
0.205190 0.203402 0.957997
0.205103 0.219908 0.955586
0.202840 0.201592 -0.252835
0.197003 0.195457 -0.262899
0.205023 0.236366 0.953925
0.197728 0.212684 -0.246708
0.203926 0.218998 -0.236979
0.205014 0.252657 0.953649
0.199218 0.229796 -0.231132
0.204583 0.235957 -0.221159
0.205007 0.269064 0.954131
0.204088 0.252001 -0.205019
0.187023 0.251847 -0.217579
0.191572 0.256964 -0.209413
0.199045 0.245959 -0.215180
0.204972 0.285758 0.955238
0.203667 0.268043 -0.188226
0.192047 0.273146 -0.193567
0.198209 0.262139 -0.198832
0.205014 0.302299 0.957650
0.198244 0.278934 -0.182230
0.191673 0.289951 -0.177888
0.204115 0.284800 -0.171706
0.205146 0.318526 0.961078
0.204612 0.307187 -0.142902
0.196366 0.309865 -0.146503
0.204573 0.298921 -0.155046
0.199081 0.295208 -0.166131
0.205179 0.334873 0.963798
0.204622 0.312789 -0.134835
0.193245 0.324334 -0.128142
0.205362 0.321366 -0.122943
0.203660 0.349963 0.965560
0.204543 0.334308 -0.106603
0.200401 0.328712 -0.117857
0.197193 0.359807 0.966113
0.203689 0.366305 0.969877
0.208120 0.354516 0.966928
0.203850 0.346430 -0.088841
0.194204 0.357902 -0.079089
0.204907 0.354780 -0.073183
0.197805 0.343553 -0.099556
0.205297 0.384293 0.976419
0.204790 0.362476 -0.055971
0.203983 0.370266 -0.039279
0.199586 0.360507 -0.067953
0.205341 0.400666 0.979819
0.204098 0.378299 -0.023079
0.192830 0.389667 -0.010879
0.203345 0.386027 -0.007335
0.198196 0.376373 -0.033226
0.205051 0.415564 0.981656
0.204220 0.404346 0.058063
0.193651 0.406952 0.051869
0.204605 0.398468 0.041253
0.205792 0.394752 0.022773
0.200400 0.393419 0.006944
0.196999 0.392126 -0.001327
0.206047 0.433315 0.975644
0.210415 0.420052 0.982470
0.210396 0.425515 0.982471
0.204818 0.421413 0.123827
0.194268 0.423580 0.118525
0.204541 0.416711 0.108146
0.204514 0.414312 0.090949
0.204174 0.410776 0.074104
0.198497 0.409029 0.063166
0.201671 0.443081 0.969508
0.203248 0.437589 0.763795
0.194099 0.439964 0.748280
0.195686 0.440785 0.758287
0.204496 0.435054 0.748247
0.204485 0.434161 0.731975
0.192962 0.439418 0.731989
0.204484 0.435127 0.715418
0.193750 0.439930 0.715303
0.204469 0.435079 0.698944
0.193542 0.439897 0.698671
0.191606 0.439064 0.682424
0.204434 0.433523 0.682661
0.191398 0.438974 0.665824
0.204441 0.433381 0.666173
0.193099 0.439719 0.648576
0.204485 0.434802 0.649116
0.193075 0.439723 0.632284
0.204498 0.434783 0.632666
0.204487 0.433515 0.616864
0.191499 0.439072 0.616756
0.191730 0.439256 0.600365
0.204480 0.433855 0.600429
0.204483 0.435324 0.583696
0.193450 0.440043 0.583557
0.193197 0.439962 0.567266
0.204525 0.435244 0.567347
0.192142 0.439510 0.551214
0.204588 0.434495 0.551212
0.193533 0.439995 0.537948
0.203058 0.436829 0.533199
0.196544 0.441127 0.526661
0.204621 0.434172 0.189407
0.192461 0.439206 0.189112
0.195454 0.440708 0.198693
0.203629 0.437909 0.205046
0.204630 0.430573 0.173582
0.204611 0.428657 0.156891
0.204842 0.426536 0.140561
0.199517 0.425493 0.129044
0.206064 0.443952 0.959570
0.204717 0.444863 0.945144
0.205954 0.443467 0.929783
0.203702 0.443873 0.911971
0.203309 0.443933 0.895310
0.201519 0.443328 0.879048
0.199266 0.442416 0.862942
0.198328 0.442012 0.846502
0.197755 0.441746 0.829971
0.196971 0.441355 0.813616
0.196662 0.441186 0.797222
0.196956 0.441337 0.780486
0.196923 0.441336 0.768770
0.197249 0.441435 0.517935
0.197330 0.441452 0.501832
0.197142 0.441359 0.485736
0.198866 0.442086 0.469216
0.200160 0.442511 0.452696
0.198845 0.441880 0.436324
0.198557 0.441704 0.419952
0.201814 0.442727 0.403400
0.203686 0.443289 0.386978
0.202417 0.443081 0.370829
0.202996 0.443654 0.353645
0.206160 0.444421 0.337009
0.204631 0.445913 0.318162
0.204746 0.445162 0.302005
0.206005 0.443742 0.287757
0.203516 0.444189 0.272670
0.201875 0.443472 0.256265
0.199793 0.442353 0.239773
0.198609 0.441885 0.222889
0.197492 0.441475 0.210373
0.213218 -0.424807 0.346320
0.211568 -0.423926 0.357924
0.205555 -0.427265 0.352968
0.219760 -0.420023 0.352825
0.222111 -0.401301 0.974479
0.216817 -0.410654 0.970050
0.212829 -0.408359 0.575654
0.211849 -0.407799 0.586843
0.205685 -0.410878 0.582319
0.219484 -0.403624 0.582136
0.221794 -0.384604 0.981003
0.221716 -0.368568 0.978432
0.221596 -0.352359 0.973675
0.221497 -0.335946 0.970402
0.221437 -0.321121 0.968041
0.221438 -0.313075 0.966224
0.221445 -0.303524 0.964408
0.221434 -0.287113 0.963270
0.221418 -0.270532 0.963801
0.221423 -0.254148 0.962767
0.221425 -0.237840 0.960629
0.221407 -0.221249 0.959838
0.221407 -0.204562 0.960163
0.221467 -0.188111 0.960589
0.219609 -0.186932 -0.914487
0.213081 -0.195663 -0.916645
0.221530 -0.171740 0.961459
0.221390 -0.172315 -0.910696
0.221532 -0.155299 0.962464
0.221348 -0.156151 -0.910623
0.221526 -0.138940 0.963098
0.221256 -0.139855 -0.911341
0.221556 -0.122786 0.962944
0.221191 -0.123583 -0.912269
0.221565 -0.106524 0.962392
0.221178 -0.107455 -0.912262
0.221535 -0.089944 0.962304
0.221199 -0.091446 -0.911219
0.221514 -0.073516 0.960537
0.221218 -0.075276 -0.910802
0.221515 -0.057388 0.956100
0.215016 -0.057079 -0.425466
0.208014 -0.057183 -0.417274
0.213550 -0.066538 -0.427733
0.221225 -0.058915 -0.911019
0.221501 -0.043857 0.952939
0.217226 -0.041077 -0.422559
0.210457 -0.041227 -0.414300
0.221210 -0.042569 -0.911317
0.221447 -0.035600 0.952222
0.221447 -0.024551 0.952216
0.212165 -0.025141 -0.412774
0.219150 -0.025069 -0.421099
0.221182 -0.026284 -0.911536
0.221433 -0.008361 0.950805
0.218680 -0.008228 -0.418874
0.212803 -0.012907 -0.412178
0.221110 -0.009977 -0.912498
0.221451 0.007508 0.947927
0.213094 -0.000798 -0.411908
0.213101 -0.002213 -0.411907
0.213399 -0.007751 -0.483605
0.212791 -0.001371 -0.490845
0.212791 -0.001375 -0.490205
0.213458 -0.007674 -0.497222
0.212967 0.000136 -0.501860
0.211936 0.006120 -0.497482
0.212910 -0.015705 -0.548185
0.212065 -0.007481 -0.548452
0.212498 -0.004283 -0.536564
0.213256 -0.009509 -0.531175
0.211579 -0.010740 -0.563420
0.212832 -0.017390 -0.556675
0.221001 0.006739 -0.915271
0.220192 0.024891 0.949407
0.207893 0.020262 0.950541
0.217717 0.005631 -0.419282
0.211904 0.010014 -0.412978
0.210109 0.023120 -0.414820
0.216837 0.023193 -0.423105
0.213500 0.006958 -0.465891
0.212273 0.007034 -0.483797
0.212518 0.012432 -0.471630
0.212956 0.001681 -0.479156
0.212988 0.000376 -0.515337
0.211538 0.008538 -0.515652
0.211637 0.005810 -0.531684
0.212886 -0.000419 -0.525482
0.215561 0.017122 -0.916657
0.220160 0.040542 0.953638
0.213878 0.031213 0.952332
0.214228 0.019478 -0.327536
0.205418 0.024704 -0.329965
0.211293 0.030567 -0.324999
0.216624 0.024542 -0.319302
0.207857 0.039417 -0.417883
0.214646 0.039450 -0.426101
0.212863 0.015673 -0.460542
0.210901 0.021906 -0.465976
0.211479 0.026588 -0.454492
0.213914 0.021876 -0.449774
0.220936 0.022641 -0.921909
0.208122 0.028044 -0.919091
0.220744 0.038094 -0.929798
0.221447 0.056430 0.956646
0.213316 0.048632 -0.427962
0.214382 0.038934 -0.435342
0.209751 0.038948 -0.449905
0.211617 0.044248 -0.439423
0.213210 0.033217 -0.444446
0.215200 0.050212 -0.932061
0.221539 0.072597 0.959371
0.208703 0.054646 -0.435446
0.213271 0.048575 -0.430058
0.209376 0.061155 -0.935550
0.221837 0.056248 -0.941749
0.217835 0.072080 -0.947741
0.221576 0.089030 0.961884
0.219527 0.071047 -0.304825
0.204787 0.071178 -0.314089
0.210263 0.075588 -0.310361
0.213026 0.064765 -0.311365
0.214900 0.084007 -0.951238
0.221593 0.105549 0.963737
0.214567 0.083677 -0.961498
0.210338 0.091839 -0.961598
0.205784 0.088202 -0.974762
0.213303 0.081394 -0.969078
0.223042 0.123003 0.965174
0.223084 0.138997 0.965404
0.229503 0.129171 0.966136
0.229515 0.134213 0.966131
0.220942 0.122895 -0.290594
0.212768 0.129329 -0.294954
0.215320 0.118446 -0.297159
0.221706 0.154440 0.964562
0.221702 0.170884 0.963064
0.221400 0.155114 -0.275008
0.212189 0.161346 -0.278257
0.216002 0.150308 -0.281336
0.221712 0.187133 0.961604
0.221680 0.203420 0.959319
0.214753 0.180226 -0.263959
0.203375 0.186128 -0.266287
0.207955 0.191212 -0.258838
0.220286 0.185929 -0.253622
0.221530 0.220887 0.954462
0.220814 0.202908 -0.237842
0.208676 0.207761 -0.242855
0.214816 0.196750 -0.247843
0.221438 0.236735 0.952792
0.221830 0.220340 -0.222425
0.210150 0.225323 -0.227291
0.215764 0.214267 -0.231974
0.221478 0.252651 0.955450
0.216855 0.231102 -0.216878
0.209997 0.242114 -0.211325
0.222317 0.236905 -0.206527
0.221518 0.269061 0.956862
0.216729 0.247069 -0.200608
0.209140 0.258047 -0.194309
0.221749 0.252627 -0.189269
0.221478 0.285632 0.955453
0.221064 0.268677 -0.172065
0.209171 0.273930 -0.177316
0.215701 0.262955 -0.182932
0.221515 0.302143 0.957496
0.215336 0.279654 -0.165988
0.210042 0.290656 -0.160658
0.221002 0.285019 -0.155007
0.222920 0.319987 0.963334
0.215509 0.295340 -0.149420
0.220038 0.300368 -0.137145
0.218702 0.334868 0.965594
0.229296 0.326429 0.966184
0.226908 0.334898 0.966244
0.222930 0.319540 -0.108723
0.211330 0.325143 -0.113679
0.217068 0.313382 -0.122956
0.213379 0.310238 -0.130996
0.215529 0.343414 0.966064
0.221206 0.349888 0.966892
0.221200 0.334486 -0.089624
0.208791 0.339890 -0.094233
0.216901 0.328940 -0.102499
0.221610 0.367820 0.971603
0.220456 0.345792 -0.071297
0.210501 0.357484 -0.061485
0.220505 0.353420 -0.056597
0.214516 0.343757 -0.082553
0.221718 0.384185 0.977781
0.220498 0.362039 -0.039951
0.209189 0.373491 -0.028135
0.220142 0.369668 -0.024195
0.214586 0.360062 -0.050803
0.220433 0.400649 0.981538
0.222152 0.380996 0.005898
0.208571 0.389575 0.006737
0.212058 0.391431 0.016398
0.220357 0.387558 0.023168
0.217096 0.378017 -0.009148
0.214041 0.376056 -0.017957
0.220989 0.415779 0.982160
0.225069 0.406233 0.982472
0.225053 0.411544 0.982472
0.220408 0.403633 0.073619
0.209439 0.406820 0.068929
0.221103 0.397348 0.058478
0.220387 0.393305 0.043715
0.214344 0.392531 0.028646
0.216887 0.425465 0.982470
0.216936 0.419987 0.982469
0.220011 0.419914 0.139361
0.210501 0.423538 0.135059
0.221087 0.414756 0.123316
0.221484 0.410693 0.107653
0.216589 0.409945 0.090375
0.214425 0.409200 0.079150
0.222002 0.429521 0.975411
0.212425 0.440642 0.963727
0.219790 0.436740 0.959655
0.213253 0.441211 0.955149
0.219539 0.436861 0.929819
0.211937 0.440547 0.911997
0.212285 0.440720 0.925052
0.221126 0.435456 0.912035
0.221079 0.434906 0.895383
0.211536 0.440353 0.895321
0.209754 0.439447 0.879041
0.221075 0.433479 0.879114
0.221095 0.431612 0.862951
0.207510 0.438276 0.862921
0.221071 0.430626 0.846193
0.206568 0.437747 0.846442
0.205988 0.437427 0.829922
0.221041 0.430028 0.829469
0.221060 0.429223 0.813511
0.205196 0.436912 0.813662
0.221089 0.428782 0.797483
0.204886 0.436683 0.797342
0.205182 0.436974 0.780586
0.221083 0.429069 0.780669
0.221073 0.428987 0.764147
0.222409 0.427353 0.748447
0.220495 0.427596 0.731949
0.222619 0.427422 0.715046
0.222678 0.427411 0.698215
0.220004 0.427312 0.682697
0.219648 0.427255 0.666283
0.222383 0.427286 0.647533
0.222481 0.427272 0.633963
0.220210 0.427289 0.617025
0.222282 0.426985 0.600407
0.221040 0.428623 0.583431
0.221048 0.428593 0.567154
0.221075 0.428000 0.551347
0.221079 0.428855 0.534580
0.205457 0.437382 0.517853
0.221088 0.430245 0.517560
0.221140 0.430624 0.501487
0.205542 0.437533 0.501733
0.221195 0.431001 0.485614
0.205376 0.437677 0.485670
0.221165 0.432374 0.468657
0.207103 0.438549 0.469132
0.208393 0.439252 0.452657
0.221121 0.433497 0.452140
0.221119 0.433725 0.436399
0.207072 0.439153 0.436405
0.221120 0.434126 0.420174
0.206792 0.439221 0.420059
0.210046 0.440209 0.403335
0.221091 0.435470 0.402798
0.211916 0.440783 0.386790
0.221075 0.436255 0.385825
0.221090 0.435608 0.370276
0.210652 0.440212 0.370713
0.221099 0.436107 0.353372
0.211224 0.440372 0.353490
0.212683 0.440989 0.343952
0.220132 0.438217 0.336813
0.213940 0.441630 0.331968
0.221236 0.435303 0.272673
0.211734 0.440377 0.272658
0.212276 0.440694 0.283465
0.219871 0.437667 0.287936
0.210098 0.439585 0.256240
0.221196 0.433858 0.256263
0.221127 0.432885 0.239764
0.208024 0.438715 0.239753
0.221125 0.431741 0.222828
0.206836 0.438185 0.222879
0.221122 0.429911 0.205752
0.222745 0.427287 0.188352
0.218823 0.426304 0.173964
0.215393 0.425491 0.156830
0.213763 0.425038 0.145734
0.213185 0.441192 0.945167
0.212968 0.441077 0.936091
0.214436 0.441795 0.318135
0.214009 0.441496 0.302017
0.213466 0.441230 0.292507
0.236320 -0.404423 0.420460
0.229303 -0.408116 0.426054
0.222766 -0.412000 0.420406
0.229947 -0.408489 0.415047
0.237954 -0.395969 0.972201
0.238729 -0.383254 0.980251
0.230012 -0.392073 0.726829
0.229281 -0.391567 0.737839
0.222801 -0.395305 0.732271
0.236400 -0.387201 0.732240
0.238771 -0.368204 0.981407
0.244826 -0.373369 0.982451
0.244832 -0.376753 0.982451
0.238071 -0.352282 0.977772
0.237940 -0.335924 0.973364
0.236609 -0.318478 0.969357
0.230332 -0.312386 0.966450
0.233897 -0.303560 0.965474
0.242079 -0.303488 0.967519
0.236748 -0.287114 0.964818
0.244912 -0.287048 0.966809
0.236551 -0.270519 0.965140
0.244719 -0.270440 0.966971
0.239047 -0.255176 0.964485
0.245285 -0.261235 0.966865
0.237847 -0.237777 0.961497
0.237827 -0.221176 0.960466
0.237828 -0.204483 0.960888
0.237902 -0.188042 0.961815
0.237977 -0.171703 0.963027
0.233713 -0.171890 -0.914756
0.230013 -0.180719 -0.915985
0.237964 -0.155308 0.963738
0.239005 -0.157161 -0.913287
0.237942 -0.138973 0.964059
0.237646 -0.139869 -0.910160
0.237973 -0.122805 0.963546
0.237576 -0.123556 -0.911338
0.237983 -0.106524 0.962566
0.237519 -0.107373 -0.912192
0.237946 -0.089947 0.962324
0.237498 -0.091353 -0.911803
0.237923 -0.073519 0.960456
0.237507 -0.075198 -0.911480
0.237939 -0.057386 0.956226
0.237533 -0.058861 -0.911720
0.238783 -0.041375 0.953065
0.237519 -0.042536 -0.912267
0.233834 -0.036069 0.952297
0.238709 -0.025247 0.952455
0.244789 -0.031256 0.952573
0.237460 -0.026262 -0.913039
0.237853 -0.008371 0.951365
0.238031 -0.009187 -0.915338
0.239377 0.007959 0.949738
0.232887 0.001464 -0.916377
0.239338 0.023263 0.949944
0.245872 0.013589 0.951782
0.245861 0.017530 0.951788
0.230939 0.002031 -0.297054
0.226535 0.007535 -0.302640
0.228361 0.012738 -0.294223
0.236882 0.007475 -0.291834
0.238743 0.007425 -0.924021
0.226344 0.012381 -0.918612
0.232968 0.022826 -0.929817
0.224814 0.035241 0.951469
0.237773 0.034879 0.951578
0.229670 0.031955 -0.932676
0.237828 0.056334 0.956421
0.237763 0.043080 0.953751
0.232389 0.038175 -0.941302
0.226060 0.042890 -0.935840
0.230958 0.051370 -0.947395
0.237933 0.072593 0.959514
0.231020 0.051471 -0.952546
0.224819 0.056721 -0.958943
0.237989 0.089051 0.962738
0.237353 0.104965 0.965254
0.236114 0.088135 -0.290065
0.222076 0.088101 -0.300182
0.228279 0.093140 -0.294272
0.229765 0.082143 -0.295524
0.231482 0.118490 0.965880
0.237421 0.123036 0.966923
0.242391 0.110077 0.966855
0.236556 0.139004 0.966768
0.230061 0.145095 0.966075
0.232016 0.154474 0.965868
0.240190 0.154489 0.966700
0.237450 0.137552 -0.271063
0.221308 0.136909 -0.284093
0.227041 0.141944 -0.277356
0.230256 0.130969 -0.279684
0.238084 0.171528 0.965239
0.243488 0.166465 0.966404
0.238160 0.187201 0.963809
0.236405 0.169123 -0.253555
0.220608 0.169633 -0.267097
0.225745 0.174650 -0.259394
0.230661 0.163635 -0.263885
0.238144 0.203467 0.961744
0.231391 0.180698 -0.248368
0.225861 0.191684 -0.243597
0.237295 0.186480 -0.237963
0.236910 0.220903 0.956991
0.238357 0.203965 -0.222499
0.226850 0.209088 -0.228018
0.232356 0.198085 -0.232734
0.230562 0.227055 0.950865
0.226920 0.227065 0.950798
0.226920 0.231530 0.950876
0.230550 0.231551 0.950935
0.236832 0.236732 0.955884
0.239512 0.221476 -0.207169
0.227919 0.226404 -0.212528
0.233466 0.215372 -0.217291
0.237992 0.252668 0.959682
0.234689 0.231735 -0.201575
0.227819 0.242740 -0.195611
0.239140 0.237081 -0.190956
0.238023 0.269061 0.960718
0.238195 0.252950 -0.172881
0.226820 0.258214 -0.178151
0.232671 0.247221 -0.184382
0.237980 0.285544 0.958374
0.238100 0.269231 -0.155610
0.226497 0.274356 -0.160561
0.232816 0.263388 -0.166953
0.239382 0.303393 0.961483
0.232533 0.279353 -0.149412
0.226683 0.290352 -0.143248
0.237387 0.285085 -0.138764
0.234858 0.315536 0.964267
0.245787 0.309763 0.966302
0.239421 0.319969 0.967525
0.237602 0.306195 -0.110983
0.225396 0.306054 -0.123343
0.229020 0.309224 -0.115201
0.237136 0.297609 -0.123181
0.231420 0.294416 -0.132757
0.238051 0.334932 0.969566
0.238937 0.321953 -0.090315
0.227956 0.324890 -0.096835
0.237610 0.312920 -0.102293
0.238006 0.351389 0.970286
0.234436 0.329058 -0.084932
0.225526 0.340008 -0.075800
0.237557 0.334465 -0.072561
0.238044 0.367787 0.974231
0.236550 0.352747 -0.040810
0.225643 0.356512 -0.045104
0.236165 0.344597 -0.055807
0.229878 0.342935 -0.064978
0.237662 0.384125 0.980170
0.237589 0.366509 -0.009434
0.225340 0.372760 -0.009486
0.228373 0.374585 0.000032
0.237548 0.372163 0.006120
0.236631 0.361272 -0.024535
0.230532 0.359601 -0.034828
0.231942 0.395236 0.981931
0.242897 0.389604 0.982514
0.237682 0.400564 0.982598
0.235999 0.385313 0.044062
0.225427 0.389240 0.039134
0.237565 0.378388 0.024839
0.232180 0.376888 0.010967
0.238112 0.411808 0.982573
0.237550 0.399180 0.089890
0.224923 0.405690 0.089769
0.227318 0.407204 0.101779
0.236598 0.403554 0.107195
0.237911 0.395062 0.073879
0.232012 0.393076 0.058530
0.229535 0.391917 0.050971
0.239018 0.420556 0.975479
0.234043 0.426700 0.971193
0.236066 0.420158 0.748464
0.228859 0.424353 0.731904
0.228871 0.424383 0.743203
0.237576 0.418870 0.731886
0.229225 0.424536 0.720649
0.236072 0.420439 0.714842
0.229621 0.424746 0.708933
0.236074 0.420400 0.698008
0.228387 0.424083 0.682648
0.229344 0.424587 0.692579
0.237584 0.418204 0.682616
0.237567 0.417848 0.666267
0.228035 0.423857 0.666271
0.228849 0.424289 0.652313
0.235951 0.419986 0.647524
0.229420 0.424671 0.640353
0.235936 0.420148 0.633972
0.228559 0.424186 0.617063
0.229016 0.424413 0.629722
0.237564 0.418523 0.617055
0.236173 0.420148 0.600416
0.228657 0.424267 0.605967
0.229810 0.424818 0.594728
0.237525 0.417960 0.174124
0.227089 0.423530 0.174064
0.229343 0.424612 0.182437
0.236304 0.420971 0.188515
0.223683 0.421398 0.156404
0.237524 0.414562 0.156331
0.237969 0.410991 0.138948
0.232818 0.409769 0.122679
0.230494 0.408754 0.112939
0.236059 0.427779 0.959974
0.221417 0.436063 0.945192
0.236177 0.427870 0.945235
0.236575 0.427841 0.928691
0.236378 0.427731 0.912069
0.235371 0.427380 0.895493
0.233920 0.426862 0.879240
0.232362 0.426178 0.863022
0.231576 0.425731 0.846022
0.231113 0.425456 0.829097
0.230471 0.425176 0.813342
0.229973 0.424965 0.797527
0.229979 0.424956 0.780685
0.229957 0.424929 0.764126
0.229646 0.424776 0.753923
0.229627 0.424743 0.702812
0.229420 0.424671 0.639625
0.230510 0.425138 0.583221
0.230432 0.425105 0.566997
0.229746 0.424811 0.551452
0.230455 0.425139 0.534626
0.231770 0.425715 0.517472
0.232403 0.425941 0.501420
0.233036 0.426170 0.485638
0.234335 0.426666 0.468436
0.235575 0.427074 0.451879
0.236586 0.427386 0.436395
0.239056 0.427138 0.419987
0.237600 0.428319 0.402511
0.237609 0.428650 0.385340
0.237612 0.428387 0.370062
0.237611 0.428907 0.353374
0.237616 0.430451 0.335267
0.222698 0.437958 0.318072
0.237651 0.431197 0.318141
0.237740 0.430912 0.302314
0.222270 0.437833 0.302077
0.239307 0.428506 0.286512
0.236565 0.427803 0.272689
0.235194 0.427133 0.256270
0.235143 0.426991 0.239779
0.233945 0.426384 0.222805
0.231422 0.425380 0.205743
0.230041 0.424869 0.192502
0.252576 -0.404237 0.335947
0.244807 -0.407698 0.341040
0.238708 -0.411742 0.335344
0.246234 -0.408500 0.328965
0.254378 -0.385561 0.974578
0.248766 -0.393150 0.969812
0.246145 -0.392120 0.528117
0.244154 -0.391241 0.539314
0.238258 -0.394615 0.534144
0.252506 -0.388035 0.534253
0.253439 -0.367982 0.982538
0.254653 -0.376793 0.982473
0.247145 -0.362691 0.982312
0.249246 -0.352137 0.981330
0.257509 -0.351984 0.982635
0.254628 -0.336238 0.978599
0.260436 -0.341997 0.982580
0.254318 -0.319527 0.973841
0.254301 -0.303367 0.971218
0.254280 -0.286946 0.969963
0.254249 -0.270318 0.969974
0.254291 -0.254983 0.968308
0.248868 -0.250399 0.965756
0.254320 -0.236258 0.964970
0.259801 -0.240757 0.967182
0.255787 -0.220693 0.964579
0.253313 -0.204342 0.964496
0.262263 -0.214815 0.966448
0.261520 -0.204275 0.966693
0.251424 -0.187952 0.964951
0.259628 -0.187915 0.967219
0.250416 -0.171658 0.965303
0.258608 -0.171644 0.967282
0.254484 -0.155645 0.965101
0.260061 -0.161340 0.966755
0.254299 -0.138982 0.964075
0.247545 -0.152144 -0.915099
0.250022 -0.139235 -0.913698
0.254331 -0.122756 0.964018
0.254618 -0.121422 -0.915195
0.254359 -0.106404 0.963743
0.254019 -0.106698 -0.914036
0.254337 -0.089799 0.962676
0.254011 -0.090735 -0.913686
0.254325 -0.073410 0.960510
0.253999 -0.074683 -0.914042
0.254359 -0.057407 0.957899
0.255188 -0.057625 -0.915876
0.254354 -0.041159 0.955208
0.251492 -0.042262 -0.915917
0.254310 -0.028993 0.953084
0.249398 -0.026075 -0.916383
0.254260 -0.020685 0.951999
0.253106 -0.008914 0.951871
0.247608 -0.014101 -0.917020
0.246848 0.003014 0.951937
0.253154 0.007986 0.953851
0.257842 -0.004010 0.953136
0.243851 -0.003290 -0.919032
0.249073 -0.009099 -0.924816
0.246802 0.002539 -0.929374
0.252918 0.023203 0.954201
0.244271 0.010568 -0.941340
0.246854 0.002414 -0.941293
0.246211 -0.000228 -0.949682
0.238808 0.006484 -0.953371
0.246448 0.028404 0.951969
0.246424 0.032498 0.952129
0.252831 0.038719 0.954620
0.254225 0.056254 0.957638
0.254295 0.072613 0.960996
0.253810 0.089418 0.964582
0.248014 0.099162 0.965836
0.258925 0.095223 0.966794
0.253865 0.105102 0.967868
0.254475 0.121909 0.968848
0.247175 0.099815 -0.279382
0.238112 0.105180 -0.283682
0.244131 0.110733 -0.277392
0.253137 0.105353 -0.273304
0.254506 0.138046 0.967958
0.254481 0.154549 0.967641
0.254692 0.139116 -0.255382
0.244816 0.144272 -0.261868
0.248048 0.133268 -0.264510
0.253388 0.171610 0.967104
0.247272 0.177366 0.965946
0.249097 0.187244 0.965384
0.257235 0.187284 0.967156
0.253093 0.169652 -0.237167
0.242236 0.174683 -0.243157
0.246994 0.163682 -0.247355
0.250305 0.203495 0.964495
0.258484 0.203534 0.967732
0.248456 0.181302 -0.232114
0.243248 0.192293 -0.227662
0.254300 0.187254 -0.222109
0.249802 0.219921 0.963715
0.258044 0.219996 0.969084
0.255363 0.204741 -0.206934
0.244408 0.209855 -0.212593
0.249359 0.198849 -0.216896
0.249684 0.236337 0.963580
0.257947 0.236407 0.969191
0.256235 0.222079 -0.191434
0.245649 0.227618 -0.197344
0.250625 0.216618 -0.201671
0.254265 0.254113 0.964479
0.259650 0.249673 0.967669
0.251061 0.231467 -0.186055
0.243605 0.242470 -0.178858
0.256026 0.237482 -0.174054
0.255770 0.268838 0.964506
0.255181 0.253443 -0.157209
0.243729 0.258644 -0.161853
0.250141 0.247640 -0.167638
0.252531 0.285502 0.963626
0.260681 0.285489 0.967084
0.262107 0.274172 0.966216
0.254564 0.269573 -0.140016
0.243390 0.275065 -0.144882
0.249410 0.264073 -0.150911
0.249628 0.298801 0.964290
0.254789 0.303377 0.968554
0.249006 0.279815 -0.134187
0.242211 0.290820 -0.128123
0.253996 0.285627 -0.123179
0.254412 0.318522 0.972684
0.248342 0.294599 -0.117435
0.252418 0.300844 -0.105802
0.254445 0.335021 0.975809
0.254623 0.322936 -0.074163
0.245259 0.325912 -0.080143
0.252228 0.313661 -0.088833
0.245814 0.309909 -0.098342
0.255802 0.352331 0.978539
0.249813 0.328915 -0.069610
0.240692 0.339915 -0.059862
0.253198 0.334420 -0.056709
0.251724 0.367854 0.979807
0.262200 0.358409 0.982456
0.259936 0.367902 0.982532
0.252918 0.353168 -0.023764
0.241409 0.356575 -0.029233
0.252270 0.344643 -0.039973
0.245846 0.342840 -0.049947
0.248608 0.378760 0.981590
0.254242 0.384112 0.982658
0.253772 0.365842 0.008000
0.242995 0.374065 0.019053
0.252920 0.371546 0.025507
0.252912 0.360983 -0.007548
0.246971 0.359532 -0.018006
0.254506 0.400336 0.982757
0.253061 0.387594 0.075075
0.240129 0.388302 0.058741
0.243573 0.390547 0.069363
0.254944 0.380133 0.057799
0.250127 0.377467 0.042410
0.246976 0.376119 0.031712
0.254487 0.409618 0.982552
0.255326 0.396765 0.122231
0.240953 0.405150 0.122775
0.243708 0.407010 0.133866
0.252782 0.403441 0.140231
0.252075 0.394956 0.107397
0.249310 0.393555 0.090623
0.247218 0.392555 0.079799
0.254312 0.414484 0.974080
0.254060 0.417993 0.959964
0.244274 0.423567 0.959993
0.244406 0.423710 0.945237
0.253960 0.418169 0.945212
0.244789 0.423953 0.928655
0.253951 0.418323 0.928503
0.244579 0.423809 0.912033
0.253925 0.418173 0.911873
0.253870 0.417297 0.895515
0.243566 0.423139 0.895529
0.253836 0.415174 0.879335
0.242096 0.422095 0.879294
0.240526 0.420928 0.863060
0.255062 0.412008 0.863144
0.239730 0.420478 0.846157
0.253262 0.412281 0.846443
0.253503 0.412197 0.829781
0.239252 0.420406 0.829308
0.252429 0.411741 0.813685
0.238610 0.419974 0.813446
0.238134 0.419544 0.797549
0.251293 0.411315 0.797602
0.238135 0.419524 0.780907
0.251526 0.411305 0.781179
0.251668 0.411297 0.764735
0.238093 0.419516 0.764399
0.250807 0.411036 0.748342
0.250521 0.410973 0.731863
0.251380 0.411267 0.715063
0.251502 0.411173 0.698611
0.250435 0.410582 0.682599
0.250411 0.410450 0.666228
0.251741 0.410877 0.649453
0.252057 0.410971 0.633064
0.251413 0.410773 0.617016
0.252241 0.411101 0.600537
0.255221 0.411181 0.584302
0.238665 0.419978 0.583401
0.238574 0.419974 0.567148
0.255274 0.411172 0.566929
0.237922 0.419600 0.551425
0.253283 0.411386 0.551374
0.255181 0.411312 0.535580
0.238629 0.420001 0.534718
0.253804 0.413301 0.518280
0.239913 0.420780 0.517786
0.253851 0.413792 0.501926
0.240528 0.421230 0.501605
0.241181 0.421653 0.485612
0.253899 0.414267 0.485633
0.242474 0.422490 0.468653
0.253864 0.415687 0.468994
0.253832 0.417058 0.452571
0.243700 0.423325 0.452165
0.253852 0.417759 0.436465
0.244721 0.423986 0.436443
0.245447 0.424442 0.425293
0.252333 0.419733 0.419901
0.245907 0.424697 0.414305
0.254021 0.419452 0.272697
0.244756 0.424027 0.272683
0.245790 0.424632 0.280908
0.253440 0.421531 0.286547
0.253971 0.417907 0.256266
0.243384 0.423152 0.256256
0.253882 0.417291 0.239760
0.243314 0.423013 0.239771
0.242106 0.422332 0.222881
0.253877 0.416470 0.223026
0.239578 0.421010 0.205916
0.253887 0.414508 0.206267
0.253865 0.412670 0.190124
0.254242 0.410458 0.174975
0.248986 0.409597 0.156677
0.246698 0.408683 0.145440
0.246303 0.424866 0.402844
0.246621 0.424998 0.385873
0.246225 0.424811 0.370291
0.246582 0.424975 0.353526
0.248201 0.425740 0.335529
0.248963 0.426112 0.318467
0.248692 0.425958 0.302592
0.247636 0.425446 0.290371
0.268785 -0.385720 0.419733
0.261382 -0.391548 0.424909
0.255166 -0.394747 0.419771
0.262254 -0.392049 0.413952
0.265389 -0.367943 0.982545
0.263370 -0.376389 0.982461
0.262193 -0.375678 0.659888
0.261549 -0.375148 0.670867
0.255253 -0.379147 0.665784
0.268767 -0.369453 0.665760
0.271068 -0.352430 0.982757
0.271797 -0.336066 0.982751
0.266770 -0.331053 0.980430
0.271641 -0.320232 0.978610
0.277820 -0.326191 0.982543
0.270743 -0.303191 0.974534
0.270713 -0.286783 0.973203
0.270679 -0.270169 0.972896
0.270664 -0.253773 0.970796
0.270666 -0.238022 0.967675
0.270673 -0.229840 0.966277
0.270665 -0.224877 0.966304
0.270650 -0.216496 0.966529
0.270654 -0.204218 0.966856
0.272099 -0.187769 0.967137
0.268627 -0.171604 0.967302
0.265593 -0.161332 0.966762
0.270882 -0.155629 0.965267
0.270657 -0.138970 0.963955
0.270703 -0.122695 0.964002
0.270748 -0.106289 0.963836
0.262543 -0.106149 -0.917963
0.262172 -0.114536 -0.918997
0.270739 -0.089677 0.962420
0.262845 -0.090237 -0.917243
0.270740 -0.073326 0.960416
0.262719 -0.074266 -0.917675
0.270777 -0.057407 0.958277
0.262479 -0.062315 -0.918443
0.272374 -0.039544 0.954769
0.257572 -0.057321 -0.925387
0.262463 -0.062271 -0.920210
0.267943 -0.029295 0.953138
0.272311 -0.024016 0.951291
0.270694 -0.011034 0.951006
0.270778 0.007594 0.955066
0.270729 -0.003108 0.952886
0.270749 0.023640 0.956522
0.270645 0.039902 0.956742
0.270622 0.056252 0.958413
0.270666 0.072672 0.961264
0.262461 0.052903 -0.278689
0.255393 0.057461 -0.282321
0.261919 0.063896 -0.278136
0.268863 0.057508 -0.271883
0.271892 0.089515 0.964723
0.271973 0.104505 0.967921
0.267243 0.095262 0.966799
0.270867 0.121979 0.969085
0.270882 0.138097 0.968252
0.269069 0.119643 -0.252946
0.253610 0.120604 -0.266428
0.258907 0.125390 -0.259644
0.262791 0.114677 -0.262568
0.270843 0.154605 0.967932
0.270971 0.139135 -0.238869
0.261435 0.145051 -0.245513
0.264559 0.134046 -0.248852
0.270797 0.171131 0.967991
0.270818 0.187353 0.968110
0.263589 0.164671 -0.231037
0.259297 0.175704 -0.227150
0.269810 0.169868 -0.220656
0.270867 0.203594 0.969231
0.270821 0.187555 -0.205819
0.260176 0.193230 -0.211982
0.265064 0.182275 -0.216421
0.270928 0.220061 0.971831
0.271108 0.204401 -0.190379
0.261454 0.210682 -0.196745
0.265663 0.199696 -0.201137
0.270941 0.236461 0.972328
0.265751 0.216586 -0.185531
0.261955 0.227592 -0.180292
0.271606 0.221524 -0.174123
0.269765 0.254148 0.968466
0.266649 0.232484 -0.169400
0.261039 0.243481 -0.163274
0.272222 0.238005 -0.157920
0.263550 0.260483 0.965972
0.263531 0.263227 0.965976
0.269681 0.268829 0.967147
0.271782 0.253698 -0.141209
0.260216 0.259213 -0.146016
0.266899 0.248222 -0.152579
0.270690 0.285519 0.969321
0.270830 0.269389 -0.124027
0.259722 0.275068 -0.129241
0.265737 0.264075 -0.135102
0.270710 0.302064 0.972926
0.265026 0.280461 -0.118176
0.259064 0.291454 -0.113196
0.270608 0.285740 -0.107024
0.270803 0.318568 0.976998
0.265334 0.296070 -0.101685
0.256539 0.307086 -0.094077
0.269807 0.301397 -0.088996
0.270863 0.335057 0.980004
0.270450 0.321437 -0.057987
0.260578 0.325351 -0.063805
0.269373 0.313426 -0.071544
0.263411 0.311076 -0.082632
0.270879 0.346656 0.981811
0.269212 0.333700 -0.039531
0.256627 0.339918 -0.044434
0.265229 0.328941 -0.053285
0.270892 0.354862 0.982513
0.270889 0.367805 0.982748
