0.559693 -0.048094 0.034457
0.565606 -0.045840 0.105018
0.556880 -0.035131 0.095986
0.567422 -0.036960 0.089796
0.562882 -0.032257 0.085082
0.561117 -0.031957 0.019083
0.572077 -0.035930 0.015867
0.566251 -0.026428 0.012983
0.565952 -0.026626 0.072265
0.558106 -0.018067 0.064279
0.564538 -0.016116 0.054591
0.565866 -0.011082 0.039340
0.565801 -0.008094 0.024178
0.553603 -0.004070 0.024179
0.565708 -0.012830 0.012956
0.549411 -0.009379 0.015424
0.583525 -0.651436 0.007001
0.573358 -0.653859 0.013242
0.567253 -0.659807 0.007066
0.578511 -0.656361 0.002702
0.580530 -0.628646 0.037278
0.575334 -0.638490 0.031324
0.574553 -0.622033 0.047476
0.580009 -0.612413 0.053897
0.583124 -0.632239 -0.018877
0.578310 -0.627324 -0.013583
0.589182 -0.623862 -0.016462
0.583694 -0.617794 -0.007562
0.580847 -0.596946 0.067986
0.574449 -0.605764 0.064069
0.577996 -0.611192 0.002364
0.582227 -0.600874 0.008092
0.588893 -0.607596 -0.001161
0.573556 -0.588970 0.079996
0.582235 -0.586152 0.077059
0.575318 -0.593852 0.017951
0.581203 -0.583932 0.021863
0.586252 -0.589325 0.014165
0.582233 -0.578013 0.084946
0.573521 -0.572355 0.096256
0.582296 -0.568940 0.093150
0.583557 -0.548611 0.108653
0.571688 -0.554253 0.111359
0.582327 -0.560581 0.099708
0.581866 -0.571716 0.030783
0.581871 -0.563428 0.036645
0.583619 -0.532656 0.121926
0.570130 -0.536882 0.126944
0.578868 -0.543351 0.115908
0.576547 -0.545231 0.052013
0.581967 -0.550910 0.045198
0.581918 -0.534639 0.054876
0.587458 -0.540135 0.049099
0.577368 -0.526016 0.131457
0.581602 -0.514737 0.137035
0.574836 -0.507894 0.146439
0.581188 -0.497457 0.147988
0.576539 -0.513201 0.068929
0.581941 -0.518480 0.063071
0.581996 -0.501833 0.071819
0.587557 -0.507293 0.065678
0.569733 -0.486152 0.159754
0.581246 -0.481437 0.155662
0.578210 -0.466117 0.164686
0.575034 -0.475206 0.162648
0.576448 -0.480996 0.085073
0.581901 -0.486038 0.079540
0.587387 -0.472215 0.081657
0.581909 -0.467591 0.086520
0.569922 -0.453219 0.176107
0.582223 -0.449504 0.169984
0.574672 -0.442352 0.179088
0.577146 -0.433508 0.180746
0.580342 -0.450898 0.093425
0.573864 -0.444404 0.100023
0.584571 -0.436020 0.096373
0.576388 -0.435962 0.101251
0.567941 -0.417213 0.191788
0.582847 -0.415717 0.182437
0.580298 -0.419547 0.103184
0.588495 -0.419599 0.098927
0.582304 -0.401023 0.185682
0.570481 -0.401066 0.193503
0.583502 -0.404277 0.104138
0.590071 -0.410682 0.099906
0.581148 -0.384505 0.190397
0.572365 -0.389799 0.194824
0.574863 -0.378994 0.196723
0.577302 -0.368674 0.198159
0.579613 -0.352347 0.199364
0.581315 -0.370980 0.112605
0.575435 -0.366090 0.117201
0.584968 -0.353714 0.113412
0.576755 -0.353764 0.117966
0.579865 -0.336005 0.199292
0.577373 -0.337070 0.118585
0.585637 -0.336998 0.114060
0.582880 -0.319162 0.199537
0.577856 -0.320693 0.118837
0.586111 -0.320672 0.114501
0.570004 -0.303614 0.210459
0.582237 -0.303862 0.202982
0.578733 -0.304592 0.118845
0.586926 -0.304666 0.114963
0.570509 -0.287467 0.210683
0.582183 -0.287654 0.203335
0.585970 -0.288261 0.114477
0.577757 -0.288218 0.118404
0.582055 -0.271255 0.201674
0.569076 -0.271147 0.209553
0.574878 -0.271675 0.117337
0.583153 -0.271607 0.113228
0.582071 -0.254984 0.201411
0.568784 -0.254978 0.209417
0.573723 -0.255324 0.116703
0.581988 -0.255251 0.112471
0.568306 -0.238848 0.209543
0.582178 -0.238768 0.201632
0.580405 -0.240062 0.112497
0.573850 -0.246180 0.116651
0.582658 -0.223509 0.199242
0.576993 -0.206065 0.197709
0.574486 -0.196490 0.196551
0.576427 -0.189701 0.101717
0.588145 -0.202033 0.099014
0.582352 -0.206890 0.103701
0.584659 -0.189783 0.097193
0.572329 -0.185671 0.195188
0.580956 -0.190514 0.191167
0.568881 -0.173534 0.192797
0.582979 -0.173427 0.184026
0.580396 -0.175030 0.094407
0.573924 -0.181375 0.100205
0.577889 -0.159991 0.181394
0.573804 -0.148984 0.178951
0.582950 -0.155517 0.175764
0.582830 -0.140365 0.168107
0.569881 -0.140696 0.176634
0.581481 -0.140424 0.078774
0.586839 -0.153216 0.081504
0.581569 -0.158051 0.087108
0.575778 -0.145699 0.085209
0.577748 -0.127707 0.164852
0.582912 -0.123082 0.158370
0.573435 -0.116911 0.161828
0.581109 -0.109067 0.149726
0.576111 -0.113650 0.068842
0.587074 -0.120335 0.065374
0.581670 -0.125183 0.071154
0.581736 -0.107980 0.061623
0.574798 -0.099217 0.146607
0.580552 -0.092943 0.136461
0.575345 -0.082144 0.130477
0.568711 -0.071259 0.126213
0.581730 -0.075662 0.121025
0.577171 -0.064225 0.115212
0.576327 -0.064619 0.034619
0.587280 -0.068844 0.031515
0.581846 -0.074328 0.038732
0.581973 -0.059002 0.027336
0.582835 -0.058506 0.105244
0.570769 -0.053351 0.110505
0.577533 -0.048562 0.099521
0.582764 -0.045174 0.088917
0.583666 -0.037045 0.073745
0.573795 -0.034815 0.080338
0.579031 -0.031961 0.069260
0.569083 -0.021026 0.059394
0.582634 -0.026354 0.055816
0.575287 -0.017726 0.048462
0.579053 -0.016243 0.039277
0.583786 -0.014085 0.025436
0.582135 -0.014756 0.012732
0.599068 -0.650444 -0.008856
0.589411 -0.653548 -0.003172
0.583434 -0.659238 -0.008216
0.593581 -0.655970 -0.012631
0.599650 -0.630216 0.022591
0.586350 -0.634956 0.027308
0.581728 -0.642413 0.021925
0.593787 -0.639705 0.016496
0.594386 -0.624079 0.032693
0.585551 -0.618806 0.043748
0.600180 -0.614585 0.039556
0.594935 -0.608193 0.049403
0.585463 -0.602116 0.060385
0.599662 -0.598353 0.055708
0.598449 -0.620949 -0.018300
0.598392 -0.613198 -0.012377
0.593270 -0.591247 0.065290
0.598454 -0.581345 0.071570
0.598388 -0.604097 -0.004484
0.598337 -0.595735 0.001841
0.597347 -0.563815 0.087164
0.592524 -0.574713 0.081373
0.599521 -0.584034 0.011313
0.594748 -0.578308 0.018748
0.598398 -0.567665 0.025139
0.605706 -0.575264 0.016106
0.597496 -0.547563 0.100645
0.591163 -0.557016 0.097069
0.591028 -0.559956 0.034360
0.597250 -0.550847 0.037660
0.601978 -0.556167 0.031756
0.589824 -0.539344 0.112609
0.598850 -0.535573 0.109511
0.599334 -0.515938 0.124214
0.588397 -0.521592 0.127869
0.598873 -0.527312 0.116019
0.598873 -0.534615 0.046893
0.593670 -0.529103 0.052012
0.598911 -0.518847 0.054995
0.604755 -0.524756 0.049789
0.597954 -0.498035 0.136786
0.585883 -0.501958 0.142631
0.594060 -0.510752 0.131584
0.590805 -0.491006 0.146021
0.594143 -0.482604 0.147748
0.598616 -0.501755 0.063351
0.593242 -0.496299 0.068344
0.604249 -0.490996 0.065826
0.598629 -0.485420 0.070717
0.586442 -0.466153 0.159471
0.600030 -0.466953 0.150842
0.598681 -0.450799 0.157616
0.589799 -0.456654 0.161603
0.590607 -0.461255 0.083398
0.597083 -0.467535 0.078125
0.601747 -0.455411 0.080305
0.597117 -0.450979 0.084241
0.598588 -0.432416 0.165698
0.585412 -0.433628 0.174643
0.592896 -0.445867 0.163850
0.588666 -0.420168 0.177222
0.597301 -0.415985 0.172006
0.590714 -0.409268 0.178896
0.591494 -0.400987 0.179482
0.593648 -0.384663 0.181214
0.597620 -0.404262 0.096852
0.591423 -0.399555 0.100516
0.594255 -0.386468 0.101608
0.602623 -0.386413 0.097803
0.596772 -0.368576 0.183928
0.585601 -0.368610 0.192443
0.605456 -0.374346 0.099457
0.599345 -0.369437 0.103122
0.587882 -0.352311 0.194135
0.600385 -0.353171 0.184680
0.588174 -0.335947 0.194183
0.598922 -0.335767 0.186264
0.597452 -0.319079 0.189388
0.588880 -0.323983 0.194617
0.591802 -0.304028 0.196930
0.590888 -0.313458 0.196140
0.591974 -0.287756 0.197126
0.590909 -0.271188 0.196246
0.590734 -0.254884 0.196155
0.591018 -0.238715 0.196471
0.604621 -0.239048 0.099124
0.606244 -0.251521 0.099909
0.599851 -0.256119 0.103419
0.596376 -0.239026 0.103649
0.590785 -0.229686 0.196329
0.601482 -0.222572 0.097596
0.593206 -0.222567 0.102014
0.588500 -0.218690 0.194755
0.597344 -0.223359 0.190499
0.600568 -0.204125 0.183854
0.585319 -0.205933 0.192937
0.590916 -0.212942 0.100528
0.597306 -0.206889 0.095810
0.596252 -0.189607 0.182069
0.592629 -0.178838 0.180327
0.598401 -0.173522 0.173903
0.588946 -0.167931 0.177669
0.598520 -0.158064 0.166334
0.597513 -0.158123 0.078260
0.602402 -0.170835 0.081518
0.597527 -0.175228 0.085720
0.591391 -0.164240 0.084387
0.592822 -0.145599 0.163986
0.598610 -0.140290 0.156665
0.588751 -0.134720 0.161021
0.597829 -0.125834 0.148755
0.591210 -0.131230 0.067731
0.602392 -0.136131 0.064812
0.597466 -0.141256 0.069838
0.597431 -0.125128 0.061814
0.591539 -0.115248 0.146681
0.585774 -0.104351 0.142427
0.597867 -0.108802 0.137067
0.593200 -0.097683 0.131378
0.596862 -0.092863 0.044133
0.601256 -0.104457 0.048175
0.596820 -0.109039 0.053221
0.590282 -0.099354 0.050632
0.586337 -0.086680 0.126780
0.599263 -0.091345 0.121648
0.594347 -0.080119 0.115805
0.599962 -0.074408 0.105795
0.588104 -0.069246 0.110957
0.594570 -0.063743 0.100043
0.599737 -0.058468 0.089288
0.588456 -0.052838 0.094543
0.593892 -0.048888 0.083636
0.590947 -0.050347 0.016558
0.602029 -0.053404 0.014158
0.597276 -0.058766 0.020338
0.597396 -0.043983 0.010940
0.599162 -0.045617 0.072365
0.600406 -0.037073 0.056949
0.589978 -0.035086 0.063374
0.595989 -0.031817 0.052326
0.587287 -0.020251 0.039160
0.600334 -0.028335 0.040853
0.599051 -0.021115 0.025097
0.590289 -0.018430 0.031275
0.593794 -0.016849 0.021347
0.593663 -0.016906 0.014566
0.616148 -0.630488 0.006588
0.604757 -0.636006 0.010977
0.599327 -0.642618 0.005627
0.609473 -0.639174 0.000411
0.616555 -0.617747 0.023214
0.605328 -0.620734 0.029270
0.611812 -0.625117 0.018286
0.615341 -0.601407 0.042857
0.605904 -0.605229 0.046667
0.615352 -0.609162 0.034673
0.614432 -0.615201 -0.021123
0.608413 -0.609896 -0.015735
0.619358 -0.604847 -0.018726
0.613306 -0.598971 -0.010769
0.615304 -0.593210 0.050370
0.604313 -0.587845 0.062082
0.616624 -0.582119 0.059257
0.606823 -0.592459 -0.000489
0.617894 -0.587024 -0.005171
0.613261 -0.582514 0.002680
0.612017 -0.577078 0.066982
0.603558 -0.570455 0.078011
0.616335 -0.566217 0.072680
0.614566 -0.548140 0.087854
0.602116 -0.552587 0.093103
0.609702 -0.559386 0.081994
0.610440 -0.564268 0.020262
0.615481 -0.568968 0.012141
0.614905 -0.551339 0.025773
0.621325 -0.557460 0.015644
0.608509 -0.541694 0.098060
0.613332 -0.530335 0.103450
0.608473 -0.545175 0.035719
0.619372 -0.537764 0.031007
0.614316 -0.533199 0.037972
0.607253 -0.523779 0.113192
0.611154 -0.515611 0.115975
0.605196 -0.505040 0.127764
0.616387 -0.500731 0.121921
0.614757 -0.518893 0.045407
0.609261 -0.513788 0.052422
0.620066 -0.505078 0.048212
0.614750 -0.500439 0.054562
0.609492 -0.494147 0.131032
0.602388 -0.482693 0.142336
0.615070 -0.481898 0.133525
0.614967 -0.467160 0.140767
0.606187 -0.472921 0.145019
0.614033 -0.485407 0.061323
0.608066 -0.479985 0.068037
0.618458 -0.468803 0.063307
0.610383 -0.468766 0.069857
0.609375 -0.462055 0.146938
0.612754 -0.450191 0.148690
0.621052 -0.455911 0.065271
0.614036 -0.450212 0.073578
0.603907 -0.436826 0.159603
0.615277 -0.434032 0.153436
0.607008 -0.444507 0.082334
0.616250 -0.436088 0.076948
0.608161 -0.436109 0.084022
0.608367 -0.417908 0.163315
0.607258 -0.426332 0.162624
0.610294 -0.419713 0.086511
0.618410 -0.419659 0.079614
0.599828 -0.401057 0.172668
0.610227 -0.401192 0.164393
0.620070 -0.403077 0.080582
0.612006 -0.403044 0.087606
0.602054 -0.384632 0.174189
0.612310 -0.384706 0.165920
0.621502 -0.389355 0.081626
0.615700 -0.384897 0.088122
0.616276 -0.368259 0.167965
0.605091 -0.368600 0.177262
0.613992 -0.353258 0.173418
0.606902 -0.359317 0.179302
0.606934 -0.363537 0.100385
0.613421 -0.369412 0.093694
0.615507 -0.353711 0.093543
0.607392 -0.353710 0.100720
0.607703 -0.348224 0.179603
0.608027 -0.335657 0.179494
0.608075 -0.336992 0.100994
0.616129 -0.337106 0.093683
0.608956 -0.319655 0.180244
0.609131 -0.320740 0.101859
0.617194 -0.320824 0.094650
0.610560 -0.304153 0.182271
0.600070 -0.304116 0.190582
0.618250 -0.304783 0.096366
0.610106 -0.304838 0.102652
0.610723 -0.287708 0.182198
0.600274 -0.287738 0.190508
0.609699 -0.288312 0.102197
0.617853 -0.288276 0.096300
0.599358 -0.270879 0.189083
0.609868 -0.270600 0.180732
0.608084 -0.271329 0.100941
0.616190 -0.271430 0.094841
0.599167 -0.254604 0.189720
0.610520 -0.254356 0.181379
0.613424 -0.256135 0.094910
0.607052 -0.261968 0.100102
0.611645 -0.238631 0.182635
0.599329 -0.238658 0.190922
0.610765 -0.222176 0.181700
0.613649 -0.222630 0.089298
0.622865 -0.231755 0.083605
0.616419 -0.237912 0.090036
0.621772 -0.222692 0.082434
0.608939 -0.208440 0.179956
0.619480 -0.206176 0.080044
0.611419 -0.206073 0.087175
0.607285 -0.197522 0.178859
0.614779 -0.204105 0.174574
0.604571 -0.189565 0.177163
0.616135 -0.189632 0.168455
0.616565 -0.189961 0.077764
0.608477 -0.189920 0.084825
0.610678 -0.173674 0.165450
0.606751 -0.181759 0.083691
0.614058 -0.175408 0.074830
0.607837 -0.164378 0.163305
0.618472 -0.157160 0.063425
0.621392 -0.169033 0.066073
0.610345 -0.157193 0.070213
0.603898 -0.153147 0.159869
0.614896 -0.157694 0.153812
0.610192 -0.140521 0.147968
0.607781 -0.147135 0.067679
0.614957 -0.140346 0.058610
0.607295 -0.132264 0.145783
0.610570 -0.124094 0.053641
0.622145 -0.133555 0.050184
0.618735 -0.124011 0.048414
0.602618 -0.121519 0.142670
0.614212 -0.125419 0.136834
0.610304 -0.113234 0.131720
0.613596 -0.109043 0.044445
0.607258 -0.115412 0.051326
0.615563 -0.107810 0.124221
0.604193 -0.102402 0.127422
0.615274 -0.096593 0.115934
0.605336 -0.085051 0.111595
0.615286 -0.088389 0.108381
0.615289 -0.079996 0.100147
0.607698 -0.082504 0.033464
0.618674 -0.088021 0.030747
0.613845 -0.092643 0.035621
0.614621 -0.075517 0.024550
0.605541 -0.068746 0.095033
0.615994 -0.071757 0.089128
0.610982 -0.064128 0.084016
0.610456 -0.064330 0.018594
0.621422 -0.068736 0.014957
0.615568 -0.058978 0.011787
0.604859 -0.053216 0.077964
0.615863 -0.058820 0.072944
0.609793 -0.049154 0.067003
0.615242 -0.045463 0.055634
0.616015 -0.037344 0.040902
0.606877 -0.034730 0.047475
0.611064 -0.032463 0.036694
0.615928 -0.030076 0.024067
0.614966 -0.030799 0.011562
0.598787 -0.025893 0.010887
0.631927 -0.629895 -0.009961
0.620509 -0.635571 -0.005878
0.615335 -0.641452 -0.010531
0.625059 -0.638700 -0.015858
0.632697 -0.617609 0.007207
0.622703 -0.620965 0.013440
0.627793 -0.624616 0.002628
0.629367 -0.595467 0.036938
0.623951 -0.605892 0.031300
0.623732 -0.589629 0.047580
0.630155 -0.580496 0.051064
0.630826 -0.599441 -0.021734
0.624829 -0.594018 -0.016040
0.629595 -0.582209 -0.010925
0.635741 -0.587999 -0.019645
0.632989 -0.566638 0.060615
0.622925 -0.572905 0.063386
0.623108 -0.575985 -0.000456
0.635115 -0.567737 -0.004257
0.626871 -0.567635 0.002834
0.628417 -0.562022 0.067417
0.620629 -0.554505 0.078387
0.632947 -0.550239 0.073054
0.632494 -0.552811 0.009613
0.638930 -0.559032 -0.000631
0.631486 -0.532517 0.088392
0.619452 -0.536818 0.093591
0.626612 -0.543670 0.082573
0.626061 -0.546504 0.019787
0.630063 -0.533271 0.024920
0.636895 -0.539741 0.015401
0.625549 -0.525922 0.097970
0.619271 -0.515794 0.109812
0.631223 -0.515683 0.101402
0.623254 -0.526789 0.034224
0.625911 -0.518276 0.036495
0.633967 -0.518390 0.029984
0.623272 -0.507308 0.112922
0.632571 -0.501015 0.109867
0.637432 -0.507557 0.032832
0.630462 -0.500812 0.041979
0.631392 -0.482796 0.120921
0.620341 -0.486811 0.126973
0.627733 -0.496402 0.116019
0.623447 -0.494133 0.050993
0.625589 -0.485277 0.052577
0.633706 -0.485305 0.046265
0.627148 -0.466752 0.132032
0.624185 -0.475874 0.130042
0.629148 -0.468800 0.055287
0.637227 -0.468839 0.049205
0.620812 -0.450354 0.143710
0.632428 -0.450968 0.135179
0.631156 -0.452517 0.058972
0.638936 -0.460047 0.050744
0.623285 -0.441842 0.145691
0.631195 -0.435624 0.141727
0.623407 -0.445018 0.067248
0.625191 -0.436028 0.069029
0.633272 -0.435986 0.062663
0.627792 -0.417978 0.148780
0.616486 -0.417932 0.156980
0.625543 -0.431071 0.147237
0.627845 -0.419580 0.071516
0.635964 -0.419513 0.064718
0.630231 -0.401613 0.150515
0.618314 -0.401313 0.158508
0.637776 -0.403110 0.066252
0.629736 -0.403090 0.072747
0.620405 -0.384858 0.160196
0.633122 -0.386755 0.151668
0.630975 -0.385784 0.074923
0.638791 -0.393178 0.067105
0.622342 -0.373372 0.161649
0.630377 -0.368496 0.157194
0.623146 -0.378416 0.083305
0.631826 -0.370182 0.076886
0.623736 -0.370166 0.084158
0.624832 -0.352521 0.163718
0.624117 -0.362693 0.163140
0.624524 -0.353734 0.085224
0.632616 -0.353759 0.077686
0.625982 -0.336018 0.164290
0.616107 -0.335808 0.172439
0.624778 -0.337263 0.085431
0.632770 -0.337372 0.078012
0.617046 -0.319758 0.173456
0.627030 -0.319915 0.165286
0.633767 -0.321033 0.079002
0.625759 -0.320954 0.086424
0.618738 -0.304128 0.174992
0.627638 -0.304109 0.166604
0.635594 -0.304669 0.080629
0.627480 -0.304724 0.088120
0.627879 -0.287698 0.166901
0.618898 -0.287691 0.175273
0.627792 -0.288253 0.088059
0.635907 -0.288231 0.081086
0.627760 -0.270878 0.166212
0.617978 -0.270697 0.174379
0.634778 -0.271775 0.080502
0.626747 -0.271622 0.086616
0.618653 -0.254462 0.174892
0.628360 -0.254669 0.166670
0.633522 -0.255423 0.079269
0.625473 -0.255278 0.085560
0.619826 -0.238681 0.176213
0.629258 -0.238786 0.167806
0.630222 -0.238007 0.078468
0.624187 -0.242583 0.084715
0.628446 -0.222381 0.167229
0.618906 -0.222256 0.175517
0.626489 -0.205822 0.165440
0.628247 -0.206262 0.072072
0.638207 -0.218599 0.066640
0.632183 -0.223526 0.073171
0.636274 -0.206339 0.065219
0.624872 -0.194939 0.163899
0.625593 -0.189985 0.069715
0.633671 -0.190001 0.063252
0.622055 -0.184388 0.161460
0.630716 -0.189783 0.156645
0.618845 -0.173649 0.158854
0.631138 -0.175236 0.150005
0.630034 -0.174154 0.061559
0.623862 -0.179933 0.068164
0.625501 -0.162157 0.147800
0.631135 -0.156825 0.140863
0.621923 -0.151080 0.144688
0.618282 -0.140563 0.141974
0.631200 -0.141644 0.133506
0.625387 -0.144631 0.052546
0.636180 -0.153436 0.048792
0.630954 -0.158227 0.054659
0.630919 -0.139661 0.047009
0.625691 -0.129365 0.131102
0.621237 -0.118480 0.127930
0.631312 -0.123878 0.124741
0.630452 -0.108104 0.116280
0.624163 -0.099256 0.113460
0.631698 -0.091078 0.025507
0.634895 -0.104426 0.031457
0.630148 -0.108962 0.035455
0.623954 -0.098868 0.033528
0.629893 -0.092707 0.103620
0.624661 -0.082698 0.097402
0.632842 -0.074569 0.013446
0.639271 -0.083539 0.016242
0.628397 -0.079437 0.019593
0.630737 -0.079931 0.087948
0.632876 -0.071031 0.072994
0.621914 -0.068579 0.078888
0.628224 -0.064449 0.067999
0.620726 -0.053553 0.061141
0.632756 -0.058700 0.056796
0.626367 -0.049096 0.050195
0.631730 -0.046604 0.038828
0.631414 -0.039025 0.024087
0.621979 -0.035710 0.029558
0.625855 -0.033304 0.019451
0.625750 -0.033345 0.014126
0.649353 -0.614560 -0.008686
0.638702 -0.620494 -0.003377
0.643008 -0.623972 -0.013972
0.646168 -0.595348 0.020372
0.634949 -0.601119 0.025774
0.630485 -0.608725 0.021195
0.640251 -0.605692 0.015065
0.646564 -0.579860 0.037516
0.634705 -0.585155 0.042799
0.640980 -0.590246 0.031947
0.641055 -0.574405 0.048305
0.647120 -0.564258 0.051449
0.646880 -0.582919 -0.023416
0.640600 -0.577189 -0.016573
0.651560 -0.570878 -0.020563
0.646674 -0.566349 -0.013429
0.649135 -0.550449 0.060355
0.639300 -0.556735 0.063489
0.644333 -0.545918 0.067652
0.637465 -0.539009 0.078676
0.649082 -0.534206 0.073017
0.648526 -0.552665 -0.004455
0.643570 -0.548061 0.003484
0.647595 -0.535113 0.008727
0.654513 -0.541399 -0.001525
0.642832 -0.528225 0.083278
0.636350 -0.521087 0.094187
0.647453 -0.516057 0.088004
0.640631 -0.528773 0.018916
0.651587 -0.521416 0.013979
0.646658 -0.516905 0.020951
0.641086 -0.510141 0.097997
0.644332 -0.499798 0.100954
0.638653 -0.489710 0.112036
0.648761 -0.484640 0.105552
0.647011 -0.501955 0.028519
0.641260 -0.496474 0.035672
0.644640 -0.485288 0.037975
0.652812 -0.485306 0.032012
0.642014 -0.478784 0.114795
0.635226 -0.466903 0.126112
0.645266 -0.466905 0.117820
0.648993 -0.470002 0.040572
0.655451 -0.476290 0.033998
0.648427 -0.451990 0.121839
0.638371 -0.456761 0.128818
0.643231 -0.434401 0.132693
0.640896 -0.445911 0.130930
0.647307 -0.453633 0.047177
0.641673 -0.449075 0.052512
0.652732 -0.438644 0.048705
0.647387 -0.434310 0.053775
0.635891 -0.417981 0.143304
0.646232 -0.417988 0.135046
0.649437 -0.402827 0.136122
0.638237 -0.401827 0.145492
0.646851 -0.386964 0.141391
0.639421 -0.393448 0.146578
0.640629 -0.382505 0.147458
0.642149 -0.369205 0.148489
0.646362 -0.387182 0.063333
0.640098 -0.382194 0.067957
0.641567 -0.370215 0.068735
0.649776 -0.370247 0.063702
0.632931 -0.352681 0.157631
0.643523 -0.352862 0.149572
0.650959 -0.353815 0.064503
0.642744 -0.353773 0.069449
0.644253 -0.336546 0.150789
0.633986 -0.336310 0.158822
0.651311 -0.337245 0.064799
0.643004 -0.337372 0.069856
0.645301 -0.320275 0.151532
0.635053 -0.320134 0.159611
0.643824 -0.320994 0.070851
0.652130 -0.320843 0.065233
0.635790 -0.304088 0.159793
0.646643 -0.304060 0.151662
0.645425 -0.304612 0.072393
0.653657 -0.304576 0.065958
0.647085 -0.287714 0.151870
0.636025 -0.287713 0.160044
0.654070 -0.288156 0.066133
0.645831 -0.288185 0.072841
0.646771 -0.271295 0.152010
0.635799 -0.271132 0.160240
0.653258 -0.271671 0.065609
0.644959 -0.271772 0.072305
0.647024 -0.255105 0.152431
0.636434 -0.254915 0.160637
0.643572 -0.255475 0.071088
0.651841 -0.255429 0.064731
0.637426 -0.238878 0.160957
0.647379 -0.238996 0.152830
0.641314 -0.239207 0.069040
0.649521 -0.239260 0.063370
0.646186 -0.222666 0.152068
0.636552 -0.222519 0.160182
0.646131 -0.223603 0.062491
0.639801 -0.229569 0.067755
0.643691 -0.206272 0.150333
0.634478 -0.206058 0.158363
0.640997 -0.189957 0.148155
0.645348 -0.189969 0.055027
0.655484 -0.198579 0.050921
0.648946 -0.204986 0.056539
0.653618 -0.189947 0.049548
0.639635 -0.181747 0.146873
0.650124 -0.173669 0.046937
0.641901 -0.173642 0.052761
0.647064 -0.175066 0.137342
0.636307 -0.170831 0.143825
0.642924 -0.157126 0.132449
0.646198 -0.158274 0.044597
0.639885 -0.164543 0.051187
0.640127 -0.147888 0.130606
0.647707 -0.140782 0.121418
0.636406 -0.136792 0.127703
0.644275 -0.123840 0.116495
0.641568 -0.123874 0.035066
0.653058 -0.136380 0.032233
0.647510 -0.141308 0.037669
0.649851 -0.124039 0.029997
0.641371 -0.113627 0.114181
0.647196 -0.108288 0.024900
0.639639 -0.115166 0.033348
0.635132 -0.102902 0.109835
0.647139 -0.108605 0.103802
0.641943 -0.097001 0.098827
0.648621 -0.090043 0.013090
0.654655 -0.101525 0.014696
0.643680 -0.094285 0.019986
0.646960 -0.092532 0.087130
0.635587 -0.086312 0.092898
0.641006 -0.082410 0.082104
0.647124 -0.079660 0.071127
0.649130 -0.071070 0.057034
0.639126 -0.067869 0.063472
0.644342 -0.063907 0.052451
0.648518 -0.059230 0.006763
0.653331 -0.070603 -0.000072
0.647805 -0.075716 0.005874
0.653267 -0.065815 0.000081
0.637294 -0.052998 0.043924
0.648059 -0.059250 0.039581
0.640839 -0.050134 0.033201
0.643806 -0.047616 0.023425
0.643847 -0.047551 0.011068
0.631233 -0.042461 0.009561
0.666433 -0.598878 -0.008250
0.655595 -0.604643 -0.002814
0.660146 -0.608380 -0.013658
0.662929 -0.579308 0.020518
0.651994 -0.585226 0.025957
0.656757 -0.589429 0.015194
0.666851 -0.582378 -0.031815
0.667101 -0.590634 -0.031329
0.663361 -0.597191 -0.026434
0.658729 -0.582958 -0.029865
0.657977 -0.574377 0.032397
0.652042 -0.568821 0.043372
0.663168 -0.563519 0.037667
0.670328 -0.572731 -0.031786
0.663665 -0.566716 -0.025384
0.657244 -0.558107 0.048182
0.663428 -0.548035 0.051230
0.656462 -0.559904 -0.017118
0.668623 -0.551092 -0.020065
0.660345 -0.551164 -0.013901
0.665278 -0.533962 0.059830
0.655323 -0.540163 0.063223
0.665660 -0.536746 -0.007991
0.672198 -0.542801 -0.017747
0.664647 -0.516924 0.072230
0.653832 -0.521858 0.078328
0.660243 -0.529253 0.067330
0.658884 -0.530397 0.001902
0.662958 -0.517255 0.007554
0.669864 -0.524070 -0.002661
0.658028 -0.510939 0.081770
0.652513 -0.499978 0.093259
0.663906 -0.498696 0.084162
0.655968 -0.510383 0.017639
0.667391 -0.501793 0.013760
0.659159 -0.501802 0.019760
0.655479 -0.490529 0.096034
0.664587 -0.484500 0.091847
0.664969 -0.485856 0.023362
0.671025 -0.491761 0.016610
0.659155 -0.479575 0.099097
0.653570 -0.466903 0.110609
0.664655 -0.465659 0.101344
0.655998 -0.458067 0.112883
0.664141 -0.451844 0.107864
0.663769 -0.469926 0.030258
0.658027 -0.465255 0.035893
0.661407 -0.452254 0.038002
0.669694 -0.452204 0.032297
0.661696 -0.434389 0.117167
0.651515 -0.434388 0.125452
0.658295 -0.447228 0.114819
0.663959 -0.435624 0.042326
0.672122 -0.443481 0.034026
0.654508 -0.418024 0.128130
0.666010 -0.419298 0.119172
0.655891 -0.427738 0.050787
0.665411 -0.419486 0.046134
0.657229 -0.419442 0.051666
0.656004 -0.408934 0.129445
0.663542 -0.402729 0.124490
0.659904 -0.402830 0.053151
0.668183 -0.402797 0.048088
0.658686 -0.385446 0.131626
0.657302 -0.398035 0.130490
0.662178 -0.386416 0.054301
0.670473 -0.386370 0.049697
0.660588 -0.369354 0.133059
0.650379 -0.369280 0.141489
0.671671 -0.374166 0.050545
0.665318 -0.369407 0.054705
0.651751 -0.352941 0.142520
0.661756 -0.353023 0.134115
0.652575 -0.336489 0.143207
0.662154 -0.336379 0.134725
0.665354 -0.318427 0.134440
0.653622 -0.320184 0.144143
0.664491 -0.303938 0.137822
0.654878 -0.304013 0.145359
0.655325 -0.287681 0.145719
0.664492 -0.287623 0.138525
0.655076 -0.271268 0.145378
0.664567 -0.271165 0.137583
0.664545 -0.255077 0.138166
0.655302 -0.255133 0.145589
0.664458 -0.239102 0.138859
0.655588 -0.239080 0.145904
0.670224 -0.239364 0.049724
0.671783 -0.248924 0.050673
0.665447 -0.254660 0.055994
0.662014 -0.239309 0.055200
0.654434 -0.222727 0.144964
0.665739 -0.222098 0.135645
0.667929 -0.222888 0.048424
0.659686 -0.222847 0.053652
0.652014 -0.206265 0.143139
0.662310 -0.206214 0.134526
0.657656 -0.209580 0.052238
0.663533 -0.204973 0.047719
0.659540 -0.189866 0.132300
0.649298 -0.189926 0.140917
0.657390 -0.179316 0.130625
0.663511 -0.173730 0.124287
0.654522 -0.168391 0.128597
0.651232 -0.157069 0.126151
0.664199 -0.158019 0.117224
0.667296 -0.157207 0.031150
0.669939 -0.170790 0.032787
0.664291 -0.175215 0.037841
0.659014 -0.157186 0.036225
0.658560 -0.144767 0.114969
0.656910 -0.147391 0.034692
0.663145 -0.141429 0.028784
0.665296 -0.139097 0.105736
0.655297 -0.133729 0.112180
0.660707 -0.124068 0.100891
0.652559 -0.123933 0.109136
0.657537 -0.114541 0.097812
0.664640 -0.107394 0.011644
0.670368 -0.118967 0.014045
0.664563 -0.124322 0.020800
0.659327 -0.112364 0.018257
0.652878 -0.103682 0.092271
0.662912 -0.109411 0.086718
0.657292 -0.098895 0.081323
0.651969 -0.088054 0.075805
0.662686 -0.093575 0.070311
0.657116 -0.083064 0.064775
0.657489 -0.081458 0.002290
0.668577 -0.087953 -0.001925
0.663488 -0.092736 0.004375
0.663543 -0.075851 -0.001810
0.663353 -0.080320 0.054496
0.664286 -0.072381 0.040087
0.655276 -0.068302 0.046122
0.658696 -0.065592 0.035299
0.652046 -0.054706 0.023193
0.664235 -0.063606 0.021982
0.664244 -0.062535 0.007819
0.664175 -0.065961 -0.000457
0.683177 -0.582911 -0.008029
0.672577 -0.588704 -0.002180
0.677226 -0.592797 -0.013123
0.676532 -0.563895 0.021563
0.668987 -0.568796 0.026240
0.673328 -0.573206 0.015379
0.677045 -0.547773 0.038347
0.668257 -0.552545 0.043200
0.673803 -0.558033 0.032214
0.680977 -0.566469 -0.032774
0.675844 -0.562000 -0.029783
0.686736 -0.555380 -0.032104
0.681024 -0.550611 -0.027244
0.673485 -0.541908 0.048355
0.676794 -0.532757 0.051240
0.671250 -0.522843 0.062609
0.681956 -0.517596 0.056500
0.681210 -0.536318 -0.020895
0.676086 -0.531865 -0.014139
0.680554 -0.518588 -0.009746
0.686966 -0.523866 -0.019188
0.675524 -0.511959 0.066207
0.669039 -0.503267 0.077164
0.679652 -0.498122 0.070773
0.673897 -0.513031 0.001278
0.676422 -0.501830 0.004874
0.684647 -0.502004 -0.004941
0.672914 -0.492272 0.080449
0.675254 -0.483721 0.082904
0.680502 -0.485602 0.008905
0.687071 -0.490438 -0.001725
0.679911 -0.465735 0.087852
0.670181 -0.470328 0.094578
0.673940 -0.480747 0.019040
0.675479 -0.468733 0.020967
0.683583 -0.468968 0.011256
0.673129 -0.459281 0.096836
0.674974 -0.450713 0.098498
0.685375 -0.452551 0.013519
0.677310 -0.452296 0.023850
0.678130 -0.434597 0.102484
0.669950 -0.434472 0.110712
0.680560 -0.436641 0.026377
0.687210 -0.440732 0.016022
0.680951 -0.418881 0.105335
0.672485 -0.425649 0.113201
0.673884 -0.432679 0.035983
0.675388 -0.419503 0.037839
0.683489 -0.419543 0.028429
0.673796 -0.414662 0.114271
0.675215 -0.401671 0.115193
0.684970 -0.402999 0.030084
0.676910 -0.402866 0.039763
0.667009 -0.385389 0.124704
0.677012 -0.385390 0.116528
0.678262 -0.386438 0.041367
0.686321 -0.386574 0.031645
0.678640 -0.369494 0.118536
0.668840 -0.369446 0.126670
0.687522 -0.373581 0.033058
0.679969 -0.368501 0.042535
0.679969 -0.353162 0.119635
0.670015 -0.353114 0.127753
0.672385 -0.363510 0.051099
0.680892 -0.353929 0.042883
0.672768 -0.353947 0.051433
0.670523 -0.336282 0.127634
0.682463 -0.336514 0.118539
0.681470 -0.337088 0.043026
0.673403 -0.336960 0.051875
0.671518 -0.322573 0.128269
0.679391 -0.318362 0.123074
0.673765 -0.320480 0.052292
0.681827 -0.320635 0.043292
0.673965 -0.303926 0.130661
0.672878 -0.311943 0.129604
0.681943 -0.304586 0.043615
0.673831 -0.304524 0.052509
0.674471 -0.287634 0.130981
0.682029 -0.288196 0.043437
0.673929 -0.288129 0.052591
0.673930 -0.271106 0.130189
0.673890 -0.271498 0.052495
0.683205 -0.271442 0.041162
0.674370 -0.255045 0.130621
0.673290 -0.259412 0.051853
0.678789 -0.254695 0.044154
0.687876 -0.255439 0.033528
0.688499 -0.265917 0.034261
0.674718 -0.239143 0.131151
0.678536 -0.239314 0.041385
0.686685 -0.239265 0.032226
0.674042 -0.227249 0.130656
0.677273 -0.222867 0.040060
0.685417 -0.222840 0.030497
0.672175 -0.216136 0.129055
0.680056 -0.222061 0.124167
0.670657 -0.206163 0.127873
0.681862 -0.206906 0.118695
0.676016 -0.206286 0.038538
0.684139 -0.206313 0.028476
0.667845 -0.189821 0.126116
0.678282 -0.189719 0.117894
0.683245 -0.188827 0.024754
0.673873 -0.189953 0.035988
0.675554 -0.173478 0.115603
0.672328 -0.181703 0.034392
0.677911 -0.175170 0.026521
0.687501 -0.173530 0.015929
0.688479 -0.182621 0.016969
0.673400 -0.164258 0.113916
0.686196 -0.157168 0.013837
0.677939 -0.157189 0.022340
0.669575 -0.153182 0.110335
0.679827 -0.158704 0.103888
0.675333 -0.144418 0.099257
0.676093 -0.140771 0.019658
0.684383 -0.140864 0.010957
0.672028 -0.133504 0.095839
0.681253 -0.139920 0.089126
0.675941 -0.124309 0.084381
0.668977 -0.124190 0.092644
0.680706 -0.124899 0.007310
0.673933 -0.129978 0.017106
0.673552 -0.115134 0.081142
0.676144 -0.108283 0.003683
0.687280 -0.119988 -0.001924
0.684456 -0.108454 -0.003980
0.668262 -0.104318 0.075866
0.676118 -0.109173 0.071085
0.673491 -0.099142 0.064941
0.673441 -0.098942 0.001286
0.679719 -0.092818 -0.004533
0.668081 -0.088245 0.059143
0.676148 -0.093035 0.054523
0.673194 -0.083342 0.048310
0.675129 -0.081246 0.039330
0.669640 -0.069964 0.026575
0.677437 -0.075545 0.021869
0.672946 -0.067126 0.015873
0.673238 -0.066897 0.007663
0.672995 -0.067108 0.000024
0.699009 -0.566249 -0.008676
0.688951 -0.572088 -0.002344
0.693635 -0.576812 -0.013299
0.698307 -0.549507 0.007364
0.688364 -0.555197 0.013651
0.685689 -0.565915 0.007221
0.693230 -0.561272 0.002571
0.698087 -0.533404 0.024099
0.689084 -0.540203 0.030803
0.685952 -0.549398 0.024332
0.692352 -0.544494 0.019904
0.696495 -0.549647 -0.033970
0.690692 -0.544898 -0.030514
0.701784 -0.534060 -0.033181
0.693671 -0.534393 -0.028422
0.698051 -0.516884 0.039977
0.688377 -0.523098 0.046496
0.685787 -0.533980 0.040332
0.692867 -0.529351 0.035477
0.704203 -0.524740 -0.031984
0.697453 -0.519071 -0.024739
0.692267 -0.512275 0.050390
0.686435 -0.503833 0.061324
0.696385 -0.498708 0.054811
0.690290 -0.512903 -0.016475
0.693726 -0.502005 -0.013623
0.701951 -0.502089 -0.020329
0.692077 -0.484067 0.066677
0.683385 -0.483925 0.074860
0.689545 -0.493101 0.064373
0.704745 -0.493173 -0.018086
0.697283 -0.486398 -0.008867
0.696723 -0.467357 0.071756
0.686758 -0.472105 0.078058
0.689729 -0.479433 0.001241
0.691240 -0.469128 0.002648
0.699419 -0.469285 -0.005086
0.690002 -0.461267 0.081149
0.683041 -0.451054 0.091308
0.692047 -0.451421 0.083107
0.693901 -0.452710 0.004977
0.702023 -0.452888 -0.002404
0.686245 -0.434813 0.094067
0.694762 -0.435029 0.085923
0.696892 -0.436284 0.009083
0.704149 -0.442896 -0.000313
0.696991 -0.418168 0.088680
0.688159 -0.423065 0.095850
0.689620 -0.429699 0.018753
0.698959 -0.419679 0.012246
0.690824 -0.419575 0.020136
0.691035 -0.402025 0.098889
0.683275 -0.401856 0.107096
0.689568 -0.412086 0.097439
0.700291 -0.403288 0.013519
0.692208 -0.403121 0.021836
0.685073 -0.385542 0.109280
0.693260 -0.385704 0.101089
0.701520 -0.386881 0.014810
0.693448 -0.386713 0.023418
0.686778 -0.369527 0.111034
0.694927 -0.369557 0.102769
0.693770 -0.369047 0.027016
0.703065 -0.370397 0.016305
0.698224 -0.352080 0.102826
0.688120 -0.353168 0.112413
0.688826 -0.362760 0.034464
0.688840 -0.353886 0.034509
0.696038 -0.353920 0.026178
0.704033 -0.353943 0.017162
0.695804 -0.336669 0.107428
0.688816 -0.342282 0.113232
0.688936 -0.337202 0.034694
0.696489 -0.337391 0.026150
0.704347 -0.337569 0.017390
0.689454 -0.331067 0.113838
0.690003 -0.320068 0.114434
0.696790 -0.320999 0.026167
0.689148 -0.320787 0.034959
0.704435 -0.321196 0.017485
0.682071 -0.304015 0.123386
0.690543 -0.304109 0.115244
0.697038 -0.304724 0.026216
0.689527 -0.304627 0.035246
0.704334 -0.304808 0.017480
0.690734 -0.287792 0.115586
0.682554 -0.287719 0.123715
0.689368 -0.288234 0.035082
0.696644 -0.288327 0.026221
0.704068 -0.288415 0.017261
0.690733 -0.271256 0.115505
0.681952 -0.271195 0.123454
0.694206 -0.271660 0.027750
0.688786 -0.276887 0.034586
0.703587 -0.272021 0.016796
0.682418 -0.255065 0.123873
0.691101 -0.255061 0.115835
0.694786 -0.255516 0.025289
0.702896 -0.255620 0.016154
0.682833 -0.239079 0.124367
0.691349 -0.239007 0.116133
0.693593 -0.239237 0.023980
0.701749 -0.239225 0.015155
0.690395 -0.222571 0.114981
0.692373 -0.222829 0.022180
0.700533 -0.222827 0.013767
0.689422 -0.212905 0.113730
0.699280 -0.206400 0.012118
0.691134 -0.206357 0.020016
0.687909 -0.201915 0.111860
0.693976 -0.206820 0.105916
0.686461 -0.189604 0.110281
0.693416 -0.189542 0.102038
0.695997 -0.188833 0.012129
0.689935 -0.193556 0.018376
0.683778 -0.173342 0.107716
0.691427 -0.173224 0.099400
0.689737 -0.164134 0.097369
0.703662 -0.157208 -0.002278
0.705232 -0.165448 -0.000858
0.698618 -0.171928 0.006393
0.695391 -0.157164 0.005244
0.686249 -0.153268 0.093372
0.693050 -0.158010 0.088239
0.690708 -0.146315 0.082400
0.692161 -0.140929 0.002891
0.700529 -0.141034 -0.004964
0.696625 -0.141496 0.071566
0.687169 -0.135516 0.077943
0.684300 -0.123993 0.072374
0.691639 -0.129206 0.067086
0.689951 -0.130890 0.000768
0.697541 -0.124132 -0.008440
0.687846 -0.118355 0.062423
0.697420 -0.124292 0.056176
0.692228 -0.112396 0.051486
0.684902 -0.107446 0.056491
0.699082 -0.108525 -0.008321
0.704759 -0.117705 -0.016185
0.704746 -0.115590 -0.016101
0.688152 -0.101510 0.045664
0.696866 -0.109060 0.038369
0.683931 -0.092522 0.039781
0.690527 -0.098341 0.034667
0.686578 -0.086985 0.022881
0.692390 -0.095226 0.022935
0.688383 -0.084542 0.012865
0.693993 -0.090855 0.007412
0.682665 -0.076983 0.007717
0.689571 -0.083253 0.003123
0.689525 -0.083277 -0.001707
0.679294 -0.077032 -0.002530
0.714049 -0.548392 -0.010373
0.704199 -0.554469 -0.003739
0.708773 -0.560246 -0.014663
0.708161 -0.543713 0.001167
0.703296 -0.537397 0.012281
0.713252 -0.531223 0.005605
0.707263 -0.526555 0.017457
0.703790 -0.521483 0.028344
0.710722 -0.515935 0.022849
0.709969 -0.499259 0.039037
0.703230 -0.504243 0.044475
0.707274 -0.510657 0.033488
0.707485 -0.513918 -0.030040
0.713099 -0.518448 -0.035110
0.719014 -0.501567 -0.033420
0.710909 -0.501844 -0.027297
0.708712 -0.483968 0.050751
0.700296 -0.484108 0.059062
0.706364 -0.493624 0.048192
0.721326 -0.493140 -0.031913
0.714356 -0.487857 -0.024263
0.703526 -0.473363 0.062170
0.713314 -0.467024 0.055190
0.706941 -0.482213 -0.015909
0.709601 -0.469241 -0.014008
0.717901 -0.469220 -0.020630
0.706617 -0.462516 0.065448
0.700147 -0.451634 0.075885
0.708590 -0.451594 0.067701
0.714128 -0.452868 -0.012143
0.720215 -0.458371 -0.018590
0.702884 -0.435197 0.078559
0.711670 -0.435069 0.070254
0.704472 -0.424189 0.080036
0.713841 -0.419565 0.072495
0.712518 -0.436919 -0.005260
0.706474 -0.431748 0.002025
0.708122 -0.419713 0.003465
0.716392 -0.419716 -0.003946
0.707109 -0.402416 0.083076
0.699093 -0.402251 0.091164
0.705935 -0.413282 0.081517
0.718353 -0.403291 -0.002210
0.710087 -0.403303 0.004701
0.708996 -0.386040 0.085271
0.701341 -0.385912 0.093387
0.712022 -0.386871 0.005917
0.720284 -0.386858 -0.000717
0.703086 -0.369600 0.094864
0.710980 -0.369601 0.086726
0.721263 -0.377725 0.000040
0.714750 -0.371485 0.006512
0.711084 -0.352067 0.089835
0.704352 -0.356858 0.095899
0.705843 -0.336673 0.097944
0.705559 -0.345833 0.097228
0.706286 -0.320393 0.098584
0.698117 -0.320229 0.106779
0.698728 -0.304193 0.106790
0.706555 -0.304265 0.098510
0.698913 -0.287872 0.106925
0.706575 -0.287934 0.098646
0.706315 -0.271472 0.098770
0.698855 -0.271368 0.106985
0.706403 -0.255152 0.098827
0.699251 -0.255100 0.107057
0.699566 -0.238934 0.106732
0.706443 -0.238881 0.098442
0.720698 -0.239222 -0.001214
0.721377 -0.248065 -0.000592
0.714755 -0.254344 0.005923
0.712425 -0.239194 0.005892
0.699434 -0.222800 0.103949
0.705938 -0.228483 0.097573
0.719111 -0.222845 -0.002718
0.710802 -0.222799 0.004553
0.704553 -0.217471 0.096073
0.710945 -0.222831 0.089892
0.709725 -0.206061 0.086287
0.703098 -0.205949 0.094415
0.717231 -0.206464 -0.004507
0.708850 -0.206393 0.003074
0.707834 -0.189601 0.084075
0.701580 -0.189521 0.092169
0.715953 -0.190078 -0.005795
0.707540 -0.189928 0.002027
0.700144 -0.172887 0.088106
0.706512 -0.178153 0.082271
0.712735 -0.172048 -0.005825
0.706540 -0.176369 0.000766
0.713020 -0.174098 0.071987
0.704516 -0.167251 0.079503
0.708404 -0.156962 0.068111
0.701821 -0.156922 0.076393
0.706392 -0.147446 0.065099
0.710106 -0.141139 -0.013212
0.720472 -0.152154 -0.018462
0.714425 -0.157399 -0.011567
0.718347 -0.141276 -0.019152
0.702587 -0.136676 0.060893
0.709677 -0.141592 0.055546
0.707291 -0.130216 0.049896
0.713885 -0.122756 -0.011703
0.718341 -0.128134 -0.018454
0.703184 -0.119442 0.042092
0.708663 -0.124811 0.037651
0.705594 -0.116631 0.031099
0.700639 -0.106566 0.022884
0.706905 -0.114764 0.022862
0.703004 -0.103060 0.006746
0.709665 -0.111311 0.006595
0.710703 -0.112492 -0.008893
0.708644 -0.115624 -0.016232
0.729028 -0.530112 -0.012065
0.719162 -0.535898 -0.005765
0.723832 -0.542095 -0.016565
0.726369 -0.515534 0.002737
0.718991 -0.515681 0.011074
0.722965 -0.524932 -0.000893
0.721751 -0.507046 0.014411
0.731472 -0.501312 0.007734
0.730158 -0.483534 0.022916
0.721426 -0.490635 0.030124
0.719176 -0.500963 0.023936
0.724966 -0.496312 0.019162
0.724357 -0.479850 0.034147
0.720009 -0.471558 0.045175
0.717597 -0.484742 0.039478
0.726461 -0.466473 0.039549
0.724148 -0.482273 -0.030231
0.729683 -0.486534 -0.035250
0.735476 -0.468819 -0.033711
0.727341 -0.469007 -0.027897
0.722554 -0.460580 0.048242
0.716884 -0.451315 0.058539
0.724564 -0.451018 0.050314
0.737523 -0.459995 -0.032343
0.730282 -0.453896 -0.024906
0.730320 -0.433849 0.053027
0.719965 -0.434891 0.062032
0.722496 -0.447313 -0.016860
0.724720 -0.436164 -0.015171
0.733095 -0.436107 -0.021538
0.721782 -0.425849 0.063839
0.729147 -0.419483 0.058866
0.736011 -0.419576 -0.019235
0.727758 -0.419602 -0.013033
0.722915 -0.414903 0.064914
0.715374 -0.402266 0.074586
0.724141 -0.402051 0.066150
0.731115 -0.403648 -0.012268
0.737534 -0.409367 -0.018117
0.726030 -0.385724 0.067877
0.717247 -0.385937 0.076281
0.730580 -0.368349 0.068988
0.719197 -0.369563 0.078303
0.720615 -0.353154 0.079643
0.730123 -0.353050 0.071626
0.728665 -0.371484 -0.005119
0.722361 -0.366705 0.001158
0.731350 -0.353882 -0.005568
0.723021 -0.353868 0.001535
0.721209 -0.336752 0.079930
0.731624 -0.337578 0.070211
0.731936 -0.337458 -0.005460
0.723571 -0.337451 0.001384
0.730233 -0.321888 0.072614
0.721508 -0.326931 0.080153
0.732126 -0.321102 -0.005310
0.723760 -0.321099 0.001530
0.722938 -0.304332 0.081767
0.714725 -0.304314 0.090008
0.715764 -0.321095 0.087573
0.722362 -0.316158 0.081086
0.723612 -0.304777 0.001921
0.731947 -0.304789 -0.005081
0.714761 -0.287973 0.089854
0.722757 -0.287994 0.081578
0.723380 -0.288369 0.001699
0.731731 -0.288381 -0.005286
0.714554 -0.271504 0.089197
0.722053 -0.271543 0.080733
0.731340 -0.271917 -0.006009
0.722918 -0.271920 0.000934
0.722052 -0.255212 0.080661
0.714635 -0.255182 0.089092
0.728696 -0.254261 -0.005503
0.722284 -0.258950 0.000243
0.722155 -0.244381 0.080755
0.715891 -0.238922 0.087301
0.721619 -0.233536 0.080264
0.728660 -0.238959 0.074400
0.720245 -0.222583 0.078959
0.730858 -0.223610 0.069507
0.718006 -0.206162 0.076793
0.726448 -0.206184 0.068403
0.728663 -0.206499 -0.013355
0.737968 -0.215232 -0.018319
0.731441 -0.221496 -0.012439
0.736924 -0.206584 -0.019048
0.723884 -0.189875 0.065983
0.716098 -0.189769 0.074410
0.726688 -0.190184 -0.014486
0.735031 -0.190307 -0.020351
0.722431 -0.180991 0.064367
0.724593 -0.173870 -0.015570
0.733023 -0.174005 -0.021496
0.726329 -0.174864 0.055783
0.719557 -0.170075 0.061256
0.717036 -0.156547 0.055810
0.724172 -0.161782 0.050289
0.722832 -0.163098 -0.016805
0.729067 -0.157558 -0.021793
0.727834 -0.156813 0.039950
0.720929 -0.150793 0.045915
0.717823 -0.140819 0.039972
0.724138 -0.146294 0.034908
0.719952 -0.135418 0.027464
0.726595 -0.141035 0.022270
0.722789 -0.131994 0.016475
0.715270 -0.125820 0.022303
0.717897 -0.121160 0.006396
0.725193 -0.129408 0.006317
0.730502 -0.127087 -0.010131
0.729868 -0.128616 -0.019137
0.738983 -0.524115 -0.017863
0.734722 -0.515421 -0.006477
0.742012 -0.515342 -0.014502
0.747643 -0.500348 -0.009540
0.737867 -0.506328 -0.002765
0.745799 -0.481346 0.005369
0.735958 -0.487242 0.012233
0.741401 -0.495485 0.001249
0.740846 -0.466815 0.018548
0.735396 -0.466992 0.026805
0.739192 -0.476363 0.015727
0.744009 -0.451223 0.023751
0.737542 -0.457259 0.029793
0.742387 -0.433568 0.039295
0.735894 -0.438575 0.044702
0.733377 -0.451482 0.039268
0.740226 -0.446320 0.033632
0.745664 -0.453445 -0.036545
0.739848 -0.448997 -0.030764
0.742076 -0.435910 -0.028870
0.750248 -0.435725 -0.035819
0.740319 -0.418148 0.049554
0.739192 -0.427718 0.048366
0.744306 -0.419451 -0.026716
0.752437 -0.419351 -0.034040
0.732386 -0.401867 0.059033
0.741567 -0.401662 0.050916
0.753724 -0.407799 -0.033005
0.746462 -0.403250 -0.025398
0.743088 -0.385331 0.052416
0.734282 -0.385535 0.060528
0.738669 -0.398417 -0.017263
0.739638 -0.386741 -0.016487
0.748112 -0.386798 -0.024155
0.736397 -0.372939 0.062422
0.744174 -0.368164 0.056563
0.749451 -0.370323 -0.022710
0.741015 -0.370286 -0.015314
0.738668 -0.353000 0.064400
0.738718 -0.362135 0.064467
0.750320 -0.353887 -0.021999
0.741899 -0.353844 -0.014542
0.738428 -0.343647 0.064144
0.742115 -0.337430 -0.014252
0.750502 -0.337524 -0.022038
0.738167 -0.332650 0.063879
0.746547 -0.337000 0.056081
0.738166 -0.327539 0.063867
0.747042 -0.321802 0.056306
0.742256 -0.321058 -0.014085
0.750642 -0.321137 -0.021893
0.739397 -0.316896 0.065064
0.731126 -0.304302 0.074431
0.740442 -0.304251 0.066206
0.750847 -0.304712 -0.021500
0.742435 -0.304712 -0.014013
0.740427 -0.287908 0.066118
0.730957 -0.287956 0.074356
0.750690 -0.288326 -0.021766
0.742254 -0.288310 -0.014226
0.739515 -0.271360 0.064999
0.730290 -0.271450 0.073252
0.750172 -0.271979 -0.022522
0.741735 -0.271871 -0.014759
0.730287 -0.255137 0.073136
0.739376 -0.255069 0.064868
0.749572 -0.255618 -0.023045
0.741096 -0.255491 -0.015397
0.739247 -0.238939 0.064807
0.748661 -0.239284 -0.023497
0.740108 -0.239181 -0.016337
0.738756 -0.229808 0.064321
0.745452 -0.221549 -0.023053
0.739039 -0.226145 -0.017355
0.736820 -0.218841 0.062627
0.743295 -0.223650 0.056681
0.734716 -0.206207 0.060555
0.741928 -0.206239 0.052463
0.740001 -0.194118 0.049968
0.732901 -0.189187 0.055561
0.747975 -0.192057 -0.027747
0.754412 -0.198848 -0.031868
0.747965 -0.205093 -0.026862
0.754412 -0.198495 -0.031863
0.737730 -0.183373 0.046486
0.742406 -0.189333 0.040408
0.740185 -0.176741 0.035451
0.735948 -0.172280 0.040294
0.738439 -0.165858 0.031003
0.742318 -0.172374 0.024495
0.735925 -0.156569 0.024425
0.740014 -0.161394 0.020045
0.737604 -0.150475 0.013486
0.742682 -0.156631 0.007324
0.733968 -0.140969 0.007255
0.740179 -0.146291 0.002601
0.736331 -0.135292 -0.005358
0.742501 -0.140971 -0.010572
0.739112 -0.131980 -0.015672
0.739055 -0.132018 -0.018594
0.754932 -0.507174 -0.033094
0.753645 -0.505092 -0.023306
0.748947 -0.513724 -0.027571
0.757915 -0.499423 -0.027634
0.756939 -0.494242 -0.015976
0.752415 -0.486404 -0.005238
0.759448 -0.481671 -0.010526
0.757092 -0.466547 0.000310
0.749104 -0.466666 0.008569
0.755397 -0.475444 -0.001476
0.752299 -0.450406 0.012115
0.760644 -0.450313 0.003787
0.754425 -0.441088 0.014312
0.763745 -0.435803 0.007122
0.758139 -0.417871 0.020728
0.753682 -0.417917 0.028895
0.751532 -0.435119 0.023071
0.756418 -0.430244 0.017673
0.758883 -0.402078 0.024431
0.754667 -0.407894 0.030763
0.755326 -0.396914 0.032043
0.751326 -0.385231 0.042430
0.750648 -0.402089 0.038392
0.756445 -0.385242 0.034106
0.761264 -0.402600 -0.037851
0.754840 -0.396912 -0.032100
0.755877 -0.386728 -0.031314
0.764062 -0.386626 -0.037912
0.753643 -0.369134 0.045790
0.758219 -0.369117 0.037566
0.765786 -0.370158 -0.036859
0.757610 -0.370230 -0.030115
0.758321 -0.353959 0.041107
0.754902 -0.360286 0.047538
0.758779 -0.353791 -0.029479
0.766939 -0.353729 -0.036055
0.755049 -0.341378 0.048069
0.748482 -0.354045 0.054415
0.755059 -0.349181 0.047938
0.759243 -0.337447 -0.029430
0.767371 -0.337389 -0.035520
0.754712 -0.330271 0.047794
0.758069 -0.336012 0.041165
0.754708 -0.326679 0.047832
0.758438 -0.320830 0.041205
0.759922 -0.321057 -0.029304
0.768036 -0.321006 -0.035043
0.755304 -0.316084 0.048531
0.748681 -0.304090 0.057399
0.755774 -0.303953 0.049073
0.768909 -0.304559 -0.034680
0.760788 -0.304615 -0.029084
0.755618 -0.287634 0.048825
0.748661 -0.287763 0.057144
0.760575 -0.288268 -0.029288
0.768694 -0.288238 -0.034776
0.755095 -0.277287 0.048098
0.748891 -0.271613 0.054542
0.759404 -0.271994 -0.029812
0.767526 -0.272013 -0.035179
0.754444 -0.266296 0.047093
0.758148 -0.271570 0.040785
0.754348 -0.254859 0.046697
0.758159 -0.254940 0.038464
0.766755 -0.255725 -0.035364
0.758612 -0.255674 -0.030206
0.757399 -0.238898 0.037469
0.754086 -0.238868 0.045648
0.766466 -0.239419 -0.035246
0.758288 -0.239361 -0.030607
0.755923 -0.222701 0.033967
0.752523 -0.222653 0.042225
0.757484 -0.223099 -0.031169
0.765671 -0.223142 -0.034682
0.754970 -0.214373 0.031389
0.749786 -0.207849 0.038001
0.760773 -0.204948 -0.031336
0.766929 -0.211134 -0.033760
0.756183 -0.208065 0.021964
0.752738 -0.203587 0.026757
0.749892 -0.191377 0.021938
0.755187 -0.197647 0.015724
0.757538 -0.191483 0.005727
0.752505 -0.186770 0.010855
0.755744 -0.180100 -0.000184
0.750041 -0.174358 0.005726
0.754609 -0.198499 -0.031872
0.761435 -0.192433 -0.026800
0.753048 -0.169099 -0.005349
0.757864 -0.174330 -0.010611
0.750868 -0.157651 -0.010739
0.755783 -0.163136 -0.016113
0.747004 -0.157877 -0.022566
0.755699 -0.163235 -0.019884
0.774189 -0.467563 -0.026317
0.770981 -0.473616 -0.020423
0.767463 -0.481917 -0.026173
0.771913 -0.475864 -0.030834
0.775135 -0.450298 -0.013042
0.768931 -0.450280 -0.004788
0.766385 -0.467612 -0.010665
0.772906 -0.462881 -0.016299
0.779438 -0.434102 -0.010273
0.771094 -0.441368 -0.002300
0.772769 -0.430546 -0.000163
0.766351 -0.417833 0.010197
0.774391 -0.417799 0.001700
0.773782 -0.418888 -0.046868
0.782755 -0.427522 -0.047464
0.779476 -0.434628 -0.042937
0.781854 -0.418537 -0.047689
0.776010 -0.401603 0.003186
0.767758 -0.401627 0.011649
0.775746 -0.402669 -0.046224
0.783816 -0.402374 -0.047901
0.769225 -0.388437 0.013044
0.776514 -0.383917 0.007027
0.784721 -0.386188 -0.048047
0.776657 -0.386406 -0.045369
0.771351 -0.377533 0.015036
0.766376 -0.369093 0.024332
0.764705 -0.383900 0.021575
0.771870 -0.369076 0.016130
0.777439 -0.370091 -0.044186
0.785499 -0.370011 -0.048033
0.772498 -0.352795 0.017348
0.767231 -0.352801 0.025564
0.777832 -0.353742 -0.043308
0.785873 -0.353739 -0.047991
0.772247 -0.336462 0.016785
0.766920 -0.336363 0.025133
0.778055 -0.337386 -0.042835
0.786083 -0.337370 -0.047872
0.772251 -0.320201 0.016843
0.767174 -0.320087 0.025186
0.786601 -0.327345 -0.047562
0.780361 -0.321634 -0.042962
0.767971 -0.303947 0.025855
0.772563 -0.303978 0.017660
0.772284 -0.287728 0.017172
0.767809 -0.287682 0.025356
0.771806 -0.275346 0.016071
0.767672 -0.270439 0.022202
0.779667 -0.269802 0.006897
0.770974 -0.264512 0.014608
0.770420 -0.255263 0.014125
0.777554 -0.255357 0.005658
0.775020 -0.239126 0.003827
0.768759 -0.239065 0.012414
