0.309601 -0.379322 0.067409
0.304502 -0.367597 0.071833
0.299610 -0.354742 0.076667
0.310674 -0.362815 0.080540
0.304576 -0.350662 0.080685
0.303603 -0.335952 0.081227
0.295734 -0.356782 0.051094
0.301702 -0.352285 0.052999
0.304028 -0.321660 0.081186
0.298706 -0.304288 0.080868
0.296218 -0.294575 0.080250
0.302463 -0.288174 0.074738
0.293655 -0.282809 0.078621
0.303390 -0.270645 0.071912
0.303435 -0.255005 0.069805
0.302945 -0.240200 0.066150
0.297134 -0.230421 0.064732
0.296930 -0.230532 0.061502
0.325224 -0.399418 0.070346
0.328090 -0.408701 0.062959
0.328130 -0.408696 0.064703
0.324029 -0.400117 0.057979
0.316659 -0.384763 0.072031
0.328068 -0.393220 0.080381
0.325462 -0.384682 0.081114
0.319270 -0.385421 0.055942
0.325232 -0.390830 0.050700
0.325354 -0.395165 0.050706
0.314126 -0.373249 0.077891
0.319692 -0.369007 0.081774
0.321351 -0.351974 0.081453
0.315478 -0.336730 0.080494
0.311523 -0.328194 0.080080
0.309772 -0.317457 0.077574
0.318542 -0.323057 0.071795
0.315649 -0.304354 0.068162
0.306901 -0.304317 0.075482
0.319301 -0.286462 0.066511
0.319674 -0.270971 0.067522
0.319930 -0.255594 0.066052
0.314601 -0.246110 0.064881
0.314354 -0.246253 0.062056
0.302643 -0.240422 0.059858
0.337342 -0.415481 0.059425
0.343530 -0.426975 0.061635
0.343602 -0.426976 0.066113
0.338466 -0.414647 0.070188
0.333646 -0.404341 0.074802
0.344828 -0.409390 0.080132
0.338310 -0.399933 0.080940
0.336580 -0.385544 0.082811
0.337838 -0.368897 0.082229
0.329893 -0.391271 0.050722
0.335413 -0.386554 0.053706
0.333156 -0.357123 0.081450
0.327489 -0.346005 0.079859
0.337549 -0.352635 0.077588
0.335981 -0.335481 0.069378
0.323482 -0.337310 0.076440
0.330453 -0.328695 0.066134
0.319637 -0.322217 0.064459
0.330389 -0.328703 0.066104
0.337139 -0.270603 0.064978
0.336092 -0.284000 0.064933
0.332252 -0.261184 0.064767
0.319567 -0.255810 0.060805
0.331938 -0.261338 0.062539
0.359377 -0.447811 0.058354
0.361243 -0.457600 0.063674
0.361266 -0.457598 0.064711
0.359050 -0.449344 0.066844
0.353815 -0.432398 0.071610
0.354183 -0.434651 0.056632
0.360727 -0.441532 0.051155
0.360732 -0.441783 0.051155
0.349625 -0.420334 0.076166
0.360775 -0.426752 0.080262
0.354398 -0.416301 0.080765
0.352948 -0.402115 0.082663
0.353939 -0.385334 0.082278
0.349108 -0.373532 0.081282
0.344138 -0.362897 0.079665
0.354864 -0.368161 0.074677
0.353988 -0.354427 0.069374
0.351086 -0.334988 0.066395
0.351182 -0.335206 0.065150
0.335830 -0.335598 0.065050
0.353462 -0.320073 0.064655
0.353183 -0.320047 0.065618
0.352900 -0.304461 0.065870
0.353216 -0.304518 0.063568
0.351301 -0.289567 0.062910
0.351047 -0.289819 0.065249
0.352730 -0.276942 0.064473
0.352643 -0.277252 0.062984
0.336789 -0.270898 0.062515
0.370521 -0.464304 0.067228
0.376634 -0.475477 0.062648
0.376689 -0.475435 0.065599
0.370403 -0.464397 0.060856
0.370184 -0.449182 0.074408
0.365443 -0.437349 0.077751
0.376457 -0.443434 0.080336
0.370354 -0.433096 0.080798
0.369349 -0.418624 0.082264
0.360811 -0.441544 0.051155
0.367085 -0.436232 0.054075
0.369216 -0.402671 0.083246
0.369136 -0.388131 0.081824
0.360020 -0.379574 0.079083
0.369061 -0.380041 0.078389
0.368940 -0.371325 0.071376
0.368732 -0.371653 0.064336
0.353718 -0.369356 0.063251
0.368910 -0.349366 0.065800
0.368928 -0.336416 0.066269
0.369000 -0.320077 0.066279
0.369104 -0.305482 0.065597
0.363135 -0.288613 0.064973
0.361131 -0.280169 0.064087
0.361108 -0.280188 0.063678
0.391868 -0.499160 0.059571
0.393546 -0.507249 0.060648
0.393694 -0.507119 0.064621
0.392004 -0.498840 0.066098
0.385962 -0.481968 0.068654
0.385794 -0.482322 0.060272
0.385856 -0.466780 0.075610
0.380651 -0.454419 0.078335
0.391604 -0.461668 0.080565
0.385949 -0.449924 0.081116
0.385652 -0.435050 0.082451
0.385591 -0.419164 0.082874
0.385599 -0.402349 0.082161
0.385617 -0.390434 0.080778
0.385542 -0.382223 0.077052
0.385472 -0.371392 0.069646
0.385273 -0.371806 0.064506
0.385476 -0.336260 0.068055
0.385467 -0.349467 0.065973
0.385892 -0.319196 0.066448
0.380607 -0.311604 0.064700
0.380411 -0.311720 0.064000
0.368875 -0.305665 0.063324
0.402739 -0.513855 0.066893
0.408170 -0.527697 0.057309
0.408691 -0.525902 0.065561
0.403307 -0.514323 0.055756
0.408668 -0.520804 0.050822
0.408788 -0.527013 0.050829
0.402085 -0.499392 0.071116
0.402829 -0.482891 0.076537
0.398054 -0.473073 0.078887
0.403015 -0.467764 0.081191
0.409096 -0.477044 0.080205
0.402053 -0.451448 0.083271
0.402008 -0.435672 0.083794
0.402014 -0.419326 0.083218
0.402095 -0.402006 0.081706
0.402155 -0.389935 0.080396
0.402104 -0.381725 0.077551
0.400810 -0.368343 0.070952
0.400741 -0.368871 0.063740
0.400802 -0.353954 0.062940
0.400742 -0.353893 0.068725
0.401928 -0.336577 0.069352
0.401874 -0.323988 0.066695
0.401647 -0.324416 0.061540
0.385550 -0.319546 0.062489
0.424910 -0.563591 0.056500
0.425918 -0.573280 0.050612
0.425965 -0.573243 0.052079
0.424714 -0.564365 0.050022
0.420163 -0.548203 0.057222
0.426292 -0.557168 0.064544
0.424061 -0.548006 0.065807
0.422502 -0.548697 0.050077
0.418226 -0.531854 0.068054
0.417653 -0.532639 0.054869
0.422747 -0.538522 0.050689
0.418406 -0.515956 0.073819
0.419418 -0.501276 0.077836
0.412028 -0.521260 0.050839
0.417494 -0.516944 0.052768
0.414889 -0.488186 0.078785
0.419672 -0.483681 0.080690
0.425908 -0.496940 0.080185
0.418469 -0.468228 0.082991
0.418489 -0.451824 0.084852
0.418518 -0.435736 0.084608
0.418565 -0.419201 0.083324
0.418643 -0.401795 0.081982
0.418673 -0.384279 0.080648
0.413158 -0.378493 0.079487
0.418473 -0.369604 0.078344
0.424151 -0.375205 0.080202
0.418427 -0.353668 0.073924
0.417965 -0.337404 0.067773
0.412212 -0.327570 0.065554
0.411967 -0.327780 0.062595
0.435409 -0.580733 0.056993
0.441406 -0.591158 0.050468
0.441531 -0.590965 0.053858
0.435357 -0.580066 0.049950
0.429376 -0.568376 0.060626
0.440443 -0.576914 0.065407
0.434896 -0.563608 0.066384
0.434815 -0.548622 0.069823
0.434752 -0.532576 0.074533
0.433232 -0.518053 0.078934
0.427145 -0.539004 0.050728
0.433123 -0.534045 0.054543
0.426835 -0.507266 0.080013
0.433273 -0.501590 0.081481
0.437692 -0.513732 0.080896
0.434862 -0.484919 0.083103
0.434905 -0.468337 0.084773
0.434964 -0.451721 0.085775
0.435021 -0.435517 0.085179
0.435062 -0.419024 0.083731
0.435095 -0.401877 0.082403
0.435069 -0.385434 0.081398
0.435965 -0.370279 0.080435
0.431032 -0.365224 0.079554
0.435721 -0.354949 0.073194
0.442030 -0.362427 0.080106
0.429744 -0.343563 0.067043
0.417577 -0.337862 0.061571
0.429505 -0.343813 0.063511
0.456775 -0.613975 0.056913
0.458228 -0.624427 0.050528
0.458310 -0.624263 0.052793
0.456650 -0.614553 0.050084
0.455150 -0.597685 0.065909
0.458479 -0.608075 0.064613
0.447907 -0.597146 0.057663
0.450924 -0.598106 0.050022
0.443815 -0.587986 0.062653
0.449955 -0.582275 0.068059
0.451127 -0.565367 0.072625
0.452411 -0.548701 0.076354
0.445492 -0.570623 0.050437
0.435185 -0.564768 0.049815
0.440980 -0.559814 0.051864
0.450718 -0.566272 0.053698
0.446782 -0.533080 0.078549
0.455072 -0.533403 0.081025
0.459074 -0.542761 0.080160
0.443039 -0.524338 0.080062
0.449553 -0.518172 0.082587
0.451272 -0.500744 0.085331
0.451349 -0.484770 0.086443
0.451402 -0.468086 0.086789
0.451452 -0.451399 0.086544
0.451497 -0.435213 0.085939
0.451503 -0.418920 0.084760
0.451470 -0.402247 0.083204
0.451394 -0.386162 0.082011
0.449734 -0.371222 0.080704
0.443227 -0.362463 0.080107
0.446507 -0.359936 0.072649
0.434697 -0.354147 0.062547
0.447121 -0.359484 0.064481
0.471961 -0.646728 0.056990
0.474759 -0.656003 0.050392
0.474828 -0.655918 0.052955
0.471972 -0.646755 0.049060
0.463688 -0.630029 0.056894
0.474422 -0.641106 0.065008
0.472205 -0.630374 0.065777
0.466445 -0.630746 0.049083
0.461388 -0.619107 0.061378
0.467170 -0.614307 0.066491
0.467506 -0.598539 0.070738
0.467762 -0.582417 0.076168
0.463064 -0.566006 0.077962
0.471431 -0.566262 0.081481
0.473720 -0.577084 0.080838
0.460331 -0.589374 0.050753
0.450820 -0.582832 0.050068
0.456290 -0.578207 0.052013
0.466170 -0.584009 0.053439
0.461033 -0.553606 0.079156
0.466987 -0.549139 0.081883
0.467678 -0.533709 0.084888
0.467756 -0.516921 0.088124
0.467811 -0.500843 0.089633
0.467847 -0.484765 0.089886
0.467898 -0.468033 0.089548
0.467933 -0.451349 0.088728
0.467932 -0.435200 0.087585
0.467876 -0.419087 0.085719
0.467430 -0.437407 0.067358
0.449610 -0.437158 0.066662
0.454223 -0.432507 0.067466
0.461082 -0.443275 0.067069
0.462795 -0.424990 0.067393
0.473672 -0.431615 0.066901
0.467831 -0.419706 0.066361
0.467780 -0.402779 0.083714
0.467433 -0.386727 0.081509
0.461745 -0.377371 0.080664
0.454719 -0.366363 0.072678
0.464813 -0.374677 0.072874
0.451789 -0.370053 0.063711
0.464030 -0.374995 0.065250
0.482471 -0.662166 0.057188
0.491075 -0.674211 0.057428
0.491882 -0.671890 0.064924
0.489233 -0.662963 0.065992
0.490951 -0.674578 0.050672
0.484685 -0.662727 0.049965
0.477561 -0.652290 0.061581
0.483392 -0.646951 0.067402
0.483881 -0.631010 0.070697
0.483881 -0.615537 0.072857
0.483360 -0.600054 0.076884
0.477452 -0.621689 0.050442
0.467129 -0.615605 0.049866
0.472555 -0.610844 0.052485
0.483092 -0.616604 0.054354
0.477585 -0.588321 0.079049
0.488612 -0.594835 0.081468
0.483453 -0.582862 0.083109
0.484009 -0.566630 0.086010
0.484105 -0.550628 0.087310
0.484217 -0.533972 0.090513
0.485302 -0.517335 0.094134
0.485338 -0.500732 0.094578
0.491580 -0.505987 0.096701
0.491562 -0.511945 0.096701
0.484340 -0.484873 0.093231
0.484369 -0.468148 0.092230
0.484388 -0.451519 0.091160
0.482116 -0.470448 0.067940
0.467249 -0.470376 0.067127
0.472745 -0.465812 0.067495
0.475604 -0.477041 0.067366
0.484324 -0.435461 0.089154
0.484200 -0.419484 0.086310
0.484049 -0.403324 0.083463
0.483949 -0.392747 0.081156
0.473053 -0.381392 0.072812
0.483694 -0.388920 0.073007
0.468439 -0.386054 0.064643
0.483492 -0.391666 0.065817
0.506884 -0.696123 0.061741
0.508440 -0.703823 0.063969
0.508484 -0.703778 0.065365
0.506940 -0.695836 0.066333
0.499482 -0.679423 0.057974
0.500700 -0.678801 0.066996
0.500227 -0.663955 0.070219
0.501096 -0.647246 0.075521
0.497331 -0.631514 0.077119
0.505679 -0.631605 0.081443
0.507496 -0.641389 0.080496
0.494929 -0.615824 0.078233
0.503227 -0.615709 0.083217
0.491915 -0.639925 0.050922
0.483090 -0.633433 0.049368
0.488323 -0.629173 0.052587
0.498257 -0.634020 0.055884
0.493279 -0.606192 0.079134
0.499456 -0.600060 0.084825
0.500405 -0.582836 0.089659
0.500466 -0.566709 0.091810
0.500568 -0.550709 0.092812
0.501001 -0.534423 0.095100
0.495878 -0.523022 0.096183
0.506706 -0.529009 0.096640
0.501058 -0.517561 0.096846
0.500471 -0.500952 0.096891
0.494884 -0.495409 0.096236
0.500487 -0.484790 0.095607
0.505779 -0.490275 0.096711
0.500770 -0.468324 0.093447
0.498451 -0.487220 0.068375
0.482123 -0.487108 0.067268
0.486545 -0.482703 0.067750
0.491953 -0.493699 0.067455
0.500733 -0.451787 0.091376
0.500635 -0.435855 0.089007
0.500472 -0.419909 0.085613
0.499409 -0.404117 0.081809
0.493282 -0.394845 0.080544
0.493218 -0.394794 0.073308
0.492294 -0.395214 0.066666
0.517964 -0.710727 0.067990
0.524219 -0.721201 0.063295
0.524282 -0.720968 0.066298
0.517861 -0.711040 0.062276
0.517715 -0.696323 0.074049
0.515251 -0.681010 0.074870
0.524305 -0.691137 0.080311
0.523788 -0.681514 0.080503
0.512879 -0.664951 0.076490
0.521244 -0.665239 0.081868
0.509894 -0.652775 0.078689
0.515847 -0.647614 0.084071
0.516691 -0.631764 0.088173
0.516891 -0.615798 0.090514
0.517948 -0.599425 0.093568
0.514106 -0.582689 0.094558
0.524119 -0.593856 0.096819
0.522366 -0.582640 0.097257
0.512153 -0.566625 0.095429
0.520363 -0.566568 0.097782
0.510607 -0.550706 0.095949
0.518771 -0.550702 0.097939
0.509478 -0.540216 0.096323
0.515742 -0.534488 0.097549
0.509569 -0.557135 0.067177
0.500577 -0.551543 0.066106
0.506471 -0.546187 0.067717
0.515588 -0.551509 0.068800
0.516998 -0.517596 0.097738
0.517085 -0.501364 0.097700
0.517513 -0.484891 0.097008
0.512302 -0.479281 0.096172
0.517405 -0.469739 0.094428
0.523217 -0.476412 0.096583
0.517013 -0.452110 0.090764
0.516884 -0.436233 0.087972
0.517003 -0.419459 0.083090
0.511645 -0.410111 0.081033
0.500306 -0.404449 0.072916
0.511413 -0.410269 0.077461
0.534930 -0.726867 0.070809
0.540716 -0.737439 0.063001
0.540763 -0.737237 0.066473
0.534245 -0.727854 0.061724
0.529420 -0.712714 0.075768
0.537902 -0.712962 0.080881
0.540596 -0.721485 0.080365
0.526606 -0.701831 0.078842
0.532428 -0.697126 0.081998
0.532992 -0.681849 0.084869
0.533616 -0.665434 0.090084
0.528517 -0.648331 0.092899
0.539714 -0.659506 0.097434
0.536865 -0.648169 0.099286
0.524935 -0.669885 0.066774
0.517544 -0.664910 0.064664
0.524098 -0.658720 0.067265
0.531235 -0.665065 0.069204
0.526639 -0.631860 0.094928
0.534864 -0.631773 0.100055
0.526767 -0.615943 0.095549
0.534918 -0.616069 0.098878
0.526262 -0.605171 0.096067
0.532370 -0.599626 0.098548
0.533455 -0.582659 0.100280
0.533451 -0.566543 0.100855
0.533420 -0.550724 0.100761
0.533437 -0.534184 0.100330
0.533484 -0.517466 0.099730
0.533534 -0.501235 0.098963
0.533542 -0.485078 0.097659
0.533515 -0.475881 0.096657
0.533440 -0.467350 0.094301
0.533295 -0.452396 0.091055
0.533106 -0.436478 0.086789
0.532933 -0.425222 0.081976
0.516594 -0.419764 0.074366
0.532832 -0.425415 0.077842
0.550388 -0.739950 0.071354
0.545621 -0.732413 0.075948
0.550621 -0.727866 0.081188
0.556846 -0.737318 0.080332
0.549474 -0.713673 0.083471
0.549358 -0.698189 0.086891
0.550048 -0.681703 0.092499
0.541404 -0.705998 0.066424
0.532724 -0.699695 0.064321
0.538457 -0.695137 0.068449
0.547659 -0.699985 0.070480
0.545135 -0.671052 0.094614
0.550175 -0.665341 0.098662
0.556071 -0.675866 0.096934
0.549509 -0.648130 0.103809
0.549573 -0.631759 0.105286
0.549620 -0.616197 0.102977
0.549737 -0.599713 0.102647
0.549880 -0.582676 0.103734
0.549887 -0.566503 0.103746
0.549826 -0.550710 0.103238
0.549875 -0.534116 0.102738
0.549966 -0.517296 0.101870
0.549976 -0.501062 0.100271
0.549908 -0.485037 0.097958
0.549842 -0.476026 0.096619
0.549746 -0.467600 0.094634
0.549554 -0.452657 0.090615
0.548133 -0.437063 0.083943
0.541794 -0.428012 0.080865
0.541752 -0.428044 0.079896
0.564655 -0.746834 0.057615
0.568192 -0.754445 0.057536
0.570804 -0.753727 0.067473
0.565606 -0.748536 0.072090
0.569371 -0.751499 0.050163
0.569455 -0.754133 0.050212
0.566168 -0.740408 0.081073
0.566024 -0.729729 0.083903
0.565829 -0.714538 0.086969
0.567052 -0.697263 0.092227
0.565361 -0.721867 0.066051
0.547768 -0.715351 0.064617
0.552304 -0.710241 0.068923
0.565312 -0.713672 0.070570
0.562677 -0.686803 0.094940
0.567188 -0.681692 0.097820
0.573604 -0.690750 0.096547
0.565728 -0.665438 0.101696
0.565742 -0.648247 0.105285
0.565813 -0.631840 0.106659
0.565925 -0.616118 0.105713
0.566031 -0.599590 0.105179
0.566116 -0.582583 0.105165
0.566184 -0.566430 0.105151
0.566234 -0.550638 0.105089
0.566273 -0.534048 0.104147
0.566299 -0.517241 0.102593
0.566315 -0.501042 0.100691
0.566257 -0.485102 0.098026
0.566184 -0.476522 0.096546
0.566057 -0.468165 0.094686
0.567411 -0.451230 0.086803
0.562878 -0.442961 0.082760
0.562734 -0.443074 0.079378
0.547975 -0.437257 0.077738
0.582449 -0.754144 0.068526
0.582609 -0.750639 0.075892
0.582578 -0.742987 0.081705
0.582391 -0.730222 0.085768
0.581849 -0.750463 0.049526
0.581831 -0.743837 0.054461
0.582259 -0.714870 0.090332
0.582221 -0.702340 0.094544
0.581694 -0.715004 0.070898
0.581712 -0.723130 0.066720
0.582115 -0.682174 0.099907
0.582172 -0.694015 0.097031
0.582077 -0.665345 0.103463
0.582087 -0.648213 0.105556
0.582156 -0.631800 0.106895
0.582295 -0.615988 0.107412
0.582393 -0.599365 0.107282
0.582464 -0.582304 0.106771
0.582583 -0.566210 0.106625
0.582699 -0.550484 0.106495
0.582720 -0.533933 0.104907
0.582671 -0.517216 0.102552
0.582639 -0.501166 0.100454
0.582562 -0.485295 0.097945
0.582489 -0.476921 0.096537
0.582306 -0.468546 0.092664
0.582054 -0.456165 0.085234
0.567030 -0.451489 0.077589
0.581909 -0.456337 0.079504
0.600070 -0.749994 0.071818
0.595136 -0.753622 0.067093
0.598811 -0.730032 0.086199
0.598957 -0.741674 0.081540
0.601479 -0.746527 0.057362
0.598415 -0.749082 0.049587
0.597631 -0.714244 0.093236
0.591447 -0.705839 0.096054
0.597560 -0.699631 0.097861
0.602376 -0.708182 0.096982
0.598189 -0.722141 0.065857
0.598136 -0.713967 0.070525
0.598534 -0.682087 0.101130
0.598549 -0.665150 0.104285
0.598660 -0.647892 0.106530
0.598722 -0.631504 0.108096
0.598754 -0.615836 0.108896
0.598875 -0.599135 0.109378
0.599053 -0.581884 0.109428
0.599170 -0.565797 0.108997
0.599226 -0.550194 0.107855
0.599229 -0.533740 0.105225
0.599158 -0.517167 0.102337
0.599009 -0.501354 0.100215
0.598037 -0.484111 0.097569
0.592028 -0.477310 0.096523
0.598118 -0.471532 0.088493
0.593089 -0.460027 0.083122
0.592965 -0.460109 0.081038
0.608708 -0.749609 0.054615
0.599850 -0.754660 0.058317
0.608784 -0.753548 0.054573
0.615293 -0.729448 0.085111
0.615366 -0.739111 0.080990
0.608527 -0.749691 0.050235
0.618580 -0.737393 0.049554
0.618812 -0.740935 0.049528
0.614067 -0.743395 0.056579
0.613804 -0.732142 0.055294
0.615254 -0.716105 0.092228
0.615140 -0.698305 0.098453
0.615212 -0.707945 0.097026
0.614666 -0.719989 0.064011
0.614589 -0.711719 0.069485
0.615017 -0.682117 0.100680
0.615021 -0.665342 0.103456
0.615159 -0.648038 0.106440
0.615231 -0.631551 0.108449
0.615225 -0.615847 0.109140
0.615346 -0.599093 0.109678
0.615557 -0.581746 0.109734
0.615660 -0.565530 0.108699
0.615668 -0.549891 0.106608
0.615627 -0.533586 0.103649
0.615518 -0.517276 0.101107
0.615317 -0.501618 0.099086
0.615129 -0.489829 0.097274
0.602893 -0.477972 0.094050
0.614023 -0.482345 0.089291
0.607884 -0.476997 0.084941
0.607790 -0.477049 0.082616
0.598404 -0.470721 0.080957
0.631376 -0.729101 0.082462
0.625638 -0.737293 0.080453
0.631908 -0.712472 0.091460
0.632851 -0.731380 0.056871
0.627160 -0.736672 0.049515
0.626242 -0.706557 0.096725
0.631694 -0.698149 0.097251
0.631874 -0.714907 0.061895
0.626855 -0.709101 0.068122
0.637707 -0.706074 0.066394
0.631789 -0.700057 0.070178
0.631557 -0.682235 0.098626
0.631469 -0.665811 0.101068
0.631519 -0.648677 0.105030
0.631594 -0.632043 0.107538
0.631675 -0.616032 0.108054
0.631774 -0.599213 0.108190
0.631880 -0.581909 0.107497
0.631963 -0.565481 0.105470
0.631972 -0.549632 0.102779
0.631860 -0.533459 0.100644
0.631685 -0.517517 0.099080
0.630233 -0.503065 0.097280
0.623872 -0.493609 0.096650
0.626841 -0.491509 0.089127
0.627179 -0.491279 0.082062
0.613894 -0.485745 0.082139
0.649625 -0.713978 0.085174
0.645010 -0.723559 0.081495
0.646537 -0.714288 0.054259
0.651578 -0.722333 0.050051
0.646767 -0.725078 0.056512
0.651403 -0.718601 0.050116
0.648533 -0.697619 0.093835
0.637228 -0.703262 0.095767
0.643073 -0.692701 0.096781
0.648306 -0.682533 0.097171
0.648191 -0.699909 0.063083
0.643080 -0.695210 0.068697
0.653974 -0.689379 0.065943
0.648136 -0.683505 0.071600
0.647978 -0.665849 0.099535
0.647960 -0.648886 0.103207
0.648035 -0.632207 0.105602
0.648169 -0.615944 0.106336
0.648243 -0.599118 0.106396
0.648255 -0.581968 0.105327
0.648276 -0.565540 0.102924
0.648267 -0.549604 0.100295
0.639913 -0.558831 0.082419
0.632916 -0.565039 0.081552
0.639364 -0.558831 0.082429
0.646294 -0.565072 0.081503
0.640595 -0.549805 0.082675
0.648749 -0.549983 0.080904
0.648138 -0.533470 0.098923
0.640601 -0.538937 0.082726
0.646643 -0.533766 0.080879
0.647961 -0.517673 0.097811
0.647890 -0.509350 0.096783
0.647676 -0.504816 0.089047
0.634998 -0.498149 0.089074
0.632019 -0.501036 0.081679
0.647486 -0.505812 0.081061
0.663384 -0.714877 0.073217
0.655825 -0.719675 0.078879
0.649491 -0.725570 0.073199
0.657272 -0.720912 0.069086
0.664525 -0.696482 0.087729
0.664492 -0.708165 0.082308
0.661815 -0.712063 0.054738
0.656892 -0.718095 0.049948
0.667812 -0.701499 0.048678
0.668023 -0.707090 0.048490
0.663003 -0.697515 0.054012
0.653963 -0.687752 0.095891
0.664572 -0.684200 0.093778
0.664560 -0.676540 0.096839
0.664522 -0.665500 0.098508
0.664077 -0.685847 0.062508
0.664056 -0.677639 0.068547
0.664494 -0.648601 0.101085
0.664568 -0.631941 0.102967
0.664706 -0.615595 0.103896
0.664745 -0.598833 0.104038
0.664714 -0.581892 0.103324
0.664666 -0.565695 0.101428
0.664601 -0.549895 0.099201
0.664514 -0.533718 0.098132
0.663033 -0.518703 0.097126
0.656547 -0.509808 0.096620
0.662952 -0.508924 0.087745
0.663998 -0.508990 0.080737
0.677201 -0.695782 0.082347
0.673440 -0.704265 0.080714
0.681102 -0.680526 0.087264
0.679937 -0.694685 0.054970
0.674704 -0.700877 0.048608
0.685562 -0.685412 0.050533
0.685725 -0.689445 0.050491
0.679315 -0.680546 0.056493
0.672925 -0.673818 0.096550
0.674791 -0.665151 0.097135
0.672555 -0.674561 0.066967
0.674783 -0.666132 0.068381
0.683099 -0.665965 0.061410
0.680869 -0.646569 0.097927
0.680628 -0.648204 0.070661
0.686181 -0.652877 0.064504
0.681025 -0.631659 0.099246
0.681095 -0.615538 0.099796
0.681096 -0.599025 0.100138
0.681045 -0.582369 0.100184
0.682006 -0.565641 0.098520
0.676883 -0.550383 0.097617
0.673992 -0.533970 0.097115
0.673342 -0.524719 0.096853
0.667639 -0.514246 0.091745
0.674611 -0.518995 0.087610
0.672564 -0.510008 0.082283
0.672543 -0.510036 0.081285
0.692648 -0.681023 0.073781
0.688744 -0.686903 0.079333
0.684038 -0.694760 0.073628
0.689790 -0.688655 0.069810
0.696964 -0.662572 0.082943
0.683141 -0.664579 0.091504
0.691293 -0.676685 0.081453
0.691305 -0.680067 0.056992
0.689249 -0.684879 0.050583
0.695899 -0.646164 0.089866
0.686232 -0.650918 0.094120
0.703413 -0.654250 0.050597
0.703503 -0.658499 0.050598
0.697594 -0.664155 0.057573
0.696361 -0.648259 0.058438
0.689256 -0.639626 0.096523
0.689547 -0.631536 0.096615
0.689046 -0.641726 0.067285
0.698437 -0.633017 0.062420
0.690272 -0.632984 0.067888
0.689851 -0.615652 0.096719
0.693555 -0.616777 0.068667
0.701596 -0.616912 0.065093
0.690576 -0.599366 0.096976
0.697983 -0.601344 0.069500
0.704164 -0.607445 0.066536
0.691151 -0.582935 0.097255
0.690367 -0.570962 0.097031
0.687943 -0.560477 0.094964
0.695590 -0.567767 0.087955
0.685321 -0.550041 0.089329
0.689886 -0.555149 0.084785
0.681610 -0.550201 0.078365
0.689736 -0.555341 0.079641
0.707730 -0.647125 0.081935
0.705751 -0.655875 0.080446
0.709048 -0.631568 0.083077
0.697879 -0.631663 0.091219
0.707560 -0.648399 0.057692
0.705494 -0.654066 0.050596
0.698142 -0.615944 0.090586
0.707956 -0.616145 0.082557
0.707265 -0.600132 0.082532
0.698805 -0.599788 0.090513
0.706325 -0.583867 0.082067
0.699264 -0.583481 0.090025
0.706641 -0.601337 0.072633
0.705017 -0.607487 0.066530
0.705295 -0.575154 0.081054
0.695785 -0.568898 0.077729
0.705240 -0.575235 0.079224
-0.697119 0.551483 -0.010767
-0.697177 0.561483 -0.014677
-0.697175 0.569675 -0.016778
-0.697247 0.584269 -0.020235
-0.697338 0.600643 -0.024493
-0.696578 0.616922 -0.029025
-0.701398 0.622284 -0.031913
-0.696441 0.632717 -0.033531
-0.690585 0.626813 -0.030542
-0.697220 0.649861 -0.038839
-0.697435 0.666984 -0.044611
-0.702916 0.672971 -0.047869
-0.697408 0.682206 -0.049885
-0.692119 0.676492 -0.046578
-0.697215 0.698684 -0.055305
-0.697222 0.722164 -0.064130
-0.680745 0.518650 -0.004475
-0.680870 0.535012 -0.008127
-0.680972 0.551389 -0.011138
-0.681416 0.566607 -0.012900
-0.687022 0.571299 -0.015118
-0.684457 0.584225 -0.016181
-0.676461 0.584094 -0.013091
-0.682489 0.600601 -0.017934
-0.674466 0.600511 -0.013729
-0.679787 0.616254 -0.019914
-0.673612 0.610402 -0.014115
-0.681231 0.632644 -0.026790
-0.686756 0.637671 -0.031896
-0.681162 0.651125 -0.033186
-0.675986 0.646492 -0.028929
-0.680992 0.666189 -0.037676
-0.680791 0.682084 -0.043662
-0.685987 0.687347 -0.048621
-0.680789 0.698803 -0.050940
-0.675246 0.693339 -0.046005
-0.681504 0.716039 -0.059195
-0.687135 0.722269 -0.064250
-0.681525 0.731324 -0.066836
-0.676457 0.725639 -0.062438
-0.664310 0.483880 0.003620
-0.664372 0.491958 0.001361
-0.664494 0.502171 -0.000207
-0.664582 0.518480 -0.002271
-0.664596 0.534845 -0.004323
-0.664582 0.551208 -0.005780
-0.664568 0.567527 -0.006577
-0.664566 0.583922 -0.008338
-0.664577 0.600401 -0.010600
-0.664608 0.613844 -0.012999
-0.664637 0.621951 -0.015336
-0.664646 0.633174 -0.019029
-0.665806 0.650922 -0.026318
-0.671995 0.657440 -0.031076
-0.665790 0.666590 -0.032332
-0.661151 0.661390 -0.029376
-0.664695 0.682350 -0.037778
-0.664668 0.696405 -0.044548
-0.664646 0.704662 -0.048638
-0.664705 0.714999 -0.053753
-0.664681 0.728326 -0.061261
-0.664654 0.736760 -0.066343
-0.664680 0.747982 -0.073118
-0.664560 0.766183 -0.083647
-0.648114 0.469229 0.008785
-0.649518 0.486519 0.005331
-0.655721 0.492827 0.001787
-0.654839 0.502075 0.001534
-0.646774 0.501633 0.005350
-0.653495 0.518321 0.001013
-0.645363 0.517869 0.005040
-0.651825 0.534690 0.000421
-0.643682 0.534385 0.004024
-0.647517 0.552546 0.000381
-0.641788 0.548013 0.002807
-0.647999 0.567388 -0.000872
-0.647978 0.583754 -0.003110
-0.648019 0.600201 -0.006442
-0.649649 0.618190 -0.011097
-0.656167 0.624794 -0.014518
-0.649740 0.633696 -0.015719
-0.645259 0.628680 -0.013056
-0.648371 0.649326 -0.020572
-0.647905 0.666377 -0.027723
-0.652968 0.672358 -0.031685
-0.647827 0.681255 -0.034418
-0.642135 0.675175 -0.030548
-0.649576 0.700039 -0.043345
-0.655913 0.706658 -0.048076
-0.649565 0.715265 -0.051338
-0.644939 0.709676 -0.047269
-0.648113 0.732650 -0.061099
-0.653547 0.738934 -0.065934
-0.648251 0.747599 -0.070454
-0.642573 0.741407 -0.065353
-0.648076 0.760370 -0.078992
-0.648057 0.768594 -0.084347
-0.648171 0.780589 -0.089921
-0.631650 0.432145 0.019603
-0.631706 0.440123 0.017299
-0.631818 0.452819 0.015241
-0.631878 0.469050 0.013855
-0.631862 0.485280 0.013443
-0.631785 0.501433 0.012753
-0.631680 0.517696 0.011352
-0.631593 0.534286 0.008872
-0.633147 0.552476 0.005048
-0.639652 0.558975 0.001897
-0.637815 0.567398 0.001541
-0.629666 0.567419 0.003968
-0.631735 0.584320 0.000573
-0.626471 0.579329 0.002901
-0.631671 0.600167 -0.002547
-0.631768 0.616458 -0.006041
-0.632492 0.633538 -0.010772
-0.638351 0.639507 -0.014854
-0.632572 0.649682 -0.016369
-0.627515 0.644507 -0.012895
-0.632061 0.665815 -0.022032
-0.631990 0.678955 -0.028393
-0.631925 0.687137 -0.032759
-0.631840 0.698497 -0.037428
-0.631269 0.715080 -0.045260
-0.636405 0.720867 -0.051069
-0.631375 0.730971 -0.054930
-0.625476 0.724787 -0.048125
-0.631646 0.743916 -0.063686
-0.631610 0.752331 -0.069767
-0.630764 0.765148 -0.078398
-0.635688 0.770982 -0.083901
-0.631044 0.780172 -0.087227
-0.624743 0.773845 -0.082257
-0.631780 0.801294 -0.098037
-0.615221 0.420091 0.022034
-0.616616 0.436125 0.019929
-0.622862 0.441503 0.018144
-0.622377 0.452746 0.017868
-0.614185 0.452482 0.021728
-0.622419 0.469072 0.017776
-0.614132 0.468930 0.022156
-0.622394 0.485445 0.017787
-0.614065 0.485468 0.021308
-0.620979 0.501702 0.017244
-0.612693 0.501793 0.020492
-0.617956 0.518031 0.016180
-0.609781 0.518139 0.019375
-0.613876 0.533702 0.015014
-0.607645 0.527830 0.018538
-0.615106 0.550971 0.011298
-0.615155 0.567343 0.008592
-0.616161 0.584354 0.005024
-0.622185 0.590303 0.001586
-0.616264 0.601479 0.000797
-0.611434 0.596850 0.003421
-0.615529 0.616527 -0.002129
-0.615570 0.632806 -0.005293
-0.616119 0.649718 -0.010289
-0.621926 0.655607 -0.015072
-0.616063 0.666498 -0.016763
-0.610966 0.661419 -0.012812
-0.617160 0.683917 -0.024845
-0.623682 0.690588 -0.031433
-0.617049 0.699823 -0.033040
-0.612711 0.695083 -0.028868
-0.615374 0.714953 -0.038523
-0.615292 0.728176 -0.045660
-0.615241 0.736568 -0.051544
-0.614423 0.748795 -0.061032
-0.619394 0.754837 -0.068059
-0.614528 0.763882 -0.071844
-0.608422 0.757647 -0.065881
-0.615058 0.776592 -0.080281
-0.615105 0.785019 -0.085748
-0.614863 0.798168 -0.093129
-0.620080 0.803833 -0.097670
-0.614862 0.811387 -0.100754
-0.609187 0.806385 -0.096476
-0.598818 0.403622 0.026173
-0.598958 0.419753 0.024243
-0.598972 0.435874 0.025431
-0.598872 0.452142 0.027576
-0.598751 0.468725 0.027175
-0.598655 0.485363 0.025108
-0.598639 0.501709 0.023594
-0.598713 0.517991 0.021873
-0.598396 0.533627 0.019550
-0.603418 0.538673 0.017446
-0.598419 0.550611 0.016317
-0.592844 0.545062 0.018749
-0.598948 0.567016 0.013301
-0.599050 0.583332 0.010387
-0.600414 0.601218 0.005723
-0.606615 0.607794 0.001698
-0.600389 0.617402 0.000697
-0.595820 0.612446 0.003703
-0.599192 0.632781 -0.001982
-0.599154 0.649115 -0.005578
-0.599120 0.664150 -0.011765
-0.599095 0.672505 -0.015881
-0.599065 0.682186 -0.019875
-0.598956 0.697931 -0.027830
-0.598912 0.706276 -0.032445
-0.598893 0.715046 -0.035567
-0.597201 0.733021 -0.045295
-0.601560 0.739512 -0.049848
-0.597238 0.746500 -0.055082
-0.598627 0.758852 -0.064816
-0.598620 0.767340 -0.070117
-0.598571 0.779856 -0.078550
-0.598569 0.788206 -0.084403
-0.598665 0.797498 -0.089590
-0.598673 0.807595 -0.095868
-0.598746 0.814874 -0.102606
-0.582532 0.387132 0.030792
-0.582668 0.403159 0.029766
-0.582695 0.419245 0.030345
-0.582573 0.435518 0.031240
-0.582397 0.452011 0.031194
-0.582326 0.468596 0.029488
-0.582337 0.485131 0.027168
-0.582374 0.501431 0.025711
-0.582489 0.517630 0.024473
-0.582695 0.533917 0.022655
-0.583397 0.550120 0.020335
-0.589070 0.555651 0.017747
-0.585737 0.566495 0.016857
-0.577844 0.566081 0.019398
-0.581474 0.581264 0.015488
-0.575287 0.574700 0.018517
-0.582983 0.599283 0.012036
-0.583811 0.616870 0.007068
-0.589727 0.623403 0.001421
-0.583604 0.633412 0.000321
-0.578807 0.628206 0.004490
-0.582730 0.648930 -0.003582
-0.583336 0.667060 -0.011494
-0.589139 0.673687 -0.015909
-0.583261 0.681262 -0.019016
-0.578262 0.675180 -0.015219
-0.584119 0.700125 -0.028072
-0.590596 0.706871 -0.032422
-0.584024 0.714622 -0.034759
-0.582398 0.731475 -0.042628
-0.582271 0.749232 -0.055145
-0.582194 0.760181 -0.063658
-0.582171 0.768767 -0.069581
-0.583416 0.782622 -0.078448
-0.589612 0.789208 -0.083864
-0.583481 0.797170 -0.087234
-0.578797 0.791018 -0.082626
-0.582210 0.809104 -0.095165
-0.582270 0.816720 -0.102386
-0.565976 0.361790 0.034311
-0.566141 0.370852 0.033392
-0.570635 0.402786 0.033448
-0.562568 0.402588 0.036881
-0.572969 0.418992 0.034176
-0.564857 0.419000 0.037158
-0.572431 0.435394 0.034191
-0.564355 0.435438 0.036482
-0.569602 0.451976 0.033615
-0.561637 0.451950 0.035612
-0.565304 0.468305 0.032881
-0.559537 0.462788 0.034993
-0.566148 0.485004 0.030681
-0.566199 0.501209 0.029327
-0.566299 0.517302 0.028031
-0.566472 0.533516 0.026273
-0.566605 0.549625 0.025241
-0.569120 0.580532 0.023665
-0.572726 0.585629 0.017359
-0.570801 0.598830 0.016391
-0.570084 0.615103 0.014846
-0.570486 0.632306 0.009190
-0.567113 0.647645 0.008021
-0.573416 0.639211 0.000928
-0.570141 0.648748 -0.000758
-0.565267 0.664477 -0.004399
-0.566247 0.686217 -0.018779
-0.566160 0.698019 -0.023037
-0.566071 0.720294 -0.034446
-0.566071 0.731127 -0.038568
-0.565918 0.751170 -0.053671
-0.565847 0.761653 -0.062236
-0.565813 0.770285 -0.068678
-0.565812 0.780880 -0.074346
-0.565778 0.801051 -0.086975
-0.565806 0.810182 -0.094372
-0.565868 0.817985 -0.101963
-0.565988 0.826940 -0.109421
-0.566077 0.833870 -0.113865
-0.549858 0.355505 0.037510
-0.555431 0.361692 0.034459
-0.555465 0.370655 0.034380
-0.547437 0.370280 0.036646
-0.549996 0.402259 0.042044
-0.549918 0.419040 0.041636
-0.549884 0.435515 0.040152
-0.549895 0.451885 0.038424
-0.550183 0.468372 0.036252
-0.555702 0.473771 0.034211
-0.552893 0.485041 0.033637
-0.544906 0.485030 0.035438
-0.551097 0.501110 0.033049
-0.543117 0.501028 0.035016
-0.548766 0.516255 0.032490
-0.542606 0.510427 0.034744
-0.550180 0.533365 0.029893
-0.550232 0.549425 0.029364
-0.555025 0.669207 -0.001661
-0.555447 0.689087 -0.017732
-0.554182 0.697654 -0.018955
-0.557297 0.722692 -0.033729
-0.554261 0.730849 -0.035191
-0.549622 0.753049 -0.052009
-0.553907 0.771545 -0.067852
-0.549000 0.780098 -0.070629
-0.549429 0.802515 -0.086010
-0.549430 0.810840 -0.093562
-0.549492 0.818707 -0.101540
-0.549619 0.826737 -0.108990
-0.549721 0.833716 -0.114426
-0.532963 0.326388 0.048028
-0.533199 0.338007 0.042925
-0.533475 0.353702 0.040055
-0.533600 0.369340 0.041691
-0.533574 0.385330 0.044651
-0.533495 0.402034 0.044890
-0.533407 0.419167 0.042815
-0.533411 0.435706 0.041299
-0.533487 0.452006 0.040082
-0.533546 0.468587 0.038512
-0.533596 0.485104 0.037007
-0.533666 0.501088 0.036060
-0.533714 0.511003 0.035078
-0.533726 0.519028 0.033721
-0.533736 0.533611 0.031862
-0.540015 0.754274 -0.051061
-0.533160 0.785650 -0.068774
-0.533036 0.804107 -0.085019
-0.533033 0.811551 -0.092772
-0.533084 0.819435 -0.101332
-0.533193 0.826810 -0.108556
-0.533288 0.833845 -0.114630
-0.517101 0.337418 0.044200
-0.517304 0.352694 0.045230
-0.517316 0.368409 0.047199
-0.517159 0.384959 0.047470
-0.517016 0.402044 0.045969
-0.516920 0.419282 0.043203
-0.516931 0.435872 0.041717
-0.517022 0.452176 0.041178
-0.517070 0.468699 0.040233
-0.517106 0.485176 0.039041
-0.517188 0.501109 0.038454
-0.517281 0.522195 0.034058
-0.517232 0.533945 0.032845
-0.524778 0.788339 -0.067640
-0.523466 0.805117 -0.084305
-0.516675 0.820058 -0.101311
-0.516770 0.826994 -0.108191
-0.516836 0.834037 -0.114401
-0.500344 0.307966 0.049642
-0.500714 0.321028 0.048133
-0.505465 0.352132 0.049699
-0.497378 0.352110 0.052642
-0.505797 0.368250 0.050360
-0.497667 0.368508 0.052498
-0.503187 0.385076 0.049942
-0.495111 0.385325 0.051739
-0.499486 0.401505 0.049148
-0.493431 0.395537 0.051300
-0.500569 0.419380 0.046424
-0.500587 0.435906 0.045055
-0.500665 0.452165 0.044642
-0.500694 0.468616 0.043881
-0.500720 0.485018 0.042868
-0.500779 0.500862 0.042950
-0.509016 0.525481 0.034388
-0.507084 0.533994 0.033839
-0.503197 0.820610 -0.100970
-0.500479 0.834427 -0.113860
-0.484438 0.352260 0.055189
-0.484352 0.368957 0.054594
-0.484292 0.385621 0.053209
-0.483011 0.401874 0.051707
-0.487610 0.406990 0.050620
-0.482922 0.418586 0.050026
-0.476684 0.412630 0.051175
-0.484262 0.435849 0.048936
-0.484326 0.452059 0.048344
-0.484347 0.468478 0.047232
-0.484360 0.484817 0.046375
-0.484390 0.500573 0.046902
-0.488870 0.834969 -0.113337
-0.471216 0.296442 0.050901
-0.471732 0.304747 0.050845
-0.463762 0.304260 0.051945
-0.467971 0.335078 0.057426
-0.467833 0.352383 0.055233
-0.467758 0.369334 0.053711
-0.467749 0.385842 0.052860
-0.467733 0.402623 0.051926
-0.467009 0.418637 0.051316
-0.472021 0.423585 0.050848
-0.467017 0.435624 0.050706
-0.461048 0.430327 0.051152
-0.467882 0.451855 0.049999
-0.467888 0.468326 0.048851
-0.467875 0.484689 0.048285
-0.450990 0.276671 0.061524
-0.451392 0.288483 0.055428
-0.451636 0.303654 0.054434
-0.451585 0.318737 0.058466
-0.451455 0.335065 0.059055
-0.451326 0.352559 0.055177
-0.451262 0.369590 0.053327
-0.451257 0.385989 0.053449
-0.451237 0.402644 0.053557
-0.451224 0.419349 0.053594
-0.452654 0.435631 0.052990
-0.459010 0.440860 0.050938
-0.456616 0.451699 0.050642
-0.448442 0.451671 0.053489
-0.451020 0.468448 0.050134
-0.435074 0.288061 0.057248
-0.435210 0.303262 0.057684
-0.435117 0.318815 0.060261
-0.435016 0.335429 0.060283
-0.434916 0.352933 0.057701
-0.434831 0.369893 0.056769
-0.434801 0.386295 0.057481
-0.434818 0.402844 0.057722
-0.434857 0.419410 0.057644
-0.434893 0.435631 0.058151
-0.434915 0.451679 0.059175
-0.441750 0.474137 0.050630
-0.417935 0.260267 0.072917
-0.418215 0.262342 0.064681
-0.418446 0.272211 0.061165
-0.418700 0.287589 0.059775
-0.418736 0.303027 0.060810
-0.418575 0.319063 0.061579
-0.418469 0.335872 0.061214
-0.418407 0.353237 0.060149
-0.418366 0.370034 0.060026
-0.418386 0.386400 0.060715
-0.418438 0.402911 0.061004
-0.418490 0.419415 0.061107
-0.421484 0.451606 0.063522
-0.401669 0.254870 0.073205
-0.402011 0.260170 0.064949
-0.402221 0.271618 0.061906
-0.402353 0.286903 0.062410
-0.402260 0.302708 0.063722
-0.401967 0.319123 0.062726
-0.401802 0.336038 0.061789
-0.401773 0.353278 0.061402
-0.401827 0.369934 0.061652
-0.401959 0.386136 0.062428
-0.402021 0.402672 0.063262
-0.385793 0.258661 0.065746
-0.385983 0.270944 0.063717
-0.386013 0.286486 0.064944
-0.385843 0.302695 0.066136
-0.385503 0.319283 0.064662
-0.385343 0.336184 0.063808
-0.385371 0.353272 0.063816
-0.385479 0.369790 0.064071
-0.385654 0.385843 0.064587
-0.368925 0.245339 0.075011
-0.369267 0.251056 0.068840
-0.369554 0.258234 0.066454
-0.369724 0.270438 0.065622
-0.376808 0.302895 0.067303
-0.368678 0.303167 0.068728
-0.375136 0.319561 0.066838
-0.367021 0.319863 0.068988
-0.373948 0.336411 0.066503
-0.365925 0.336617 0.068845
-0.373079 0.353325 0.066458
-0.365141 0.353369 0.068400
-0.372796 0.369712 0.066539
-0.364855 0.369663 0.068244
-0.373670 0.385705 0.066724
-0.365654 0.385630 0.068619
-0.373540 0.783554 -0.085376
-0.352586 0.243360 0.074475
-0.353014 0.252726 0.068384
-0.353274 0.259590 0.067143
-0.352986 0.303450 0.070681
-0.352796 0.319947 0.070980
-0.352796 0.336579 0.071084
-0.352941 0.353332 0.071121
-0.353016 0.369532 0.071640
-0.353037 0.385333 0.073071
-0.352630 0.755141 -0.068514
-0.352809 0.769180 -0.082743
-0.336256 0.241385 0.074618
-0.338286 0.255902 0.068867
-0.344884 0.261289 0.067501
-0.336715 0.286708 0.071318
-0.336576 0.303515 0.071825
-0.336464 0.319657 0.071818
-0.336441 0.336215 0.072569
-0.336476 0.353193 0.074421
-0.336495 0.369345 0.076462
-0.336295 0.753314 -0.069199
-0.343249 0.769311 -0.081276
-0.320287 0.254646 0.070258
-0.320408 0.269707 0.071703
-0.320346 0.286720 0.072840
-0.320272 0.303478 0.073268
-0.320203 0.319435 0.073557
-0.320169 0.335882 0.074820
-0.320147 0.352870 0.077390
-0.325669 0.752732 -0.068393
-0.303179 0.229607 0.077857
-0.303499 0.239711 0.072761
-0.303882 0.254708 0.070657
-0.304034 0.269858 0.072430
-0.304016 0.286727 0.074163
-0.303973 0.303364 0.075239
-0.303915 0.319316 0.076312
-0.303886 0.335640 0.077841
-0.303338 0.721579 -0.052615
-0.286790 0.228924 0.077339
-0.287083 0.239684 0.072301
-0.287413 0.254704 0.070930
-0.287567 0.269901 0.072955
-0.287614 0.286763 0.075045
-0.287597 0.303314 0.076775
-0.287522 0.319153 0.078585
-0.287068 0.717966 -0.053704
-0.294429 0.737364 -0.064440
-0.270448 0.228991 0.077316
-0.270681 0.239674 0.072147
-0.270927 0.254659 0.070700
-0.271070 0.269838 0.072804
-0.271178 0.286765 0.075320
-0.271182 0.303277 0.077761
-0.271072 0.318975 0.080278
-0.276090 0.717516 -0.052413
-0.254025 0.228816 0.076768
-0.254286 0.239715 0.071050
-0.254531 0.254786 0.069307
-0.254652 0.269899 0.071584
-0.254735 0.286567 0.074760
-0.254724 0.302955 0.077713
-0.260426 0.705222 -0.048302
-0.237549 0.228385 0.075735
-0.238270 0.286320 0.073617
-0.238209 0.302535 0.077081
-0.221123 0.227855 0.074621
-0.221367 0.234780 0.068400
-0.221487 0.242745 0.066685
-0.221701 0.255057 0.065794
-0.221788 0.286268 0.072576
-0.221602 0.669813 -0.034461
-0.205231 0.254927 0.064028
-0.212096 0.669273 -0.033513
-0.188687 0.239545 0.062118
-0.188869 0.254672 0.061415
-0.188970 0.269824 0.062856
-0.171716 0.208681 0.072476
-0.171946 0.211216 0.064655
-0.172151 0.223198 0.061280
-0.172363 0.239081 0.058559
-0.172552 0.254108 0.059654
-0.172616 0.269484 0.061446
-0.172536 0.285962 0.061065
-0.172183 0.621881 -0.018293
-0.155916 0.222524 0.057609
-0.156109 0.238001 0.057651
-0.158706 0.269116 0.063363
-0.158369 0.285650 0.062419
-0.163426 0.621149 -0.017965
-0.139270 0.190277 0.060425
-0.139492 0.205771 0.057833
-0.139709 0.221125 0.058243
-0.122718 0.161928 0.063834
-0.122900 0.174013 0.060084
-0.123116 0.189428 0.057749
-0.123310 0.204335 0.059387
-0.106709 0.173188 0.057987
-0.111217 0.203342 0.063526
-0.090333 0.156399 0.058922
-0.073969 0.139559 0.060762
-0.057619 0.123157 0.060944
-0.041274 0.106608 0.062001
-0.030701 0.105262 0.065952
0.040666 0.007689 0.062973
0.052243 0.006607 0.065124
0.089965 -0.057266 0.060711
0.106350 -0.073501 0.056784
0.122709 -0.090263 0.056484
0.139136 -0.122575 0.055588
0.139053 -0.107466 0.057088
0.155443 -0.139072 0.053037
0.155420 -0.124074 0.056348
0.172045 -0.171215 0.054457
0.171843 -0.155727 0.053230
0.171736 -0.140377 0.054199
0.188227 -0.172565 0.054022
0.188130 -0.156999 0.054362
0.204571 -0.173680 0.055264
0.204594 -0.157601 0.057034
0.219664 -0.235446 0.053473
0.213154 -0.229082 0.051120
0.213705 -0.220431 0.051031
0.221831 -0.220988 0.053000
0.220962 -0.189734 0.053103
0.216865 -0.157770 0.061814
0.230071 -0.260786 0.051097
0.237584 -0.237765 0.055269
0.237513 -0.221986 0.055614
0.237403 -0.205932 0.054111
0.252489 -0.285484 0.052746
0.246322 -0.279096 0.051070
0.253696 -0.253934 0.055357
0.253794 -0.238709 0.057041
0.253782 -0.222789 0.056407
0.253789 -0.206578 0.056013
0.264663 -0.315614 0.050887
0.270057 -0.287453 0.055013
0.269998 -0.270411 0.056238
0.270052 -0.254641 0.057104
0.270157 -0.239342 0.057346
0.266156 -0.206841 0.060542
0.279660 -0.328786 0.050840
0.286629 -0.304299 0.056542
0.286612 -0.287880 0.057792
0.286541 -0.270651 0.057593
0.286601 -0.254894 0.057270
0.286730 -0.239628 0.056932
0.295824 -0.359718 0.051091
0.302889 -0.336335 0.056439
0.302899 -0.320415 0.059424
0.303080 -0.304588 0.060710
0.303107 -0.287932 0.060486
0.303026 -0.270851 0.058902
0.303072 -0.255135 0.057765
0.319354 -0.369630 0.054921
0.319197 -0.353946 0.058555
0.319131 -0.337227 0.062278
0.315386 -0.304465 0.063902
0.319064 -0.286474 0.063355
0.319441 -0.271104 0.060779
0.335658 -0.401229 0.053860
0.330000 -0.395608 0.050709
0.335629 -0.370710 0.058777
0.335587 -0.354445 0.062496
0.336015 -0.283831 0.063520
0.352433 -0.418310 0.054630
0.352186 -0.402732 0.055058
0.352108 -0.386900 0.058071
0.353786 -0.354461 0.065038
0.367231 -0.448535 0.055098
0.360816 -0.441799 0.051155
0.368634 -0.419374 0.057006
0.368539 -0.403240 0.058790
0.368571 -0.386905 0.061181
0.368878 -0.349382 0.065346
0.368841 -0.336506 0.064210
0.368877 -0.320190 0.063284
0.362920 -0.288656 0.063184
0.385144 -0.467398 0.057542
0.384970 -0.451565 0.057494
0.384930 -0.435854 0.059274
0.384933 -0.419758 0.061165
0.384962 -0.402965 0.062265
0.385082 -0.386188 0.063202
0.385386 -0.349408 0.064351
0.385246 -0.336495 0.062094
0.401503 -0.500417 0.054993
0.401493 -0.484690 0.057869
0.401397 -0.468616 0.058918
0.401344 -0.452399 0.060107
0.401373 -0.436284 0.061971
0.401433 -0.419828 0.063389
0.401521 -0.402635 0.063777
0.401631 -0.385711 0.063617
0.401588 -0.336957 0.060233
0.412168 -0.527460 0.050821
0.417751 -0.501589 0.056736
0.417842 -0.485427 0.060275
0.417835 -0.469035 0.061445
0.417859 -0.452591 0.062344
0.417952 -0.436281 0.063659
0.418045 -0.419718 0.064195
0.418113 -0.402450 0.063882
0.418132 -0.385766 0.062878
0.418111 -0.370131 0.061641
0.418032 -0.354134 0.060648
0.430098 -0.549537 0.050124
0.438085 -0.550228 0.053482
0.434070 -0.517995 0.057495
0.434152 -0.501857 0.060776
0.434244 -0.485595 0.063497
0.434283 -0.469060 0.064332
0.434339 -0.452507 0.064546
0.434451 -0.436143 0.065336
0.434533 -0.419625 0.065448
0.434546 -0.402611 0.064421
0.434499 -0.386225 0.062790
0.434415 -0.370601 0.061336
0.450543 -0.550781 0.058411
0.450561 -0.534435 0.061111
0.450560 -0.517975 0.062632
0.450622 -0.501759 0.064612
0.450691 -0.485513 0.065973
0.450733 -0.468892 0.066153
0.450795 -0.452264 0.066177
0.449613 -0.419589 0.066404
0.454215 -0.424955 0.067345
0.450874 -0.403012 0.064823
0.450799 -0.386845 0.063110
0.462209 -0.599816 0.050274
0.470321 -0.600164 0.053112
0.466883 -0.567495 0.057507
0.467019 -0.551208 0.061548
0.467084 -0.534670 0.063675
0.467130 -0.518039 0.065010
0.467166 -0.501751 0.066241
0.467191 -0.485484 0.066926
0.462615 -0.452181 0.067029
0.470841 -0.452165 0.067409
0.467195 -0.403412 0.064704
0.483403 -0.647907 0.048292
0.483325 -0.600409 0.056964
0.483253 -0.584040 0.057433
0.483344 -0.567681 0.060058
0.483504 -0.551323 0.063397
0.483599 -0.534778 0.064859
0.483650 -0.518171 0.065499
0.483667 -0.501844 0.066541
0.483768 -0.452265 0.067976
0.483753 -0.440378 0.067413
0.483735 -0.432476 0.066938
0.483643 -0.419989 0.066260
0.483508 -0.403722 0.065280
0.492737 -0.674916 0.050670
0.493308 -0.664349 0.050286
0.501312 -0.665051 0.056031
0.492842 -0.648799 0.050459
0.500879 -0.649093 0.055445
0.499802 -0.616786 0.060256
0.499797 -0.600468 0.061523
0.499705 -0.584048 0.062009
0.499765 -0.567698 0.063775
0.498006 -0.534878 0.066494
0.506128 -0.534865 0.067795
0.498169 -0.518324 0.066736
0.506228 -0.518355 0.067732
0.494917 -0.501955 0.067186
0.502987 -0.501984 0.068022
0.500100 -0.468965 0.068851
0.500076 -0.452485 0.068386
0.499743 -0.435983 0.067677
0.494205 -0.430468 0.067087
0.494637 -0.420176 0.066842
0.502759 -0.420226 0.068575
0.493299 -0.403866 0.066572
0.516251 -0.697370 0.059949
0.516149 -0.681919 0.061516
0.515365 -0.649417 0.063833
0.523646 -0.649493 0.067571
0.515005 -0.633062 0.064209
0.523247 -0.633061 0.067757
0.515416 -0.616834 0.065181
0.523612 -0.616867 0.067516
0.515694 -0.600444 0.065780
0.523876 -0.600456 0.067433
0.515536 -0.583989 0.066037
0.523743 -0.583948 0.067566
0.512975 -0.567667 0.066601
0.521138 -0.567602 0.068055
0.516332 -0.534810 0.069578
0.516300 -0.518293 0.069385
0.516396 -0.501967 0.069714
0.516484 -0.485640 0.070042
0.516448 -0.469062 0.069903
0.516379 -0.452672 0.069423
0.516354 -0.436550 0.069586
0.532660 -0.714114 0.061448
0.527126 -0.682525 0.065590
0.535394 -0.682545 0.069774
0.532474 -0.649449 0.069258
0.532542 -0.633057 0.069243
0.532702 -0.616916 0.069147
0.532778 -0.600480 0.069048
0.532792 -0.583910 0.069140
0.532808 -0.567539 0.070019
0.532817 -0.551246 0.071332
0.532829 -0.534711 0.071836
0.532863 -0.518117 0.071826
0.532936 -0.501793 0.071735
0.532955 -0.485535 0.071522
0.532874 -0.469069 0.071551
0.532787 -0.452780 0.071587
0.532770 -0.436640 0.073437
0.549433 -0.740620 0.061254
0.549177 -0.730394 0.059874
0.548996 -0.682582 0.073613
0.548951 -0.666151 0.073180
0.548860 -0.649484 0.071563
0.548901 -0.633102 0.071164
0.549046 -0.616962 0.071601
0.549168 -0.600494 0.071719
0.549255 -0.583839 0.071649
0.549271 -0.567444 0.072253
0.549234 -0.551209 0.072978
0.549266 -0.534645 0.073235
0.549343 -0.517966 0.073278
0.549397 -0.501627 0.073056
0.549373 -0.485444 0.072842
0.549257 -0.469122 0.073057
0.549164 -0.452896 0.073902
0.565407 -0.731331 0.061562
0.565321 -0.699026 0.074659
0.565305 -0.682643 0.075071
0.565247 -0.666168 0.074745
0.565144 -0.649547 0.073639
0.565192 -0.633128 0.073433
0.565363 -0.616914 0.074010
0.565460 -0.600409 0.074178
0.565498 -0.583694 0.074079
0.565554 -0.567332 0.074154
0.565606 -0.551164 0.074246
0.565625 -0.534594 0.074186
0.565644 -0.517889 0.074078
0.565710 -0.501575 0.074083
0.565719 -0.485466 0.074232
0.565597 -0.469237 0.074614
0.582169 -0.756207 0.057593
0.581988 -0.754940 0.049578
0.581760 -0.731724 0.062278
0.581699 -0.699115 0.075445
0.581680 -0.682653 0.076184
0.581622 -0.666131 0.076154
0.581541 -0.649504 0.075362
0.581591 -0.633080 0.075344
0.581752 -0.616845 0.076101
0.581830 -0.600264 0.076329
0.581862 -0.583446 0.076191
0.581968 -0.567132 0.075802
0.582084 -0.551066 0.075348
0.582093 -0.534478 0.075423
0.582060 -0.517779 0.075797
0.582088 -0.501585 0.076061
0.582080 -0.485567 0.076451
0.581962 -0.469347 0.077188
0.598577 -0.754495 0.049605
0.598256 -0.731758 0.059826
0.598110 -0.699117 0.075153
0.598116 -0.682634 0.076886
0.598112 -0.666042 0.077347
0.598104 -0.649313 0.076535
0.598147 -0.632908 0.076643
0.598222 -0.616771 0.077677
0.598316 -0.600109 0.078055
0.598447 -0.583093 0.077845
0.598587 -0.566774 0.077332
0.598675 -0.550849 0.076825
0.598697 -0.534251 0.077628
0.598657 -0.517593 0.078862
0.598557 -0.501612 0.079414
0.598430 -0.485702 0.079996
0.608675 -0.753563 0.050257
0.615319 -0.744394 0.072111
0.614561 -0.699080 0.073607
0.614560 -0.682652 0.076757
0.614576 -0.666100 0.078251
0.614593 -0.649348 0.077863
0.614628 -0.632899 0.078079
0.614669 -0.616761 0.078877
0.614780 -0.600039 0.079394
0.614949 -0.582854 0.079582
0.615087 -0.566401 0.079315
0.615148 -0.550482 0.079063
0.615140 -0.533995 0.079961
0.615058 -0.517575 0.081087
0.614900 -0.501779 0.081426
0.628688 -0.738653 0.072334
0.636860 -0.734589 0.072250
0.629942 -0.740198 0.057688
0.627239 -0.740141 0.049440
0.631027 -0.682712 0.075864
0.631001 -0.666275 0.078860
0.630961 -0.649625 0.079539
0.630994 -0.633123 0.079755
0.631106 -0.616832 0.079753
0.631198 -0.600074 0.080316
0.631295 -0.582835 0.081131
0.630464 -0.550051 0.081285
0.638620 -0.549796 0.082737
0.632340 -0.533742 0.081699
0.638513 -0.538939 0.082782
0.631225 -0.517746 0.081524
0.647484 -0.666302 0.077030
0.647419 -0.649693 0.079385
0.647474 -0.633164 0.080237
0.647624 -0.616761 0.079616
0.647691 -0.599987 0.080015
0.647706 -0.582836 0.081088
0.647518 -0.517953 0.080068
0.657606 -0.721715 0.057583
0.656994 -0.721772 0.049893
0.664024 -0.666225 0.072451
0.663962 -0.649545 0.077019
0.664031 -0.632965 0.079079
