-0.136705 0.710331 -0.352765
-0.122920 0.728445 0.336362
-0.135157 0.733776 0.340529
-0.128419 0.739030 0.331844
-0.127375 0.727703 -0.238888
-0.137202 0.727707 -0.253126
-0.133365 0.732890 -0.244063
-0.130609 0.721941 -0.248038
-0.134872 0.749974 0.325086
-0.123978 0.743871 0.320508
-0.130453 0.753802 0.314777
-0.123489 0.743916 -0.221248
-0.136055 0.745174 -0.238607
-0.132411 0.751055 -0.229433
-0.129604 0.740088 -0.233545
-0.135975 0.764747 0.308259
-0.125459 0.758904 0.302950
-0.131388 0.769317 0.297435
-0.128165 0.772466 0.288894
-0.132694 0.784328 0.278686
-0.122552 0.777825 0.272681
-0.128919 0.788806 0.267153
-0.128068 0.776490 0.075573
-0.131992 0.784683 0.075495
-0.131696 0.785202 0.084922
-0.127971 0.778793 0.091115
-0.132450 0.784058 0.059308
-0.128044 0.775855 0.059302
-0.132266 0.784553 0.042913
-0.127769 0.776362 0.042893
-0.128025 0.778916 0.027057
-0.131797 0.785412 0.033637
-0.131486 0.786034 0.021612
-0.135577 0.792405 0.026912
-0.128768 0.776760 -0.203059
-0.133320 0.781834 -0.208074
-0.130610 0.770880 -0.213170
-0.126489 0.791345 0.255152
-0.133192 0.799561 0.255493
-0.124868 0.792383 0.238667
-0.132311 0.800607 0.238930
-0.131774 0.801218 0.221270
-0.124111 0.792993 0.221067
-0.124805 0.795307 0.204620
-0.131302 0.801807 0.210914
-0.130604 0.802594 0.199886
-0.136613 0.808918 0.205067
-0.125734 0.795340 0.139510
-0.133020 0.799263 0.124823
-0.131382 0.801797 0.133308
-0.128100 0.791068 0.124788
-0.130264 0.787534 0.108522
-0.135260 0.795743 0.108525
-0.135357 0.792484 0.091070
-0.131142 0.786169 0.096100
-0.130995 0.786812 0.008657
-0.135883 0.795015 0.008839
-0.135148 0.795982 -0.007082
-0.130304 0.787774 -0.007144
-0.129679 0.788842 -0.023237
-0.134606 0.797050 -0.023291
-0.133989 0.798160 -0.039788
-0.129233 0.789955 -0.039688
-0.128864 0.790781 -0.055854
-0.133412 0.798990 -0.055907
-0.133255 0.799039 -0.071961
-0.128715 0.790827 -0.071971
-0.133007 0.799436 -0.088472
-0.128504 0.791234 -0.088480
-0.128403 0.794669 -0.106141
-0.132343 0.800751 -0.101147
-0.136481 0.808649 -0.106008
-0.131584 0.802173 -0.112325
-0.129821 0.789202 -0.188038
-0.134091 0.797411 -0.188188
-0.132897 0.799942 -0.175812
-0.128720 0.794192 -0.171201
-0.136671 0.792975 -0.202957
-0.130981 0.786956 -0.197075
-0.135557 0.812655 0.188047
-0.129254 0.804410 0.188214
-0.127794 0.806418 0.173046
-0.133546 0.814638 0.172415
-0.134064 0.813873 0.156436
-0.128477 0.805660 0.156933
-0.134916 0.809518 0.139332
-0.130116 0.803593 0.143861
-0.130775 0.803814 -0.121773
-0.135488 0.812024 -0.121548
-0.130139 0.805153 -0.138355
-0.134229 0.813374 -0.138212
-0.130986 0.803523 -0.155808
-0.135483 0.811731 -0.155748
-0.137081 0.808578 -0.171440
-0.131747 0.802033 -0.165075
-0.110116 -0.502120 0.485233
-0.101945 -0.510518 0.485561
-0.099787 -0.508622 0.495344
-0.105587 -0.498261 0.497659
-0.103839 -0.512097 0.468820
-0.112063 -0.504069 0.468906
-0.112789 -0.504876 0.451302
-0.104563 -0.512748 0.451098
-0.104421 -0.512844 0.433741
-0.112624 -0.504917 0.433815
-0.103999 -0.512551 0.417107
-0.112187 -0.504638 0.417045
-0.103545 -0.511824 0.400898
-0.111719 -0.504145 0.400819
-0.110068 -0.502529 0.384488
-0.101921 -0.509935 0.384629
-0.106597 -0.498666 0.367152
-0.099803 -0.507914 0.373262
-0.106137 -0.483525 0.503176
-0.113428 -0.489268 0.361054
-0.102644 -0.494276 0.355046
-0.107457 -0.486265 0.350711
-0.106159 -0.467904 0.504597
-0.106195 -0.451913 0.504041
-0.106169 -0.435597 0.503721
-0.106152 -0.419316 0.503047
-0.107390 -0.417550 0.311894
-0.102373 -0.426356 0.313090
-0.107395 -0.432253 0.315787
-0.113252 -0.423718 0.313760
-0.106183 -0.403175 0.500778
-0.106213 -0.386985 0.498545
-0.106260 -0.383578 -0.175557
-0.101904 -0.395231 -0.188255
-0.100701 -0.394060 -0.179214
-0.110079 -0.387164 -0.188214
-0.100683 -0.394098 -0.204011
-0.109983 -0.383227 -0.205466
-0.103145 -0.383393 -0.219982
-0.099107 -0.392527 -0.213801
-0.103855 -0.384885 -0.385423
-0.099572 -0.393131 -0.402903
-0.098989 -0.392515 -0.390582
-0.108846 -0.382011 -0.404196
-0.108058 -0.383759 -0.419795
-0.099866 -0.393452 -0.419867
-0.109061 -0.382058 -0.435665
-0.099648 -0.393225 -0.436168
-0.099019 -0.392573 -0.452246
-0.106289 -0.383618 -0.452202
-0.098533 -0.392071 -0.462823
-0.103296 -0.384888 -0.468523
-0.106241 -0.370713 0.496982
-0.106470 -0.372219 -0.167813
-0.114692 -0.375274 -0.211896
-0.111983 -0.372066 -0.220712
-0.108286 -0.366277 -0.237245
-0.099838 -0.377264 -0.237487
-0.098467 -0.375525 -0.245917
-0.101136 -0.366459 -0.252264
-0.102316 -0.367587 -0.288662
-0.098596 -0.375715 -0.299269
-0.098590 -0.375716 -0.295301
-0.103223 -0.368708 -0.304130
-0.109291 -0.366128 -0.352385
-0.100713 -0.378475 -0.352141
-0.099125 -0.376350 -0.341629
-0.102634 -0.367689 -0.335734
-0.111043 -0.370083 -0.368962
-0.102846 -0.381402 -0.369041
-0.112913 -0.372976 -0.386093
-0.114147 -0.374706 -0.399457
-0.113744 -0.374180 -0.452146
-0.114440 -0.375096 -0.440645
-0.112540 -0.372640 -0.468631
-0.111610 -0.371563 -0.485167
-0.103430 -0.382237 -0.485304
-0.111640 -0.371728 -0.501466
-0.103455 -0.382081 -0.501556
-0.111573 -0.371727 -0.517519
-0.103397 -0.381788 -0.517476
-0.102150 -0.379966 -0.533142
-0.110309 -0.370350 -0.533317
-0.100365 -0.377634 -0.545900
-0.106967 -0.367825 -0.550649
-0.106286 -0.354421 0.495740
-0.106450 -0.350796 -0.160962
-0.106462 -0.364022 -0.164057
-0.109955 -0.353911 -0.253786
-0.112963 -0.357128 -0.242549
-0.100632 -0.362595 -0.270301
-0.108837 -0.352846 -0.270323
-0.111345 -0.355673 -0.287418
-0.112448 -0.356771 -0.303779
-0.110966 -0.354967 -0.319272
-0.102793 -0.365535 -0.319251
-0.111377 -0.355380 -0.335274
-0.113529 -0.357739 -0.347034
-0.113588 -0.357770 -0.555296
-0.102727 -0.364259 -0.565853
-0.110880 -0.354955 -0.565905
-0.106139 -0.350444 -0.581456
-0.099934 -0.360864 -0.576498
-0.106342 -0.338115 0.494728
-0.106376 -0.334382 -0.157850
-0.112380 -0.340574 -0.586187
-0.101444 -0.346106 -0.591976
-0.106917 -0.335287 -0.595250
-0.106381 -0.321759 0.493280
-0.106343 -0.317978 -0.154396
-0.106689 -0.305694 0.491503
-0.106339 -0.304176 -0.150880
-0.112337 -0.300455 0.489794
-0.112358 -0.293457 0.489821
-0.106689 -0.288390 0.491566
-0.106344 -0.285156 -0.143805
-0.106326 -0.295979 -0.148261
-0.106442 -0.272595 0.492965
-0.106330 -0.268037 -0.136399
-0.106484 -0.256210 0.493061
-0.111782 -0.257929 -0.133742
-0.100876 -0.262117 -0.131771
-0.106354 -0.252414 -0.129200
-0.107658 -0.240524 0.492144
-0.106371 -0.235958 0.088699
-0.100330 -0.246738 0.074789
-0.100677 -0.247343 0.084714
-0.109283 -0.235262 0.074342
-0.103283 -0.236472 0.060600
-0.098714 -0.244484 0.066841
-0.104200 -0.237398 -0.072266
-0.098383 -0.244252 -0.066456
-0.098392 -0.244254 -0.064721
-0.103843 -0.236628 -0.058604
-0.106644 -0.236479 -0.120997
-0.113883 -0.235545 0.490409
-0.113904 -0.229983 0.490457
-0.107688 -0.224067 0.492662
-0.112140 -0.224905 0.092861
-0.101193 -0.231700 0.098066
-0.106542 -0.219756 0.100119
-0.112469 -0.225274 0.059365
-0.114060 -0.226933 0.069352
-0.111258 -0.223675 0.042943
-0.103077 -0.232878 0.042955
-0.110887 -0.222820 0.026029
-0.102713 -0.232127 0.026020
-0.103316 -0.232626 0.008911
-0.111496 -0.223708 0.008947
-0.113494 -0.226323 -0.007864
-0.105285 -0.234445 -0.007895
-0.113680 -0.226628 -0.024597
-0.105480 -0.234578 -0.024613
-0.112607 -0.225360 -0.041217
-0.104424 -0.233722 -0.041214
-0.113363 -0.226230 -0.057195
-0.113802 -0.227022 -0.072931
-0.102991 -0.233185 -0.089954
-0.111175 -0.224729 -0.089925
-0.101902 -0.232024 -0.107556
-0.110081 -0.223730 -0.107586
-0.112252 -0.225643 -0.118140
-0.106565 -0.207010 0.494163
-0.106386 -0.203717 0.105415
-0.106551 -0.190610 0.494239
-0.104762 -0.186070 0.109943
-0.106540 -0.174199 0.494170
-0.109220 -0.171157 0.111711
-0.098216 -0.179789 0.112931
-0.101016 -0.171321 0.113150
-0.106529 -0.157796 0.494947
-0.112711 -0.160685 0.112684
-0.106865 -0.155245 0.113433
-0.106534 -0.141403 0.494962
-0.106722 -0.138552 0.113339
-0.106563 -0.129457 0.493604
-0.112451 -0.129788 0.113044
-0.106900 -0.146982 -0.589199
-0.106907 -0.138758 -0.587968
-0.106607 -0.121269 0.491312
-0.106617 -0.108598 0.489609
-0.106652 -0.123885 0.110016
-0.106195 -0.106607 0.104646
-0.106619 -0.092187 0.490460
-0.106306 -0.090244 0.101969
-0.106636 -0.075777 0.489825
-0.106351 -0.073866 0.100099
-0.106699 -0.059375 0.485871
-0.107097 -0.056149 0.097631
-0.106713 -0.042960 0.483498
-0.113077 -0.049686 0.096443
-0.107077 -0.040883 0.096093
-0.102200 -0.046366 0.096667
-0.106657 -0.026546 0.483906
-0.106364 -0.024559 0.095265
-0.106639 -0.010146 0.482886
-0.106368 -0.008050 0.094661
-0.107390 0.006943 0.479607
-0.106243 0.008414 0.094062
-0.106225 -0.002619 -0.117962
-0.106231 -0.002575 -0.113904
-0.106200 0.009792 -0.120814
-0.108191 -0.008169 -0.573514
-0.122357 -0.008210 -0.573269
-0.116386 -0.001637 -0.572724
-0.114627 -0.001625 -0.572714
-0.108151 0.007571 -0.572267
-0.103695 0.002575 -0.573015
-0.113403 0.012850 0.477332
-0.113413 0.019618 0.477337
-0.107399 0.024111 0.478563
-0.106295 0.024781 0.093537
-0.106154 0.009004 -0.105625
-0.121094 0.011542 -0.105417
-0.114598 0.018125 -0.099982
-0.106078 0.017281 -0.099764
-0.106218 0.026201 -0.121343
-0.106664 0.039079 0.478750
-0.106501 0.041090 0.093325
-0.106305 0.042542 -0.120164
-0.106691 0.051367 0.478231
-0.106521 0.057464 0.092819
-0.106323 0.058945 -0.120164
-0.106721 0.059539 0.476712
-0.106674 0.071886 0.474971
-0.106407 0.073889 0.091913
-0.106330 0.053986 -0.101535
-0.106286 0.062218 -0.098869
-0.106292 0.075385 -0.120713
-0.106630 0.088302 0.473927
-0.106427 0.090330 0.091474
-0.106302 0.091778 -0.121549
-0.106587 0.104720 0.473125
-0.106516 0.106727 0.091289
-0.106331 0.108137 -0.122183
-0.106607 0.121117 0.471847
-0.106501 0.122915 0.090297
-0.106334 0.124507 -0.121650
-0.106643 0.137509 0.470391
-0.106461 0.139013 0.088643
-0.106333 0.140848 -0.120805
-0.112801 0.127999 -0.555931
-0.107102 0.122265 -0.557264
-0.107115 0.138361 -0.555162
-0.101889 0.132945 -0.556627
-0.106634 0.153910 0.468892
-0.106520 0.155244 0.087386
-0.106357 0.157073 -0.120729
-0.106615 0.170322 0.467279
-0.106571 0.171535 0.085044
-0.106373 0.173201 -0.120962
-0.106630 0.186729 0.465869
-0.106560 0.180622 0.082728
-0.106350 0.189272 -0.121083
-0.106660 0.203130 0.464376
-0.106591 0.183784 0.074943
-0.119078 0.191857 0.059359
-0.106620 0.186235 0.059369
-0.105614 0.183001 0.041739
-0.120578 0.190691 0.042952
-0.121999 0.188509 0.026145
-0.111253 0.180574 0.026316
-0.109158 0.186316 0.008387
-0.119299 0.190375 0.012133
-0.114689 0.195737 0.001099
-0.106631 0.192991 -0.028208
-0.119127 0.193470 -0.040616
-0.115539 0.195383 -0.031270
-0.105374 0.185394 -0.041795
-0.119814 0.193380 -0.052510
-0.105193 0.188391 -0.056651
-0.111300 0.199984 -0.063465
-0.106336 0.205318 -0.121290
-0.106685 0.219542 0.462455
-0.118328 0.207476 -0.007137
-0.108153 0.199406 -0.007606
-0.118208 0.205222 -0.024909
-0.106601 0.200370 -0.019797
-0.111270 0.200215 -0.074015
-0.113482 0.198285 -0.082634
-0.106362 0.221397 -0.121695
-0.105490 0.234619 0.460441
-0.106370 0.237556 -0.122099
-0.110176 0.239176 0.459199
-0.105454 0.251125 0.457266
-0.099204 0.244804 0.459298
-0.106323 0.253810 -0.122315
-0.106586 0.268759 0.453471
-0.106303 0.270121 -0.122476
-0.113379 0.258648 -0.539697
-0.107419 0.253006 -0.540418
-0.107417 0.269645 -0.539289
-0.102454 0.264477 -0.540142
-0.106594 0.285159 0.450582
-0.106336 0.286455 -0.122758
-0.106596 0.301570 0.447834
-0.106341 0.302654 -0.123038
-0.106579 0.317981 0.445015
-0.106300 0.318750 -0.123380
-0.106569 0.332405 0.442471
-0.106283 0.335057 -0.123988
-0.106546 0.340593 0.440343
-0.106425 0.350801 0.436774
-0.106304 0.351539 -0.124682
-0.106416 0.367212 0.433200
-0.106347 0.367862 -0.124821
-0.106534 0.383611 0.431364
-0.106408 0.384087 -0.124662
-0.106564 0.400015 0.428877
-0.106462 0.400467 -0.125197
-0.106802 0.380120 -0.524299
-0.106890 0.388328 -0.522728
-0.106492 0.417511 0.425821
-0.106519 0.416920 -0.125989
-0.111915 0.423683 0.424368
-0.106537 0.431822 0.422819
-0.100992 0.425658 0.424799
-0.106573 0.433268 -0.126052
-0.106648 0.449246 0.418930
-0.106597 0.449613 -0.125847
-0.106593 0.465661 0.415735
-0.106554 0.466204 -0.126192
-0.106515 0.482081 0.412756
-0.106499 0.482829 -0.126529
-0.106027 0.466418 -0.507588
-0.124223 0.466408 -0.507625
-0.119268 0.472413 -0.506477
-0.110752 0.472393 -0.506474
-0.099827 0.474067 -0.506802
-0.105990 0.480575 -0.504580
-0.106523 0.498482 0.410197
-0.106505 0.499107 -0.126146
-0.106547 0.509158 0.408617
-0.106528 0.515351 -0.125718
-0.106560 0.517354 0.406992
-0.106556 0.531287 0.404125
-0.106522 0.531906 -0.125836
-0.106569 0.547685 0.401052
-0.106524 0.548365 -0.125941
-0.106983 0.525855 -0.490991
-0.106988 0.534063 -0.488922
-0.106599 0.564087 0.398132
-0.106543 0.564566 -0.125801
-0.106625 0.580489 0.395261
-0.106554 0.580820 -0.125634
-0.105132 0.597515 0.392643
-0.106562 0.597178 -0.125407
-0.109565 0.603388 0.391290
-0.105150 0.611678 0.388962
-0.098665 0.605134 0.391818
-0.106558 0.613552 -0.125065
-0.113224 0.589475 -0.474314
-0.107481 0.595720 -0.470175
-0.106764 0.629707 0.383415
-0.105012 0.631397 -0.126907
-0.106793 0.646094 0.378950
-0.108211 0.639413 0.023912
-0.115623 0.638318 0.029455
-0.121869 0.635091 0.023627
-0.114527 0.638070 0.017537
-0.105029 0.641233 -0.123655
-0.107061 0.629415 -0.449370
-0.124766 0.629880 -0.459662
-0.120233 0.635482 -0.455617
-0.112787 0.624520 -0.458954
-0.106758 0.656004 0.375967
-0.112238 0.641644 -0.444692
-0.116909 0.652600 -0.438448
-0.109754 0.646726 -0.433276
-0.106732 0.664219 0.372056
-0.105929 0.679897 0.363813
-0.111343 0.663258 -0.401172
-0.117500 0.666960 -0.417200
-0.115991 0.669234 -0.404999
-0.112242 0.658735 -0.417434
-0.113874 0.656227 -0.427598
-0.110896 0.690140 0.360597
-0.111738 0.679091 -0.252265
-0.117450 0.683785 -0.269233
-0.116881 0.684659 -0.257154
-0.112199 0.675572 -0.269254
-0.116623 0.684918 -0.286367
-0.111368 0.676709 -0.286380
-0.111186 0.676980 -0.303029
-0.116408 0.685188 -0.303016
-0.112132 0.675661 -0.318930
-0.117021 0.683881 -0.318883
-0.117567 0.682836 -0.335442
-0.112778 0.674612 -0.335312
-0.118112 0.682350 -0.352669
-0.112985 0.674128 -0.352217
-0.113400 0.673383 -0.369495
-0.118827 0.681606 -0.369850
-0.119871 0.680095 -0.386718
-0.114318 0.671867 -0.386699
-0.120830 0.677352 -0.400919
-0.114994 0.670799 -0.395407
-0.118385 0.701121 0.356798
-0.105940 0.695836 0.352227
-0.111874 0.706815 0.346203
-0.114455 0.688428 -0.246852
-0.120323 0.694484 -0.252643
-0.117370 0.699405 -0.241309
-0.113184 0.694495 -0.236796
-0.117505 0.717760 0.340799
-0.106725 0.711716 0.336515
-0.112508 0.723104 0.332202
-0.113059 0.710554 -0.222632
-0.120020 0.710562 -0.237473
-0.116390 0.715235 -0.228392
-0.114810 0.704296 -0.231423
-0.117462 0.734020 0.326379
-0.107769 0.727492 0.320681
-0.113953 0.737759 0.315625
-0.111603 0.743774 0.304013
-0.119501 0.748705 0.308509
-0.114963 0.753047 0.297634
-0.113502 0.743168 -0.202523
-0.117361 0.747732 -0.207221
-0.115031 0.736764 -0.212961
-0.119939 0.764349 0.288868
-0.112304 0.756137 0.288869
-0.106848 0.760850 0.271279
-0.116190 0.767903 0.278442
-0.113109 0.771316 0.266582
-0.110757 0.761907 0.124111
-0.117360 0.765963 0.108383
-0.115815 0.767966 0.118613
-0.112642 0.757759 0.108288
-0.113603 0.755704 0.091966
-0.119151 0.763915 0.092006
-0.119859 0.763080 0.075643
-0.114134 0.754868 0.075622
-0.119847 0.762332 0.059312
-0.114687 0.754119 0.059292
-0.119581 0.762319 0.042893
-0.114804 0.754110 0.042883
-0.114312 0.755162 0.026309
-0.119083 0.763365 0.026272
-0.113844 0.756126 0.009778
-0.118373 0.764330 0.009691
-0.117780 0.764881 -0.006739
-0.113505 0.756673 -0.006632
-0.117317 0.765659 -0.023005
-0.113140 0.757454 -0.022961
-0.116727 0.766840 -0.039227
-0.112714 0.758640 -0.039280
-0.112320 0.759591 -0.055650
-0.116180 0.767790 -0.055587
-0.111996 0.760128 -0.072016
-0.115817 0.768323 -0.071980
-0.115620 0.768549 -0.088411
-0.111759 0.760358 -0.088437
-0.111668 0.762426 -0.103918
-0.115438 0.768848 -0.097741
-0.114793 0.770213 -0.108741
-0.118722 0.776355 -0.104061
-0.113608 0.755792 -0.187151
-0.117718 0.764009 -0.187231
-0.116298 0.767344 -0.175625
-0.111793 0.761516 -0.170465
-0.120634 0.759576 -0.202363
-0.114950 0.753160 -0.195744
-0.111055 0.773704 0.254811
-0.118278 0.781919 0.254918
-0.116678 0.783675 0.238500
-0.109687 0.775463 0.238534
-0.115924 0.784289 0.220899
-0.109599 0.776090 0.220965
-0.109909 0.776527 0.203543
-0.115426 0.784721 0.203495
-0.109968 0.778863 0.189078
-0.115041 0.785199 0.193888
-0.114040 0.786605 0.184933
-0.120009 0.792785 0.188945
-0.112126 0.774372 0.140762
-0.116934 0.782540 0.140835
-0.115242 0.785004 0.150495
-0.110271 0.778791 0.156667
-0.119381 0.776947 0.124286
-0.113888 0.771196 0.129288
-0.113589 0.772410 -0.121487
-0.118044 0.780619 -0.121710
-0.117230 0.782343 -0.138380
-0.112532 0.774135 -0.138220
-0.113522 0.772460 -0.154835
-0.117997 0.780661 -0.155273
-0.114797 0.770206 -0.164887
-0.119476 0.776361 -0.171158
-0.119661 0.795541 0.173591
-0.113632 0.787348 0.173849
-0.113946 0.786991 0.161770
-0.119504 0.793006 0.156535
-0.094134 -0.518737 0.485668
-0.085907 -0.527436 0.485793
-0.083877 -0.525523 0.496439
-0.089240 -0.514828 0.500258
-0.087172 -0.528439 0.468392
-0.095456 -0.520305 0.468625
-0.095978 -0.520960 0.450783
-0.087704 -0.528705 0.450467
-0.087690 -0.528968 0.433638
-0.095940 -0.521059 0.433611
-0.087293 -0.528781 0.417308
-0.095528 -0.520767 0.417111
-0.094684 -0.520036 0.400872
-0.086468 -0.527702 0.400975
-0.092823 -0.518135 0.384610
-0.084645 -0.525762 0.384714
-0.082887 -0.524048 0.374182
-0.089845 -0.514639 0.368171
-0.095421 -0.499662 0.504818
-0.083675 -0.510514 0.507646
-0.087192 -0.500190 0.508059
-0.096821 -0.505250 0.362143
-0.086015 -0.510397 0.355720
-0.091970 -0.500179 0.350452
-0.097370 -0.484113 0.506606
-0.089184 -0.484481 0.507605
-0.092841 -0.484230 0.335191
-0.087166 -0.495158 0.340755
-0.097972 -0.489824 0.345143
-0.091010 -0.468111 0.506284
-0.086355 -0.473321 0.507026
-0.092082 -0.467315 0.325537
-0.087685 -0.478620 0.328224
-0.098545 -0.473757 0.329872
-0.089822 -0.452410 0.505623
-0.089569 -0.435828 0.505991
-0.089566 -0.419750 0.505644
-0.083976 -0.425363 0.506826
-0.083989 -0.430368 0.506830
-0.089814 -0.403400 0.503133
-0.092398 -0.403437 -0.188380
-0.084211 -0.410048 -0.188441
-0.083189 -0.409139 -0.180265
-0.089169 -0.399726 -0.177283
-0.083500 -0.409568 -0.204250
-0.091721 -0.402311 -0.204151
-0.082238 -0.408493 -0.213161
-0.088915 -0.398872 -0.219241
-0.088575 -0.402372 -0.403056
-0.082502 -0.408850 -0.419591
-0.082157 -0.408545 -0.408805
-0.090710 -0.401662 -0.419747
-0.090649 -0.401438 -0.436137
-0.082441 -0.408806 -0.436061
-0.082080 -0.408481 -0.448322
-0.088548 -0.402192 -0.453173
-0.089844 -0.387143 0.500777
-0.091556 -0.383639 -0.168515
-0.093083 -0.385485 -0.237556
-0.084879 -0.394605 -0.237657
-0.095580 -0.388703 -0.225267
-0.083164 -0.393097 -0.249866
-0.089571 -0.383396 -0.253161
-0.086158 -0.384930 -0.271665
-0.082518 -0.392367 -0.287725
-0.081941 -0.391859 -0.278421
-0.091347 -0.382175 -0.288788
-0.092544 -0.382188 -0.304326
-0.083060 -0.392845 -0.304243
-0.090028 -0.383662 -0.319286
-0.082942 -0.392742 -0.319325
-0.083935 -0.393674 -0.335440
-0.092647 -0.382562 -0.335787
-0.086081 -0.395466 -0.352716
-0.094330 -0.386694 -0.352416
-0.096471 -0.389623 -0.369196
-0.088205 -0.396990 -0.369448
-0.097790 -0.391195 -0.379371
-0.091381 -0.397533 -0.385379
-0.097141 -0.390436 -0.485433
-0.088941 -0.398820 -0.485325
-0.091391 -0.398026 -0.468597
-0.097781 -0.391212 -0.474063
-0.097032 -0.390287 -0.501662
-0.088824 -0.398899 -0.501576
-0.088591 -0.398534 -0.517525
-0.096799 -0.389989 -0.517502
-0.095163 -0.388172 -0.533088
-0.086972 -0.396840 -0.533137
-0.084352 -0.394112 -0.549042
-0.093572 -0.383331 -0.550441
-0.082587 -0.392310 -0.558146
-0.086737 -0.383370 -0.564613
-0.089866 -0.370821 0.499065
-0.098073 -0.375316 -0.165602
-0.091562 -0.368794 -0.163078
-0.087119 -0.378227 -0.164801
-0.095418 -0.370809 -0.270283
-0.095951 -0.371407 -0.256573
-0.096850 -0.373293 -0.283670
-0.097303 -0.373735 -0.319246
-0.098164 -0.375158 -0.309462
-0.097201 -0.373463 -0.330409
-0.098248 -0.375154 -0.556862
-0.095692 -0.372468 -0.565808
-0.084099 -0.377798 -0.577305
-0.090126 -0.367330 -0.582250
-0.089904 -0.354488 0.497716
-0.090010 -0.350801 -0.159069
-0.090607 -0.351615 -0.596295
-0.085231 -0.362946 -0.593096
-0.096189 -0.356956 -0.587016
-0.089954 -0.338152 0.496685
-0.089950 -0.334388 -0.156483
-0.089976 -0.321782 0.495554
-0.089911 -0.317984 -0.153078
-0.082574 -0.327805 -0.605319
-0.082562 -0.330347 -0.605355
-0.089009 -0.335531 -0.603311
-0.089035 -0.321124 -0.603089
-0.089979 -0.305366 0.494351
-0.089893 -0.307362 -0.150101
-0.090010 -0.288970 0.494794
-0.089882 -0.299141 -0.146638
-0.089919 -0.285156 -0.140155
-0.090061 -0.272599 0.496370
-0.089939 -0.273613 -0.134592
-0.090101 -0.256213 0.496592
-0.093992 -0.254953 0.074918
-0.085841 -0.264223 0.075076
-0.085656 -0.264203 0.086859
-0.091228 -0.253950 0.090451
-0.090037 -0.251634 0.060606
-0.083460 -0.261862 0.065232
-0.090556 -0.253366 -0.119994
-0.089978 -0.265407 -0.128271
-0.090134 -0.239814 0.496092
-0.096827 -0.242512 0.094275
-0.090765 -0.236933 0.101016
-0.085923 -0.249616 0.098590
-0.095367 -0.241070 0.042934
-0.087153 -0.249097 0.042942
-0.096584 -0.242260 0.055987
-0.086163 -0.247877 0.025936
-0.094375 -0.240320 0.025958
-0.086686 -0.248393 0.008797
-0.094894 -0.240829 0.008839
-0.096850 -0.242643 -0.007968
-0.088626 -0.250242 -0.007968
-0.096927 -0.242766 -0.024661
-0.088709 -0.250161 -0.024631
-0.087813 -0.249151 -0.041187
-0.096028 -0.241912 -0.041209
-0.096622 -0.242533 -0.054379
-0.090711 -0.248795 -0.058615
-0.095655 -0.241369 -0.089956
-0.087491 -0.249943 -0.089901
-0.091526 -0.249845 -0.072347
-0.097920 -0.243816 -0.077185
-0.086322 -0.249570 -0.107283
-0.094497 -0.240223 -0.107479
-0.096368 -0.242290 -0.117610
-0.090156 -0.223409 0.496821
-0.089918 -0.220222 0.106870
-0.090151 -0.207009 0.497960
-0.088297 -0.202509 0.110764
-0.090133 -0.190611 0.497895
-0.092613 -0.190795 0.111882
-0.081696 -0.196180 0.112898
-0.088193 -0.186425 0.113108
-0.090130 -0.174201 0.497493
-0.089794 -0.171631 0.113502
-0.090154 -0.157796 0.497680
-0.089764 -0.156217 0.113418
-0.090184 -0.141400 0.497254
-0.095202 -0.144020 0.113311
-0.089913 -0.124495 0.495048
-0.089792 -0.139098 0.110690
-0.101557 -0.133123 0.112290
-0.089861 -0.123237 0.106166
-0.095683 -0.148427 -0.589052
-0.090334 -0.142252 -0.588072
-0.095216 -0.118703 0.492815
-0.092620 -0.108583 0.492501
-0.084371 -0.108594 0.494284
-0.089848 -0.106922 0.102481
-0.092484 -0.092171 0.492936
-0.084207 -0.092180 0.494298
-0.089922 -0.090465 0.100953
-0.089810 -0.076301 0.492583
-0.084018 -0.082145 0.494283
-0.089947 -0.074042 0.099939
-0.090233 -0.059368 0.489004
-0.089891 -0.057752 0.098414
-0.090251 -0.042952 0.486748
-0.090499 -0.041149 0.097068
-0.090211 -0.026539 0.486964
-0.096375 -0.035346 0.096351
-0.093399 -0.024773 0.096115
-0.085235 -0.024942 0.096732
-0.090197 -0.010141 0.485980
-0.091535 -0.008346 0.095834
-0.083395 -0.008575 0.096639
-0.090213 0.006263 0.483109
-0.092193 0.008034 0.095634
-0.084070 0.007723 0.096771
-0.090893 -0.007664 -0.109600
-0.090898 -0.007779 -0.120372
-0.089849 0.009653 -0.122690
-0.090180 0.022670 0.481147
-0.089373 0.024649 0.095523
-0.083565 0.019168 0.096728
-0.089827 0.005228 -0.102046
-0.089758 0.013470 -0.099268
-0.089831 0.026074 -0.122884
-0.097641 0.013532 -0.572692
-0.091440 0.007451 -0.573676
-0.091446 0.024278 -0.572148
-0.086731 0.019507 -0.573325
-0.090122 0.039086 0.480213
-0.090085 0.040706 0.094745
-0.089856 0.042466 -0.123100
-0.091468 0.056781 0.478960
-0.090105 0.057101 0.094359
-0.089880 0.058895 -0.123030
-0.097913 0.063089 0.477574
-0.096378 0.071904 0.477133
-0.088079 0.071905 0.478657
-0.090035 0.073492 0.094074
-0.097998 0.051236 -0.099440
-0.091442 0.057633 -0.097156
-0.089907 0.075332 -0.122467
-0.093392 0.088323 0.476546
-0.085114 0.088319 0.478205
-0.090067 0.089919 0.093610
-0.089926 0.091729 -0.122971
-0.089107 0.103988 0.475993
-0.082897 0.098004 0.477771
-0.090147 0.106295 0.092951
-0.089937 0.108077 -0.123817
-0.090152 0.121123 0.474044
-0.090136 0.122474 0.091483
-0.089942 0.124385 -0.123489
-0.090193 0.137514 0.472494
-0.090102 0.138592 0.089267
-0.089945 0.140656 -0.122806
-0.090156 0.153916 0.470804
-0.090150 0.154876 0.087530
-0.089948 0.156879 -0.122759
-0.090751 0.138181 -0.557538
-0.096469 0.143803 -0.555877
-0.090757 0.155147 -0.555040
-0.085545 0.150027 -0.556760
-0.090112 0.170328 0.468786
-0.090197 0.171217 0.085076
-0.089950 0.173021 -0.122969
-0.090146 0.186735 0.466980
-0.090198 0.180017 0.083013
-0.088674 0.177706 0.041719
-0.103049 0.177460 0.026327
-0.099485 0.179025 0.035422
-0.090349 0.171736 0.026317
-0.103609 0.177193 0.015599
-0.090344 0.173679 0.012361
-0.090298 0.181830 0.004084
-0.089289 0.175963 -0.041788
-0.099066 0.179276 -0.049859
-0.099075 0.179234 -0.048280
-0.089558 0.175747 -0.056249
-0.094534 0.183483 -0.060904
-0.095501 0.168679 -0.083253
-0.106337 0.173915 -0.084288
-0.100823 0.179473 -0.080686
-0.089497 0.173713 -0.074843
-0.089950 0.189043 -0.122962
-0.090192 0.203134 0.465240
-0.090206 0.182746 0.075160
-0.088622 0.182407 0.057805
-0.093084 0.180867 0.046378
-0.090224 0.189929 -0.005125
-0.103745 0.192961 -0.002451
-0.090178 0.196863 -0.013310
-0.089213 0.187259 -0.025819
-0.094101 0.181682 -0.036921
-0.103680 0.189396 -0.074640
-0.094471 0.183937 -0.069553
-0.089964 0.205063 -0.123129
-0.090213 0.219547 0.463117
-0.090171 0.196883 -0.016346
-0.089993 0.221210 -0.123759
-0.090222 0.235956 0.460792
-0.089994 0.237376 -0.124338
-0.090228 0.248404 0.458995
-0.089941 0.253526 -0.124522
-0.090214 0.256591 0.457432
-0.090145 0.268765 0.454295
-0.089893 0.269834 -0.124924
-0.090089 0.285165 0.450583
-0.089866 0.286311 -0.125700
-0.090878 0.269549 -0.540812
-0.096765 0.275404 -0.539663
-0.090851 0.285861 -0.539132
-0.085800 0.280545 -0.540254
-0.090065 0.301572 0.447714
-0.089862 0.302566 -0.125934
-0.090092 0.317984 0.445288
-0.089875 0.318612 -0.125695
-0.090122 0.333968 0.442643
-0.089913 0.334868 -0.126162
-0.090126 0.342158 0.440899
-0.090051 0.350804 0.437704
-0.089977 0.351290 -0.127218
-0.090060 0.367214 0.433622
-0.090046 0.367603 -0.127625
-0.090176 0.383615 0.431522
-0.090117 0.383864 -0.127437
-0.090185 0.400019 0.429193
-0.090153 0.400276 -0.127648
-0.090759 0.384455 -0.524874
-0.096351 0.390502 -0.523179
-0.090855 0.400339 -0.522364
-0.085526 0.394988 -0.523707
-0.090123 0.416423 0.426726
-0.090159 0.416760 -0.128049
-0.090124 0.427911 0.425126
-0.090150 0.433160 -0.127859
-0.090145 0.436116 0.423182
-0.090147 0.449255 0.419902
-0.090126 0.449540 -0.127499
-0.090117 0.465673 0.416702
-0.091381 0.450306 0.197838
-0.105878 0.450270 0.193482
-0.099981 0.455136 0.195464
-0.097909 0.444047 0.194859
-0.090096 0.466101 -0.127690
-0.090085 0.482094 0.413809
-0.090077 0.482683 -0.127958
-0.090092 0.498495 0.410843
-0.090092 0.498986 -0.127670
-0.090624 0.475182 -0.507103
-0.090634 0.483397 -0.504727
-0.090106 0.510351 0.408792
-0.090109 0.515261 -0.127388
-0.090114 0.518546 0.407285
-0.090132 0.531300 0.404927
-0.090116 0.531773 -0.127488
-0.090159 0.547694 0.401856
-0.090129 0.548181 -0.127775
-0.090604 0.535448 -0.489271
-0.090585 0.527254 -0.491297
-0.090195 0.564091 0.398483
-0.090149 0.564383 -0.128235
-0.090229 0.580491 0.395371
-0.090169 0.580660 -0.128445
-0.091717 0.597727 0.392683
-0.090195 0.597027 -0.128315
-0.090593 0.575916 -0.475719
-0.107444 0.581381 -0.476361
-0.102311 0.587431 -0.473369
-0.090598 0.584099 -0.470311
-0.098165 0.605134 0.391818
-0.089613 0.613793 -0.129677
-0.091772 0.611679 0.388905
-0.090405 0.629704 0.382681
-0.094663 0.626849 -0.130436
-0.096164 0.607717 -0.459253
-0.107189 0.613239 -0.461532
-0.101831 0.618701 -0.454002
-0.091399 0.611892 -0.447752
-0.091442 0.645915 0.377473
-0.090307 0.630410 -0.138608
-0.098523 0.637758 -0.132360
-0.098527 0.638392 -0.132364
-0.095586 0.644790 -0.138385
-0.094004 0.630760 -0.418022
-0.101114 0.634473 -0.433638
-0.099338 0.636921 -0.422912
-0.095459 0.626254 -0.433616
-0.097573 0.623352 -0.443136
-0.097546 0.654925 0.375690
-0.096521 0.646184 -0.252571
-0.100249 0.651114 -0.269790
-0.099978 0.651683 -0.257140
-0.096570 0.642900 -0.270065
-0.095875 0.644699 -0.287181
-0.099381 0.652894 -0.286905
-0.095397 0.645599 -0.303558
-0.098989 0.653786 -0.303356
-0.095381 0.644710 -0.319026
-0.099538 0.652909 -0.318965
-0.100016 0.652027 -0.335257
-0.095632 0.643819 -0.335316
-0.095956 0.643521 -0.352531
-0.100107 0.651728 -0.352322
-0.096142 0.642995 -0.369827
-0.100396 0.651207 -0.369633
-0.101025 0.650309 -0.386736
-0.096403 0.642084 -0.386810
-0.102211 0.648521 -0.402767
-0.097297 0.640292 -0.402952
-0.103344 0.644960 -0.417743
-0.098199 0.638671 -0.412816
-0.090702 0.662080 0.367552
-0.094804 0.675050 0.361470
-0.096799 0.659861 -0.188669
-0.099722 0.668066 -0.189306
-0.099318 0.668854 -0.177393
-0.097491 0.663053 -0.172062
-0.099838 0.668064 -0.205172
-0.096416 0.659855 -0.204584
-0.096813 0.659293 -0.220605
-0.099987 0.667508 -0.220685
-0.097685 0.657282 -0.236817
-0.101060 0.665501 -0.236592
-0.103029 0.661425 -0.252044
-0.098352 0.655224 -0.246199
-0.100011 0.685983 0.357967
-0.089514 0.680228 0.353071
-0.095125 0.690536 0.348021
-0.100982 0.701482 0.341082
-0.090626 0.695077 0.336837
-0.097030 0.705661 0.331989
-0.091993 0.710119 0.319759
-0.101553 0.716591 0.325790
-0.097935 0.720949 0.314955
-0.096208 0.712322 0.059349
-0.099689 0.718577 0.042894
-0.099860 0.718182 0.054016
-0.096511 0.710391 0.042891
-0.096489 0.713363 0.027981
-0.099024 0.719884 0.034542
-0.098517 0.721501 0.023418
-0.101926 0.727443 0.027799
-0.095131 0.724024 0.305416
-0.102639 0.732243 0.305411
-0.099682 0.735305 0.295427
-0.090175 0.728396 0.289056
-0.103554 0.744661 0.289393
-0.096572 0.739227 0.284144
-0.095234 0.729687 0.122966
-0.099451 0.734961 0.107978
-0.098717 0.736165 0.116722
-0.095931 0.726760 0.107808
-0.096696 0.725008 0.091489
-0.100511 0.733218 0.091543
-0.097673 0.723029 0.075354
-0.101625 0.731249 0.075345
-0.098459 0.721093 0.064864
-0.102934 0.727197 0.059356
-0.098104 0.722452 0.009796
-0.101771 0.730661 0.009672
-0.097875 0.722518 -0.006571
-0.101646 0.730732 -0.006545
-0.101049 0.732019 -0.023075
-0.097305 0.723808 -0.023084
-0.096480 0.726263 -0.039827
-0.099849 0.734467 -0.040015
-0.099238 0.735621 -0.056281
-0.096054 0.727422 -0.056111
-0.099208 0.735633 -0.072100
-0.095959 0.727435 -0.072102
-0.095918 0.729459 -0.088071
-0.099071 0.735812 -0.082140
-0.102752 0.743366 -0.088023
-0.098419 0.737095 -0.093298
-0.096225 0.728514 -0.171623
-0.102097 0.728525 -0.187304
-0.099579 0.734236 -0.177237
-0.098003 0.723283 -0.181800
-0.094014 0.744640 0.270304
-0.100548 0.750186 0.276161
-0.097774 0.753787 0.263934
-0.096519 0.744370 0.142534
-0.101589 0.744304 0.123095
-0.099952 0.749669 0.137928
-0.097737 0.738643 0.127723
-0.097645 0.738511 -0.105432
-0.102873 0.746730 -0.105142
-0.101089 0.749411 -0.121638
-0.096447 0.741191 -0.121955
-0.095835 0.742883 -0.138303
-0.099788 0.751096 -0.138135
-0.100877 0.749258 -0.154607
-0.096700 0.741042 -0.154700
-0.098010 0.738205 -0.166307
-0.102674 0.744044 -0.171388
-0.096453 0.755567 0.253990
-0.102908 0.763798 0.254496
-0.101526 0.765393 0.238309
-0.095262 0.757149 0.237684
-0.101432 0.765441 0.220875
-0.095134 0.757196 0.220525
-0.101744 0.764976 0.203560
-0.095429 0.756712 0.203524
-0.095201 0.757421 0.188726
-0.101083 0.765713 0.188731
-0.095295 0.758097 0.174123
-0.100336 0.766364 0.174073
-0.101537 0.763730 0.157527
-0.097045 0.755472 0.157611
-0.098346 0.753027 0.149043
-0.103727 0.759528 0.142360
-0.077967 -0.535657 0.485783
-0.069821 -0.543937 0.485820
-0.067760 -0.542158 0.497828
-0.073621 -0.532527 0.501405
-0.070569 -0.544494 0.468240
-0.078726 -0.536653 0.468185
-0.070698 -0.544690 0.450246
-0.078853 -0.536921 0.450178
-0.079212 -0.537186 0.433580
-0.071055 -0.545258 0.433585
-0.070992 -0.545228 0.417319
-0.079156 -0.536991 0.417354
-0.078173 -0.535908 0.400879
-0.069994 -0.543935 0.400838
-0.067664 -0.541483 0.384470
-0.075825 -0.533952 0.384519
-0.065804 -0.539784 0.375634
-0.072771 -0.530235 0.369469
-0.079545 -0.520929 0.504992
-0.068594 -0.528975 0.508746
-0.073754 -0.516266 0.509869
-0.075122 -0.515701 0.351644
-0.068902 -0.525469 0.357372
-0.079740 -0.521374 0.363243
-0.073325 -0.500769 0.511322
-0.075893 -0.499931 0.336316
-0.070529 -0.510075 0.342079
-0.081405 -0.506066 0.346073
-0.073346 -0.484882 0.510435
-0.075141 -0.483326 0.326717
-0.070354 -0.493728 0.328841
-0.081242 -0.489520 0.330549
-0.074464 -0.468415 0.508684
-0.080674 -0.462723 0.506331
-0.080162 -0.452598 0.506197
-0.071961 -0.452644 0.508373
-0.080608 -0.441414 0.506366
-0.074408 -0.436039 0.508131
-0.074364 -0.419937 0.508048
-0.072688 -0.415334 -0.177995
-0.067587 -0.426644 -0.188614
-0.066611 -0.425639 -0.180426
-0.075756 -0.418251 -0.188556
-0.075158 -0.417784 -0.204321
-0.066987 -0.426078 -0.204332
-0.065809 -0.424877 -0.213118
-0.072106 -0.414721 -0.218952
-0.073399 -0.416218 -0.403710
-0.065816 -0.424986 -0.419250
-0.065545 -0.424679 -0.410238
-0.073969 -0.417065 -0.419439
-0.066083 -0.425334 -0.436017
-0.074253 -0.417018 -0.436059
-0.075593 -0.414954 -0.453241
-0.065974 -0.425260 -0.452426
-0.071659 -0.417867 -0.469099
-0.065710 -0.424950 -0.463837
-0.080492 -0.414557 0.506325
-0.077555 -0.403551 0.505376
-0.069401 -0.403610 0.507524
-0.073338 -0.399641 -0.169974
-0.076014 -0.402818 -0.237866
-0.067821 -0.410340 -0.237996
-0.078415 -0.405190 -0.224733
-0.076059 -0.399185 -0.254589
-0.066663 -0.409394 -0.253798
-0.066466 -0.409363 -0.270084
-0.075901 -0.398428 -0.271607
-0.067094 -0.410175 -0.287292
-0.075276 -0.400581 -0.287559
-0.075543 -0.401063 -0.303988
-0.067374 -0.410432 -0.303602
-0.074851 -0.400958 -0.319149
-0.066666 -0.409442 -0.318883
-0.066949 -0.409507 -0.334903
-0.075132 -0.401886 -0.335242
-0.068754 -0.411052 -0.351667
-0.076926 -0.403679 -0.352405
-0.078675 -0.405204 -0.369272
-0.070520 -0.412655 -0.368417
-0.080276 -0.406662 -0.385847
-0.072148 -0.414456 -0.385133
-0.081245 -0.407650 -0.397405
-0.081669 -0.408084 -0.459215
-0.081193 -0.407569 -0.468824
-0.080697 -0.407017 -0.485249
-0.072500 -0.415843 -0.485177
-0.072573 -0.415916 -0.501458
-0.080766 -0.407098 -0.501531
-0.072177 -0.415420 -0.517610
-0.080359 -0.406732 -0.517612
-0.078717 -0.405038 -0.533384
-0.070528 -0.413548 -0.533548
-0.076097 -0.402329 -0.549352
-0.067901 -0.410670 -0.549599
-0.066119 -0.408752 -0.558712
-0.072664 -0.398935 -0.564032
-0.072515 -0.387396 0.504331
-0.066434 -0.392986 0.506916
-0.078593 -0.389135 -0.166922
-0.067679 -0.393967 -0.165141
-0.073288 -0.383663 -0.163960
-0.081572 -0.391244 -0.266814
-0.081569 -0.391235 -0.260364
-0.079190 -0.388702 -0.569437
-0.068279 -0.394699 -0.578360
-0.074350 -0.384505 -0.583171
-0.073497 -0.370896 0.501884
-0.073600 -0.367222 -0.160523
-0.074003 -0.367912 -0.598740
-0.069504 -0.380363 -0.593647
-0.080444 -0.373835 -0.587784
-0.073530 -0.354531 0.500364
-0.073589 -0.350810 -0.157582
-0.079450 -0.351820 -0.604012
-0.067707 -0.362153 -0.606281
-0.071357 -0.351991 -0.606220
-0.073579 -0.338178 0.499480
-0.073537 -0.334396 -0.155247
-0.071409 -0.338923 -0.605744
-0.076263 -0.334640 -0.605381
-0.073605 -0.321797 0.498800
-0.074494 -0.317290 -0.151373
-0.073606 -0.305379 0.498144
-0.080609 -0.309406 -0.149526
-0.069706 -0.311381 -0.148521
-0.074479 -0.302978 -0.145353
-0.081139 -0.327822 -0.605319
-0.075078 -0.321321 -0.603473
-0.073640 -0.288982 0.498744
-0.074565 -0.284846 -0.136156
-0.073694 -0.272607 0.500250
-0.077507 -0.269376 0.090615
-0.068321 -0.279683 0.089278
-0.065687 -0.277482 0.096680
-0.069610 -0.268952 0.098593
-0.076873 -0.272413 0.075043
-0.068692 -0.279707 0.074924
-0.073257 -0.268297 0.060379
-0.066336 -0.277520 0.066399
-0.080747 -0.276418 -0.133158
-0.075523 -0.270308 -0.123235
-0.069843 -0.279192 -0.129982
-0.073726 -0.256216 0.500352
-0.081633 -0.260459 0.096188
-0.075091 -0.254247 0.102020
-0.080125 -0.258732 0.054338
-0.070354 -0.264665 0.042917
-0.078505 -0.257281 0.042908
-0.068867 -0.263261 0.025896
-0.077022 -0.256068 0.025890
-0.069105 -0.263359 0.008706
-0.077264 -0.256593 0.008738
-0.079128 -0.258437 -0.008031
-0.070969 -0.264666 -0.008089
-0.070948 -0.264678 -0.024737
-0.079101 -0.258350 -0.024672
-0.069969 -0.264119 -0.041270
-0.078135 -0.257341 -0.041202
-0.079204 -0.258073 -0.057291
-0.071005 -0.265071 -0.057381
-0.080706 -0.259386 -0.073199
-0.072490 -0.266213 -0.073302
-0.071860 -0.265665 -0.089981
-0.080066 -0.258124 -0.089907
-0.071813 -0.265536 -0.107203
-0.080013 -0.257764 -0.107161
-0.081220 -0.259493 -0.116468
-0.073744 -0.239817 0.499854
-0.072262 -0.235841 0.109343
-0.073755 -0.223413 0.500609
-0.076045 -0.220547 0.111305
-0.067781 -0.220708 0.113286
-0.065911 -0.229963 0.113038
-0.073748 -0.207012 0.501629
-0.078890 -0.207051 0.112335
-0.073434 -0.202795 0.113487
-0.073735 -0.190614 0.501111
-0.073423 -0.188213 0.113832
-0.073745 -0.174204 0.500003
-0.073702 -0.171867 0.113375
-0.073787 -0.157797 0.499776
-0.079383 -0.162413 0.113050
-0.073827 -0.141399 0.499386
-0.073741 -0.156678 0.111180
-0.084269 -0.151558 0.112045
-0.073544 -0.139793 0.107608
-0.074135 -0.152780 -0.588681
-0.090338 -0.156383 -0.589651
-0.084768 -0.150231 -0.588900
-0.074072 -0.161033 -0.589452
-0.073840 -0.124996 0.497645
-0.073498 -0.123527 0.104490
-0.073819 -0.108592 0.496109
-0.073447 -0.107129 0.102754
-0.073757 -0.092179 0.495815
-0.073494 -0.090626 0.102053
-0.073292 -0.076317 0.494981
-0.073510 -0.074177 0.101149
-0.078508 -0.071238 0.493534
-0.073374 -0.060167 0.492038
-0.067567 -0.066195 0.494389
-0.073461 -0.057871 0.099753
-0.073820 -0.042953 0.489547
-0.073493 -0.041488 0.098591
-0.079528 -0.048395 -0.116090
-0.082531 -0.048409 -0.117171
-0.082524 -0.048385 -0.116094
-0.079532 -0.048416 -0.117170
-0.073854 -0.038944 -0.118597
-0.084982 -0.039563 -0.118837
-0.073850 -0.038866 -0.114749
-0.073807 -0.026538 0.489961
-0.073639 -0.025023 0.098046
-0.087662 -0.023209 -0.120214
-0.072355 -0.023235 -0.119675
-0.073809 -0.010138 0.488946
-0.073650 -0.008650 0.097887
-0.072352 -0.008122 -0.120319
-0.072361 -0.023145 -0.112939
-0.072356 -0.007997 -0.109669
-0.073822 0.006262 0.485841
-0.073515 0.007647 0.097939
-0.073495 0.009527 -0.122421
-0.073770 0.022668 0.483405
-0.074500 0.024313 0.097419
-0.078089 0.012949 -0.099307
-0.072987 0.008340 -0.102334
-0.075495 0.026133 -0.098563
-0.067314 0.026076 -0.100935
-0.073455 0.025947 -0.123002
-0.073677 0.039089 0.481756
-0.080690 0.030091 0.096330
-0.078920 0.040394 0.096034
-0.070726 0.040306 0.097240
-0.066083 0.038374 -0.100122
-0.072303 0.043356 -0.097705
-0.073440 0.042377 -0.124095
-0.077693 0.030439 -0.572626
-0.072904 0.024170 -0.573436
-0.072911 0.038000 -0.571668
-0.066783 0.031474 -0.572752
-0.073699 0.055502 0.480890
-0.077728 0.056791 0.095868
-0.069547 0.056719 0.097068
-0.073461 0.058832 -0.123916
-0.073787 0.071896 0.480380
-0.077595 0.073176 0.095880
-0.069415 0.073148 0.096975
-0.073514 0.075270 -0.122803
-0.073784 0.088314 0.479385
-0.076288 0.089552 0.095614
-0.068111 0.089466 0.096826
-0.073540 0.091644 -0.123113
-0.072858 0.103972 0.478106
-0.072672 0.105318 0.095296
-0.066492 0.099466 0.096647
-0.073550 0.107942 -0.123994
-0.077719 0.108905 0.477066
-0.072909 0.120015 0.476090
-0.066841 0.113784 0.477732
-0.073748 0.122039 0.093082
-0.073565 0.124171 -0.123937
-0.073818 0.137514 0.473794
-0.073721 0.138234 0.090114
-0.073575 0.140361 -0.123565
-0.073761 0.153917 0.472132
-0.073764 0.154557 0.087990
-0.073564 0.156566 -0.123601
-0.073699 0.170330 0.470108
-0.073809 0.170928 0.085552
-0.073586 0.162691 -0.078233
-0.089970 0.157536 -0.085582
-0.084520 0.163182 -0.080123
-0.073544 0.154727 -0.085266
-0.073553 0.172723 -0.123849
-0.073149 0.154989 -0.557029
-0.078051 0.160975 -0.555920
-0.067144 0.163060 -0.556244
-0.073148 0.169441 -0.554889
-0.073736 0.186737 0.467925
-0.073814 0.180523 0.083281
-0.072293 0.168776 0.041477
-0.082038 0.179098 0.051261
-0.073775 0.176002 0.055203
-0.077932 0.165408 0.026294
-0.076191 0.169567 0.008575
-0.081366 0.179872 0.001817
-0.073860 0.175368 -0.028044
-0.083104 0.178830 -0.031310
-0.074980 0.166727 -0.039810
-0.074886 0.166463 -0.058722
-0.073676 0.167313 -0.069834
-0.073563 0.188727 -0.123888
-0.073780 0.203135 0.465726
-0.073817 0.182124 0.075161
-0.073816 0.180669 0.063405
-0.076033 0.185401 -0.008526
-0.081568 0.195805 -0.014531
-0.073583 0.204765 -0.124103
-0.073784 0.219549 0.463311
-0.081570 0.195809 -0.015352
-0.073600 0.221010 -0.124805
-0.073793 0.235958 0.461004
-0.073594 0.237196 -0.125498
-0.074381 0.253735 0.458636
-0.073556 0.253247 -0.125887
-0.080222 0.260109 0.457580
-0.074358 0.267494 0.455632
-0.069315 0.261159 0.457815
-0.073509 0.269505 -0.126501
-0.073671 0.285165 0.450951
-0.073462 0.286014 -0.127459
-0.073638 0.301574 0.447850
-0.073467 0.302324 -0.127807
-0.074219 0.285755 -0.540848
-0.079920 0.291531 -0.539611
-0.069034 0.296171 -0.540328
-0.074227 0.301724 -0.538884
-0.073697 0.317987 0.445229
-0.073525 0.318426 -0.127461
-0.073744 0.333740 0.442514
-0.073601 0.334698 -0.127920
-0.073748 0.341929 0.440783
-0.073694 0.350804 0.437690
-0.073690 0.351102 -0.129166
-0.073710 0.367215 0.433836
-0.073761 0.367445 -0.129515
-0.073804 0.383617 0.431693
-0.073814 0.383765 -0.129126
-0.073776 0.400022 0.429251
-0.073813 0.400198 -0.129135
-0.073670 0.416431 0.426935
-0.073770 0.416697 -0.129330
-0.074314 0.406346 -0.523042
-0.074268 0.398126 -0.524057
-0.073645 0.429514 0.425312
-0.073719 0.433112 -0.129062
-0.073670 0.437721 0.423639
-0.073664 0.449266 0.420774
-0.073678 0.449486 -0.128684
-0.073658 0.465683 0.417556
-0.073669 0.465983 -0.128741
-0.073662 0.482103 0.414638
-0.073681 0.482492 -0.128815
-0.073675 0.498501 0.411480
-0.073704 0.498819 -0.128489
-0.074209 0.477812 -0.507697
-0.074244 0.486043 -0.505505
-0.072146 0.514641 0.408879
-0.073723 0.515129 -0.128227
-0.076581 0.519924 0.407606
-0.072161 0.529711 0.406500
-0.065662 0.523192 0.408216
-0.073738 0.531585 -0.128294
-0.073755 0.547694 0.403074
-0.073758 0.547967 -0.128671
-0.074194 0.528105 -0.491960
-0.074215 0.536301 -0.489078
-0.073802 0.564089 0.399226
-0.073784 0.564235 -0.129405
-0.073848 0.580490 0.395735
-0.072333 0.582058 -0.130991
-0.073857 0.595426 0.393063
-0.076391 0.596953 -0.131243
-0.081676 0.572911 -0.474708
-0.075913 0.578106 -0.463917
-0.087253 0.603726 0.391361
-0.073868 0.603605 0.391269
-0.073937 0.613298 0.387001
-0.079735 0.608521 -0.131677
-0.079296 0.596198 -0.448142
-0.090643 0.596197 -0.462126
-0.085189 0.601236 -0.452360
-0.081083 0.590266 -0.458774
-0.073644 0.630389 0.379304
-0.083759 0.619464 -0.134988
-0.074814 0.612871 -0.140745
-0.080712 0.623007 -0.144882
-0.077605 0.614048 -0.252714
-0.083544 0.619667 -0.269838
-0.083306 0.620000 -0.257299
-0.077491 0.611451 -0.269688
-0.082849 0.620677 -0.287147
-0.077001 0.612474 -0.286872
-0.077754 0.614854 -0.302894
-0.082410 0.621341 -0.297787
-0.082186 0.621739 -0.307879
-0.086279 0.628222 -0.303209
-0.076764 0.613017 -0.351938
-0.082557 0.621209 -0.352414
-0.082411 0.621480 -0.343182
-0.077895 0.614942 -0.336416
-0.076706 0.612630 -0.369169
-0.082759 0.620829 -0.369781
-0.076786 0.612003 -0.386338
-0.083131 0.620216 -0.386784
-0.083798 0.619336 -0.402918
-0.077287 0.611106 -0.402714
-0.084953 0.618067 -0.418275
-0.078312 0.609830 -0.418281
-0.087240 0.615255 -0.433690
-0.080668 0.607020 -0.433770
-0.082337 0.605101 -0.441552
-0.078875 0.640315 0.376604
-0.088029 0.631650 -0.155099
-0.080470 0.623393 -0.155174
-0.080834 0.623117 -0.170999
-0.087664 0.631378 -0.171155
-0.079883 0.624334 -0.187131
-0.086170 0.632571 -0.187211
-0.079084 0.625445 -0.203633
-0.085164 0.633667 -0.203613
-0.079877 0.624600 -0.220953
-0.085661 0.632822 -0.220826
-0.081184 0.622936 -0.237901
-0.086758 0.631160 -0.237797
-0.087506 0.628303 -0.252832
-0.081955 0.621885 -0.247005
-0.087179 0.630081 -0.318986
-0.082153 0.621868 -0.318876
-0.086435 0.628218 -0.336657
-0.082257 0.621754 -0.331809
-0.086667 0.651268 0.373527
-0.073106 0.646596 0.369153
-0.078177 0.658245 0.363245
-0.083937 0.669165 0.357899
-0.072993 0.663441 0.353683
-0.078706 0.674456 0.348402
-0.084232 0.685373 0.342054
-0.074395 0.678872 0.337464
-0.080984 0.688671 0.332257
-0.079927 0.676476 0.059168
-0.084134 0.684688 0.059225
-0.083320 0.685657 0.071862
-0.080607 0.679687 0.076485
-0.084169 0.684832 0.042839
-0.079554 0.676622 0.042745
-0.079232 0.677330 0.026029
-0.083543 0.685533 0.026316
-0.082951 0.686272 0.014100
-0.079615 0.680042 0.008690
-0.082234 0.687468 0.003064
-0.086689 0.693904 0.009141
-0.078606 0.694623 0.320211
-0.086064 0.699621 0.324630
-0.082247 0.703647 0.313723
-0.078701 0.695812 0.140506
-0.083760 0.700429 0.123424
-0.082972 0.701597 0.134711
-0.080105 0.692208 0.123415
-0.084592 0.699266 0.107314
-0.080895 0.691045 0.107293
-0.085440 0.697055 0.091457
-0.081790 0.688831 0.091524
-0.082315 0.687441 0.082694
-0.086029 0.693887 0.076520
-0.086615 0.696484 -0.006923
-0.081900 0.688267 -0.007055
-0.081619 0.689071 -0.023442
-0.086052 0.697289 -0.023313
-0.085538 0.697511 -0.039363
-0.081620 0.689290 -0.039462
-0.085039 0.697717 -0.055693
-0.081562 0.689489 -0.055777
-0.084482 0.698088 -0.072108
-0.081466 0.689859 -0.072225
-0.083810 0.699064 -0.088609
-0.081356 0.690846 -0.088893
-0.081245 0.695492 -0.106442
-0.083039 0.701077 -0.101224
-0.085821 0.710327 -0.106039
-0.082174 0.703919 -0.112043
-0.086882 0.714743 0.305364
-0.079836 0.706524 0.305314
-0.083758 0.718331 0.294068
-0.074575 0.711039 0.287088
-0.081059 0.721460 0.282639
-0.081202 0.705896 0.146431
-0.084901 0.711526 0.140698
-0.083114 0.716862 0.151339
-0.078405 0.711541 0.157159
-0.081458 0.706244 -0.121520
-0.084720 0.714450 -0.121666
-0.084080 0.715899 -0.138343
-0.081045 0.707687 -0.138355
-0.085859 0.711492 -0.154546
-0.081644 0.705840 -0.148767
-0.078797 0.724550 0.270672
-0.085271 0.732755 0.270772
-0.082870 0.735499 0.257818
-0.077432 0.729246 0.252496
-0.081841 0.736740 0.246672
-0.087482 0.743159 0.252903
-0.079072 0.728617 0.175051
-0.085153 0.728624 0.157248
-0.082991 0.734404 0.170110
-0.080527 0.723427 0.162501
-0.087142 0.745459 0.236965
-0.081488 0.737206 0.236473
-0.081094 0.737723 0.219891
-0.087035 0.745994 0.220110
-0.081032 0.737793 0.203498
-0.087305 0.746077 0.203429
-0.087036 0.745632 0.188774
-0.081347 0.737331 0.188854
-0.081663 0.736850 0.181059
-0.086699 0.743296 0.175012
-0.060670 -0.547844 0.501430
-0.051723 -0.559035 0.500504
-0.049739 -0.557422 0.507695
-0.053271 -0.548483 0.509754
-0.061818 -0.552176 0.485826
-0.053727 -0.560325 0.485876
-0.054113 -0.560540 0.468392
-0.062204 -0.552733 0.468279
-0.062325 -0.552923 0.450238
-0.054220 -0.561001 0.450348
-0.062880 -0.553475 0.433475
-0.054748 -0.561888 0.433418
-0.062951 -0.553439 0.417184
-0.054803 -0.561746 0.417067
-0.061911 -0.552155 0.400706
-0.053740 -0.560319 0.400654
-0.057121 -0.550729 0.383008
-0.051659 -0.558297 0.387499
-0.064766 -0.539404 0.506343
-0.058353 -0.534004 0.512002
-0.061761 -0.536454 0.364943
-0.050933 -0.540897 0.358672
-0.056646 -0.543633 0.369484
-0.056976 -0.530834 0.353012
-0.056965 -0.517287 0.515378
-0.057766 -0.514967 0.337409
-0.052187 -0.525218 0.343210
-0.063049 -0.521005 0.347511
-0.056958 -0.501215 0.515335
-0.057809 -0.498949 0.327560
-0.052430 -0.508855 0.329115
-0.063316 -0.504634 0.331571
-0.056944 -0.484960 0.514855
-0.056967 -0.468843 0.514183
-0.056988 -0.452643 0.513231
-0.056973 -0.436235 0.512570
-0.063769 -0.440156 0.313664
-0.052855 -0.442445 0.313157
-0.058012 -0.448474 0.315107
-0.057988 -0.433979 0.312050
-0.056468 -0.431804 -0.177780
-0.051861 -0.444389 -0.188724
-0.050489 -0.442792 -0.180283
-0.060042 -0.434854 -0.188686
-0.059558 -0.434301 -0.204315
-0.051404 -0.443689 -0.204257
-0.055756 -0.431019 -0.219304
-0.049911 -0.441837 -0.213758
-0.057260 -0.432772 -0.402167
-0.050173 -0.442226 -0.419149
-0.049615 -0.441483 -0.406113
-0.058326 -0.433217 -0.419223
-0.050853 -0.443199 -0.436162
-0.059018 -0.433563 -0.436111
-0.059272 -0.433487 -0.452484
-0.051115 -0.443687 -0.452498
-0.060036 -0.431406 -0.469158
-0.050724 -0.443186 -0.468922
-0.050106 -0.442290 -0.485336
-0.057802 -0.432839 -0.485244
-0.057482 -0.432834 -0.501485
