0.368657 0.137851 -0.040449
0.368620 0.154227 -0.040834
0.368633 0.170656 -0.041371
0.368682 0.187181 -0.040734
0.368698 0.203543 -0.040261
0.368642 0.219729 -0.040477
0.368612 0.236005 -0.038752
0.385504 -0.982842 0.387492
0.385586 -0.982554 0.377394
0.385627 -0.979994 0.369225
0.385574 -0.973572 0.354632
0.385452 -0.967832 0.341516
0.385397 -0.963892 0.333324
0.378844 -0.901444 -0.157299
0.387042 -0.897306 -0.157397
0.380409 -0.902248 -0.173436
0.388611 -0.897889 -0.173579
0.380898 -0.902738 -0.188848
0.389078 -0.898061 -0.188963
0.380457 -0.902851 -0.204294
0.388619 -0.897458 -0.204326
0.379411 -0.902544 -0.220379
0.387586 -0.896079 -0.220324
0.378579 -0.902123 -0.236630
0.386758 -0.894904 -0.236539
0.378125 -0.901811 -0.252864
0.386285 -0.894299 -0.252813
0.377774 -0.901566 -0.269324
0.385924 -0.893691 -0.269283
0.377470 -0.901333 -0.286159
0.387041 -0.891370 -0.286637
0.377215 -0.901080 -0.298844
0.383377 -0.894333 -0.303567
0.377804 -0.902805 -0.436205
0.385871 -0.894882 -0.435211
0.378884 -0.904892 -0.451529
0.387756 -0.893722 -0.450123
0.378534 -0.905099 -0.460663
0.381573 -0.895486 -0.462261
0.385310 -0.886829 -0.074651
0.385294 -0.888251 -0.090856
0.385281 -0.889974 -0.107117
0.385255 -0.892738 -0.123870
0.393006 -0.884193 -0.302571
0.393166 -0.884380 -0.292572
0.384717 -0.892023 -0.318895
0.392886 -0.884030 -0.318829
0.383970 -0.891184 -0.335469
0.392123 -0.883285 -0.335402
0.382762 -0.890634 -0.352511
0.390900 -0.882124 -0.352441
0.382996 -0.890868 -0.369618
0.391126 -0.882392 -0.369682
0.384250 -0.891739 -0.386611
0.392383 -0.883747 -0.386788
0.385064 -0.892371 -0.403310
0.393202 -0.884819 -0.403370
0.383294 -0.879554 -0.461324
0.391468 -0.879379 -0.454665
0.384996 -0.617169 -0.038377
0.384943 -0.600763 -0.035855
0.384816 -0.584360 -0.035653
0.384726 -0.567949 -0.035280
0.384653 -0.551551 -0.035513
0.384537 -0.535146 -0.037824
0.384441 -0.518732 -0.040598
0.384439 -0.502325 -0.041110
0.384474 -0.485900 -0.041390
0.384516 -0.469431 -0.044234
0.384580 -0.452992 -0.046501
0.384652 -0.436623 -0.045624
0.384709 -0.420236 -0.045195
0.384813 -0.354619 -0.046000
0.384776 -0.345189 -0.047191
0.384740 -0.337027 -0.048621
0.384827 -0.305384 -0.045987
0.384873 -0.288943 -0.045900
0.384993 -0.239698 -0.044911
0.384905 -0.223237 -0.043981
0.384773 -0.206739 -0.044229
0.384761 -0.190357 -0.044215
0.384864 -0.173949 -0.043722
0.385102 -0.157252 -0.043454
0.385335 -0.140682 -0.042632
0.385406 -0.124577 -0.040594
0.385282 -0.108445 -0.038731
0.385011 -0.092110 -0.038110
0.384851 -0.075724 -0.037755
0.384851 -0.059323 -0.037061
0.384892 -0.042873 -0.037749
0.384962 -0.026315 -0.039738
0.385027 -0.009858 -0.040641
0.385084 0.006461 -0.040166
0.385025 0.022876 -0.040157
0.384893 0.039375 -0.040811
0.384913 0.055778 -0.041035
0.385044 0.072115 -0.041010
0.385124 0.088591 -0.041649
0.385140 0.105134 -0.042281
0.385115 0.121560 -0.041630
0.385067 0.137908 -0.040482
0.385014 0.154261 -0.040363
0.384976 0.170614 -0.040893
0.384992 0.186971 -0.041012
0.385010 0.203284 -0.040856
0.384981 0.219601 -0.039738
0.394376 -0.982601 0.387471
0.401077 -0.974372 0.387528
0.394003 -0.982488 0.378290
0.399085 -0.974886 0.372068
0.408548 -0.963826 0.387529
0.408435 -0.963616 0.370884
0.398691 -0.970221 0.354422
0.406962 -0.962553 0.354047
0.396225 -0.967813 0.340824
0.401863 -0.962242 0.335968
0.402019 -0.958434 0.321142
0.402076 -0.954035 0.305028
0.402119 -0.950769 0.293418
0.402110 -0.947369 0.285345
0.393997 -0.884275 -0.057974
0.402186 -0.878122 -0.057599
0.394464 -0.884626 -0.074388
0.402670 -0.877512 -0.074076
0.394628 -0.884856 -0.090561
0.402833 -0.876991 -0.090376
0.395066 -0.885303 -0.106818
0.403259 -0.876974 -0.106735
0.396217 -0.886468 -0.123703
0.404423 -0.877927 -0.123620
0.397702 -0.887982 -0.140753
0.405936 -0.879629 -0.140686
0.398952 -0.889062 -0.157462
0.407184 -0.881174 -0.157494
0.399831 -0.889657 -0.173747
0.408053 -0.882255 -0.173873
0.400000 -0.889836 -0.189141
0.408230 -0.882627 -0.189219
0.399006 -0.889251 -0.204334
0.407224 -0.881779 -0.204285
0.397205 -0.887870 -0.220196
0.405356 -0.879870 -0.220108
0.395740 -0.886686 -0.236402
0.403885 -0.878115 -0.236331
0.394893 -0.886090 -0.252730
0.404379 -0.875246 -0.253855
0.394183 -0.885488 -0.269229
0.401685 -0.876497 -0.269176
0.393694 -0.884957 -0.281321
0.398945 -0.877958 -0.286558
0.393795 -0.886965 -0.434086
0.397656 -0.878765 -0.433721
0.393674 -0.887442 -0.443518
0.395192 -0.879206 -0.446139
0.401906 -0.871361 -0.024317
0.409226 -0.867505 -0.269099
0.409831 -0.868148 -0.260063
0.408371 -0.866596 -0.286019
0.399583 -0.876050 -0.302632
0.407801 -0.866026 -0.302676
0.399032 -0.875990 -0.318832
0.407278 -0.865564 -0.318818
0.398462 -0.875267 -0.335370
0.406695 -0.865051 -0.335326
0.397859 -0.874077 -0.352413
0.406044 -0.864597 -0.352318
0.398266 -0.874441 -0.369523
0.406414 -0.865443 -0.369113
0.399562 -0.875990 -0.386268
0.407702 -0.867250 -0.385398
0.399772 -0.877224 -0.402473
0.408208 -0.863159 -0.402672
0.404546 -0.862780 -0.417304
0.399292 -0.863067 -0.433362
0.395021 -0.863234 -0.444655
0.407736 -0.846766 -0.407199
0.400199 -0.649888 0.122019
0.400343 -0.633479 0.089613
0.402309 -0.632504 -0.035107
0.408417 -0.637191 -0.030241
0.401393 -0.617171 -0.034875
0.401300 -0.600756 -0.035234
0.401136 -0.584353 -0.036248
0.401040 -0.567950 -0.036468
0.400999 -0.551538 -0.036593
0.400944 -0.535117 -0.038796
0.400898 -0.518695 -0.041388
0.400918 -0.502287 -0.041943
0.400957 -0.485855 -0.042457
0.401016 -0.469398 -0.044900
0.401088 -0.452984 -0.046659
0.401146 -0.436611 -0.045903
0.401173 -0.420209 -0.045616
0.401194 -0.407271 -0.046802
0.401207 -0.399067 -0.048114
0.401245 -0.354600 -0.045268
0.402647 -0.339680 -0.046849
0.398066 -0.335245 -0.048499
0.401295 -0.305353 -0.045685
0.401302 -0.288900 -0.045890
0.402380 -0.273941 -0.047057
0.397645 -0.269469 -0.047857
0.401361 -0.239691 -0.043604
0.401291 -0.223230 -0.042710
0.401222 -0.206712 -0.043188
0.401301 -0.190257 -0.043482
0.401451 -0.173814 -0.043172
0.401617 -0.157269 -0.042685
0.401709 -0.140912 -0.041746
0.401645 -0.124786 -0.040139
0.401493 -0.108532 -0.038682
0.401329 -0.092122 -0.038112
0.401268 -0.075699 -0.037975
0.401347 -0.059278 -0.037677
0.401416 -0.042805 -0.038389
0.401463 -0.026230 -0.040171
0.401492 -0.009815 -0.040814
0.401492 0.006448 -0.040252
0.401447 0.022868 -0.040182
0.401405 0.039419 -0.040652
0.401462 0.055859 -0.040508
0.401556 0.072192 -0.040305
0.401561 0.088635 -0.040963
0.401520 0.105128 -0.041506
0.401512 0.121569 -0.040827
0.401488 0.137936 -0.039846
0.401423 0.154228 -0.040112
0.401371 0.170517 -0.040853
0.401386 0.186844 -0.040674
0.401402 0.203185 -0.039180
0.412186 -0.956101 0.387470
0.413438 -0.955565 0.370640
0.414227 -0.954368 0.353431
0.419215 -0.942747 0.352029
0.414453 -0.953122 0.336444
0.413980 -0.951901 0.320056
0.422182 -0.944176 0.318886
0.412237 -0.950564 0.304243
0.420474 -0.944351 0.302844
0.410852 -0.949790 0.295570
0.417263 -0.944020 0.288568
0.418532 -0.939443 0.271941
0.418407 -0.935493 0.256654
0.418325 -0.932906 0.248529
0.418315 -0.928517 0.239898
0.414174 -0.868806 -0.023895
0.422398 -0.866089 -0.023714
0.415020 -0.869733 -0.040420
0.423237 -0.865843 -0.040196
0.413933 -0.869853 -0.057042
0.422149 -0.864801 -0.056790
0.412266 -0.869247 -0.073663
0.420478 -0.863300 -0.073434
0.411303 -0.868730 -0.090126
0.419509 -0.861970 -0.089969
0.411080 -0.868712 -0.106614
0.419278 -0.861011 -0.106521
0.411772 -0.869671 -0.123491
0.419972 -0.861195 -0.123391
0.413280 -0.871399 -0.140549
0.421486 -0.862753 -0.140444
0.415669 -0.872937 -0.157432
0.423878 -0.865356 -0.157366
0.419534 -0.873195 -0.188974
0.415992 -0.873629 -0.204187
0.424212 -0.866327 -0.204069
0.425856 -0.867542 -0.193429
0.413414 -0.871752 -0.219982
0.421583 -0.863976 -0.219930
0.411490 -0.869984 -0.236247
0.419649 -0.861873 -0.236219
0.410554 -0.868989 -0.249147
0.418208 -0.860422 -0.253876
0.418335 -0.858662 0.008895
0.416754 -0.859403 -0.269114
0.424976 -0.850766 -0.269133
0.425918 -0.851650 -0.258661
0.415670 -0.858476 -0.286100
0.423866 -0.849685 -0.286173
0.415010 -0.857934 -0.302821
0.423184 -0.849158 -0.302876
0.414523 -0.857570 -0.318905
0.422680 -0.848979 -0.318902
0.414072 -0.857125 -0.335307
0.422215 -0.848878 -0.335192
0.413564 -0.856680 -0.352183
0.421663 -0.848276 -0.351832
0.413822 -0.857649 -0.368796
0.421855 -0.847415 -0.368196
0.414168 -0.859586 -0.384879
0.421765 -0.845186 -0.383110
0.412573 -0.858558 -0.397967
0.414388 -0.846675 -0.398791
0.416792 -0.632441 -0.028044
0.410625 -0.626276 -0.031652
0.416750 -0.617886 -0.033161
0.421537 -0.623715 -0.030677
0.417662 -0.600753 -0.036287
0.417475 -0.584356 -0.037849
0.417413 -0.567944 -0.038163
0.417446 -0.551514 -0.038319
0.417441 -0.535075 -0.040395
0.417440 -0.518637 -0.042770
0.417489 -0.502216 -0.043408
0.417547 -0.485787 -0.043711
0.417605 -0.469354 -0.045253
0.417659 -0.452964 -0.046299
0.417711 -0.436583 -0.045656
0.417739 -0.420166 -0.045334
0.416487 -0.402253 -0.046623
0.410152 -0.395821 -0.047536
0.417775 -0.370996 -0.044415
0.417789 -0.354581 -0.044020
0.417832 -0.338108 -0.045688
0.417874 -0.321694 -0.045851
0.417885 -0.305299 -0.044547
0.417851 -0.288855 -0.045014
0.417789 -0.272401 -0.046354
0.417795 -0.256019 -0.044946
0.417812 -0.239670 -0.042179
0.417799 -0.223205 -0.041838
0.417836 -0.206645 -0.042501
0.418015 -0.190112 -0.042351
0.418168 -0.173711 -0.041461
0.418146 -0.157430 -0.040667
0.418022 -0.141206 -0.040213
0.417897 -0.124932 -0.039344
0.417811 -0.108560 -0.038435
0.417747 -0.092109 -0.038062
0.417763 -0.075649 -0.038515
0.417923 -0.059199 -0.039133
0.418000 -0.042726 -0.039684
0.417965 -0.026201 -0.040498
0.417939 -0.009825 -0.040796
0.417945 0.006449 -0.040555
0.418002 0.022893 -0.040585
0.418111 0.039517 -0.040888
0.418192 0.056004 -0.040434
0.418183 0.072303 -0.039813
0.418078 0.088683 -0.039980
0.417942 0.105088 -0.040152
0.417903 0.121507 -0.039600
0.417884 0.137866 -0.039332
0.417830 0.154123 -0.040478
0.417789 0.170409 -0.041004
0.417812 0.186767 -0.039035
0.428243 -0.936287 0.318126
0.431263 -0.927071 0.318033
0.429050 -0.936237 0.301790
0.435120 -0.926482 0.301616
0.429364 -0.935785 0.286007
0.429287 -0.935220 0.271102
0.437325 -0.927495 0.270207
0.428263 -0.934322 0.258634
0.434092 -0.928609 0.253792
0.434758 -0.924936 0.239530
0.434393 -0.919666 0.223626
0.428649 -0.917548 0.213725
0.434353 -0.913221 0.207657
0.439610 -0.915675 0.218231
0.434708 -0.906533 0.190484
0.426886 -0.867996 -0.183938
0.433180 -0.862762 -0.188952
0.434770 -0.857484 0.009426
0.434784 -0.859469 -0.007120
0.434754 -0.859744 -0.023592
0.434693 -0.858689 -0.040003
0.435769 -0.855724 -0.056424
0.432161 -0.855025 -0.073110
0.440343 -0.849519 -0.072915
0.441981 -0.850668 -0.061815
0.429779 -0.853708 -0.089719
0.437954 -0.847353 -0.089504
0.428068 -0.852757 -0.106377
0.436236 -0.845065 -0.106153
0.427791 -0.852958 -0.123264
0.435916 -0.843833 -0.123119
0.429090 -0.854543 -0.140344
0.437176 -0.845266 -0.140297
0.434901 -0.857085 -0.203052
0.429892 -0.855889 -0.219849
0.438060 -0.847743 -0.219826
0.440568 -0.849979 -0.207516
0.427719 -0.853793 -0.236150
0.435881 -0.845459 -0.236132
0.426798 -0.852694 -0.247723
0.434053 -0.844084 -0.251786
0.432113 -0.842854 -0.269322
0.440203 -0.833867 -0.269574
0.441306 -0.834863 -0.256004
0.431323 -0.841835 -0.286389
0.439424 -0.833465 -0.286649
0.430799 -0.841357 -0.303018
0.438857 -0.833423 -0.303134
0.430563 -0.841226 -0.318914
0.438553 -0.833497 -0.318882
0.430241 -0.841221 -0.335045
0.438532 -0.829757 -0.335785
0.428922 -0.840687 -0.351497
0.433249 -0.830058 -0.351280
0.427200 -0.839698 -0.367691
0.426430 -0.839006 -0.376398
0.434247 -0.649983 -0.026610
0.433957 -0.600771 -0.039157
0.433778 -0.584370 -0.041439
0.433760 -0.567941 -0.042020
0.433818 -0.551495 -0.042257
0.434211 -0.223158 -0.043921
0.434343 -0.206576 -0.044177
0.434525 -0.190143 -0.043245
0.434602 -0.173872 -0.041670
0.434466 -0.157604 -0.040893
0.434276 -0.141311 -0.040649
0.434182 -0.124956 -0.039748
0.434142 -0.108555 -0.039341
0.434126 -0.092085 -0.040066
0.434175 -0.075614 -0.041050
0.434325 -0.059187 -0.041416
0.434377 -0.042741 -0.041603
0.434300 -0.026244 -0.042072
0.434274 -0.009860 -0.042390
0.434342 0.006440 -0.042244
0.434444 0.022885 -0.042300
0.434566 0.039492 -0.042766
0.434609 0.055965 -0.042089
0.434553 0.072249 -0.040609
0.434427 0.088622 -0.040141
0.434284 0.105021 -0.040350
0.434246 0.121397 -0.040487
0.434250 0.137725 -0.040938
0.434214 0.154016 -0.041781
0.434173 0.170351 -0.040593
0.444346 -0.919541 0.269504
0.446349 -0.910375 0.269035
0.444773 -0.919364 0.254330
0.449316 -0.909610 0.253229
0.444332 -0.918328 0.239043
0.450434 -0.908971 0.237476
0.443637 -0.917429 0.229073
0.451116 -0.905977 0.205807
0.451804 -0.903111 0.190710
0.446153 -0.901585 0.173982
0.454359 -0.898451 0.173726
0.457792 -0.899570 0.185569
0.443311 -0.900516 0.165332
0.449725 -0.896987 0.158799
0.451079 -0.892053 0.140650
0.449287 -0.852260 0.026212
0.457514 -0.850689 0.026243
0.448203 -0.852886 0.009590
0.456434 -0.850122 0.009606
0.448063 -0.853272 -0.007036
0.456279 -0.849823 -0.007066
0.446867 -0.853051 -0.023508
0.455070 -0.849079 -0.023560
0.444875 -0.852264 -0.039852
0.453070 -0.847794 -0.039882
0.443582 -0.851609 -0.050736
0.449861 -0.846947 -0.056255
0.447398 -0.854414 -0.174020
0.455547 -0.848874 -0.173999
0.445827 -0.853602 -0.189315
0.453951 -0.847623 -0.189309
0.443184 -0.852076 -0.197234
0.450274 -0.843498 -0.203304
0.451051 -0.842726 -0.072781
0.450885 -0.838409 -0.088066
0.445156 -0.836840 -0.105882
0.453317 -0.829847 -0.105820
0.456254 -0.832586 -0.092728
0.443241 -0.835672 -0.122936
0.452515 -0.826046 -0.123352
0.444502 -0.837132 -0.140246
0.446510 -0.839740 -0.219739
0.454665 -0.831354 -0.219720
0.457389 -0.834177 -0.209405
0.443713 -0.837525 -0.236080
0.452692 -0.827288 -0.235526
0.442758 -0.836484 -0.244856
0.447326 -0.829157 -0.251358
0.458342 -0.818501 -0.129458
0.456581 -0.817455 -0.252782
0.458043 -0.819178 -0.240668
0.447302 -0.825909 -0.269699
0.455397 -0.816421 -0.269694
0.446944 -0.825523 -0.286765
0.455011 -0.815725 -0.286662
0.446445 -0.825509 -0.303115
0.454398 -0.812530 -0.302720
0.445514 -0.825588 -0.318765
0.448990 -0.813695 -0.318735
0.444087 -0.824365 -0.330804
0.444335 -0.813867 -0.330719
0.450847 -0.742932 0.154146
0.450582 -0.649992 -0.029016
0.450551 -0.638092 -0.029623
0.450482 -0.629998 -0.033898
0.450397 -0.617192 -0.038123
0.450243 -0.600783 -0.042292
0.450256 -0.518610 -0.048829
0.450303 -0.502233 -0.048799
0.450342 -0.485845 -0.048970
0.450352 -0.469403 -0.050809
0.450372 -0.452996 -0.051692
0.450422 -0.436630 -0.049819
0.450431 -0.420240 -0.049040
0.450377 -0.403809 -0.051027
0.450354 -0.387408 -0.051477
0.450476 -0.338157 -0.052085
0.450520 -0.321746 -0.051797
0.450392 -0.272472 -0.050108
0.450387 -0.256051 -0.049389
0.450606 -0.223100 -0.046397
0.450765 -0.206566 -0.046320
0.450867 -0.190306 -0.044693
0.450842 -0.174090 -0.042721
0.450697 -0.157721 -0.041955
0.450564 -0.141332 -0.041607
0.450524 -0.124948 -0.040632
0.450517 -0.108535 -0.040822
0.450519 -0.092048 -0.042663
0.450561 -0.075589 -0.043700
0.450652 -0.059224 -0.043158
0.450678 -0.042805 -0.042925
0.450623 -0.026292 -0.043490
0.450653 -0.009881 -0.044000
0.450769 0.006439 -0.043858
0.450837 0.022866 -0.044175
0.450848 0.039401 -0.044734
0.450832 0.055820 -0.043363
0.450786 0.072127 -0.041104
0.450695 0.088523 -0.040572
0.450599 0.104935 -0.041609
0.450585 0.121276 -0.042534
0.450604 0.137597 -0.042867
0.450569 0.153941 -0.041940
0.450539 0.170318 -0.037885
0.459481 -0.900611 0.204997
0.463430 -0.892410 0.204113
0.459450 -0.900581 0.196098
0.463194 -0.893369 0.189430
0.469362 -0.876330 0.187193
0.464105 -0.890237 0.172932
0.471212 -0.876018 0.171281
0.464137 -0.888985 0.157019
0.463901 -0.887710 0.140628
0.472163 -0.878421 0.139758
0.463018 -0.886017 0.123397
0.471267 -0.879739 0.123048
0.461336 -0.884728 0.112345
0.467112 -0.876395 0.106154
0.470254 -0.860372 0.170354
0.467531 -0.868188 0.096513
0.467559 -0.859451 0.091074
0.467568 -0.848560 0.083789
0.460019 -0.851413 0.046396
0.466361 -0.848895 0.041400
0.467549 -0.846661 0.073744
0.467597 -0.847286 0.026101
0.467632 -0.846279 0.009564
0.467616 -0.845539 -0.007078
0.467580 -0.843803 -0.023546
0.467530 -0.840786 -0.039849
0.467389 -0.837506 -0.054894
0.461452 -0.836239 -0.072705
0.469634 -0.829629 -0.072876
0.472787 -0.832488 -0.059567
0.459574 -0.835083 -0.081700
0.466589 -0.825936 -0.087937
0.465915 -0.840659 -0.173912
0.474130 -0.833452 -0.173849
0.464453 -0.839391 -0.189283
0.472650 -0.832701 -0.189169
0.461122 -0.836965 -0.199165
0.467060 -0.828053 -0.204116
0.462519 -0.821636 -0.105777
0.470682 -0.814450 -0.105909
0.473591 -0.816764 -0.094199
0.460103 -0.819697 -0.117776
0.467265 -0.811462 -0.123661
0.461577 -0.823421 -0.219659
0.468769 -0.811674 -0.218310
0.473006 -0.815849 -0.209160
0.459332 -0.821134 -0.229654
0.461476 -0.813546 -0.235451
0.474510 -0.802052 -0.129535
0.466823 -0.797164 -0.236014
0.471196 -0.797061 -0.221634
0.461537 -0.809664 -0.252744
0.466222 -0.797169 -0.252656
0.461105 -0.808619 -0.269634
0.464871 -0.797195 -0.269455
0.460260 -0.807854 -0.286526
0.462364 -0.797243 -0.286357
0.459413 -0.806593 -0.297089
0.459862 -0.797326 -0.297614
0.467590 -0.781138 -0.236008
0.471936 -0.781107 -0.221642
0.465896 -0.781149 -0.252635
0.461431 -0.741340 0.154122
0.463935 -0.699229 -0.035390
0.472144 -0.699210 -0.030317
0.467003 -0.666390 -0.029777
0.466746 -0.617196 -0.039175
0.466621 -0.600776 -0.042836
0.465118 -0.582878 -0.046103
0.458682 -0.576444 -0.047498
0.465257 -0.551177 -0.046142
0.458808 -0.545539 -0.047462
0.460525 -0.535029 -0.047940
0.468809 -0.535014 -0.046109
0.462685 -0.518607 -0.048502
0.470954 -0.518601 -0.046567
0.462981 -0.502229 -0.048421
0.471235 -0.502218 -0.046643
0.463886 -0.485828 -0.048518
0.472145 -0.485801 -0.046805
0.467808 -0.469826 -0.049395
0.473972 -0.475604 -0.047163
0.466828 -0.452972 -0.050470
0.463573 -0.420232 -0.048419
0.471809 -0.420214 -0.046737
0.467632 -0.403256 -0.049253
0.473632 -0.408353 -0.047102
0.466860 -0.387400 -0.050057
0.466903 -0.371016 -0.049130
0.466915 -0.354582 -0.049554
0.466932 -0.338127 -0.051879
0.466959 -0.321737 -0.051177
0.462905 -0.288932 -0.048153
0.471154 -0.288908 -0.046448
0.467924 -0.272271 -0.048807
0.474088 -0.277617 -0.047191
0.467110 -0.223071 -0.045480
0.467178 -0.206695 -0.045060
0.467191 -0.190450 -0.043496
0.467138 -0.174147 -0.041806
0.467052 -0.157734 -0.041001
0.466998 -0.141322 -0.040879
0.467006 -0.124916 -0.041148
0.467019 -0.108487 -0.042158
0.467022 -0.091992 -0.043507
0.467051 -0.075558 -0.043751
0.467094 -0.059223 -0.042922
0.467147 -0.042800 -0.042434
0.467250 -0.026236 -0.042757
0.467340 -0.009787 -0.043024
0.467367 0.006516 -0.042804
0.467305 0.022902 -0.042863
0.467198 0.039348 -0.042622
0.467150 0.055743 -0.041225
0.467128 0.072094 -0.039873
0.467059 0.088472 -0.040543
0.466983 0.104838 -0.042748
0.466974 0.121181 -0.043343
0.466985 0.137535 -0.041617
0.463043 0.170294 -0.033226
0.477116 -0.870179 0.138922
0.479907 -0.859517 0.138237
0.478251 -0.871483 0.122636
0.477533 -0.870127 0.105789
0.486416 -0.857828 0.106815
0.476102 -0.868021 0.096752
0.479280 -0.859413 0.093427
0.484907 -0.846747 0.088217
0.491139 -0.849723 0.102215
0.484012 -0.842282 0.073773
0.484055 -0.841552 0.057764
0.484059 -0.840566 0.041635
0.484027 -0.839771 0.025597
0.484031 -0.839177 0.009311
0.485612 -0.837914 -0.007000
0.482295 -0.837709 -0.023559
0.490515 -0.833877 -0.023772
0.492156 -0.834718 -0.012594
0.478487 -0.836022 -0.039806
0.486670 -0.832011 -0.039984
0.476052 -0.834964 -0.048485
0.482478 -0.829042 -0.055043
0.483368 -0.821264 -0.072594
0.477531 -0.819314 -0.083247
0.483295 -0.813788 -0.089157
0.488491 -0.816748 -0.077921
0.485027 -0.823702 -0.189657
0.480196 -0.821836 -0.198816
0.483832 -0.812168 -0.204332
0.491191 -0.818655 -0.194525
0.483917 -0.806157 -0.105984
0.478561 -0.804291 -0.118063
0.483923 -0.798178 -0.123446
0.489488 -0.800821 -0.111589
0.476561 -0.805595 -0.211997
0.480304 -0.796962 -0.213417
0.488503 -0.796830 -0.210298
0.480227 -0.781104 -0.213402
0.488384 -0.781076 -0.210928
0.483460 -0.699198 -0.029086
0.483202 -0.633608 -0.037375
0.483137 -0.617193 -0.040378
0.483058 -0.600774 -0.043494
0.483207 -0.551453 -0.045476
0.483267 -0.535020 -0.045684
0.483284 -0.452973 -0.049022
0.483349 -0.420220 -0.046470
0.483352 -0.408468 -0.047127
0.483361 -0.400293 -0.048086
0.483391 -0.387391 -0.048536
0.483443 -0.370994 -0.048254
0.483443 -0.354567 -0.048960
0.483400 -0.338123 -0.051126
0.483396 -0.321733 -0.050228
0.483600 -0.239521 -0.044777
0.483594 -0.223152 -0.043914
0.483531 -0.206861 -0.043467
0.483500 -0.190544 -0.042230
0.483484 -0.174166 -0.040867
0.483459 -0.157736 -0.040371
0.483456 -0.141306 -0.040861
0.483499 -0.124886 -0.042363
0.483521 -0.108456 -0.043822
0.483518 -0.091973 -0.044008
0.483532 -0.075551 -0.043289
0.483561 -0.059224 -0.042565
0.483660 -0.042802 -0.042140
0.483895 -0.026221 -0.042254
0.483996 -0.009753 -0.042072
0.483892 0.006553 -0.041287
0.483731 0.022909 -0.040658
0.483555 0.039298 -0.039876
0.483495 0.055692 -0.039367
0.483510 0.072066 -0.039748
0.483465 0.088418 -0.041811
0.483393 0.104760 -0.043780
0.483382 0.121122 -0.042144
0.483397 0.137501 -0.037353
0.492319 -0.851305 0.113019
0.493553 -0.843720 0.106532
0.497988 -0.826606 0.104887
0.493344 -0.838066 0.089424
0.497877 -0.826603 0.089129
0.492725 -0.835575 0.073778
0.497601 -0.826587 0.073510
0.492827 -0.835464 0.057387
0.499164 -0.826592 0.057111
0.492702 -0.835193 0.041056
0.492476 -0.834980 0.025190
0.500662 -0.827426 0.024669
0.492323 -0.834843 0.009051
0.500517 -0.828372 0.008399
0.492292 -0.834804 -0.001502
0.498863 -0.830157 -0.007746
0.504618 -0.813231 0.104899
0.505013 -0.813714 0.088943
0.505348 -0.814161 0.073160
0.506858 -0.815914 0.056928
0.500466 -0.828363 -0.024279
0.500379 -0.826141 -0.040331
0.500897 -0.821423 -0.057697
0.495815 -0.819186 -0.066816
0.500853 -0.815588 -0.072734
0.506742 -0.817970 -0.063963
0.492933 -0.819351 -0.185216
0.499050 -0.814698 -0.189655
0.500268 -0.808528 -0.089640
0.500219 -0.803662 -0.101413
0.500186 -0.799507 -0.109794
0.500148 -0.809156 -0.200317
0.500014 -0.796737 -0.207700
0.498574 -0.791459 -0.123854
0.495783 -0.789894 -0.140082
0.503883 -0.786529 -0.140223
0.502870 -0.786281 -0.130287
0.499919 -0.781079 -0.209552
0.499607 -0.469412 -0.051979
0.499579 -0.453021 -0.052651
0.499707 -0.387413 -0.052272
0.499765 -0.371015 -0.051758
0.499753 -0.354601 -0.052316
0.499665 -0.338163 -0.054331
0.499645 -0.321766 -0.053659
0.499761 -0.272482 -0.051165
0.499777 -0.174166 -0.042792
0.499770 -0.157729 -0.043171
0.500073 -0.042828 -0.044285
0.500173 -0.026320 -0.044547
0.500194 -0.009877 -0.043968
0.500108 0.006471 -0.042581
0.499977 0.022859 -0.041725
0.499831 0.039287 -0.041313
0.499789 0.055673 -0.041551
0.499828 0.072005 -0.042652
0.499805 0.088354 -0.044157
0.499743 0.104717 -0.043893
0.499751 0.121096 -0.039209
0.509316 -0.819172 0.024115
0.515019 -0.810203 0.024060
0.510228 -0.820106 0.007661
0.511187 -0.820784 -0.008879
0.519376 -0.811488 -0.009265
0.511705 -0.821029 -0.025010
0.519901 -0.812838 -0.025506
0.511604 -0.820718 -0.040792
0.519802 -0.813703 -0.041341
0.510507 -0.819771 -0.053114
0.516260 -0.814183 -0.058250
0.510614 -0.804953 0.104893
0.517509 -0.793798 0.104911
0.510951 -0.805434 0.088723
0.511149 -0.805890 0.072878
0.519364 -0.794225 0.072740
0.511779 -0.807680 0.056993
0.519984 -0.794799 0.057183
0.520914 -0.796071 0.041099
0.522555 -0.798575 0.024214
0.516727 -0.810038 -0.073474
0.518320 -0.804873 -0.091344
0.513910 -0.802974 -0.099984
0.518256 -0.799490 -0.105841
0.524860 -0.802056 -0.097891
0.513385 -0.805934 -0.189271
0.521485 -0.800618 -0.189335
0.512477 -0.805974 -0.198184
0.517236 -0.797275 -0.202443
0.523797 -0.783655 0.104961
0.516310 -0.780986 -0.208999
0.516267 -0.764833 -0.203799
0.516329 -0.731742 -0.054231
0.516105 -0.666374 -0.050584
0.515936 -0.617186 -0.051616
0.515923 -0.600772 -0.054674
0.515924 -0.584371 -0.058394
0.515947 -0.567953 -0.059076
0.515970 -0.551519 -0.057488
0.515970 -0.535097 -0.057786
0.515964 -0.518685 -0.058161
0.515982 -0.502287 -0.056314
0.515987 -0.485875 -0.054913
0.515942 -0.469450 -0.056003
0.515914 -0.453061 -0.056561
0.515943 -0.436669 -0.055203
0.515967 -0.420255 -0.054642
0.515974 -0.403833 -0.056116
0.516011 -0.387432 -0.056545
0.516076 -0.371044 -0.055618
0.516061 -0.354627 -0.055832
0.515967 -0.338188 -0.057520
0.515960 -0.321795 -0.057126
0.516028 -0.305398 -0.054382
0.516054 -0.288958 -0.053885
0.516073 -0.272505 -0.054829
0.516150 -0.256115 -0.053259
0.516222 -0.239765 -0.050072
0.516169 -0.223362 -0.049180
0.516074 -0.206952 -0.049298
0.516145 -0.124907 -0.048643
0.516177 -0.108515 -0.048664
0.516190 -0.092050 -0.049130
0.516267 -0.075612 -0.049004
0.516358 -0.026394 -0.046758
0.516290 -0.009986 -0.045893
0.516274 0.006396 -0.044682
0.516214 0.022816 -0.044263
0.516129 0.039262 -0.044625
0.516120 0.055628 -0.045165
0.516160 0.071942 -0.045526
0.516140 0.088308 -0.044924
0.516105 0.104694 -0.041539
0.525924 -0.803251 -0.009496
0.532524 -0.793840 -0.009493
0.527130 -0.804584 -0.025860
0.528354 -0.805437 -0.041893
0.536550 -0.796292 -0.042223
0.529284 -0.805204 -0.057965
0.537490 -0.798271 -0.058403
0.530030 -0.804062 -0.074083
0.538253 -0.800128 -0.074491
0.528594 -0.802990 -0.087329
0.533667 -0.801069 -0.091847
0.525395 -0.786003 0.072761
0.535048 -0.776010 0.072311
0.525711 -0.786570 0.057353
0.533176 -0.777517 0.057554
0.526496 -0.787843 0.041322
0.527934 -0.790355 0.024327
0.536118 -0.778950 0.024454
0.537916 -0.781054 0.007408
0.539886 -0.783567 -0.009398
0.533149 -0.798497 -0.106392
0.533144 -0.793488 -0.123087
0.533170 -0.789430 -0.140268
0.533249 -0.788523 -0.157463
0.533260 -0.790306 -0.174336
0.533075 -0.794111 -0.189532
0.532852 -0.792065 -0.200403
0.530956 -0.775435 0.104959
0.539153 -0.766429 0.104986
0.540846 -0.768413 0.057794
0.541290 -0.768971 0.066877
0.532729 -0.715229 -0.050454
0.532664 -0.699054 -0.050716
0.532651 -0.682660 -0.051500
0.532598 -0.666310 -0.051703
0.532496 -0.649980 -0.052685
0.532446 -0.633597 -0.052645
0.532437 -0.617177 -0.052472
0.532413 -0.600763 -0.054919
0.532393 -0.584374 -0.058882
0.532403 -0.567963 -0.059584
0.532420 -0.551530 -0.058433
0.532425 -0.535104 -0.059127
0.532432 -0.518690 -0.059386
0.532470 -0.502287 -0.057145
0.532507 -0.485864 -0.055276
0.532492 -0.469437 -0.056021
0.532478 -0.453049 -0.056589
0.532502 -0.436654 -0.055473
0.532510 -0.420228 -0.055153
0.532504 -0.403799 -0.056716
0.532524 -0.387409 -0.056954
0.532581 -0.371033 -0.055734
0.532583 -0.354608 -0.055570
0.532555 -0.338163 -0.056920
0.532581 -0.321764 -0.056496
0.532625 -0.305350 -0.054086
0.532627 -0.288906 -0.053985
0.532613 -0.272489 -0.055315
0.532650 -0.256133 -0.054068
0.532681 -0.239777 -0.050884
0.532648 -0.223357 -0.049759
0.532601 -0.206941 -0.049804
0.532631 -0.190550 -0.049065
0.532597 -0.141245 -0.049616
0.532638 -0.124891 -0.049952
0.532701 -0.108502 -0.050138
0.532829 -0.092033 -0.050632
0.532946 -0.075599 -0.050502
0.532970 -0.059234 -0.049347
0.532687 -0.026409 -0.046212
0.532605 -0.010007 -0.045395
0.532640 0.006417 -0.045531
0.540987 0.048084 0.050156
0.532583 0.071898 -0.045745
0.532563 0.088287 -0.042157
0.532473 0.121094 0.139770
0.542808 -0.788035 -0.042322
0.548418 -0.777585 -0.042331
0.544463 -0.790013 -0.058606
0.546896 -0.791896 -0.074801
0.555038 -0.781643 -0.075095
0.549589 -0.792662 -0.106827
0.549645 -0.791221 -0.123220
0.550560 -0.788163 -0.140020
0.545174 -0.786872 -0.157480
0.553303 -0.784368 -0.157484
0.556583 -0.785280 -0.145649
0.543379 -0.786525 -0.174397
0.551522 -0.783676 -0.174458
0.545244 -0.787998 -0.189681
0.553364 -0.784260 -0.189756
0.544499 -0.788390 -0.198039
0.548320 -0.779053 -0.204279
0.541976 -0.769605 0.077199
0.549655 -0.761149 0.072315
0.542355 -0.770748 0.024533
0.547714 -0.761268 0.024590
0.543590 -0.772851 0.007488
0.549858 -0.761238 0.007559
0.544922 -0.775412 -0.009280
0.554015 -0.762343 -0.025632
0.555158 -0.763721 -0.042108
0.541490 -0.773006 -0.211524
0.546332 -0.758195 0.104974
0.547635 -0.760202 0.057836
0.555849 -0.750319 0.057860
0.557303 -0.752134 0.067442
0.554860 -0.748638 0.042025
0.555009 -0.747715 0.024682
0.555880 -0.748681 0.007574
0.550101 -0.699936 -0.049639
0.556230 -0.705954 -0.048604
0.549133 -0.682402 -0.050015
0.549079 -0.666160 -0.051500
0.548976 -0.649938 -0.054008
0.548927 -0.633574 -0.053657
0.548916 -0.617160 -0.052248
0.548875 -0.600761 -0.054161
0.548822 -0.584378 -0.058323
0.548815 -0.567964 -0.059284
0.548836 -0.551538 -0.058628
0.548855 -0.535122 -0.059828
0.548878 -0.518707 -0.060372
0.548922 -0.502295 -0.058200
0.548975 -0.485872 -0.056171
0.549001 -0.469447 -0.056718
0.549001 -0.453045 -0.057194
0.549003 -0.436642 -0.055960
0.548986 -0.420226 -0.055455
0.548955 -0.403804 -0.056857
0.548955 -0.387404 -0.057026
0.549011 -0.371028 -0.055526
0.549041 -0.354612 -0.055126
0.549074 -0.338162 -0.056339
0.549119 -0.321740 -0.055702
0.549151 -0.305326 -0.053338
0.549133 -0.288901 -0.053358
0.549077 -0.272503 -0.054871
0.549070 -0.256138 -0.053843
0.549086 -0.239778 -0.050870
0.549084 -0.223358 -0.049848
0.549074 -0.206927 -0.050076
0.549112 -0.190525 -0.049783
0.549124 -0.174107 -0.049346
0.549074 -0.157654 -0.049495
0.549047 -0.141235 -0.049994
0.549100 -0.124881 -0.050410
0.549194 -0.108499 -0.050772
0.549373 -0.092034 -0.051245
0.549468 -0.075596 -0.050971
0.549371 -0.059229 -0.049597
0.549020 -0.026397 -0.045641
0.548954 -0.009980 -0.045323
0.548995 0.039132 -0.048328
0.549004 0.071873 -0.042512
0.558580 -0.786313 -0.107094
0.565119 -0.777582 -0.107568
0.558727 -0.786326 -0.123289
0.558257 -0.785917 -0.134016
0.564622 -0.780212 -0.139993
0.559792 -0.773482 -0.075128
0.562416 -0.761520 -0.074969
0.566199 -0.761633 -0.091337
0.570297 -0.761722 -0.107678
0.566133 -0.778471 -0.157461
0.566136 -0.778411 -0.174447
0.565961 -0.778863 -0.189602
0.565730 -0.774981 -0.200298
0.565574 -0.764942 -0.207778
0.558627 -0.753358 0.077710
0.566133 -0.744717 0.072098
0.558169 -0.754051 -0.025514
0.559608 -0.744889 -0.025383
0.558329 -0.755462 -0.041992
0.559236 -0.745023 -0.041770
0.560033 -0.745265 -0.058062
0.561945 -0.745622 -0.074272
0.565479 -0.757456 -0.211629
0.562994 -0.742035 0.057802
0.571143 -0.733149 0.057747
0.573589 -0.735699 0.066454
0.560361 -0.740355 0.042182
0.569155 -0.727778 0.041630
0.559165 -0.739434 0.024705
0.564872 -0.728466 0.024975
0.558966 -0.740421 0.007527
0.563608 -0.728507 0.007749
0.564024 -0.728589 -0.008798
0.562933 -0.728763 -0.025161
0.560945 -0.729051 -0.041377
0.571707 -0.717504 0.025393
0.573426 -0.719440 0.035584
0.570583 -0.716020 0.008207
0.570790 -0.712450 -0.009676
0.566793 -0.713020 -0.025005
0.571131 -0.701066 -0.024820
0.573253 -0.703766 -0.015967
0.564675 -0.698008 -0.041172
0.558522 -0.695073 -0.049130
0.561885 -0.682034 -0.049044
0.570101 -0.681568 -0.045074
0.566820 -0.667153 -0.050039
0.573176 -0.673023 -0.047885
0.565410 -0.649820 -0.052690
0.565360 -0.633524 -0.053081
0.565340 -0.617132 -0.053097
0.565279 -0.600753 -0.055149
0.565189 -0.584376 -0.058805
0.565164 -0.567965 -0.060899
0.565301 -0.485896 -0.060173
0.565330 -0.469472 -0.060603
0.565336 -0.453064 -0.060663
0.565318 -0.436655 -0.058640
0.565269 -0.420247 -0.057505
0.565201 -0.403831 -0.058805
0.565188 -0.387428 -0.059238
0.565260 -0.371042 -0.057951
0.565301 -0.354625 -0.057505
0.565313 -0.338173 -0.058505
0.565368 -0.321755 -0.057537
0.565450 -0.305356 -0.054498
0.565427 -0.288938 -0.053936
0.565324 -0.272523 -0.054931
0.565305 -0.256144 -0.053712
0.565340 -0.239774 -0.051221
0.565356 -0.223347 -0.050809
0.565359 -0.206899 -0.051430
0.565400 -0.190506 -0.050816
0.565420 -0.174112 -0.049944
0.565380 -0.157667 -0.050084
0.565374 -0.141242 -0.050442
0.565480 -0.124873 -0.050454
0.565582 -0.108494 -0.050686
0.565638 -0.092040 -0.051107
0.565629 -0.075604 -0.050561
0.565319 -0.026330 -0.045934
0.565390 0.022747 -0.047732
0.575305 -0.771169 -0.140178
0.576373 -0.762305 -0.140241
0.576766 -0.771856 -0.157416
0.580633 -0.762068 -0.157501
0.578633 -0.772468 -0.174434
0.578271 -0.772548 -0.189569
0.586336 -0.765785 -0.189687
0.576093 -0.771611 -0.197638
0.580337 -0.761250 -0.203073
0.573790 -0.755953 -0.211369
0.575404 -0.737346 0.076841
0.582572 -0.728327 0.071918
0.578533 -0.724880 0.057827
0.586735 -0.715930 0.057927
0.589724 -0.719035 0.067166
0.575420 -0.721794 0.046793
0.582191 -0.712001 0.042163
0.578507 -0.709257 0.025585
0.586699 -0.699341 0.025603
0.588981 -0.701877 0.037452
0.576718 -0.707804 0.008439
0.584908 -0.697757 0.008423
0.575593 -0.706821 -0.004684
0.581517 -0.698331 -0.009620
0.581232 -0.691889 -0.024190
0.575064 -0.689901 -0.033798
0.581148 -0.680139 -0.037650
0.586089 -0.684680 -0.028910
0.582021 -0.669059 -0.045683
0.581959 -0.661446 -0.048665
0.581894 -0.649343 -0.049827
0.581840 -0.633334 -0.051919
0.581805 -0.617021 -0.053505
0.581730 -0.600695 -0.055864
0.581623 -0.584359 -0.060222
0.581612 -0.535151 -0.066096
0.581630 -0.518749 -0.066463
0.581648 -0.420244 -0.059964
0.581583 -0.403823 -0.061253
0.581582 -0.387426 -0.061701
0.581651 -0.371037 -0.060316
0.581675 -0.354606 -0.059883
0.581665 -0.338141 -0.060972
0.581720 -0.321740 -0.059559
0.581819 -0.305360 -0.055767
0.581803 -0.288929 -0.054712
0.581718 -0.272488 -0.055325
0.581703 -0.256110 -0.054013
0.581724 -0.239739 -0.052072
0.581725 -0.223284 -0.052327
0.581737 -0.206820 -0.053228
0.581781 -0.190459 -0.052222
0.581810 -0.174090 -0.050880
0.581811 -0.157623 -0.050857
0.581849 -0.141173 -0.051168
0.581972 -0.124818 -0.050979
0.582016 -0.108445 -0.050893
0.581929 -0.091992 -0.050718
0.581839 -0.075570 -0.049810
0.581748 -0.042757 -0.046772
0.575629 0.022716 -0.047427
0.583794 0.022720 -0.046637
0.595389 -0.757531 -0.189921
0.603485 -0.749857 -0.190111
0.592991 -0.756238 -0.198690
0.597073 -0.745081 -0.203923
0.590444 -0.739841 -0.211472
0.591942 -0.720998 0.077393
0.599210 -0.712075 0.071897
0.594839 -0.707642 0.058005
0.603078 -0.699097 0.058160
0.606466 -0.702888 0.066561
0.591367 -0.704530 0.048572
0.598012 -0.694578 0.044074
0.593678 -0.691015 0.025520
0.601914 -0.681237 0.025384
0.604669 -0.684374 0.039406
0.592162 -0.689346 0.008260
0.600401 -0.679941 0.008066
0.591706 -0.688916 -0.008710
0.599978 -0.680555 -0.008762
0.590989 -0.688152 -0.018685
0.597581 -0.678085 -0.024555
0.593083 -0.673445 -0.034753
0.597590 -0.663084 -0.040303
0.604153 -0.669143 -0.030488
0.591053 -0.657339 -0.048142
0.597267 -0.648231 -0.048965
0.602057 -0.652657 -0.045890
0.598373 -0.632686 -0.051730
0.598341 -0.616590 -0.052648
0.598271 -0.600474 -0.055572
0.598102 -0.551530 -0.065946
0.598086 -0.535136 -0.067572
0.598087 -0.518748 -0.068887
0.598112 -0.502344 -0.067596
0.598147 -0.485899 -0.066075
0.598206 -0.469456 -0.066271
0.598245 -0.453051 -0.066034
0.598242 -0.403775 -0.063153
0.598271 -0.387365 -0.063073
0.598302 -0.370968 -0.061372
0.598305 -0.354521 -0.060993
0.598314 -0.338032 -0.062321
0.598344 -0.321657 -0.060579
0.598366 -0.305324 -0.056779
0.598377 -0.288881 -0.055453
0.598385 -0.272395 -0.055413
0.598376 -0.255998 -0.054709
0.598340 -0.239624 -0.053759
0.598326 -0.223137 -0.054209
0.598332 -0.206667 -0.054843
0.598349 -0.190361 -0.053865
0.598372 -0.174029 -0.052573
0.598467 -0.157507 -0.052293
0.598579 -0.141002 -0.052346
0.598609 -0.124683 -0.052025
0.598521 -0.108347 -0.051317
0.598350 -0.091870 -0.050172
0.598245 -0.075406 -0.049036
0.598215 -0.009953 -0.049422
0.598247 0.022684 -0.043986
0.615628 -0.740548 -0.189022
0.610111 -0.739898 -0.199248
0.614172 -0.729103 -0.204420
0.621193 -0.734901 -0.192723
0.607513 -0.723740 -0.211677
0.608771 -0.705177 0.076648
0.615405 -0.695396 0.072585
0.610168 -0.690826 0.058176
0.619101 -0.679566 0.057048
0.622041 -0.685382 0.068546
0.607254 -0.687279 0.050569
0.611486 -0.678910 0.044144
0.620686 -0.667688 0.042742
0.623049 -0.670245 0.051484
0.608867 -0.672946 0.025298
0.617889 -0.662065 0.024673
0.607720 -0.671620 0.007895
0.615218 -0.662593 0.008144
0.608217 -0.672184 -0.008806
0.607900 -0.671815 -0.020189
0.614374 -0.661770 -0.023998
0.622726 -0.653787 0.008443
0.622721 -0.653812 0.018429
0.609837 -0.658317 -0.035649
0.615230 -0.647036 -0.041095
0.620846 -0.652361 -0.027767
0.609666 -0.642025 -0.048968
0.615050 -0.631978 -0.050235
0.620655 -0.637007 -0.046558
0.614869 -0.615715 -0.052056
0.614797 -0.599990 -0.055209
0.614531 -0.583685 -0.061226
0.608929 -0.578103 -0.064682
0.611463 -0.567903 -0.064899
0.619662 -0.567842 -0.063095
0.615526 -0.552304 -0.065040
0.621602 -0.558174 -0.063725
0.614542 -0.535119 -0.067873
0.614503 -0.518740 -0.070202
0.614509 -0.502334 -0.068997
0.614563 -0.485904 -0.067328
0.614653 -0.469469 -0.067608
0.614715 -0.453050 -0.067491
0.614719 -0.436630 -0.065796
0.614787 -0.354483 -0.061692
0.614801 -0.305289 -0.057866
0.614863 -0.288842 -0.056595
0.614945 -0.272285 -0.056378
0.614940 -0.255855 -0.055929
0.614860 -0.239507 -0.055072
0.614815 -0.223018 -0.055333
0.614801 -0.206527 -0.055593
0.614815 -0.190236 -0.054546
0.614865 -0.173943 -0.053427
0.615001 -0.157379 -0.053179
0.615109 -0.140820 -0.052874
0.615071 -0.124525 -0.052022
0.614926 -0.108217 -0.050718
0.614757 -0.091684 -0.049137
0.614665 -0.075164 -0.048277
0.614671 -0.026280 -0.050664
0.624060 -0.736701 -0.183206
0.631710 -0.728178 -0.189729
0.628384 -0.724146 -0.199393
0.631964 -0.713490 -0.204714
0.639389 -0.719845 -0.195619
0.624676 -0.707561 -0.211700
0.624401 -0.687959 0.078621
0.631189 -0.678121 0.074056
0.627006 -0.674432 0.060961
0.633213 -0.663973 0.056165
0.637937 -0.668602 0.069482
0.628456 -0.659461 0.042778
0.636587 -0.651261 0.042801
0.639385 -0.654000 0.051408
0.625015 -0.656199 0.030063
0.631922 -0.646749 0.024729
0.623534 -0.654456 -0.017540
0.627191 -0.646611 -0.023481
0.630259 -0.645599 0.008692
0.638425 -0.636925 0.008959
0.638883 -0.637356 0.019482
0.638242 -0.636762 -0.008382
0.636256 -0.635336 -0.024685
0.625243 -0.641663 -0.036278
0.632390 -0.630616 -0.041980
0.628600 -0.626024 -0.049109
0.632995 -0.616182 -0.051207
0.639573 -0.621997 -0.047798
0.631266 -0.599276 -0.055306
0.631176 -0.583737 -0.057179
0.631118 -0.567662 -0.059718
0.631078 -0.554432 -0.062588
0.631046 -0.546313 -0.064278
0.630959 -0.535066 -0.066774
0.630848 -0.518709 -0.069576
0.630827 -0.502318 -0.069522
0.630876 -0.485904 -0.068527
0.630976 -0.469472 -0.068629
0.631049 -0.453039 -0.068628
0.631050 -0.436604 -0.067091
0.631029 -0.420164 -0.065921
0.631028 -0.403684 -0.066310
0.631041 -0.387253 -0.065748
0.631041 -0.354474 -0.061507
0.630964 -0.340926 -0.063166
0.630924 -0.332694 -0.064189
0.631082 -0.305259 -0.058909
0.631183 -0.288779 -0.058353
0.631249 -0.272150 -0.059049
0.631261 -0.255702 -0.058038
0.631212 -0.239403 -0.055971
0.631123 -0.222944 -0.055401
0.631058 -0.206442 -0.055254
0.631129 -0.190116 -0.054044
0.631253 -0.173792 -0.053047
0.631313 -0.157226 -0.052967
0.631319 -0.140684 -0.052428
0.631292 -0.124409 -0.050888
0.627123 -0.091511 -0.048046
0.635246 -0.091357 -0.047043
0.629480 -0.074181 -0.047809
0.633883 -0.078945 -0.046855
0.631066 -0.058651 -0.048820
0.631073 -0.042537 -0.050520
0.631069 -0.026371 -0.051034
0.631101 0.006255 -0.040320
0.641605 -0.721698 -0.186756
0.648533 -0.712307 -0.191118
0.644623 -0.709075 -0.199962
0.647500 -0.696338 -0.205063
0.655576 -0.703051 -0.195223
0.639533 -0.689930 -0.211362
0.640307 -0.670938 0.079638
0.647171 -0.661543 0.074622
0.643038 -0.657654 0.060858
0.649301 -0.647601 0.056342
0.654034 -0.652120 0.069720
0.644498 -0.643035 0.042815
0.652744 -0.634524 0.042758
0.655606 -0.637283 0.051616
0.641222 -0.639648 0.030772
0.648426 -0.630201 0.024786
0.647011 -0.628650 0.008726
0.655231 -0.620587 0.008514
0.655653 -0.621023 0.018578
0.646666 -0.628491 -0.008475
0.654887 -0.620202 -0.008535
0.644952 -0.627024 -0.024694
0.653184 -0.618700 -0.024678
0.642192 -0.624444 -0.037448
0.647766 -0.616993 -0.041601
0.647870 -0.609942 -0.050221
0.647785 -0.598183 -0.054500
0.647687 -0.582833 -0.057096
0.647644 -0.567093 -0.058202
0.646008 -0.549477 -0.061107
0.639404 -0.543253 -0.063941
0.645886 -0.535421 -0.065668
0.650413 -0.540989 -0.062797
0.647315 -0.518621 -0.069244
0.647262 -0.502274 -0.069906
0.647281 -0.485873 -0.069456
0.647354 -0.469448 -0.069837
0.647438 -0.453028 -0.069777
0.647479 -0.436578 -0.068268
0.647475 -0.420099 -0.067166
0.647449 -0.403600 -0.067254
0.647434 -0.387188 -0.066515
0.647488 -0.305184 -0.059769
0.647576 -0.288675 -0.059833
0.647656 -0.272031 -0.061252
0.647684 -0.255601 -0.059656
0.647647 -0.239311 -0.056455
0.647574 -0.222817 -0.055329
0.647536 -0.206259 -0.054779
0.647629 -0.189903 -0.053449
0.647735 -0.173559 -0.052518
0.647729 -0.156980 -0.052371
0.647677 -0.140444 -0.051583
0.647644 -0.124170 -0.049596
0.647538 -0.091185 -0.046718
0.647510 -0.079798 -0.046988
0.647512 -0.071801 -0.048293
0.647503 -0.058728 -0.049858
0.647502 -0.042657 -0.050344
0.657699 -0.704831 -0.186256
0.664575 -0.695554 -0.190702
0.660508 -0.692293 -0.200334
0.663923 -0.680005 -0.205315
0.671574 -0.686254 -0.194786
0.656601 -0.674214 -0.211472
0.656750 -0.654571 0.079767
0.663852 -0.645486 0.074013
0.659992 -0.641137 0.061291
0.665851 -0.631234 0.056648
0.670950 -0.636118 0.068282
0.660646 -0.626273 0.042722
0.668916 -0.617475 0.042649
0.671772 -0.620398 0.051894
0.657627 -0.623037 0.030134
0.664821 -0.613640 0.024510
0.663217 -0.612319 0.008339
0.671439 -0.603764 0.008205
0.672020 -0.604426 0.018707
0.662809 -0.611931 -0.008541
0.671036 -0.603128 -0.008548
0.661289 -0.610393 -0.024648
0.669510 -0.601293 -0.024630
0.658250 -0.607373 -0.040102
0.667267 -0.596509 -0.041040
0.656407 -0.605535 -0.048199
0.659921 -0.597280 -0.050633
0.665498 -0.582710 -0.054432
0.671891 -0.588259 -0.046860
0.664190 -0.566050 -0.059502
0.664167 -0.550276 -0.060051
0.664118 -0.539265 -0.062185
0.664036 -0.531322 -0.065826
0.663935 -0.518363 -0.069213
0.663842 -0.502152 -0.070246
0.663800 -0.485827 -0.069974
0.663827 -0.469447 -0.071480
0.663899 -0.453046 -0.071676
0.663998 -0.436584 -0.069564
0.664067 -0.420071 -0.068186
0.664080 -0.403547 -0.067934
0.664052 -0.387150 -0.067091
0.664060 -0.337800 -0.064427
0.664054 -0.305092 -0.060600
0.664098 -0.288602 -0.060761
0.664214 -0.271992 -0.062098
0.664229 -0.255607 -0.060743
0.664164 -0.239328 -0.057473
0.664188 -0.222704 -0.055604
0.664259 -0.205985 -0.054339
0.664307 -0.189631 -0.052930
0.664309 -0.173346 -0.051973
0.664280 -0.156710 -0.051581
0.664225 -0.140091 -0.050600
0.663994 -0.058968 -0.050553
0.673969 -0.688127 -0.185487
0.681065 -0.679139 -0.190666
0.677195 -0.675481 -0.200207
0.680549 -0.663905 -0.205191
0.688246 -0.670221 -0.195234
0.673151 -0.658138 -0.211551
0.673894 -0.638947 0.078339
0.680352 -0.628985 0.073919
0.675869 -0.625121 0.061582
0.681612 -0.614142 0.057069
0.686781 -0.618863 0.069477
0.676212 -0.609218 0.042645
0.684303 -0.599550 0.042667
0.687307 -0.603055 0.052600
0.673658 -0.606234 0.030497
0.680459 -0.596623 0.026532
0.678229 -0.595544 0.008341
0.686357 -0.585847 0.008596
0.687296 -0.586900 0.022678
0.678198 -0.594885 -0.008520
0.686330 -0.585862 -0.008454
0.676759 -0.593042 -0.024647
0.684888 -0.584580 -0.024620
0.674370 -0.590617 -0.036457
0.681233 -0.581231 -0.041479
0.677212 -0.577609 -0.051312
0.681843 -0.566228 -0.055134
0.688120 -0.571947 -0.046502
0.680417 -0.518164 -0.068646
0.680308 -0.502048 -0.069772
0.680223 -0.485779 -0.070263
0.680177 -0.469447 -0.072248
0.680196 -0.453061 -0.072912
0.680305 -0.436608 -0.070715
0.680422 -0.420130 -0.069144
0.680498 -0.403625 -0.069193
0.680503 -0.387199 -0.068490
0.680436 -0.370859 -0.066582
0.680420 -0.354416 -0.065626
0.680491 -0.337818 -0.065766
0.680433 -0.288612 -0.061607
0.680520 -0.239382 -0.059819
0.680607 -0.222737 -0.057459
0.680712 -0.205961 -0.055537
0.680730 -0.189593 -0.053563
0.680686 -0.173336 -0.052242
0.680631 -0.156685 -0.051758
0.680572 -0.139995 -0.050937
0.680366 -0.075292 -0.051790
0.691023 -0.672171 -0.186187
0.698006 -0.663175 -0.191138
0.694128 -0.659464 -0.199833
0.696755 -0.647169 -0.204903
0.705101 -0.654194 -0.195623
0.688501 -0.640541 -0.211352
0.689705 -0.621942 0.079583
0.696261 -0.611991 0.074701
0.696663 -0.616495 -0.203240
0.691822 -0.607868 0.062058
0.697312 -0.597096 0.057637
0.702767 -0.602096 0.069822
0.691194 -0.591338 0.042713
0.700267 -0.580620 0.041498
0.702762 -0.586021 0.053218
0.689026 -0.588807 0.034170
0.693951 -0.581119 0.027495
0.703347 -0.570713 0.025983
0.704928 -0.572101 0.035127
0.693824 -0.577646 0.008766
0.701995 -0.569558 0.008905
0.694317 -0.577623 -0.008356
0.702489 -0.570029 -0.008255
0.693142 -0.576352 -0.024544
0.701312 -0.569329 -0.024490
0.690668 -0.574162 -0.036098
0.696501 -0.567696 -0.040754
0.697060 -0.560631 -0.051909
0.698189 -0.548572 -0.060662
0.693490 -0.543541 -0.064367
0.698097 -0.534899 -0.065517
0.704381 -0.540500 -0.063809
0.696778 -0.518071 -0.067757
0.696699 -0.502012 -0.068745
0.696607 -0.485742 -0.070073
0.696482 -0.469422 -0.072149
0.696420 -0.453058 -0.073161
0.696487 -0.436648 -0.071896
0.696612 -0.420215 -0.070773
0.696743 -0.403749 -0.071269
0.696814 -0.387302 -0.070648
0.696792 -0.370893 -0.068257
0.696741 -0.354438 -0.067407
0.696689 -0.337893 -0.067805
0.696680 -0.321470 -0.066839
0.696790 -0.239451 -0.062088
0.696889 -0.222851 -0.060378
0.696936 -0.206163 -0.058305
0.696960 -0.189785 -0.055297
0.696937 -0.173474 -0.053257
0.696856 -0.156833 -0.052748
0.696776 -0.140159 -0.052509
0.696745 -0.123798 -0.052099
0.696717 -0.107748 -0.052779
0.696676 -0.091755 -0.054018
0.696671 -0.075623 -0.051997
0.707320 -0.656236 -0.186831
0.714103 -0.646550 -0.190881
0.710045 -0.643363 -0.199778
0.714516 -0.631596 -0.203141
0.721009 -0.637151 -0.194663
0.713130 -0.615427 -0.206850
0.705833 -0.605192 0.080007
0.712381 -0.595513 0.074837
0.713047 -0.600095 -0.202512
0.707926 -0.591112 0.062655
0.713493 -0.580480 0.057923
0.718926 -0.585894 0.069704
0.708058 -0.575117 0.046202
0.713564 -0.567591 0.041497
0.719099 -0.569895 0.052989
0.714353 -0.561283 0.026947
0.711425 -0.561282 0.008753
0.719667 -0.553904 0.008581
0.720378 -0.554636 0.021796
0.711688 -0.561763 -0.008334
0.719926 -0.553888 -0.008416
0.710598 -0.561041 -0.024559
0.718826 -0.552620 -0.024610
0.707918 -0.558689 -0.040082
0.716131 -0.549819 -0.040151
0.706140 -0.557033 -0.049078
0.712345 -0.546658 -0.052055
0.714518 -0.533723 -0.060771
0.709692 -0.530027 -0.064907
0.714406 -0.518336 -0.066013
0.720698 -0.523526 -0.063694
0.713221 -0.501635 -0.068197
0.713135 -0.485559 -0.069326
0.712990 -0.469327 -0.071649
0.712879 -0.453020 -0.073605
0.712883 -0.436650 -0.073148
0.712970 -0.420229 -0.072422
0.713112 -0.403790 -0.073072
0.713234 -0.387361 -0.072339
0.713295 -0.370914 -0.069761
0.713257 -0.354422 -0.068710
0.713143 -0.337891 -0.068873
0.713101 -0.321496 -0.067864
0.713140 -0.305185 -0.065698
0.713121 -0.288722 -0.064582
0.713073 -0.272164 -0.064529
0.713246 -0.239421 -0.062719
0.713345 -0.222849 -0.061805
0.713406 -0.206209 -0.059922
0.713414 -0.189811 -0.056064
0.713358 -0.173461 -0.053303
0.713261 -0.156895 -0.052957
0.713177 -0.140382 -0.053527
0.713145 -0.124147 -0.054126
0.713119 -0.108103 -0.054165
0.713085 -0.092012 -0.052671
0.723219 -0.638953 -0.185725
0.730199 -0.629666 -0.190144
0.726225 -0.626314 -0.199796
0.730761 -0.615079 -0.203035
0.737287 -0.620676 -0.194079
0.729483 -0.598975 -0.207102
0.722444 -0.589005 0.079842
0.729140 -0.579475 0.074353
0.729413 -0.583685 -0.203241
0.724860 -0.574887 0.062578
0.730481 -0.564421 0.057597
0.735830 -0.569938 0.068830
0.724505 -0.558370 0.042680
0.732726 -0.550460 0.042648
0.736140 -0.553709 0.052554
0.722108 -0.556163 0.033289
0.729625 -0.547241 0.027272
0.728128 -0.545638 0.008492
0.736339 -0.537400 0.008457
0.737146 -0.538355 0.021139
0.727671 -0.545631 -0.008422
0.735880 -0.536568 -0.008424
0.726153 -0.544336 -0.024626
0.734340 -0.534672 -0.024644
0.723534 -0.541493 -0.040205
0.732453 -0.530489 -0.040597
0.722061 -0.539888 -0.048466
0.725366 -0.531627 -0.052102
0.731273 -0.517597 -0.058073
0.737241 -0.522307 -0.046017
0.725337 -0.513097 -0.065204
0.730392 -0.501255 -0.066226
0.736311 -0.506220 -0.063134
0.729730 -0.485089 -0.068308
0.729611 -0.469089 -0.070587
0.729492 -0.452902 -0.073238
0.729424 -0.436607 -0.073692
0.729438 -0.420228 -0.073366
0.729534 -0.403823 -0.074487
0.729679 -0.387405 -0.073876
