-0.905750 -0.350235 -0.064296
-0.911189 -0.354972 -0.063378
-0.916734 -0.342874 -0.063717
-0.910966 -0.320460 0.022392
-0.910938 -0.304359 0.023755
-0.910940 -0.287879 0.024286
-0.917605 -0.301342 -0.063757
-0.927082 -0.305834 -0.064825
-0.921280 -0.301334 -0.063826
-0.911785 -0.305960 -0.064512
-0.911822 -0.287536 -0.064561
-0.917638 -0.292562 -0.063742
-0.910946 -0.271140 0.024163
-0.910930 -0.254719 0.024955
-0.910909 -0.238507 0.026476
-0.918602 -0.248622 -0.063829
-0.926538 -0.254439 -0.064992
-0.920308 -0.248609 -0.063856
-0.912384 -0.254490 -0.064765
-0.908603 -0.239078 -0.064472
-0.916798 -0.239082 -0.063688
-0.910888 -0.221998 0.026839
-0.916998 -0.222620 -0.063689
-0.908794 -0.222602 -0.064469
-0.910861 -0.205444 0.026550
-0.918498 -0.206097 -0.063782
-0.910262 -0.206076 -0.064582
-0.910847 -0.189304 0.026725
-0.916133 -0.189839 -0.063566
-0.907950 -0.189860 -0.064383
-0.910844 -0.173171 0.026812
-0.904682 -0.173657 -0.064078
-0.912832 -0.173594 -0.063251
-0.910825 -0.156607 0.026191
-0.903417 -0.157120 -0.063964
-0.911604 -0.157045 -0.063170
-0.910803 -0.140099 0.025869
-0.909522 -0.140509 -0.063294
-0.903029 -0.145942 -0.063951
-0.910795 -0.124006 0.026810
-0.910791 -0.107818 0.027484
-0.910768 -0.091258 0.026774
-0.910751 -0.074824 0.026436
-0.910770 -0.058680 0.027140
-0.910793 -0.042345 0.027074
-0.910792 -0.025735 0.025968
-0.910795 -0.009363 0.025554
-0.910826 0.006768 0.025658
-0.910848 0.023121 0.024944
-0.910831 0.039654 0.023721
-0.910774 0.056050 0.022606
-0.910700 0.072348 0.021496
-0.910669 0.088838 0.020216
-0.910654 0.105373 0.019319
-0.910608 0.121625 0.019446
-0.910573 0.137784 0.019369
-0.911666 0.155049 0.017033
-0.917876 0.161035 0.013718
-0.914398 0.171382 0.007611
-0.905736 0.170414 0.015482
-0.902308 0.178676 0.014523
-0.905011 0.185159 0.004835
-0.917871 0.177545 -0.002997
-0.913155 0.186502 -0.008736
-0.912146 0.171680 -0.071073
-0.918628 0.178314 -0.065438
-0.906878 0.186764 -0.069360
-0.913563 0.185800 -0.060285
-0.902027 0.195015 -0.001684
-0.904068 0.197826 -0.009469
-0.914230 0.190084 -0.026021
-0.905920 0.200390 -0.025960
-0.913496 0.189413 -0.042998
-0.905221 0.199426 -0.042940
-0.904117 0.197670 -0.059105
-0.903159 0.196092 -0.067351
-0.888041 -0.595855 0.005203
-0.887006 -0.607695 -0.009026
-0.885588 -0.605429 -0.001203
-0.895410 -0.595693 -0.009505
-0.888358 -0.609882 -0.025532
-0.896620 -0.597785 -0.025462
-0.896450 -0.597368 -0.042923
-0.888215 -0.609706 -0.042870
-0.895880 -0.595333 -0.057765
-0.887291 -0.607882 -0.059179
-0.889237 -0.597083 -0.068521
-0.886384 -0.606048 -0.066839
-0.896997 -0.580798 0.007525
-0.886190 -0.589759 0.014733
-0.889174 -0.580993 0.015531
-0.899993 -0.586156 -0.004772
-0.900606 -0.587003 -0.061428
-0.894950 -0.581475 -0.070598
-0.900708 -0.570768 0.013282
-0.894874 -0.565759 0.016416
-0.894174 -0.549942 0.017812
-0.894313 -0.533960 0.018382
-0.894443 -0.517670 0.018519
-0.894543 -0.501682 0.017725
-0.894603 -0.485557 0.017089
-0.894604 -0.468994 0.018017
-0.894562 -0.452405 0.019233
-0.894505 -0.436062 0.019271
-0.896414 -0.451201 -0.064684
-0.903080 -0.444451 -0.064349
-0.896514 -0.437300 -0.063822
-0.892094 -0.443378 -0.064337
-0.894444 -0.419628 0.019493
-0.894368 -0.402845 0.020751
-0.894308 -0.386171 0.022092
-0.896255 -0.387811 -0.064548
-0.891820 -0.398031 -0.064494
-0.896358 -0.403410 -0.063959
-0.902927 -0.394119 -0.064296
-0.894284 -0.369798 0.022903
-0.894292 -0.353300 0.023457
-0.895796 -0.371201 -0.064413
-0.902082 -0.366204 -0.063938
-0.902085 -0.361243 -0.063898
-0.895821 -0.354897 -0.064664
-0.894318 -0.336595 0.023880
-0.894311 -0.320261 0.024706
-0.894284 -0.304235 0.025862
-0.894245 -0.287813 0.026280
-0.894196 -0.271122 0.026177
-0.894169 -0.254683 0.027053
-0.894170 -0.238429 0.028581
-0.894169 -0.221940 0.028997
-0.894157 -0.205432 0.028716
-0.894159 -0.189305 0.028705
-0.894154 -0.173173 0.028561
-0.894083 -0.156639 0.027860
-0.894021 -0.140134 0.027675
-0.892976 -0.122939 0.029304
-0.895826 -0.140671 -0.064193
-0.902322 -0.135034 -0.063914
-0.901998 -0.124375 -0.063854
-0.893691 -0.124439 -0.064434
-0.894987 -0.107725 0.029783
-0.886772 -0.107700 0.030938
-0.886816 -0.116936 0.030946
-0.901490 -0.108085 -0.063778
-0.893221 -0.108142 -0.064577
-0.892583 -0.092656 0.029395
-0.886092 -0.099128 0.030873
-0.900081 -0.091518 -0.063756
-0.891851 -0.091586 -0.064460
-0.894112 -0.074776 0.028640
-0.897586 -0.075079 -0.063711
-0.889461 -0.075152 -0.064190
-0.893463 -0.058573 0.029744
-0.888319 -0.058953 -0.064036
-0.896427 -0.058873 -0.063615
-0.893452 -0.041434 0.029906
-0.887568 -0.053199 0.030996
-0.887547 -0.046329 0.031001
-0.887934 -0.045582 -0.063993
-0.893850 -0.041013 -0.063591
-0.894123 -0.025723 0.028733
-0.894134 -0.009325 0.028546
-0.893132 0.006267 0.029430
-0.893182 0.023235 0.029072
-0.886982 0.011265 0.031008
-0.886996 0.017786 0.031006
-0.894263 0.039793 0.027446
-0.894206 0.056194 0.026045
-0.894109 0.072511 0.024428
-0.894066 0.089117 0.022530
-0.894052 0.105863 0.020977
-0.894020 0.122212 0.020856
-0.893997 0.138313 0.021066
-0.894011 0.154491 0.020210
-0.893991 0.170688 0.018164
-0.892724 0.185341 0.015589
-0.897335 0.189613 0.009141
-0.891918 0.200902 0.004418
-0.886391 0.195902 0.014763
-0.897471 0.206046 -0.009424
-0.889282 0.216419 -0.009360
-0.886534 0.212640 -0.000286
-0.899488 0.208610 -0.025931
-0.891311 0.218967 -0.025853
-0.898643 0.207678 -0.042952
-0.890479 0.217621 -0.042937
-0.897476 0.205872 -0.059197
-0.889380 0.216036 -0.059210
-0.893636 0.202119 -0.071000
-0.887932 0.213860 -0.069107
-0.880690 -0.615927 -0.008962
-0.872591 -0.626061 -0.008743
-0.870634 -0.623609 0.001636
-0.876338 -0.612630 0.005548
-0.882028 -0.618125 -0.025520
-0.873903 -0.627430 -0.025377
-0.873679 -0.627051 -0.042948
-0.881818 -0.617974 -0.042982
-0.881128 -0.616211 -0.059194
-0.872894 -0.626061 -0.059077
-0.877275 -0.612512 -0.068857
-0.871457 -0.624125 -0.067525
-0.882115 -0.600842 0.009584
-0.877202 -0.596825 0.015996
-0.871448 -0.609338 0.015317
-0.877751 -0.582076 0.017889
-0.877890 -0.566458 0.018507
-0.878010 -0.550745 0.017743
-0.878115 -0.534460 0.017509
-0.878183 -0.517989 0.017871
-0.878227 -0.501803 0.017623
-0.878258 -0.485566 0.017490
-0.879063 -0.501487 -0.063414
-0.894162 -0.501502 -0.066223
-0.888002 -0.495721 -0.064272
-0.884824 -0.506634 -0.064760
-0.878273 -0.468963 0.018860
-0.878244 -0.452353 0.020457
-0.878159 -0.436030 0.020861
-0.878077 -0.419613 0.021225
-0.886010 -0.443403 -0.064265
-0.879777 -0.437280 -0.063149
-0.878024 -0.402795 0.022209
-0.877982 -0.386148 0.023459
-0.877953 -0.369915 0.024561
-0.877982 -0.353447 0.025102
-0.878062 -0.336617 0.025225
-0.878068 -0.320265 0.025968
-0.877993 -0.304345 0.027292
-0.877934 -0.287960 0.027876
-0.877901 -0.271266 0.027887
-0.877868 -0.254839 0.028739
-0.876974 -0.237663 0.030196
-0.879179 -0.222093 0.030411
-0.871072 -0.231748 0.030901
-0.871233 -0.222247 0.030913
-0.878596 -0.205608 0.030230
-0.870694 -0.205792 0.030898
-0.876563 -0.190295 0.030278
-0.870403 -0.196208 0.030881
-0.877879 -0.173393 0.029942
-0.877800 -0.156854 0.029515
-0.876646 -0.140132 0.029829
-0.881255 -0.127750 0.030222
-0.870613 -0.134688 0.030948
-0.876684 -0.123121 0.031276
-0.877779 -0.107830 0.031671
-0.877582 -0.092779 0.031287
-0.882660 -0.088088 0.030364
-0.881763 -0.074871 0.030282
-0.873885 -0.075056 0.031244
-0.883586 -0.063978 0.030583
-0.878136 -0.058763 0.031337
-0.878956 -0.041520 0.031350
-0.885014 -0.035312 0.030778
-0.882407 -0.025820 0.030412
-0.874406 -0.025951 0.031206
-0.879582 -0.041120 -0.062965
-0.885835 -0.045575 -0.063978
-0.882376 -0.009407 0.030373
-0.874389 -0.009537 0.031328
-0.884988 0.000434 0.030728
-0.878931 0.006168 0.031653
-0.878223 0.023201 0.031535
-0.883791 0.028790 0.030589
-0.878288 0.040835 0.030229
-0.873134 0.036042 0.031121
-0.877975 0.056105 0.028864
-0.877874 0.072449 0.027134
-0.877828 0.089089 0.024960
-0.877801 0.105911 0.022999
-0.877739 0.122351 0.022444
-0.877684 0.138522 0.022319
-0.877681 0.154771 0.021405
-0.877650 0.170958 0.020330
-0.877557 0.187070 0.018912
-0.877050 0.202163 0.016370
-0.882081 0.206797 0.010483
-0.876682 0.218834 0.005912
-0.871347 0.214117 0.015376
-0.882892 0.224627 -0.009286
-0.874822 0.232438 -0.009298
-0.871302 0.229476 0.001344
-0.884947 0.227153 -0.025812
-0.876847 0.234226 -0.025810
-0.883704 0.225802 -0.043030
-0.875610 0.233380 -0.042932
-0.882447 0.224193 -0.059158
-0.874419 0.232182 -0.058891
-0.877814 0.219292 -0.071762
-0.872532 0.230187 -0.069114
-0.856800 -0.646338 -0.009863
-0.852763 -0.654364 -0.016478
-0.852766 -0.654365 -0.015731
-0.857586 -0.647280 -0.023722
-0.863103 -0.629584 0.006918
-0.854919 -0.640494 0.006840
-0.853162 -0.638324 0.014638
-0.855816 -0.630508 0.015426
-0.865936 -0.634338 -0.008573
-0.866878 -0.635701 -0.025343
-0.858352 -0.644491 -0.043016
-0.866460 -0.635357 -0.043097
-0.866002 -0.634450 -0.059094
-0.857802 -0.643426 -0.058948
-0.861503 -0.630095 -0.069739
-0.856054 -0.641331 -0.068011
-0.867392 -0.619794 0.012215
-0.861809 -0.615258 0.016535
-0.861474 -0.599486 0.018544
-0.861656 -0.583448 0.019286
-0.861780 -0.567384 0.018340
-0.861865 -0.551195 0.016400
-0.861889 -0.534666 0.016410
-0.863158 -0.551807 -0.062325
-0.877866 -0.551555 -0.066989
-0.871924 -0.546694 -0.063764
-0.869264 -0.557670 -0.064455
-0.861871 -0.518050 0.017905
-0.861876 -0.501764 0.018425
-0.861907 -0.485497 0.018626
-0.861962 -0.468879 0.019865
-0.861974 -0.452282 0.021139
-0.861916 -0.436002 0.021530
-0.861853 -0.419602 0.021943
-0.861816 -0.402759 0.022705
-0.861790 -0.386198 0.023757
-0.861769 -0.370153 0.025047
-0.861805 -0.353732 0.025820
-0.861882 -0.336731 0.026002
-0.861879 -0.320326 0.026951
-0.861788 -0.304513 0.028763
-0.861728 -0.288137 0.029599
-0.861721 -0.271402 0.029554
-0.861564 -0.255279 0.030190
-0.866876 -0.242693 0.030600
-0.856055 -0.250160 0.031028
-0.861541 -0.237937 0.031190
-0.870027 -0.263399 -0.063804
-0.878229 -0.256891 -0.064640
-0.872721 -0.252609 -0.063430
-0.863542 -0.257039 -0.062629
-0.861706 -0.222383 0.031313
-0.861789 -0.205872 0.031159
-0.862190 -0.190465 0.031045
-0.867840 -0.185612 0.030744
-0.866725 -0.173619 0.030648
-0.858634 -0.173641 0.031116
-0.867002 -0.157065 0.030602
-0.858912 -0.157071 0.031257
-0.868125 -0.145634 0.030682
-0.862262 -0.140331 0.031443
-0.861551 -0.124289 0.032387
-0.861588 -0.108031 0.032863
-0.861722 -0.091550 0.032449
-0.861786 -0.075187 0.032125
-0.861713 -0.059004 0.032274
-0.861638 -0.042646 0.032334
-0.861594 -0.026097 0.032132
-0.861579 -0.009675 0.032440
-0.861593 0.006605 0.033258
-0.861658 0.023003 0.032985
-0.862988 0.040688 0.031651
-0.869276 0.046979 0.030787
-0.866151 0.055935 0.030360
-0.858004 0.055922 0.031204
-0.860749 0.071701 0.029607
-0.854721 0.065860 0.030968
-0.861701 0.088884 0.027285
-0.861658 0.105631 0.025264
-0.861554 0.122088 0.024622
-0.861455 0.138359 0.023973
-0.861437 0.154778 0.022175
-0.861399 0.171111 0.020989
-0.861295 0.187228 0.021255
-0.861218 0.203373 0.020478
-0.861417 0.219667 0.017069
-0.866938 0.225056 0.012059
-0.860817 0.235568 0.006649
-0.856107 0.230731 0.015571
-0.865766 0.240658 -0.009341
-0.857569 0.248932 -0.009495
-0.854688 0.245810 0.001146
-0.867503 0.242432 -0.025857
-0.859285 0.251161 -0.025956
-0.866593 0.241607 -0.043023
-0.858394 0.250524 -0.042946
-0.865601 0.240381 -0.058814
-0.857469 0.248910 -0.058743
-0.861360 0.235715 -0.071644
-0.855828 0.246603 -0.069057
-0.843868 -0.661765 -0.009780
-0.837214 -0.671946 -0.025071
-0.837158 -0.671857 -0.013529
-0.846492 -0.660927 -0.023665
-0.841871 -0.663956 -0.043530
-0.836623 -0.671229 -0.038226
-0.847446 -0.648807 0.006720
-0.839202 -0.657772 0.006655
-0.836909 -0.655184 0.014650
-0.843393 -0.645111 0.015481
-0.850634 -0.652026 -0.005909
-0.851166 -0.652767 -0.043050
-0.852027 -0.653579 -0.028936
-0.850237 -0.651774 -0.058935
-0.842007 -0.661298 -0.058869
-0.839976 -0.658679 -0.067840
-0.845331 -0.646978 -0.070449
-0.844875 -0.631180 0.017678
-0.845022 -0.616136 0.018752
-0.845186 -0.600305 0.019323
-0.845309 -0.583927 0.019843
-0.845354 -0.567591 0.018977
-0.845345 -0.551228 0.017545
-0.853548 -0.575693 -0.064089
-0.863116 -0.569002 -0.065273
-0.858420 -0.564684 -0.063193
-0.847173 -0.569248 -0.062908
-0.845312 -0.534604 0.018179
-0.845272 -0.517922 0.020036
-0.845271 -0.501614 0.020797
-0.845292 -0.485335 0.021148
-0.845292 -0.468674 0.022252
-0.845273 -0.452053 0.023379
-0.845250 -0.435776 0.023973
-0.845233 -0.419366 0.024324
-0.845196 -0.402533 0.024576
-0.845176 -0.386082 0.025308
-0.845211 -0.370187 0.026674
-0.845226 -0.353790 0.027472
-0.845177 -0.336703 0.027385
-0.844074 -0.319144 0.028951
-0.850095 -0.304474 0.030266
-0.841727 -0.304309 0.031666
-0.837761 -0.313142 0.030988
-0.852741 -0.288126 0.030735
-0.844378 -0.287914 0.031945
-0.851316 -0.271343 0.030627
-0.842939 -0.271107 0.031406
-0.851566 -0.260789 0.030692
-0.845628 -0.255220 0.031574
-0.845086 -0.238923 0.032601
-0.845082 -0.222407 0.032356
-0.845064 -0.205774 0.031600
-0.845106 -0.189645 0.031777
-0.845150 -0.173551 0.032323
-0.845085 -0.156953 0.032518
-0.845012 -0.140419 0.032721
-0.845029 -0.124307 0.033392
-0.845071 -0.108094 0.033706
-0.845070 -0.091456 0.033224
-0.845072 -0.075022 0.032973
-0.845113 -0.058939 0.033495
-0.845094 -0.042614 0.033796
-0.844991 -0.026006 0.033507
-0.844970 -0.009608 0.033724
-0.845060 0.006577 0.034544
-0.845095 0.022981 0.034200
-0.845069 0.039573 0.032828
-0.845089 0.056027 0.032240
-0.846037 0.071812 0.031811
-0.852180 0.076840 0.030534
-0.848711 0.088865 0.029696
-0.840376 0.088965 0.031450
-0.843779 0.105545 0.029022
-0.837342 0.100061 0.030958
-0.843468 0.122856 0.028778
-0.843405 0.136964 0.028205
-0.836862 0.128826 0.030884
-0.836855 0.130603 0.030884
-0.844985 0.154915 0.025094
-0.844946 0.171425 0.023113
-0.844843 0.187664 0.023309
-0.844757 0.203812 0.023439
-0.844730 0.220016 0.021314
-0.844844 0.236351 0.017154
-0.850389 0.241718 0.011936
-0.844193 0.251519 0.006067
-0.839380 0.246304 0.015511
-0.849356 0.257173 -0.009613
-0.838025 0.262073 0.000168
-0.841103 0.265509 -0.009594
-0.851604 0.259380 -0.026077
-0.843359 0.268027 -0.026022
-0.850959 0.258781 -0.042998
-0.842732 0.267033 -0.042952
-0.849626 0.257134 -0.058903
-0.841457 0.265506 -0.058995
-0.844979 0.252121 -0.072444
-0.839491 0.263313 -0.070200
-0.822692 -0.678137 0.005147
-0.821183 -0.688730 -0.008567
-0.819898 -0.687281 -0.001092
-0.829911 -0.677993 -0.008682
-0.830412 -0.680165 -0.025147
-0.822163 -0.689828 -0.025159
-0.821572 -0.689214 -0.042913
-0.830956 -0.677590 -0.043530
-0.828007 -0.679019 -0.058998
-0.820945 -0.688321 -0.059013
-0.823581 -0.679254 -0.067660
-0.820518 -0.687621 -0.066114
-0.826999 -0.662089 0.015455
-0.820588 -0.672476 0.014698
-0.831580 -0.666134 0.006539
-0.834834 -0.669195 -0.003988
-0.835243 -0.669542 -0.058917
-0.835925 -0.670410 -0.049386
-0.829451 -0.664031 -0.069922
-0.828412 -0.647462 0.018048
-0.828541 -0.632014 0.019556
-0.828678 -0.616603 0.019217
-0.828788 -0.600447 0.019500
-0.828830 -0.583946 0.020580
-0.828790 -0.567524 0.020650
-0.835918 -0.590234 -0.064396
-0.847101 -0.584449 -0.064712
-0.842667 -0.579187 -0.063878
-0.830045 -0.584497 -0.063495
-0.828713 -0.551120 0.020235
-0.828679 -0.534454 0.021141
-0.828674 -0.517733 0.022645
-0.828679 -0.501441 0.023347
-0.828666 -0.485180 0.023805
-0.828591 -0.468473 0.024819
-0.828520 -0.451802 0.025862
-0.828523 -0.435495 0.026762
-0.828544 -0.419100 0.027155
-0.828537 -0.402315 0.026921
-0.828552 -0.385938 0.027382
-0.828617 -0.370129 0.028783
-0.828580 -0.353748 0.029578
-0.828394 -0.336625 0.029480
-0.828281 -0.324544 0.030121
-0.825386 -0.326665 -0.064108
-0.825323 -0.329468 -0.064124
-0.830116 -0.335932 -0.063561
-0.830122 -0.321101 -0.063871
-0.828356 -0.316654 0.031420
-0.828430 -0.304146 0.033078
-0.828444 -0.287690 0.033450
-0.828391 -0.270913 0.032396
-0.828409 -0.254755 0.032948
-0.821317 -0.255528 -0.063909
-0.821146 -0.264826 -0.063943
-0.827550 -0.270760 -0.063573
-0.829410 -0.255469 -0.063438
-0.828448 -0.238874 0.034358
-0.821168 -0.246526 -0.063847
-0.827542 -0.240469 -0.063426
-0.828366 -0.222318 0.034030
-0.828252 -0.205558 0.032875
-0.828342 -0.189399 0.033239
-0.828491 -0.173342 0.034065
-0.828440 -0.156733 0.033996
-0.828375 -0.140232 0.033793
-0.828452 -0.124258 0.034266
-0.828478 -0.108090 0.034547
-0.828324 -0.091287 0.034210
-0.828261 -0.074751 0.034226
-0.821515 -0.082496 -0.063971
-0.821518 -0.084497 -0.063966
-0.827777 -0.090702 -0.063587
-0.827724 -0.076354 -0.063510
-0.828412 -0.058781 0.035120
-0.828475 -0.042523 0.035508
-0.828363 -0.025875 0.035011
-0.828363 -0.009498 0.035010
-0.828498 0.006603 0.035645
-0.828485 0.023012 0.035270
-0.828339 0.039690 0.033941
-0.828337 0.056172 0.033762
-0.828472 0.072462 0.034017
-0.828545 0.088955 0.033183
-0.829798 0.105564 0.031926
-0.836051 0.111124 0.030696
-0.836024 0.117951 0.030694
-0.829754 0.122780 0.031945
-0.828833 0.136979 0.031850
-0.834478 0.141593 0.030302
-0.828792 0.155607 0.029256
-0.823567 0.150483 0.031453
-0.828467 0.171602 0.026865
-0.828367 0.188067 0.026061
-0.828279 0.204385 0.025431
-0.828228 0.220665 0.023534
-0.828212 0.236667 0.020891
-0.827759 0.252212 0.017048
-0.832872 0.257249 0.011002
-0.827097 0.267734 0.005455
-0.821971 0.262492 0.015374
-0.832950 0.273752 -0.009548
-0.824791 0.281754 -0.009509
-0.821346 0.278328 -0.000105
-0.835559 0.276236 -0.025993
-0.827403 0.284225 -0.025936
-0.834501 0.275272 -0.042990
-0.826349 0.283165 -0.042975
-0.833008 0.273715 -0.059045
-0.824913 0.281606 -0.059016
-0.828506 0.268667 -0.072981
-0.823058 0.279457 -0.069832
-0.810310 -0.693971 0.005053
-0.805941 -0.706602 -0.008618
-0.804392 -0.704590 0.000586
-0.814087 -0.696967 -0.008616
-0.806860 -0.707916 -0.025262
-0.815014 -0.698077 -0.025263
-0.806344 -0.707193 -0.042900
-0.814510 -0.697477 -0.043007
-0.814082 -0.696623 -0.059046
-0.805835 -0.706033 -0.058911
-0.811134 -0.694164 -0.067903
-0.805039 -0.704856 -0.066709
-0.816284 -0.682919 0.009511
-0.805556 -0.689949 0.015135
-0.811400 -0.679021 0.015783
-0.812047 -0.664700 0.017913
-0.812219 -0.648667 0.019823
-0.812358 -0.632774 0.020028
-0.812461 -0.616842 0.018638
-0.812508 -0.600465 0.018782
-0.819546 -0.622137 -0.064751
-0.828857 -0.616689 -0.066407
-0.823098 -0.611254 -0.063979
-0.813660 -0.616773 -0.062511
-0.812480 -0.583861 0.020509
-0.812413 -0.567417 0.021501
-0.812355 -0.551070 0.021774
-0.812391 -0.534435 0.022533
-0.812454 -0.517714 0.023578
-0.812439 -0.501428 0.024259
-0.812379 -0.485187 0.024930
-0.812321 -0.468461 0.025855
-0.812272 -0.451755 0.026850
-0.812231 -0.435461 0.027698
-0.812250 -0.419092 0.028057
-0.812339 -0.402323 0.028171
-0.812396 -0.385937 0.028774
-0.812373 -0.370130 0.029872
-0.813455 -0.355003 0.030660
-0.819441 -0.336603 0.030758
-0.808863 -0.350223 0.031202
-0.811493 -0.336620 0.031670
-0.819821 -0.327743 0.030813
-0.813563 -0.321530 0.032191
-0.812088 -0.304138 0.033680
-0.819671 -0.326694 -0.064100
-0.813680 -0.321102 -0.063197
-0.812128 -0.287745 0.033799
-0.812173 -0.271055 0.033238
-0.812164 -0.254838 0.034188
-0.812108 -0.238848 0.035951
-0.812029 -0.222327 0.036399
-0.820569 -0.246550 -0.063845
-0.814164 -0.240467 -0.063283
-0.811976 -0.205632 0.035984
-0.812043 -0.189390 0.035890
-0.812151 -0.173232 0.035721
-0.812183 -0.156660 0.035182
-0.812188 -0.140228 0.034896
-0.812201 -0.124257 0.035228
-0.812158 -0.108082 0.035685
-0.812033 -0.091334 0.036140
-0.811994 -0.074813 0.036472
-0.812102 -0.058781 0.036708
-0.820212 -0.082506 -0.063969
-0.813975 -0.076354 -0.063023
-0.812177 -0.042519 0.036663
-0.812180 -0.025950 0.036341
-0.812206 -0.009571 0.036145
-0.812254 0.006598 0.036147
-0.812206 0.022996 0.036035
-0.812089 0.039600 0.035781
-0.812069 0.056030 0.035692
-0.812146 0.072314 0.035501
-0.812236 0.088753 0.034745
-0.812304 0.105265 0.033918
-0.812275 0.121687 0.034106
-0.812206 0.138100 0.034054
-0.812334 0.155361 0.032127
-0.817773 0.161528 0.030481
-0.812309 0.171332 0.029737
-0.807055 0.165655 0.031164
-0.812138 0.187911 0.028104
-0.812054 0.204393 0.026313
-0.811997 0.220903 0.023551
-0.811915 0.236962 0.021961
-0.811869 0.252758 0.020775
-0.811367 0.268371 0.017022
-0.816384 0.273399 0.010725
-0.810785 0.284112 0.005486
-0.805617 0.279007 0.015310
-0.816681 0.289989 -0.009474
-0.808568 0.296870 -0.009485
-0.805210 0.294407 0.000209
-0.819099 0.292435 -0.025923
-0.810946 0.298711 -0.025887
-0.818135 0.291382 -0.043001
-0.809992 0.298209 -0.042860
-0.816797 0.289785 -0.058882
-0.808729 0.297241 -0.058607
-0.812194 0.284908 -0.071860
-0.806828 0.295494 -0.068894
-0.793962 -0.710574 0.004958
-0.789441 -0.722089 -0.008835
-0.787268 -0.720128 -0.001370
-0.797617 -0.714847 -0.008759
-0.791124 -0.723635 -0.025260
-0.799275 -0.716151 -0.025293
-0.798127 -0.715449 -0.042961
-0.790004 -0.722636 -0.042826
-0.796752 -0.714369 -0.058891
-0.788594 -0.721221 -0.058724
-0.787783 -0.720381 -0.065711
-0.794215 -0.711088 -0.067942
-0.800720 -0.700621 0.011121
-0.789929 -0.705739 0.015278
-0.795501 -0.695936 0.016231
-0.795682 -0.681234 0.018134
-0.795868 -0.665789 0.019298
-0.796015 -0.649442 0.020640
-0.796103 -0.633156 0.020376
-0.796058 -0.648632 -0.063250
-0.811660 -0.648187 -0.067875
-0.805326 -0.642388 -0.063984
-0.801216 -0.653401 -0.065104
-0.796155 -0.616903 0.018356
-0.796146 -0.600376 0.018545
-0.796081 -0.583670 0.020845
-0.796025 -0.567279 0.022432
-0.796019 -0.551051 0.022991
-0.796097 -0.534443 0.023510
-0.796174 -0.517703 0.024255
-0.796146 -0.501405 0.024845
-0.796077 -0.485168 0.025629
-0.796055 -0.468399 0.026548
-0.796026 -0.451696 0.027563
-0.795962 -0.435507 0.028262
-0.795983 -0.419192 0.028643
-0.796092 -0.402348 0.029241
-0.795673 -0.386093 0.030108
-0.801319 -0.370114 0.030477
-0.789879 -0.380884 0.031021
-0.793126 -0.369993 0.031413
-0.803786 -0.361531 0.030768
-0.797374 -0.354950 0.031977
-0.795913 -0.336526 0.033302
-0.795845 -0.320059 0.033889
-0.795790 -0.304228 0.033985
-0.795834 -0.287896 0.033948
-0.795927 -0.271214 0.034079
-0.795894 -0.254880 0.035466
-0.795791 -0.238744 0.037649
-0.795745 -0.222253 0.038921
-0.795750 -0.205682 0.039158
-0.795771 -0.189431 0.038425
-0.795826 -0.173216 0.037139
-0.795900 -0.156650 0.036219
-0.795938 -0.140215 0.036035
-0.795897 -0.124198 0.036528
-0.795829 -0.108000 0.037412
-0.795771 -0.091338 0.038498
-0.795766 -0.074883 0.038903
-0.795820 -0.058816 0.038390
-0.795893 -0.042546 0.038034
-0.795960 -0.026010 0.037988
-0.795987 -0.009610 0.037610
-0.795958 0.006630 0.037153
-0.795907 0.023033 0.037454
-0.795845 0.039548 0.038223
-0.795824 0.055899 0.037955
-0.795849 0.072160 0.036803
-0.795922 0.088571 0.035914
-0.795995 0.105053 0.035322
-0.795969 0.121480 0.035460
-0.795899 0.137904 0.035533
-0.795886 0.154446 0.034089
-0.796445 0.171083 0.032086
-0.802288 0.176678 0.030406
-0.799006 0.187647 0.029825
-0.790826 0.187618 0.031407
-0.794502 0.202780 0.028360
-0.788211 0.196322 0.030936
-0.795769 0.220846 0.024033
-0.795664 0.237097 0.022387
-0.795534 0.252954 0.023099
-0.795511 0.269018 0.021415
-0.794912 0.284863 0.016756
-0.799910 0.289954 0.011030
-0.794887 0.297808 0.005922
-0.789019 0.294519 0.015069
-0.795754 0.305914 -0.008220
-0.799893 0.306953 -0.025901
-0.791662 0.313187 -0.025937
-0.790375 0.312029 -0.012586
-0.799277 0.306490 -0.042861
-0.791068 0.312872 -0.042791
-0.798294 0.305466 -0.058470
-0.790125 0.311893 -0.058345
-0.795032 0.301159 -0.070303
-0.788968 0.310762 -0.066874
-0.778664 -0.731062 -0.008026
-0.773875 -0.738869 -0.025294
-0.773112 -0.738318 -0.012326
-0.782078 -0.731856 -0.025309
-0.780613 -0.730872 -0.042858
-0.772444 -0.737801 -0.042762
-0.777637 -0.730602 -0.059417
-0.771264 -0.736870 -0.054856
-0.777894 -0.723656 0.005039
-0.782867 -0.716635 0.009407
-0.778168 -0.711888 0.016178
-0.771968 -0.721389 0.014880
-0.779185 -0.696983 0.018894
-0.779387 -0.681970 0.019260
-0.779533 -0.666111 0.019886
-0.779577 -0.649598 0.021819
-0.787122 -0.672594 -0.064458
-0.795948 -0.666391 -0.065902
-0.790259 -0.661548 -0.063674
-0.781059 -0.666740 -0.062812
-0.779573 -0.633159 0.022021
-0.779535 -0.616782 0.020568
-0.779484 -0.600133 0.021109
-0.779441 -0.583344 0.023223
-0.779432 -0.567052 0.024620
-0.779465 -0.550967 0.024984
-0.779463 -0.534313 0.025326
-0.779434 -0.517470 0.026010
-0.779438 -0.501138 0.026540
-0.779448 -0.484877 0.027269
-0.779399 -0.468067 0.028049
-0.779355 -0.451435 0.028811
-0.778275 -0.434754 0.029840
-0.781565 -0.419186 0.030112
-0.772041 -0.429024 0.030931
-0.773270 -0.419148 0.031018
-0.782313 -0.402217 0.030431
-0.773915 -0.402075 0.031015
-0.784161 -0.391366 0.030666
-0.778842 -0.385799 0.031497
-0.779361 -0.369678 0.033255
-0.779338 -0.353255 0.034396
-0.779223 -0.336162 0.034758
-0.779183 -0.319853 0.035040
-0.779243 -0.304228 0.035394
-0.779243 -0.287862 0.035352
-0.779187 -0.270950 0.035285
-0.779188 -0.254554 0.037124
-0.779232 -0.238478 0.040125
-0.779199 -0.221951 0.041158
-0.779146 -0.205343 0.040512
-0.779183 -0.189284 0.039624
-0.779240 -0.173233 0.038543
-0.779197 -0.156503 0.037613
-0.779154 -0.139870 0.037564
-0.779215 -0.123937 0.038819
-0.779250 -0.107837 0.040162
-0.779157 -0.091059 0.040704
-0.779141 -0.074608 0.040803
-0.779282 -0.058738 0.040783
-0.779340 -0.042505 0.040769
-0.779263 -0.025768 0.040593
-0.779240 -0.009318 0.040340
-0.779303 0.006777 0.040378
-0.779283 0.023183 0.040860
-0.779201 0.039789 0.041363
-0.779214 0.056051 0.040642
-0.779304 0.072161 0.038922
-0.779299 0.088607 0.037871
-0.779251 0.105207 0.037332
-0.779273 0.121605 0.037384
-0.779327 0.137932 0.037413
-0.779281 0.154500 0.036465
-0.779212 0.171158 0.035256
-0.779212 0.187713 0.034216
-0.778995 0.202905 0.032368
-0.784337 0.207469 0.029630
-0.779005 0.221236 0.028082
-0.773293 0.215922 0.031520
-0.779217 0.237379 0.025573
-0.779074 0.253451 0.025930
-0.779001 0.269521 0.025227
-0.779017 0.285662 0.021396
-0.779069 0.297996 0.016650
-0.780591 0.306617 0.007629
-0.787072 0.309585 -0.002235
-0.779700 0.318017 -0.008937
-0.776080 0.313037 0.003022
-0.781163 0.321417 -0.025994
-0.772937 0.327932 -0.025998
-0.772362 0.327532 -0.015656
-0.780541 0.321139 -0.042809
-0.772343 0.327337 -0.042784
-0.777994 0.321263 -0.059656
-0.771653 0.326740 -0.055652
-0.779465 0.314414 -0.069326
-0.762424 -0.744707 -0.008368
-0.755301 -0.753676 -0.025390
-0.755172 -0.753570 -0.014184
-0.763502 -0.747096 -0.025382
-0.762663 -0.746026 -0.042862
-0.754431 -0.753087 -0.042820
-0.762195 -0.743926 -0.058162
-0.753971 -0.752781 -0.051309
-0.769694 -0.735619 -0.002641
-0.763585 -0.733487 0.007962
-0.758837 -0.740386 0.003650
-0.770364 -0.735954 -0.064321
-0.759390 -0.740311 -0.067458
-0.764145 -0.730057 -0.069213
-0.762568 -0.725583 0.015717
-0.762707 -0.713134 0.018763
-0.762885 -0.697744 0.020630
-0.763082 -0.682333 0.019979
-0.763171 -0.666175 0.020554
-0.767383 -0.687582 -0.065504
-0.780919 -0.682021 -0.066476
-0.776262 -0.676662 -0.063342
-0.762605 -0.682312 -0.062671
-0.763119 -0.649561 0.023030
-0.763031 -0.633039 0.024037
-0.762928 -0.616636 0.023744
-0.762904 -0.599969 0.024568
-0.762937 -0.583168 0.026240
-0.762960 -0.566919 0.027096
-0.762975 -0.550883 0.027053
-0.762901 -0.534210 0.027278
-0.762799 -0.517309 0.027971
-0.762825 -0.500936 0.028508
-0.762886 -0.484661 0.029074
-0.762859 -0.467861 0.029660
-0.762408 -0.452201 0.030297
-0.767569 -0.439455 0.030538
-0.756744 -0.447476 0.030969
-0.762509 -0.434735 0.031143
-0.762900 -0.419184 0.031524
-0.762714 -0.402071 0.031653
-0.762626 -0.385321 0.032684
-0.762738 -0.369351 0.034820
-0.762772 -0.352950 0.035806
-0.762683 -0.335963 0.035455
-0.762694 -0.319756 0.035712
-0.762801 -0.304224 0.036842
-0.762751 -0.287834 0.037080
-0.762592 -0.270797 0.036741
-0.762616 -0.254335 0.038626
-0.762756 -0.238265 0.041704
-0.762750 -0.221723 0.042098
-0.762669 -0.205097 0.040637
-0.762698 -0.189158 0.039893
-0.762724 -0.173219 0.039480
-0.762587 -0.156384 0.039131
-0.762488 -0.139615 0.039534
-0.762630 -0.123731 0.041110
-0.755435 -0.132228 -0.063820
-0.755419 -0.133640 -0.063824
-0.761748 -0.139695 -0.063421
-0.761879 -0.125952 -0.063497
-0.762750 -0.107715 0.042372
-0.762655 -0.090895 0.042401
-0.762642 -0.074445 0.042282
-0.762818 -0.058668 0.042541
-0.762846 -0.042448 0.042729
-0.762646 -0.025587 0.042768
-0.762591 -0.009114 0.042858
-0.762715 0.006863 0.043315
-0.762740 0.023252 0.043795
-0.762683 0.039909 0.044045
-0.762730 0.056147 0.042974
-0.762824 0.072192 0.040848
-0.762761 0.088660 0.039664
-0.762629 0.105328 0.039216
-0.762682 0.121699 0.039239
-0.762802 0.137949 0.039226
-0.762775 0.154488 0.038556
-0.762698 0.171136 0.037733
-0.762699 0.187666 0.037288
-0.762751 0.204196 0.035640
-0.762496 0.221148 0.032334
-0.767691 0.227014 0.030157
-0.762431 0.238416 0.029702
-0.756840 0.233537 0.031150
-0.762678 0.253748 0.028895
-0.762580 0.270004 0.027509
-0.762550 0.286212 0.024161
-0.763665 0.303286 0.018404
-0.769798 0.309126 0.013890
-0.763393 0.318141 0.007349
-0.758911 0.312357 0.015993
-0.767871 0.324003 -0.005256
-0.761168 0.333433 -0.011285
-0.756998 0.328368 0.000799
-0.764477 0.319482 -0.071497
-0.771013 0.326073 -0.065044
-0.760081 0.329314 -0.069532
-0.764431 0.330870 -0.059627
-0.761011 0.337209 -0.024217
-0.754482 0.342628 -0.017326
-0.754482 0.342627 -0.017285
-0.762636 0.334260 -0.042758
-0.752235 -0.751122 -0.004303
-0.746440 -0.757585 -0.008998
-0.747776 -0.745940 0.008410
-0.741424 -0.755245 0.002489
-0.747105 -0.745739 -0.069226
-0.741947 -0.755564 -0.067913
-0.746680 -0.756610 -0.057512
-0.752777 -0.751173 -0.061206
-0.754175 -0.736841 0.014365
-0.747928 -0.731424 0.016846
-0.743432 -0.741253 0.015330
-0.746491 -0.714256 0.020550
-0.746668 -0.698409 0.021562
-0.746839 -0.682510 0.020183
-0.746352 -0.697642 -0.063205
-0.762651 -0.697381 -0.067853
-0.756446 -0.691363 -0.064011
-0.751227 -0.702236 -0.065792
-0.746882 -0.666176 0.020516
-0.746784 -0.649455 0.023143
-0.746664 -0.632914 0.024851
-0.746562 -0.616625 0.025507
-0.746625 -0.600084 0.026618
-0.746777 -0.583371 0.028208
-0.746778 -0.567063 0.028754
-0.746701 -0.550929 0.028464
-0.746644 -0.534278 0.028900
-0.746598 -0.517421 0.029731
-0.746576 -0.501053 0.030024
-0.746609 -0.484800 0.030223
-0.747921 -0.469508 0.030649
-0.754126 -0.458211 0.030804
-0.748003 -0.452309 0.031326
-0.743452 -0.464905 0.031130
-0.746732 -0.435492 0.031641
-0.746671 -0.419288 0.031869
-0.746552 -0.402197 0.032433
-0.746477 -0.385369 0.033440
-0.746467 -0.369266 0.034828
-0.746513 -0.352901 0.035433
-0.746614 -0.336112 0.035258
-0.746658 -0.319946 0.035753
-0.746626 -0.304280 0.037237
-0.746565 -0.287914 0.038071
-0.746503 -0.271016 0.038014
-0.746502 -0.254482 0.039193
-0.746537 -0.238220 0.040842
-0.746577 -0.221659 0.040736
-0.746589 -0.205111 0.039769
-0.746548 -0.189131 0.039323
-0.746472 -0.173122 0.039410
-0.746371 -0.156399 0.040280
-0.746336 -0.139743 0.041319
-0.746429 -0.123766 0.041904
-0.746525 -0.107693 0.042315
-0.748476 -0.125927 -0.062779
-0.754746 -0.132232 -0.063817
-0.746548 -0.091033 0.042814
-0.746571 -0.074619 0.042797
-0.746612 -0.058679 0.042147
-0.746576 -0.042411 0.042178
-0.746448 -0.025702 0.043183
-0.746404 -0.009294 0.043630
-0.746451 0.006779 0.043415
-0.746522 0.023135 0.043837
-0.746609 0.039686 0.044869
-0.746632 0.056008 0.043922
-0.746589 0.072195 0.041422
-0.746501 0.088646 0.040339
-0.746414 0.105202 0.040151
-0.746437 0.121548 0.040063
-0.746523 0.137826 0.039851
-0.746587 0.154276 0.039011
-0.746612 0.170806 0.037964
-0.746561 0.187282 0.037641
-0.746525 0.203778 0.036554
-0.746583 0.220399 0.033539
-0.746603 0.234300 0.031302
-0.746527 0.242564 0.030546
-0.746472 0.253493 0.029665
-0.746372 0.269969 0.027257
-0.746305 0.286456 0.023564
-0.746256 0.302404 0.021003
-0.746036 0.318023 0.017560
-0.751298 0.323226 0.011662
-0.745236 0.333917 0.005660
-0.740438 0.328572 0.015667
-0.750057 0.339335 -0.006948
-0.745286 0.345180 -0.011001
-0.739205 0.343422 -0.000348
-0.752927 0.341379 -0.042757
-0.753970 0.342251 -0.028755
-0.747643 0.346838 -0.024106
-0.744790 0.347550 -0.042710
-0.751468 0.339907 -0.058295
-0.743370 0.346329 -0.058220
-0.746639 0.334568 -0.070846
-0.741324 0.344501 -0.067918
-0.729143 -0.760567 0.006435
-0.725556 -0.771361 -0.008545
-0.722378 -0.769681 -0.000200
-0.733730 -0.766416 -0.008655
-0.727697 -0.772574 -0.025199
-0.735827 -0.767866 -0.025299
-0.726509 -0.771972 -0.042868
-0.734629 -0.767110 -0.042992
-0.732986 -0.765921 -0.059172
-0.724780 -0.770937 -0.059086
-0.729185 -0.761209 -0.069224
-0.723094 -0.769985 -0.066745
-0.735973 -0.751423 0.013064
-0.725144 -0.755130 0.015136
-0.730402 -0.746619 0.016275
-0.730057 -0.731073 0.019278
-0.730227 -0.714993 0.021615
-0.730361 -0.698756 0.022339
-0.729163 -0.714508 -0.063672
-0.746310 -0.714022 -0.067536
-0.740252 -0.708310 -0.063954
-0.733539 -0.719392 -0.065534
-0.730451 -0.682558 0.020958
-0.730438 -0.666093 0.021290
-0.730334 -0.649256 0.023814
-0.730238 -0.632765 0.025715
-0.730187 -0.616654 0.026580
-0.730267 -0.600171 0.027729
-0.730396 -0.583441 0.029436
-0.730382 -0.567071 0.029956
-0.728683 -0.549423 0.030013
-0.732830 -0.534231 0.030200
-0.722073 -0.542908 0.030857
-0.724554 -0.534076 0.031032
-0.736692 -0.517465 0.030674
-0.728421 -0.517316 0.031230
-0.736392 -0.501148 0.030746
-0.728149 -0.501107 0.031138
-0.736256 -0.484922 0.030745
-0.728048 -0.484946 0.031072
-0.738105 -0.476397 0.030831
-0.731707 -0.469651 0.031433
-0.730372 -0.451369 0.032285
-0.730348 -0.435402 0.032362
-0.730301 -0.419161 0.032526
-0.730229 -0.402067 0.033379
-0.730159 -0.385270 0.034272
-0.730107 -0.369218 0.034995
-0.730150 -0.352886 0.035322
-0.730277 -0.336117 0.035356
-0.730318 -0.319891 0.036097
-0.730267 -0.304117 0.037907
-0.730236 -0.287755 0.039067
-0.730233 -0.270965 0.039005
-0.730203 -0.254519 0.039702
-0.730175 -0.238273 0.040573
-0.730201 -0.221665 0.040393
-0.730224 -0.205035 0.040028
-0.730171 -0.188982 0.040182
-0.730090 -0.172940 0.041067
-0.730030 -0.156296 0.042551
-0.730025 -0.139741 0.043638
-0.730876 -0.139707 -0.063478
-0.725542 -0.151811 -0.063886
-0.730867 -0.157290 -0.063230
-0.725559 -0.144438 -0.063884
-0.730092 -0.123755 0.043585
-0.730170 -0.107661 0.043506
-0.730207 -0.091027 0.044156
-0.730214 -0.074580 0.044261
-0.730197 -0.058559 0.043440
-0.730158 -0.042276 0.043517
-0.730106 -0.025656 0.044794
-0.730078 -0.009336 0.045352
-0.730094 0.006727 0.044836
-0.728807 0.023535 0.045506
-0.731639 0.039585 0.046051
-0.723308 0.039633 0.047606
-0.722408 0.029341 0.047422
-0.729386 0.055140 0.045608
-0.723269 0.049255 0.047566
-0.730182 0.072257 0.042927
-0.730114 0.088707 0.041994
-0.730082 0.105190 0.041862
-0.730098 0.121479 0.041425
-0.730156 0.137742 0.040801
-0.730234 0.154169 0.040094
-0.730277 0.170652 0.039162
-0.730230 0.187084 0.038560
-0.730171 0.203543 0.037513
-0.730175 0.220155 0.034826
-0.731094 0.236922 0.032304
-0.737212 0.242509 0.030549
-0.734635 0.253321 0.030081
-0.726402 0.253396 0.031714
-0.729464 0.269042 0.028465
-0.723617 0.262941 0.031122
-0.730021 0.286649 0.023792
-0.729920 0.302709 0.021937
-0.729833 0.318411 0.021159
-0.728933 0.334312 0.016845
-0.733754 0.339506 0.010489
-0.728928 0.346267 0.005632
-0.722851 0.343312 0.014847
-0.729962 0.354542 -0.008655
-0.734090 0.356119 -0.025702
-0.724510 0.360801 -0.013210
-0.725888 0.361601 -0.025626
-0.733572 0.355815 -0.042715
-0.725395 0.361227 -0.042651
-0.732075 0.354540 -0.058202
-0.723927 0.360329 -0.058141
-0.728972 0.350259 -0.068978
-0.722685 0.359492 -0.065749
-0.712156 -0.779352 -0.009183
-0.705824 -0.786049 -0.025009
-0.706033 -0.786177 -0.014450
-0.713990 -0.780791 -0.025091
-0.711491 -0.780676 -0.041479
-0.705019 -0.785606 -0.034804
-0.712147 -0.771735 0.005755
-0.717032 -0.765856 0.010289
-0.706137 -0.769831 0.014764
-0.712384 -0.761100 0.015841
-0.713532 -0.746661 0.018492
-0.713722 -0.731502 0.020374
-0.713849 -0.715201 0.022520
-0.714271 -0.734465 -0.065874
-0.729162 -0.729683 -0.067354
-0.722613 -0.723455 -0.064385
-0.714380 -0.726292 -0.063924
-0.713888 -0.698811 0.023816
-0.713833 -0.682447 0.023546
-0.713748 -0.665854 0.024291
-0.713672 -0.648934 0.026219
-0.713651 -0.632533 0.027770
-0.713707 -0.616610 0.028117
-0.713691 -0.600052 0.028571
-0.713605 -0.583040 0.029800
-0.714093 -0.566590 0.030564
-0.720036 -0.553790 0.030712
-0.708902 -0.561104 0.031037
-0.714165 -0.549139 0.031283
-0.713583 -0.533779 0.031801
-0.713515 -0.516950 0.031925
-0.713582 -0.500946 0.031677
-0.713665 -0.484921 0.031515
-0.713566 -0.467909 0.032064
-0.713487 -0.451003 0.032900
-0.713576 -0.434989 0.033493
-0.713625 -0.418724 0.033975
-0.713503 -0.401640 0.034514
-0.713437 -0.384967 0.035207
-0.713515 -0.369120 0.036368
-0.713521 -0.352775 0.036841
-0.713404 -0.335751 0.036421
-0.713416 -0.319375 0.037234
-0.713568 -0.303618 0.040229
-0.713588 -0.287229 0.041278
-0.713505 -0.270404 0.039693
-0.713511 -0.254220 0.040540
-0.713561 -0.238315 0.042704
-0.713463 -0.221616 0.042867
-0.713327 -0.204696 0.042400
-0.712144 -0.187672 0.044362
-0.715789 -0.172736 0.045121
-0.705850 -0.181827 0.047513
-0.707481 -0.172663 0.048103
-0.715892 -0.173744 -0.063292
-0.705933 -0.181945 -0.063767
-0.712427 -0.188296 -0.062904
-0.707680 -0.173723 -0.063825
-0.716367 -0.156049 0.045824
-0.708059 -0.155909 0.048157
-0.713565 -0.157185 -0.063675
-0.708227 -0.162694 -0.063874
-0.716380 -0.139462 0.046260
-0.708037 -0.139243 0.047874
-0.717809 -0.123633 0.046285
-0.709520 -0.123578 0.048475
-0.719018 -0.144408 -0.063923
-0.713715 -0.139633 -0.063569
-0.718571 -0.107608 0.046275
-0.710299 -0.107625 0.048756
-0.717241 -0.090775 0.046481
-0.708853 -0.090548 0.048076
-0.717276 -0.074234 0.046552
-0.708832 -0.073892 0.048041
-0.719117 -0.058352 0.046356
-0.710767 -0.058211 0.049347
-0.719998 -0.042126 0.046472
-0.711702 -0.042098 0.050013
-0.720891 -0.025498 0.046970
-0.712546 -0.025337 0.049545
-0.721595 -0.009238 0.047224
-0.713270 -0.009110 0.049710
-0.721519 0.006742 0.047093
-0.713295 0.006690 0.050571
-0.721478 0.018302 0.047049
-0.715032 0.023523 0.049754
-0.713479 0.039877 0.049257
-0.713552 0.055436 0.048280
-0.719209 0.060133 0.046656
-0.717109 0.072369 0.045872
-0.708799 0.072425 0.048287
-0.714974 0.088882 0.045414
-0.706689 0.088975 0.047796
-0.711819 0.104121 0.045501
-0.705224 0.097903 0.047305
-0.713507 0.121620 0.044376
-0.713605 0.137753 0.043663
-0.713553 0.154268 0.043063
-0.713474 0.170867 0.042362
-0.713525 0.187231 0.041575
-0.713586 0.203601 0.040325
-0.713512 0.220288 0.038112
-0.713444 0.237011 0.036286
-0.713474 0.253577 0.034843
-0.712969 0.269334 0.032320
-0.718101 0.274211 0.029697
-0.712993 0.286534 0.027790
-0.707095 0.280746 0.031292
-0.713473 0.303189 0.024425
-0.713362 0.318977 0.022982
-0.713375 0.334891 0.019831
-0.713416 0.346262 0.016113
-0.714453 0.354743 0.007305
-0.720624 0.358223 -0.003067
-0.713094 0.366713 -0.009709
-0.709644 0.361693 0.002493
-0.712025 0.370838 -0.025726
-0.705587 0.375567 -0.019930
-0.705599 0.375561 -0.016265
-0.713486 0.368551 -0.042637
-0.713636 0.366627 -0.058208
-0.713818 0.362286 -0.068701
-0.700626 -0.783217 -0.004876
-0.695804 -0.787896 -0.009236
-0.695881 -0.779520 0.005577
-0.689748 -0.786160 -0.000484
-0.700791 -0.783340 -0.059143
-0.692564 -0.787197 -0.058975
-0.697174 -0.787766 -0.041391
-0.702946 -0.784602 -0.046090
-0.696615 -0.778105 -0.069565
-0.690627 -0.786394 -0.066468
-0.696937 -0.771751 0.015460
-0.697016 -0.762101 0.017954
-0.697234 -0.747233 0.019592
-0.697428 -0.731696 0.020645
-0.697495 -0.715247 0.023050
-0.704686 -0.738181 -0.064963
-0.698788 -0.732356 -0.062605
-0.697444 -0.698751 0.025077
-0.697286 -0.682332 0.026028
-0.697213 -0.665731 0.027123
-0.697228 -0.648838 0.028566
-0.697250 -0.632481 0.029741
-0.697303 -0.616591 0.029684
-0.695839 -0.598670 0.029839
-0.699719 -0.582823 0.030242
-0.691620 -0.582976 0.031065
-0.689341 -0.592049 0.030874
-0.702886 -0.571482 0.030594
-0.697403 -0.566408 0.031395
-0.697172 -0.550381 0.032244
-0.697148 -0.533652 0.032685
-0.697101 -0.516842 0.032741
-0.697181 -0.500901 0.032667
-0.697236 -0.484904 0.032702
-0.697065 -0.467827 0.033320
-0.696930 -0.450819 0.034278
-0.697038 -0.434708 0.035352
-0.697135 -0.418440 0.035995
-0.697055 -0.401462 0.036129
-0.697026 -0.384888 0.036540
-0.697129 -0.369145 0.037852
-0.697092 -0.352812 0.038257
-0.696878 -0.335649 0.037377
-0.696864 -0.319159 0.038180
-0.697058 -0.303325 0.041543
-0.697114 -0.286933 0.042060
-0.697056 -0.270128 0.039600
-0.697082 -0.254070 0.040805
-0.697131 -0.238330 0.043889
-0.696974 -0.221591 0.044196
-0.696777 -0.204550 0.043582
-0.697085 -0.187529 0.045650
-0.697237 -0.171212 0.047948
-0.702744 -0.181806 0.047512
-0.696623 -0.157233 0.047993
-0.699035 -0.139247 0.047872
-0.704814 -0.162718 -0.063868
-0.698721 -0.157090 -0.063359
-0.695880 -0.124581 0.048498
-0.697152 -0.107616 0.049579
-0.696915 -0.090590 0.049086
-0.696800 -0.073924 0.049161
-0.696974 -0.058179 0.050631
-0.697082 -0.042067 0.051667
-0.697020 -0.025278 0.051933
-0.697063 -0.009062 0.052459
-0.697241 0.006689 0.053119
-0.697177 0.023095 0.052413
-0.696927 0.040035 0.050395
-0.696912 0.056440 0.049101
-0.695624 0.073586 0.048297
-0.700933 0.088946 0.047797
-0.704547 0.097897 0.047305
-0.698324 0.104159 0.046560
-0.697122 0.121647 0.045614
-0.697191 0.137768 0.045015
-0.697066 0.154313 0.044549
-0.696939 0.170939 0.043969
-0.697031 0.187268 0.042995
-0.697130 0.203591 0.041725
-0.697077 0.220252 0.039949
-0.697011 0.236951 0.038481
-0.697036 0.253501 0.037391
-0.697085 0.270124 0.034855
-0.697136 0.282976 0.031915
-0.697156 0.291364 0.029638
-0.697117 0.303277 0.027141
-0.696997 0.319270 0.024468
-0.696961 0.335190 0.022207
-0.697616 0.351910 0.017994
-0.703416 0.357596 0.013279
-0.696874 0.366886 0.006519
-0.692569 0.361249 0.015751
-0.701225 0.372624 -0.006367
-0.696329 0.377959 -0.010425
-0.690358 0.376324 -0.000273
-0.703983 0.374569 -0.042670
-0.705010 0.375277 -0.031730
-0.698585 0.379189 -0.025631
-0.695831 0.379591 -0.042603
-0.702812 0.373546 -0.058309
-0.694699 0.378934 -0.058216
-0.697779 0.367943 -0.070850
-0.692695 0.377457 -0.068281
-0.678913 -0.795724 -0.010035
-0.672447 -0.802050 -0.017334
-0.672453 -0.802052 -0.015878
-0.678864 -0.797923 -0.024124
-0.680564 -0.783480 0.010857
-0.680476 -0.788262 0.002907
-0.680639 -0.775820 0.016549
-0.680764 -0.762964 0.019623
-0.681030 -0.747782 0.019790
-0.681216 -0.731825 0.020116
-0.681577 -0.744788 -0.061846
-0.698644 -0.747399 -0.067981
-0.693784 -0.741850 -0.063622
-0.681457 -0.752884 -0.066443
-0.681221 -0.715181 0.022658
-0.681116 -0.698596 0.025094
-0.680937 -0.682306 0.026787
-0.680942 -0.665849 0.028215
-0.681118 -0.649073 0.029659
-0.682001 -0.632948 0.030666
-0.681892 -0.617087 0.030547
-0.677135 -0.622841 0.030896
-0.677201 -0.627812 0.030895
-0.680985 -0.603785 0.030479
-0.680978 -0.583136 0.031647
-0.680970 -0.595316 0.031088
-0.680969 -0.566666 0.032206
-0.680978 -0.550570 0.032687
-0.681052 -0.533917 0.033117
-0.681122 -0.517163 0.033536
-0.681113 -0.501087 0.033793
-0.681052 -0.484969 0.034137
-0.680958 -0.467918 0.035090
-0.680889 -0.450903 0.036385
-0.680877 -0.434709 0.037793
-0.680935 -0.418440 0.038486
-0.681025 -0.401614 0.038310
-0.681073 -0.385145 0.038165
-0.681042 -0.369388 0.038478
-0.680978 -0.353058 0.038555
-0.680900 -0.335917 0.038110
-0.680860 -0.319349 0.038699
-0.680860 -0.303382 0.040655
-0.680934 -0.286998 0.040474
-0.681045 -0.270344 0.038732
-0.681055 -0.254243 0.039838
-0.680978 -0.238327 0.042241
-0.680869 -0.221630 0.042802
-0.680783 -0.204699 0.042529
-0.680790 -0.188516 0.043384
-0.682419 -0.171097 0.045071
-0.691936 -0.175635 0.046897
-0.688828 -0.163820 0.047297
-0.688831 -0.164777 0.047297
-0.682454 -0.157226 0.045277
-0.690985 -0.152435 0.047037
-0.680941 -0.139381 0.044917
-0.690985 -0.139303 0.047038
-0.689614 -0.130389 0.047194
-0.681692 -0.124550 0.045867
-0.687588 -0.120071 0.047714
-0.685736 -0.107575 0.048094
-0.680662 -0.089737 0.048132
-0.680377 -0.075098 0.048224
-0.684676 -0.058229 0.048559
-0.684388 -0.042030 0.048936
-0.680244 -0.025847 0.049611
-0.680977 -0.009069 0.050627
-0.680115 0.005791 0.049368
-0.682626 0.023223 0.049420
-0.681853 0.039963 0.048744
-0.683941 0.056307 0.048063
-0.687367 0.068941 0.047624
-0.681560 0.073525 0.046132
-0.689266 0.079771 0.047227
-0.692844 0.088884 0.047018
-0.680937 0.088734 0.045202
-0.681027 0.105235 0.044640
-0.681035 0.121523 0.043954
-0.680973 0.137781 0.043470
-0.680879 0.154270 0.043496
-0.680817 0.170785 0.043233
-0.680846 0.187115 0.042222
-0.680920 0.203450 0.040911
-0.680989 0.219980 0.039040
-0.681003 0.236549 0.037431
-0.680905 0.253034 0.036902
-0.680859 0.269594 0.035158
-0.680930 0.283864 0.032175
-0.680960 0.292293 0.030237
-0.680913 0.302851 0.028487
-0.680762 0.319010 0.025920
-0.680684 0.335161 0.023312
-0.680648 0.351349 0.020434
-0.679641 0.367053 0.016383
-0.684378 0.372065 0.010568
-0.679679 0.378897 0.005629
-0.673537 0.376050 0.014864
-0.680284 0.387008 -0.008885
-0.683554 0.388234 -0.025339
-0.675376 0.393427 -0.025341
-0.674488 0.392810 -0.013645
-0.683176 0.387833 -0.042680
-0.675025 0.393323 -0.042656
-0.682246 0.387139 -0.058303
-0.674098 0.392619 -0.058309
-0.679657 0.383148 -0.068690
-0.673290 0.392038 -0.065482
-0.667580 -0.799253 -0.006092
-0.662868 -0.803570 -0.010071
-0.664176 -0.793833 0.006654
-0.656645 -0.802411 -0.000756
-0.669083 -0.800249 -0.042962
-0.660948 -0.804025 -0.042795
-0.664913 -0.804328 -0.024182
-0.670953 -0.801251 -0.029594
-0.666269 -0.798652 -0.059137
-0.658081 -0.802866 -0.059037
-0.663017 -0.793996 -0.068590
-0.656503 -0.802179 -0.066107
-0.671755 -0.785903 0.014012
-0.665645 -0.780329 0.017194
-0.660892 -0.788580 0.015243
-0.664473 -0.763684 0.020723
-0.664724 -0.748084 0.020338
-0.664851 -0.731852 0.020735
-0.664858 -0.749220 -0.061093
-0.670095 -0.755268 -0.065071
-0.664794 -0.715056 0.023367
-0.664680 -0.698434 0.025829
-0.664544 -0.682297 0.027602
-0.664539 -0.665883 0.029115
-0.665880 -0.650117 0.030428
-0.672349 -0.638474 0.030809
-0.665901 -0.632874 0.031183
-0.661122 -0.644955 0.031034
-0.665676 -0.617001 0.031295
-0.671846 -0.611999 0.030718
-0.671808 -0.607332 0.030719
-0.665637 -0.600980 0.031642
-0.664583 -0.582984 0.032546
-0.664576 -0.566615 0.032888
-0.664591 -0.550642 0.033049
-0.664652 -0.534006 0.033434
-0.664702 -0.517185 0.034056
-0.664686 -0.500984 0.034616
-0.664636 -0.484772 0.035375
-0.664573 -0.467712 0.036690
-0.664522 -0.450768 0.038125
-0.664492 -0.434691 0.039566
-0.664523 -0.418485 0.040179
-0.664594 -0.401614 0.039675
-0.664634 -0.385092 0.039258
-0.664620 -0.369259 0.039454
-0.664587 -0.352881 0.039564
-0.664539 -0.335787 0.039136
-0.664493 -0.319312 0.039696
-0.664465 -0.303445 0.041522
-0.664504 -0.287070 0.041209
-0.664580 -0.270319 0.039486
-0.664592 -0.254118 0.040481
-0.664559 -0.238133 0.042911
-0.664497 -0.221437 0.043759
-0.664443 -0.204560 0.043674
-0.662842 -0.187141 0.044842
-0.663774 -0.191261 -0.062489
-0.657420 -0.201258 -0.063854
-0.663798 -0.206521 -0.063318
-0.657419 -0.197498 -0.063855
-0.664968 -0.172489 0.044779
-0.656277 -0.181105 0.047305
-0.656685 -0.172538 0.047421
-0.663132 -0.154863 0.045388
-0.656702 -0.159928 0.047436
-0.663365 -0.140301 0.045545
-0.667348 -0.123468 0.045553
-0.658985 -0.123314 0.048215
-0.656975 -0.135510 0.047485
-0.677665 -0.107530 0.046258
-0.669854 -0.107496 0.046237
-0.661568 -0.107382 0.049157
-0.671515 -0.094757 0.046844
-0.675246 -0.094744 0.046852
-0.665367 -0.089636 0.049096
-0.665507 -0.075079 0.049345
-0.674792 -0.070415 0.046919
-0.671762 -0.070400 0.046916
-0.676609 -0.058235 0.046261
-0.670348 -0.058279 0.046245
-0.662111 -0.058304 0.050291
-0.670382 -0.042016 0.046218
-0.676293 -0.041978 0.046237
-0.662143 -0.042108 0.050565
-0.671843 -0.031741 0.046883
-0.674391 -0.031737 0.046887
-0.665607 -0.025844 0.050303
-0.664567 -0.008971 0.051021
-0.665609 0.005953 0.049870
-0.674084 0.010556 0.046839
-0.671786 0.010628 0.046828
-0.671461 0.023390 0.046754
-0.674534 0.023376 0.046764
-0.663182 0.023442 0.050158
-0.673851 0.040003 0.047064
-0.672119 0.039997 0.047061
-0.663789 0.040094 0.049579
-0.670801 0.056241 0.046720
-0.675947 0.056272 0.046726
-0.662512 0.056283 0.049143
-0.668053 0.072282 0.045858
-0.659835 0.072253 0.048641
-0.667281 0.088670 0.045447
-0.658993 0.088669 0.048452
-0.667278 0.105197 0.045271
-0.658871 0.105266 0.048469
-0.666399 0.121535 0.044984
-0.658006 0.121613 0.048052
-0.665257 0.137833 0.044838
