-0.779728 0.812363 -0.106220
-0.779739 0.810836 -0.122601
-0.779758 0.808885 -0.138806
-0.756398 0.566418 0.108649
-0.754539 0.559038 0.091312
-0.754403 0.559494 0.103934
-0.757719 0.568001 0.091367
-0.758526 0.567999 0.075072
-0.754805 0.558302 0.074986
-0.759070 0.567995 0.058863
-0.755132 0.557507 0.058823
-0.755399 0.556798 0.042455
-0.759593 0.567994 0.042506
-0.760149 0.567995 0.025976
-0.755641 0.556195 0.025839
-0.760461 0.567993 0.009596
-0.755878 0.555570 0.009447
-0.756040 0.554958 -0.006712
-0.760428 0.567991 -0.006627
-0.756103 0.554640 -0.023040
-0.760304 0.567991 -0.022971
-0.760150 0.567993 -0.039396
-0.756096 0.554542 -0.039469
-0.759784 0.567994 -0.055744
-0.755994 0.554524 -0.055792
-0.755855 0.554575 -0.072074
-0.759321 0.567992 -0.072058
-0.755789 0.554641 -0.088534
-0.758996 0.567988 -0.088497
-0.758775 0.567991 -0.104977
-0.755773 0.554731 -0.105063
-0.758674 0.567994 -0.121349
-0.755787 0.554737 -0.121436
-0.755797 0.554711 -0.137746
-0.758565 0.567991 -0.137686
-0.755748 0.554783 -0.154160
-0.758242 0.567988 -0.154106
-0.757580 0.567993 -0.170519
-0.755493 0.555659 -0.170556
-0.756570 0.567996 -0.186860
-0.754924 0.557770 -0.186858
-0.754503 0.559296 -0.197496
-0.755370 0.567220 -0.203074
-0.762694 0.584401 0.139890
-0.755945 0.569814 0.139326
-0.755068 0.572645 0.153306
-0.758515 0.582808 0.158466
-0.764141 0.584406 0.123685
-0.756503 0.568437 0.123376
-0.765989 0.585987 0.106506
-0.765600 0.583904 0.091255
-0.766120 0.583342 0.074963
-0.766416 0.582993 0.058840
-0.766700 0.582577 0.042528
-0.766975 0.582048 0.026039
-0.767056 0.581854 0.009678
-0.766920 0.582118 -0.006576
-0.766752 0.582386 -0.022947
-0.766590 0.582595 -0.039399
-0.766334 0.583044 -0.055763
-0.766033 0.583628 -0.072079
-0.765791 0.583997 -0.088506
-0.765597 0.584166 -0.104960
-0.765496 0.584194 -0.121315
-0.766494 0.585939 -0.139262
-0.764853 0.584395 -0.154121
-0.763895 0.584399 -0.170576
-0.762917 0.584403 -0.186932
-0.761733 0.584403 -0.203275
-0.754950 0.572307 -0.219636
-0.760249 0.584404 -0.219688
-0.758081 0.582989 -0.235804
-0.754606 0.575033 -0.230144
-0.758768 0.599869 0.190807
-0.756657 0.586968 0.173924
-0.755182 0.590424 0.185723
-0.765284 0.602035 0.173377
-0.767127 0.597960 0.157365
-0.769121 0.594915 0.140499
-0.770095 0.593465 0.124021
-0.770425 0.593021 0.111233
-0.770883 0.592581 -0.145829
-0.770597 0.592919 -0.154207
-0.770043 0.593615 -0.170715
-0.769526 0.594317 -0.187046
-0.768875 0.595182 -0.203374
-0.767978 0.596331 -0.219885
-0.767080 0.597635 -0.236266
-0.766356 0.598974 -0.252464
-0.758126 0.585272 -0.252383
-0.765880 0.600053 -0.268957
-0.757643 0.585995 -0.268838
-0.766462 0.602309 -0.286448
-0.757277 0.586738 -0.285837
-0.764090 0.600840 -0.303562
-0.756893 0.587003 -0.302660
-0.756317 0.587460 -0.318888
-0.761826 0.600833 -0.319210
-0.755380 0.589467 -0.327913
-0.757445 0.600817 -0.329559
-0.757025 0.617045 0.222658
-0.756345 0.605164 0.206765
-0.754657 0.608142 0.216765
-0.762231 0.617198 0.206762
-0.767565 0.617392 0.190880
-0.769393 0.612071 0.178422
-0.769455 0.616470 -0.303476
-0.770675 0.610298 -0.293023
-0.765809 0.617246 -0.319270
-0.759143 0.617226 -0.331304
-0.765623 0.634549 0.222789
-0.755232 0.622421 0.235499
-0.757929 0.632896 0.240159
-0.768166 0.629667 0.206836
-0.769844 0.626771 0.196636
-0.765890 0.633643 -0.319092
-0.769288 0.633615 -0.304516
-0.759094 0.633627 -0.332078
-0.765324 0.650197 0.237940
-0.754972 0.637882 0.249983
-0.756280 0.651003 0.253910
-0.768848 0.644908 0.227813
-0.764168 0.650011 -0.319039
-0.768807 0.649344 -0.300797
-0.758265 0.649988 -0.331555
-0.753866 0.666344 0.262052
-0.753779 0.657118 0.261729
-0.758729 0.666347 0.253232
-0.766750 0.666332 0.240371
-0.770658 0.654390 -0.293107
-0.769140 0.666141 -0.286573
-0.765446 0.666390 -0.302001
-0.761532 0.666377 -0.318864
-0.757231 0.666333 -0.330596
-0.756683 0.681300 0.253149
-0.753767 0.675200 0.261499
-0.766503 0.683774 0.237818
-0.770212 0.671414 -0.273118
-0.764493 0.682652 -0.285263
-0.768461 0.681799 -0.268111
-0.761322 0.682650 -0.301900
-0.758751 0.682574 -0.318858
-0.756119 0.682480 -0.329826
-0.759775 0.697708 0.239189
-0.755083 0.692536 0.248479
-0.770208 0.689962 0.230680
-0.768550 0.698269 0.229029
-0.769988 0.686669 -0.256405
-0.764347 0.698590 -0.268828
-0.768640 0.698397 -0.251518
-0.761081 0.698554 -0.285324
-0.758523 0.698464 -0.302038
-0.756730 0.698184 -0.319090
-0.755116 0.697963 -0.328934
-0.766653 0.713600 0.226968
-0.758377 0.713045 0.235103
-0.770387 0.703647 -0.241271
-0.768894 0.712020 -0.252359
-0.770357 0.708936 -0.241266
-0.767090 0.715775 -0.267229
-0.762576 0.714041 -0.285369
-0.759878 0.713887 -0.302174
-0.757836 0.713587 -0.319271
-0.755500 0.713305 -0.330230
-0.765770 0.728838 0.225855
-0.757539 0.728520 0.232812
-0.767755 0.729735 -0.284679
-0.769772 0.725257 -0.271658
-0.763505 0.729152 -0.302279
-0.760673 0.729071 -0.319447
-0.756728 0.728916 -0.332622
-0.761391 0.743257 0.367259
-0.757193 0.738634 0.351506
-0.755619 0.739463 0.361933
-0.765383 0.741880 0.351463
-0.766072 0.741656 0.334572
-0.757815 0.737873 0.334477
-0.759220 0.734483 0.318052
-0.767492 0.740978 0.318052
-0.757297 0.734003 0.301612
-0.765526 0.741790 0.301616
-0.753773 0.736900 0.293023
-0.760323 0.745941 0.289799
-0.761789 0.745899 0.224489
-0.755995 0.741226 0.230641
-0.769369 0.741328 -0.290180
-0.767001 0.745889 -0.301655
-0.761174 0.744771 -0.320109
-0.756546 0.744731 -0.332362
-0.763695 0.762813 0.416977
-0.757288 0.753307 0.417444
-0.754878 0.754666 0.429118
-0.756550 0.763202 0.433625
-0.768576 0.762852 0.406231
-0.762404 0.752216 0.400243
-0.761626 0.759766 0.217349
-0.762479 0.761137 -0.304145
-0.757502 0.758773 -0.320974
-0.755377 0.755396 -0.330759
-0.754091 0.772373 0.441847
-0.754070 0.768291 0.441842
-0.757263 0.777639 0.433683
-0.765423 0.777787 0.416786
-0.769508 0.777858 0.406750
-0.766699 0.764459 0.209186
-0.761396 0.776106 0.204536
-0.755838 0.771040 0.214394
-0.770844 0.768882 -0.278572
-0.768259 0.765183 -0.287154
-0.764267 0.778545 -0.272275
-0.760215 0.774303 -0.286942
-0.756607 0.770985 -0.301158
-0.756277 0.793953 0.429271
-0.761604 0.793945 0.417056
-0.767627 0.795115 0.400595
-0.766887 0.781173 0.192961
-0.762096 0.788569 0.188632
-0.756127 0.786896 0.199929
-0.768463 0.783002 -0.258012
-0.757693 0.787249 -0.266022
-0.763152 0.789852 -0.252926
-0.754980 0.802887 0.427505
-0.756565 0.804250 0.417373
-0.759542 0.805511 0.400107
-0.769702 0.801208 0.390742
-0.763548 0.807347 0.384640
-0.760851 0.794828 0.289915
-0.765454 0.801015 0.295115
-0.760998 0.804811 0.301002
-0.754539 0.801993 0.293316
-0.761581 0.795275 0.172727
-0.764617 0.797043 0.155730
-0.756639 0.802757 0.155801
-0.755352 0.802120 0.166478
-0.767303 0.799098 0.137727
-0.759314 0.804122 0.137738
-0.769640 0.800792 0.126197
-0.763848 0.805412 0.121076
-0.768534 0.799724 -0.223669
-0.763157 0.797312 -0.238237
-0.763260 0.804108 -0.218839
-0.757759 0.803175 -0.233115
-0.762635 0.814483 0.368057
-0.765608 0.815112 0.350979
-0.757424 0.819831 0.363141
-0.757525 0.819878 0.350952
-0.761536 0.814823 0.334729
-0.755513 0.818896 0.339816
-0.762450 0.811155 0.318392
-0.763205 0.809159 0.105379
-0.763234 0.812063 0.089618
-0.762196 0.814984 0.074833
-0.765424 0.815309 0.057960
-0.757346 0.819233 0.058248
-0.756119 0.818734 0.070461
-0.766808 0.816110 0.041734
-0.758708 0.819781 0.041991
-0.767984 0.816720 0.025273
-0.759893 0.820261 0.025492
-0.769232 0.817307 0.009132
-0.761141 0.820783 0.009269
-0.770553 0.817894 -0.006813
-0.762449 0.821348 -0.006771
-0.771235 0.818213 -0.022995
-0.763128 0.821653 -0.022993
-0.771280 0.818253 -0.039353
-0.763177 0.821696 -0.039334
-0.771368 0.818291 -0.055796
-0.763260 0.821695 -0.055758
-0.771480 0.818318 -0.072329
-0.763358 0.821656 -0.072247
-0.771414 0.818278 -0.088902
-0.763286 0.821483 -0.088777
-0.770802 0.818020 -0.105455
-0.762682 0.821057 -0.105291
-0.768975 0.817282 -0.121896
-0.760853 0.820282 -0.121670
-0.766496 0.816288 -0.138240
-0.758369 0.819386 -0.137983
-0.764573 0.815324 -0.154617
-0.756448 0.818733 -0.154389
-0.761958 0.814451 -0.169699
-0.755567 0.818432 -0.163246
-0.763434 0.810400 -0.187225
-0.763412 0.807083 -0.203572
-0.740104 0.517436 0.026565
-0.738290 0.509657 0.009871
-0.738076 0.510188 0.021264
-0.741300 0.518787 0.009857
-0.741869 0.518781 -0.006483
-0.738549 0.508917 -0.006459
-0.738792 0.508353 -0.022826
-0.742385 0.518781 -0.022844
-0.738998 0.508048 -0.039241
-0.742803 0.518787 -0.039239
-0.742842 0.518784 -0.055629
-0.739007 0.508018 -0.055634
-0.742649 0.518777 -0.072002
-0.738892 0.508120 -0.072000
-0.739011 0.507826 -0.088400
-0.742886 0.518775 -0.088405
-0.739188 0.507529 -0.104810
-0.743230 0.518779 -0.104819
-0.742915 0.518777 -0.121206
-0.738997 0.508086 -0.121186
-0.742415 0.518773 -0.137592
-0.738706 0.508823 -0.137567
-0.738785 0.508746 -0.154011
-0.742571 0.518775 -0.154016
-0.738822 0.508720 -0.170462
-0.742563 0.518781 -0.170443
-0.741453 0.518780 -0.186814
-0.738342 0.509690 -0.186834
-0.739976 0.517243 -0.203120
-0.737951 0.510468 -0.197609
-0.739981 0.517288 -0.236462
-0.738051 0.510348 -0.231288
-0.738033 0.510342 -0.224056
-0.740025 0.517246 -0.218987
-0.740567 0.534118 0.139427
-0.738092 0.526182 0.124776
-0.737888 0.526765 0.134027
-0.742053 0.535191 0.124342
-0.738433 0.525327 0.108465
-0.742754 0.535188 0.108238
-0.743551 0.535196 0.091769
-0.738769 0.524598 0.092029
-0.744505 0.535196 0.075326
-0.739163 0.523518 0.075589
-0.739609 0.521922 0.059187
-0.745501 0.535187 0.059016
-0.746324 0.535185 0.042608
-0.740060 0.520273 0.042761
-0.747011 0.535195 0.026032
-0.747660 0.535193 0.009618
-0.748262 0.535184 -0.006622
-0.748722 0.535184 -0.022961
-0.749049 0.535191 -0.039368
-0.749128 0.535187 -0.055721
-0.749049 0.535180 -0.072044
-0.749190 0.535179 -0.088480
-0.749376 0.535183 -0.104962
-0.749220 0.535182 -0.121345
-0.748966 0.535177 -0.137688
-0.749045 0.535180 -0.154099
-0.748768 0.535184 -0.170500
-0.747396 0.535183 -0.186830
-0.746147 0.535177 -0.203189
-0.745973 0.535180 -0.219646
-0.745650 0.535188 -0.236083
-0.744567 0.535192 -0.252438
-0.739904 0.519972 -0.252397
-0.739618 0.520710 -0.268805
-0.743921 0.535189 -0.268828
-0.743881 0.535188 -0.285273
-0.739687 0.520320 -0.285249
-0.743140 0.535206 -0.301933
-0.739376 0.521598 -0.301943
-0.741609 0.535227 -0.319455
-0.738598 0.524315 -0.319565
-0.738048 0.525937 -0.329050
-0.739352 0.535213 -0.330226
-0.746221 0.551592 0.156282
-0.740145 0.537618 0.156609
-0.738946 0.540184 0.169754
-0.741392 0.550346 0.174365
-0.748733 0.551598 0.139406
-0.749834 0.551593 0.123635
-0.751126 0.553039 0.108857
-0.750803 0.550824 0.091415
-0.751370 0.550076 0.075026
-0.751945 0.549277 0.058842
-0.752342 0.548568 0.042464
-0.752567 0.547960 0.025802
-0.752824 0.547326 0.009392
-0.753130 0.546717 -0.006743
-0.753312 0.546402 -0.023062
-0.753405 0.546299 -0.039501
-0.753453 0.546279 -0.055816
-0.753463 0.546331 -0.072084
-0.753495 0.546400 -0.088549
-0.753519 0.546484 -0.105095
-0.753496 0.546488 -0.121468
-0.753457 0.546465 -0.137765
-0.753442 0.546542 -0.154179
-0.753195 0.547421 -0.170572
-0.752474 0.549543 -0.186864
-0.752210 0.552921 -0.203067
-0.751175 0.551583 -0.219689
-0.750506 0.551592 -0.236131
-0.749356 0.551595 -0.252468
-0.748553 0.551589 -0.268852
-0.748271 0.551586 -0.285322
-0.747639 0.551602 -0.301965
-0.746404 0.551628 -0.319235
-0.741852 0.551611 -0.331806
-0.748109 0.567984 0.173335
-0.739263 0.554971 0.185124
-0.741459 0.567398 0.189807
-0.752444 0.567481 0.158059
-0.753508 0.561587 0.139210
-0.754099 0.560186 0.123345
-0.754284 0.559862 0.114729
-0.753937 0.564071 -0.219669
-0.754180 0.561189 -0.208467
-0.753614 0.568929 -0.235817
-0.752508 0.568001 -0.252430
-0.751702 0.567992 -0.268840
-0.751147 0.567988 -0.285399
-0.750873 0.568009 -0.302060
-0.750398 0.568040 -0.318991
-0.743969 0.568016 -0.332330
-0.749988 0.584717 0.190305
-0.738946 0.572473 0.201137
-0.742708 0.583343 0.206941
-0.752713 0.578739 0.173658
-0.754163 0.576269 0.165216
-0.754043 0.577039 -0.252379
-0.754317 0.576524 -0.241084
-0.753698 0.577768 -0.268814
-0.753359 0.578511 -0.285541
-0.753249 0.578743 -0.302271
-0.753089 0.579203 -0.318908
-0.747161 0.584180 -0.332491
-0.748690 0.601915 0.222711
-0.740183 0.587984 0.223326
-0.738576 0.590908 0.234386
-0.741877 0.600282 0.239848
-0.751257 0.596920 0.206642
-0.753451 0.593759 0.196421
-0.739412 0.617498 0.269331
-0.739145 0.606268 0.256233
-0.737598 0.608931 0.264435
-0.744432 0.617204 0.255782
-0.750681 0.617048 0.240544
-0.752677 0.611450 0.227801
-0.740341 0.617213 -0.343677
-0.738906 0.606844 -0.342962
-0.744984 0.601172 -0.338198
-0.748332 0.617203 -0.339325
-0.744894 0.633607 0.269818
-0.738247 0.623153 0.280407
-0.739734 0.633901 0.285600
-0.750726 0.632885 0.255079
-0.753165 0.626945 0.246326
-0.749771 0.633614 -0.340084
-0.741838 0.633610 -0.344519
-0.744065 0.649993 0.285339
-0.737810 0.639492 0.294155
-0.739163 0.649936 0.295803
-0.750214 0.650991 0.268138
-0.752382 0.646227 0.259185
-0.750152 0.649991 -0.339539
-0.742203 0.649984 -0.345404
-0.746962 0.666330 0.285261
-0.740855 0.666270 0.297460
-0.751454 0.666375 0.270288
-0.742684 0.666323 -0.347287
-0.750791 0.666360 -0.338452
-0.744795 0.682140 0.285244
-0.740128 0.682085 0.297370
-0.749626 0.681204 0.267980
-0.742344 0.682405 -0.351533
-0.751180 0.682475 -0.337560
-0.738537 0.697246 0.296639
-0.740937 0.697145 0.285239
-0.743615 0.697342 0.269653
-0.751780 0.685815 0.258388
-0.749584 0.697461 0.254064
-0.750905 0.697831 -0.336603
-0.744206 0.697535 -0.350812
-0.738489 0.687509 -0.362284
-0.739239 0.697217 -0.367517
-0.741816 0.712623 0.285224
-0.739439 0.712998 0.298576
-0.741602 0.712492 0.269756
-0.745021 0.712651 0.254379
-0.752550 0.702347 0.244882
-0.751255 0.712881 0.243108
-0.745783 0.712762 -0.350830
-0.751621 0.713076 -0.337862
-0.740956 0.712390 -0.367175
-0.738608 0.712099 -0.378843
-0.738180 0.701801 -0.376822
-0.747302 0.730256 0.286626
-0.744960 0.725396 0.302937
-0.740866 0.728473 0.269649
-0.742345 0.728424 0.254076
-0.749725 0.728506 0.241215
-0.746826 0.728598 -0.350815
-0.752519 0.728766 -0.340170
-0.740963 0.728416 -0.367173
-0.738478 0.728276 -0.378454
-0.746319 0.743809 0.367811
-0.752222 0.739428 0.362141
-0.740460 0.744489 0.268405
-0.749178 0.744921 0.281897
-0.739756 0.744433 0.255064
-0.749309 0.745839 0.236837
-0.744228 0.744645 -0.350965
-0.751133 0.744712 -0.339666
-0.738928 0.743616 -0.365709
-0.737977 0.737473 -0.376322
-0.751708 0.758673 0.438997
-0.745968 0.752848 0.434635
-0.740809 0.754206 0.445970
-0.745223 0.762531 0.449188
-0.743735 0.760971 0.270590
-0.751746 0.761020 0.278183
-0.739192 0.756126 0.250716
-0.742716 0.759106 0.238111
-0.753611 0.752143 0.228579
-0.747452 0.762373 0.226993
-0.739817 0.756571 -0.351143
-0.746334 0.761935 -0.336970
-0.738026 0.752976 -0.359259
-0.747795 0.777807 0.448197
-0.738807 0.766479 0.459523
-0.739153 0.778076 0.459942
-0.750799 0.777356 0.278553
-0.742897 0.777353 0.272851
-0.745796 0.776833 0.218364
-0.754325 0.769087 -0.312723
-0.752754 0.766982 -0.321365
-0.744876 0.774732 -0.321267
-0.746670 0.777708 -0.304490
-0.741678 0.772224 -0.333875
-0.742161 0.794746 0.450819
-0.738384 0.789869 0.458714
-0.752529 0.782779 0.439321
-0.750828 0.793987 0.437170
-0.739841 0.786890 0.275617
-0.746502 0.794303 0.286169
-0.750960 0.781959 0.209718
-0.746045 0.790507 0.204494
-0.740242 0.787159 0.214634
-0.754203 0.785070 -0.277024
-0.750553 0.782506 -0.286346
-0.742498 0.787344 -0.285880
-0.748062 0.790536 -0.270557
-0.738912 0.785756 -0.295863
-0.745974 0.805382 0.433899
-0.740368 0.804296 0.446894
-0.746183 0.798303 0.190335
-0.751365 0.800133 0.177405
-0.746347 0.803201 0.172462
-0.740499 0.802476 0.185755
-0.753726 0.801228 -0.243916
-0.747758 0.798627 -0.253611
-0.742892 0.803187 -0.248363
-0.747818 0.805314 -0.237703
-0.746237 0.808227 0.418094
-0.746144 0.810731 0.400297
-0.746210 0.815395 0.382547
-0.751680 0.817659 0.373964
-0.746435 0.821863 0.368248
-0.740966 0.818970 0.376352
-0.752429 0.817855 0.328799
-0.746565 0.815462 0.318577
-0.741311 0.819329 0.324378
-0.746610 0.820682 0.334342
-0.747155 0.805934 0.300080
-0.753274 0.801993 0.293316
-0.746832 0.805802 0.155820
-0.746782 0.809409 0.137951
-0.745987 0.814327 0.121709
-0.750253 0.815938 0.106279
-0.740072 0.818842 0.117155
-0.742193 0.819721 0.107289
-0.753277 0.817426 0.090198
-0.745190 0.820906 0.091012
-0.754895 0.818204 0.080998
-0.748551 0.821385 0.075569
-0.747101 0.816333 -0.187381
-0.752515 0.817531 -0.174125
-0.747143 0.819779 -0.169387
-0.741662 0.819062 -0.182084
-0.747133 0.813008 -0.203385
-0.747098 0.809995 -0.220156
-0.746421 0.824477 0.351147
-0.747162 0.823480 0.058673
-0.747176 0.824715 0.042355
-0.747139 0.825925 0.025807
-0.747139 0.827039 0.009492
-0.747173 0.827844 -0.006630
-0.747167 0.828235 -0.022885
-0.747136 0.828353 -0.039227
-0.747136 0.828245 -0.055624
-0.747160 0.827996 -0.072047
-0.747178 0.827663 -0.088508
-0.747189 0.826847 -0.104986
-0.747190 0.825094 -0.121392
-0.747188 0.822989 -0.137762
-0.747193 0.821458 -0.154198
-0.725246 0.502389 0.124868
-0.721519 0.493969 0.124882
-0.721498 0.493975 0.137305
-0.724299 0.500783 0.142118
-0.721643 0.493804 0.108538
-0.725641 0.502385 0.108509
-0.726628 0.502384 0.091970
-0.722012 0.493162 0.091925
-0.727887 0.502387 0.075457
-0.722481 0.492347 0.075367
-0.722991 0.491484 0.059079
-0.729332 0.502383 0.059113
-0.723507 0.490643 0.042702
-0.730812 0.502380 0.042722
-0.733130 0.503780 0.026560
-0.723977 0.489843 0.026146
-0.724460 0.489034 0.009782
-0.732608 0.501438 0.009793
-0.733151 0.500694 -0.006460
-0.725007 0.488228 -0.006404
-0.725435 0.487565 -0.022796
-0.733573 0.500126 -0.022836
-0.733810 0.499823 -0.039311
-0.725679 0.487124 -0.039330
-0.733812 0.499795 -0.055694
-0.725681 0.487243 -0.055711
-0.733685 0.499892 -0.072009
-0.725548 0.487699 -0.071984
-0.725726 0.487497 -0.088393
-0.733866 0.499595 -0.088413
-0.725915 0.487171 -0.104829
-0.734053 0.499300 -0.104834
-0.733576 0.499857 -0.121188
-0.725435 0.488038 -0.121169
-0.724832 0.489109 -0.137513
-0.732980 0.500600 -0.137548
-0.724938 0.488860 -0.153960
-0.733083 0.500522 -0.154006
-0.733179 0.500498 -0.170480
-0.725044 0.488498 -0.170438
-0.732482 0.501475 -0.186855
-0.724355 0.489344 -0.186834
-0.723736 0.490084 -0.203201
-0.733024 0.503942 -0.203129
-0.723852 0.489645 -0.219650
-0.733142 0.503869 -0.218959
-0.733217 0.503873 -0.236477
-0.723947 0.489381 -0.236079
-0.731226 0.502396 -0.252413
-0.723628 0.490000 -0.252437
-0.730729 0.502394 -0.268806
-0.723473 0.490339 -0.268819
-0.723601 0.490148 -0.285244
-0.731090 0.502402 -0.285247
-0.723411 0.490563 -0.302082
-0.730245 0.502410 -0.302043
-0.727931 0.502427 -0.319951
-0.722677 0.491709 -0.320071
-0.721915 0.492956 -0.329849
-0.724063 0.502439 -0.330918
-0.731379 0.518781 0.157346
-0.724386 0.503215 0.157558
-0.723063 0.506124 0.171061
-0.726440 0.517177 0.175242
-0.733812 0.520280 0.140161
-0.733328 0.517955 0.124811
-0.733610 0.517090 0.108480
-0.734275 0.516352 0.092025
-0.735100 0.515265 0.075563
-0.736031 0.513670 0.059173
-0.737009 0.512026 0.042755
-0.737633 0.511028 0.032269
-0.737815 0.510727 -0.213071
-0.737809 0.510722 -0.208551
-0.737385 0.511717 -0.252407
-0.737850 0.510780 -0.242239
-0.737058 0.512465 -0.268807
-0.737315 0.512083 -0.285256
-0.736672 0.513335 -0.302002
-0.734925 0.516083 -0.319761
-0.729740 0.519842 -0.332153
-0.726866 0.535146 0.189726
-0.723735 0.521570 0.185111
-0.735105 0.534880 0.174547
-0.736569 0.529355 0.157008
-0.737352 0.527885 0.144665
-0.734762 0.550320 0.189880
-0.722893 0.540542 0.200941
-0.726304 0.550693 0.206165
-0.737530 0.544025 0.180628
-0.729178 0.567986 0.223015
-0.723338 0.555377 0.222721
-0.721984 0.558092 0.233954
-0.724173 0.567623 0.239604
-0.734854 0.567381 0.206506
-0.736873 0.561533 0.195380
-0.723628 0.568003 -0.343525
-0.722748 0.554938 -0.343146
-0.728764 0.550344 -0.339914
-0.731708 0.567988 -0.340105
-0.732843 0.585019 0.239853
-0.722562 0.572837 0.250880
-0.725720 0.584042 0.256290
-0.735419 0.579746 0.223253
-0.737230 0.577163 0.213264
-0.725819 0.584411 -0.344619
-0.733899 0.584398 -0.341030
-0.729169 0.601058 0.271658
-0.723189 0.589254 0.268927
-0.734025 0.598033 0.256227
-0.736406 0.594433 0.245321
-0.736527 0.595929 -0.342071
-0.730576 0.601118 -0.346192
-0.724552 0.617169 0.296533
-0.724130 0.604187 0.286372
-0.721864 0.607391 0.294375
-0.732323 0.617472 0.285870
-0.735150 0.612210 0.273480
-0.735727 0.628600 0.291054
-0.729717 0.633826 0.298593
-0.728150 0.649568 0.304756
-0.731242 0.649989 -0.353708
-0.721451 0.641317 -0.359387
-0.728090 0.634958 -0.353511
-0.723568 0.649513 -0.365751
-0.732198 0.666357 0.305751
-0.723999 0.666322 0.311787
-0.722189 0.654642 0.310773
-0.729877 0.666292 -0.367149
-0.734456 0.666323 -0.355561
-0.722888 0.654649 -0.379448
-0.725018 0.665576 -0.384446
-0.733079 0.682352 0.305624
-0.724867 0.682427 0.312002
-0.735420 0.682150 -0.367512
-0.736770 0.677164 -0.357575
-0.730294 0.681833 -0.383698
-0.722501 0.670507 -0.395334
-0.724177 0.681589 -0.398217
-0.731725 0.697737 0.304884
-0.723511 0.697977 0.311147
-0.737002 0.692211 -0.373237
-0.734496 0.696732 -0.382936
-0.725212 0.695917 -0.401557
-0.727818 0.713913 0.307289
-0.721736 0.709089 0.310319
-0.735394 0.711986 -0.387233
-0.727447 0.711942 -0.400396
-0.721530 0.711917 -0.409162
-0.721564 0.700602 -0.409013
-0.728710 0.722730 0.309229
-0.734704 0.728214 -0.386938
-0.725469 0.726889 -0.401023
-0.721269 0.720528 -0.408928
-0.728654 0.731095 0.314415
-0.740147 0.741054 0.322252
-0.745512 0.732290 0.317351
-0.728520 0.740596 0.322546
-0.731596 0.743557 -0.382855
-0.723820 0.744560 -0.395628
-0.731981 0.761904 0.465323
-0.724664 0.753384 0.466060
-0.721336 0.754905 0.474560
-0.723289 0.762498 0.477363
-0.736311 0.756580 0.456459
-0.730210 0.751221 0.451456
-0.736947 0.749815 0.262572
-0.736958 0.749791 0.261076
-0.736396 0.761326 0.255495
-0.736749 0.760926 0.263242
-0.735225 0.748359 -0.370266
-0.729433 0.760382 -0.366377
-0.724142 0.756404 -0.384088
-0.722016 0.753446 -0.393276
-0.732700 0.777974 0.468224
-0.724701 0.777856 0.479216
-0.735276 0.777318 0.265937
-0.731709 0.777316 0.254857
-0.737123 0.767299 0.238705
-0.732257 0.777310 0.238208
-0.737908 0.768791 0.230379
-0.735921 0.777314 0.227142
-0.734831 0.764706 -0.351293
-0.737663 0.768566 -0.343065
-0.727120 0.773416 -0.351074
-0.731557 0.778357 -0.338229
-0.723666 0.770314 -0.362410
-0.732305 0.794751 0.464868
-0.723379 0.793968 0.476686
-0.730178 0.789487 0.271429
-0.725322 0.787839 0.255043
-0.725350 0.788428 0.237407
-0.729729 0.793026 0.219767
-0.737303 0.784448 -0.308179
-0.735725 0.782946 -0.321360
-0.727896 0.789311 -0.321068
-0.731385 0.789796 -0.302355
-0.725411 0.787494 -0.333264
-0.722213 0.802481 0.474547
-0.725651 0.804403 0.466346
-0.737280 0.800653 0.457009
-0.731118 0.807316 0.452142
-0.737032 0.801692 0.293597
-0.742554 0.801690 0.293594
-0.731188 0.798216 0.286317
-0.726458 0.802610 0.291687
-0.730935 0.806577 0.300084
-0.735537 0.798912 0.203996
-0.727410 0.804804 0.204064
-0.723924 0.802979 0.213921
-0.738350 0.801785 0.195109
-0.731981 0.805848 0.190025
-0.737059 0.800864 -0.258960
-0.733857 0.798697 -0.269112
-0.725801 0.803233 -0.268996
-0.731277 0.805780 -0.253195
-0.729274 0.795875 -0.284681
-0.723180 0.802209 -0.278352
-0.729931 0.810750 0.436067
-0.729946 0.810425 0.418845
-0.729843 0.812329 0.400563
-0.729846 0.816263 0.385612
-0.729943 0.819919 0.377426
-0.729554 0.815500 0.315646
-0.730612 0.808863 0.173753
-0.729224 0.813402 0.154860
-0.733460 0.815442 0.138313
-0.725286 0.819673 0.138563
-0.722833 0.818565 0.147928
-0.736790 0.817266 0.126869
-0.731107 0.821205 0.122606
-0.735208 0.816880 -0.203271
-0.737686 0.817850 -0.192913
-0.731609 0.821643 -0.187192
-0.726929 0.820173 -0.203239
-0.732084 0.815500 -0.219867
-0.723829 0.818921 -0.219801
-0.729077 0.813363 -0.234835
-0.722513 0.818372 -0.228204
-0.730065 0.826610 0.367495
-0.729948 0.829004 0.351094
-0.729478 0.823476 0.334417
-0.729293 0.819550 0.323832
-0.730756 0.824590 0.107976
-0.730729 0.827346 0.091699
-0.730724 0.829397 0.075263
-0.730750 0.830492 0.058998
-0.729629 0.832038 0.043231
-0.733010 0.832218 0.026024
-0.723356 0.835187 0.038117
-0.724708 0.835811 0.025923
-0.734451 0.832814 0.009653
-0.726138 0.836511 0.009484
-0.735027 0.833056 -0.006521
-0.726696 0.836883 -0.006701
-0.735249 0.833137 -0.022815
-0.726904 0.837051 -0.023034
-0.735468 0.833211 -0.039183
-0.727117 0.837125 -0.039438
-0.735201 0.833109 -0.055571
-0.726851 0.836976 -0.055723
-0.734644 0.832900 -0.071958
-0.726289 0.836681 -0.071975
-0.734277 0.832737 -0.088382
-0.725918 0.836461 -0.088371
-0.733535 0.832348 -0.104823
-0.725183 0.836105 -0.104801
-0.729930 0.831895 -0.121993
-0.723842 0.835465 -0.117034
-0.730718 0.829226 -0.137574
-0.730738 0.827509 -0.153998
-0.730757 0.825467 -0.170446
-0.709698 0.469561 0.157680
-0.705454 0.459908 0.157767
-0.705083 0.460604 0.167125
-0.706923 0.470238 0.173240
-0.709945 0.469559 0.141161
-0.705572 0.459998 0.141219
-0.705319 0.460727 0.130380
-0.708190 0.468505 0.124911
-0.708014 0.468568 0.090946
-0.705235 0.461035 0.075657
-0.705143 0.461206 0.084791
-0.709467 0.469563 0.075513
-0.705273 0.460950 0.059178
-0.709926 0.469561 0.059101
-0.705530 0.460561 0.042693
-0.710676 0.469559 0.042662
-0.711920 0.469564 0.026154
-0.706166 0.459657 0.026215
-0.712689 0.469566 0.009837
-0.706428 0.459309 0.009906
-0.706231 0.459572 -0.006324
-0.712933 0.469563 -0.006365
-0.713603 0.469556 -0.022782
-0.706466 0.459275 -0.022748
-0.714503 0.469561 -0.039345
-0.707048 0.458583 -0.039323
-0.706846 0.458906 -0.055700
-0.714193 0.469567 -0.055721
-0.706128 0.459845 -0.071938
-0.713097 0.469562 -0.071966
-0.713271 0.469556 -0.088389
-0.706175 0.459839 -0.088362
-0.706524 0.459472 -0.104818
-0.713857 0.469559 -0.104835
-0.706075 0.460035 -0.121146
-0.712739 0.469565 -0.121163
-0.711385 0.469562 -0.137495
-0.705512 0.460692 -0.137469
-0.711946 0.469557 -0.153915
-0.705831 0.460261 -0.153874
-0.712741 0.469561 -0.170360
-0.706260 0.459693 -0.170304
-0.705889 0.460134 -0.186722
-0.711900 0.469563 -0.186771
-0.705529 0.460523 -0.203148
-0.711140 0.469560 -0.203179
-0.705931 0.459897 -0.219665
-0.711888 0.469560 -0.219671
-0.712526 0.469568 -0.236126
-0.706331 0.459318 -0.236141
-0.706235 0.459370 -0.252500
-0.712150 0.469578 -0.252486
-0.706218 0.459348 -0.268875
-0.711964 0.469581 -0.268866
-0.712402 0.469583 -0.285300
-0.706534 0.458956 -0.285289
-0.711934 0.469598 -0.302159
-0.706379 0.459254 -0.302130
-0.705554 0.460389 -0.320124
-0.710355 0.469605 -0.320177
-0.705011 0.461085 -0.329618
-0.707280 0.469609 -0.331333
-0.713443 0.485982 0.174088
-0.705379 0.476116 0.183469
-0.707561 0.485943 0.185825
-0.717070 0.485977 0.157585
-0.718363 0.487479 0.142124
-0.716957 0.485750 0.124845
-0.716457 0.485582 0.108506
-0.708253 0.471086 0.108521
-0.716921 0.484927 0.091901
-0.717535 0.484098 0.075349
-0.717943 0.483235 0.059038
-0.718449 0.482394 0.042650
-0.719109 0.481584 0.026089
-0.719625 0.480771 0.009753
-0.720025 0.479976 -0.006405
-0.720491 0.479312 -0.022811
-0.720896 0.478868 -0.039382
-0.720778 0.478986 -0.055753
-0.720317 0.479454 -0.071990
-0.720455 0.479249 -0.088408
-0.720742 0.478922 -0.104854
-0.720034 0.479791 -0.121176
-0.719186 0.480870 -0.137503
-0.719483 0.480617 -0.153944
-0.719901 0.480250 -0.170418
-0.719368 0.481100 -0.186821
-0.718898 0.481846 -0.203210
-0.719266 0.481403 -0.219682
-0.719535 0.481136 -0.236122
-0.719236 0.481768 -0.252473
-0.719066 0.482116 -0.268852
-0.719244 0.481921 -0.285292
-0.718956 0.482326 -0.302160
-0.718030 0.483481 -0.320220
-0.713298 0.486913 -0.333471
-0.719615 0.501339 0.175497
-0.710159 0.503332 0.190259
-0.721040 0.494958 0.157539
-0.721397 0.494213 0.148165
-0.717243 0.517175 0.189904
-0.705134 0.509371 0.198156
-0.708015 0.519141 0.203611
-0.721250 0.510612 0.181815
-0.708504 0.534186 0.238311
-0.706096 0.523808 0.220008
-0.705404 0.524900 0.232225
-0.712523 0.535177 0.221051
-0.717250 0.535104 0.205682
-0.719611 0.529654 0.195116
-0.718747 0.535172 -0.341637
-0.707096 0.522052 -0.343535
-0.712822 0.517489 -0.340212
-0.710583 0.535188 -0.345220
-0.707102 0.551542 0.269470
-0.706696 0.538737 0.255426
-0.705589 0.541539 0.265865
-0.711801 0.551578 0.255598
-0.717491 0.552200 0.238814
-0.719359 0.547168 0.222217
-0.720533 0.544637 0.212129
-0.721404 0.543971 -0.342628
-0.714870 0.550268 -0.346748
-0.718144 0.567603 0.256174
-0.709822 0.566444 0.274175
-0.720525 0.561881 0.244775
-0.710400 0.583793 0.288789
-0.706621 0.570899 0.284343
-0.717997 0.584028 0.273569
-0.720087 0.578300 0.261804
-0.711669 0.601330 0.301711
-0.707180 0.588846 0.299164
-0.718569 0.595931 0.287177
-0.720780 0.593158 0.279438
-0.715975 0.600774 -0.355067
-0.705512 0.591036 -0.359847
-0.711923 0.585083 -0.353331
-0.707637 0.601600 -0.366044
-0.715404 0.617209 0.304829
-0.705344 0.606109 0.311287
-0.707209 0.617179 0.313348
-0.713150 0.617195 -0.367162
-0.718797 0.617181 -0.357044
-0.707491 0.617179 -0.379653
-0.705675 0.607637 -0.376538
-0.717934 0.633605 0.307539
-0.709703 0.633539 0.315265
-0.720246 0.630384 -0.358178
-0.718446 0.634923 -0.365784
-0.710266 0.632767 -0.384842
-0.719571 0.643767 0.308975
-0.711952 0.650145 0.317805
-0.718127 0.649452 -0.384515
-0.720433 0.643712 -0.370343
-0.706607 0.637623 -0.397086
-0.710564 0.648337 -0.401571
-0.713323 0.666306 0.320100
-0.705205 0.666203 0.328306
-0.704377 0.656485 0.326669
-0.718890 0.665504 -0.400540
-0.720605 0.659643 -0.390518
-0.707673 0.652739 -0.416551
-0.712850 0.666001 -0.416548
-0.705721 0.656055 -0.426566
-0.707150 0.665701 -0.429096
-0.713934 0.682446 0.320299
-0.705827 0.682392 0.329248
-0.720425 0.681529 -0.406399
-0.715291 0.681319 -0.416680
-0.707868 0.680915 -0.430378
-0.710812 0.700831 0.316514
-0.705381 0.698306 0.327975
-0.720842 0.690565 -0.407832
-0.716541 0.695766 -0.415599
-0.707363 0.695916 -0.429945
-0.718055 0.708985 0.310320
-0.708685 0.712826 0.318052
-0.706034 0.714424 0.328574
-0.714715 0.711912 -0.417894
-0.706454 0.711890 -0.428780
-0.717503 0.728729 0.319206
-0.709793 0.731088 0.334345
-0.713613 0.712874 0.309410
-0.720056 0.721719 0.309574
-0.705419 0.723173 -0.427304
-0.712245 0.727310 -0.417312
-0.711308 0.745305 0.466239
-0.704930 0.739935 0.459716
-0.704932 0.739931 0.461435
-0.711322 0.743129 0.453196
-0.717864 0.739546 0.334464
-0.707102 0.736645 0.344917
-0.712543 0.740625 0.350581
-0.719467 0.739149 0.325372
-0.719011 0.731445 -0.407116
-0.708362 0.741711 -0.414538
-0.713668 0.746107 -0.405526
-0.718206 0.762428 0.485661
-0.712932 0.751022 0.481199
-0.707542 0.752325 0.494638
-0.709083 0.763241 0.499481
-0.709936 0.777025 0.499722
-0.704974 0.768678 0.506847
-0.705039 0.771193 0.506848
-0.719203 0.777818 0.487452
-0.717327 0.764584 -0.384214
-0.720794 0.767883 -0.373559
-0.713834 0.776546 -0.366793
-0.709536 0.771421 -0.384180
-0.712347 0.759678 -0.396965
-0.706420 0.769496 -0.393344
-0.717485 0.794045 0.484916
-0.709350 0.794084 0.495149
-0.721330 0.784647 -0.342061
-0.717910 0.781602 -0.351096
-0.709959 0.787657 -0.350952
-0.714059 0.793231 -0.336146
-0.706773 0.785934 -0.360014
-0.712830 0.805164 0.481495
-0.706903 0.803814 0.492124
-0.714296 0.799360 0.284876
-0.714387 0.794957 0.272127
-0.714293 0.793536 0.254658
-0.713681 0.796928 0.236729
-0.718821 0.798929 0.224608
-0.713435 0.805656 0.219355
-0.707701 0.803202 0.231070
-0.719629 0.800371 -0.289356
-0.717355 0.798936 -0.302693
-0.709211 0.803423 -0.302412
-0.714200 0.804379 -0.284433
-0.715783 0.797577 -0.320796
-0.707693 0.802757 -0.320483
-0.706720 0.802267 -0.330199
-0.713524 0.810185 0.467885
-0.713455 0.814312 0.452597
-0.713402 0.814612 0.436602
-0.713405 0.811811 0.418930
-0.713342 0.810046 0.400642
-0.713187 0.814302 0.387134
-0.713050 0.821966 0.378958
-0.712298 0.815482 0.318907
-0.713778 0.807682 0.302216
-0.714184 0.802865 0.292172
-0.712128 0.813138 0.203295
-0.714898 0.814624 0.189913
-0.706504 0.818915 0.190325
-0.705440 0.818358 0.198277
-0.717335 0.815620 0.174182
-0.708921 0.820250 0.174201
-0.719977 0.816990 0.160555
-0.714236 0.821506 0.155373
-0.718087 0.816595 -0.239113
-0.713184 0.813979 -0.251834
-0.706919 0.818903 -0.245891
-0.713113 0.820129 -0.234772
-0.714224 0.808133 -0.268942
-0.714355 0.830893 0.367242
-0.714371 0.832054 0.350779
-0.709538 0.836504 0.361763
-0.709561 0.836490 0.356185
-0.712073 0.822734 0.333038
-0.717044 0.818985 0.324860
-0.714055 0.825410 0.138979
-0.714058 0.828617 0.123433
-0.713286 0.831829 0.108677
-0.718246 0.832985 0.091755
-0.707123 0.835458 0.103502
-0.709781 0.836607 0.091619
-0.720852 0.834091 0.075213
-0.712387 0.837701 0.074926
-0.721646 0.834452 0.058962
-0.713175 0.838145 0.058722
-0.721978 0.834585 0.049117
-0.715399 0.838192 0.043019
-0.721815 0.834505 -0.127916
-0.720378 0.833828 -0.137537
-0.711919 0.838492 -0.137546
-0.715291 0.839228 -0.121973
-0.718601 0.832991 -0.153957
-0.710128 0.837416 -0.153961
-0.716549 0.831948 -0.170400
-0.708067 0.836217 -0.170406
-0.712734 0.830482 -0.186134
-0.706268 0.835213 -0.180224
-0.713977 0.826028 -0.203222
-0.714018 0.823204 -0.219825
-0.713977 0.840606 0.025460
-0.713963 0.841990 0.008894
-0.713976 0.842970 -0.007247
-0.713965 0.843501 -0.023714
-0.713940 0.843660 -0.040356
-0.713930 0.843593 -0.056379
-0.713926 0.843350 -0.072176
-0.713928 0.842999 -0.088471
-0.713941 0.842165 -0.104888
-0.699217 0.454339 0.173328
-0.691213 0.439827 0.174285
-0.689238 0.443429 0.183473
-0.691637 0.453122 0.186291
-0.692801 0.437655 0.157764
-0.700853 0.451689 0.157742
-0.700394 0.451773 0.141160
-0.692307 0.439378 0.141172
-0.690954 0.441557 0.124748
-0.699876 0.454407 0.124865
-0.689937 0.442863 0.108487
-0.697098 0.453156 0.108469
-0.699263 0.454700 0.091053
-0.690140 0.442598 0.092154
-0.690500 0.442269 0.075760
-0.698704 0.452823 0.075664
-0.698698 0.452739 0.059205
-0.690529 0.442448 0.059329
-0.698858 0.452347 0.042739
-0.690712 0.442486 0.042887
-0.691241 0.442226 0.026456
-0.699378 0.451438 0.026267
-0.699569 0.451086 0.009911
-0.691454 0.442040 0.010054
-0.699412 0.451351 -0.006370
-0.691303 0.441887 -0.006337
-0.699588 0.451057 -0.022805
-0.691451 0.441756 -0.022810
-0.691748 0.441795 -0.039347
-0.699932 0.450367 -0.039371
-0.691267 0.442343 -0.055677
-0.699459 0.450697 -0.055729
-0.698537 0.451632 -0.071959
-0.690359 0.443133 -0.071905
-0.698593 0.451626 -0.088382
-0.690401 0.443060 -0.088331
-0.690776 0.442673 -0.104787
-0.698982 0.451262 -0.104843
-0.690497 0.442849 -0.121126
-0.698694 0.451832 -0.121176
-0.698403 0.452485 -0.137491
-0.690216 0.442992 -0.137454
-0.698943 0.452053 -0.153885
-0.690746 0.442330 -0.153850
-0.691374 0.441590 -0.170269
-0.699565 0.451485 -0.170311
-0.691202 0.441733 -0.186678
-0.699346 0.451924 -0.186728
-0.699231 0.452315 -0.203149
-0.691113 0.441716 -0.203089
-0.691771 0.440756 -0.219560
-0.699916 0.451681 -0.219660
-0.700427 0.451100 -0.236153
-0.692275 0.440189 -0.236037
-0.692141 0.440534 -0.252518
-0.700252 0.451161 -0.252549
-0.692014 0.440776 -0.268974
-0.700125 0.451147 -0.268953
-0.700389 0.450747 -0.285359
-0.692253 0.440523 -0.285339
-0.700227 0.451031 -0.302114
-0.692107 0.440652 -0.302008
-0.691253 0.441458 -0.319823
-0.699355 0.452166 -0.320021
-0.690082 0.442915 -0.330111
-0.696020 0.454642 -0.332101
-0.702873 0.465200 0.178105
-0.696235 0.470211 0.190425
-0.704012 0.462849 0.108477
-0.704394 0.462283 0.119514
-0.704332 0.462408 0.095752
-0.700447 0.485970 0.193722
-0.691953 0.486751 0.205322
-0.689678 0.475227 0.200717
-0.692724 0.485976 -0.344689
-0.690071 0.475674 -0.343465
-0.695994 0.469962 -0.338371
-0.700780 0.485954 -0.340797
-0.694711 0.502375 0.220219
-0.689526 0.491997 0.220565
-0.689139 0.492683 0.231092
-0.691944 0.502194 0.237444
-0.699697 0.503277 0.203975
-0.703112 0.498461 0.195915
-0.695716 0.502383 -0.346108
-0.703855 0.502367 -0.342280
-0.700807 0.519168 0.238068
-0.690119 0.507520 0.250306
-0.694009 0.518508 0.255856
-0.701566 0.515613 0.219858
-0.702510 0.513889 0.208068
-0.698468 0.517430 -0.347071
-0.704939 0.511102 -0.342683
-0.696383 0.535783 0.272004
-0.691390 0.523799 0.267179
-0.702385 0.530511 0.255565
-0.704179 0.528054 0.244634
-0.702269 0.551570 0.277696
-0.690479 0.540933 0.284626
-0.694260 0.550723 0.289672
-0.691648 0.551573 -0.361852
-0.689702 0.541654 -0.359918
-0.695859 0.535759 -0.353569
-0.699807 0.551560 -0.355578
-0.693033 0.567532 0.305803
-0.690713 0.555638 0.301201
-0.702121 0.566450 0.289547
-0.704877 0.559917 0.280720
-0.692661 0.569557 -0.367296
-0.701806 0.567969 -0.356824
-0.700713 0.583784 0.304481
-0.689602 0.572665 0.316317
-0.692349 0.583416 0.319706
-0.703441 0.577896 0.295121
-0.699073 0.585085 -0.366091
-0.703258 0.580073 -0.357802
-0.690733 0.584397 -0.378082
-0.688624 0.576084 -0.375510
-0.691031 0.600738 0.330900
-0.689320 0.588141 0.328259
-0.699606 0.600688 0.317494
-0.703317 0.595222 0.308616
-0.696032 0.601758 -0.383361
-0.702245 0.596657 -0.370827
-0.700856 0.617177 0.321707
-0.692659 0.617117 0.333315
-0.701156 0.617177 -0.388122
-0.689834 0.606890 -0.394555
-0.692898 0.617618 -0.400430
-0.701981 0.633499 0.323579
-0.692579 0.635063 0.335932
-0.704009 0.626786 -0.391209
-0.701753 0.632731 -0.401823
-0.689808 0.623351 -0.412056
-0.694016 0.633083 -0.417328
-0.691174 0.632986 -0.435364
-0.688598 0.625258 -0.442121
-0.688597 0.625259 -0.441938
-0.689904 0.633128 -0.444947
-0.688589 0.649747 0.343503
-0.687799 0.641534 0.342574
-0.697475 0.650506 0.333102
-0.702977 0.645592 0.324815
-0.704653 0.641827 -0.407902
-0.702612 0.644516 -0.416713
-0.699601 0.650060 -0.432762
-0.691508 0.650248 -0.450717
-0.698624 0.666225 0.336586
-0.690559 0.666127 0.345772
-0.701774 0.665436 -0.437762
-0.692569 0.663529 -0.450896
-0.688563 0.657026 -0.458204
-0.688574 0.656218 -0.458179
-0.700104 0.682393 0.337469
-0.692023 0.682262 0.348162
-0.693343 0.680388 -0.447900
-0.701570 0.680654 -0.439150
-0.699785 0.698215 0.336206
-0.691073 0.698627 0.351850
-0.700185 0.695806 -0.438750
-0.691989 0.695730 -0.446697
-0.692901 0.713989 0.350859
-0.687981 0.704255 0.359559
-0.688862 0.714242 0.362571
-0.699858 0.714239 0.336828
-0.703735 0.704081 0.309243
-0.707218 0.704166 0.309254
-0.703705 0.704310 0.312560
-0.703740 0.706028 0.309236
-0.703699 0.706246 0.312506
-0.703653 0.703876 -0.329897
-0.704898 0.703891 -0.330217
-0.704903 0.703888 -0.329899
-0.703647 0.703878 -0.330214
-0.704900 0.704562 -0.330219
-0.703656 0.704548 -0.330216
-0.703666 0.704552 -0.329901
-0.696046 0.712159 -0.437984
-0.690233 0.706927 -0.445107
-0.699306 0.730788 0.350607
-0.693099 0.729729 0.368139
-0.701713 0.725902 0.339654
-0.691357 0.747303 0.508996
-0.689636 0.738663 0.498888
-0.688224 0.739856 0.506703
-0.698318 0.747358 0.499651
-0.700380 0.742635 0.483214
-0.692262 0.736659 0.483950
-0.702671 0.741227 0.471315
-0.696931 0.735514 0.467667
-0.703347 0.740608 0.448927
-0.692382 0.737060 0.436530
-0.697342 0.735357 0.453819
-0.700525 0.741994 0.436480
-0.689607 0.739183 0.423904
-0.695603 0.743552 0.417815
-0.696703 0.743935 0.383880
-0.691490 0.734989 0.378555
-0.701707 0.741115 0.367269
-0.702758 0.739594 0.355846
-0.696282 0.728416 -0.430407
-0.701402 0.734085 -0.425776
-0.697958 0.744801 -0.419056
-0.690821 0.736948 -0.428027
-0.703292 0.758877 0.505583
-0.697413 0.763056 0.510920
-0.705135 0.752657 -0.410400
-0.699015 0.760143 -0.404833
-0.694494 0.754049 -0.411987
-0.698018 0.777017 0.511092
-0.704349 0.781943 0.505934
-0.701628 0.794051 0.503303
-0.693420 0.794037 0.510015
-0.697837 0.775508 -0.384147
-0.697953 0.782479 -0.370268
-0.697735 0.770417 -0.394515
-0.696275 0.805796 0.498623
-0.690265 0.803580 0.507813
-0.702087 0.800367 0.284251
-0.697185 0.799449 0.271925
-0.691158 0.802398 0.277357
-0.697116 0.803755 0.289087
-0.698303 0.799624 0.255271
-0.703869 0.800648 0.241940
-0.697836 0.805951 0.236289
-0.692949 0.803531 0.249558
-0.698089 0.791710 -0.350918
-0.698081 0.798613 -0.338485
-0.698010 0.786882 -0.361965
-0.697048 0.811405 0.484612
-0.697015 0.816105 0.469368
-0.702193 0.817691 0.453051
-0.693869 0.820346 0.453066
-0.691467 0.819737 0.464197
-0.697724 0.815820 0.437418
-0.692739 0.819857 0.443384
-0.695643 0.808084 0.417564
-0.698403 0.805545 0.400610
-0.695891 0.809857 0.387691
-0.696279 0.822869 0.378697
-0.703206 0.818055 0.326726
-0.706083 0.818052 0.326635
-0.697608 0.815842 0.319456
-0.692477 0.819244 0.325071
-0.697211 0.822882 0.333334
-0.697541 0.809155 0.303974
-0.696430 0.813907 0.219010
-0.701490 0.816787 0.207151
-0.696429 0.820224 0.203747
-0.690438 0.819130 0.213278
-0.697570 0.817139 -0.257450
-0.697636 0.813958 -0.268875
-0.697685 0.809984 -0.285267
-0.697787 0.807225 -0.302170
-0.697886 0.805739 -0.320181
-0.697963 0.803453 -0.331785
-0.696249 0.831036 0.370903
-0.696224 0.837073 0.362718
-0.696357 0.831598 0.347508
-0.697329 0.822763 0.190454
-0.697481 0.825304 0.174219
-0.696283 0.830322 0.156117
-0.700367 0.832295 0.139194
-0.692028 0.836387 0.139180
-0.689961 0.835276 0.149509
-0.703047 0.833626 0.123472
-0.694761 0.837888 0.123479
-0.704581 0.834331 0.114390
-0.698411 0.838855 0.108761
-0.699689 0.832410 -0.203190
-0.703078 0.833788 -0.191115
-0.691522 0.835892 -0.203161
-0.697534 0.837513 -0.186090
-0.695821 0.830825 -0.218135
-0.689305 0.834807 -0.211491
-0.697472 0.825303 -0.236224
-0.697537 0.820399 -0.249306
-0.696229 0.837032 0.355733
-0.697365 0.842808 0.091798
-0.697359 0.845206 0.075134
-0.696128 0.847247 0.060010
-0.698865 0.846930 0.042319
-0.689850 0.851615 0.055529
-0.690677 0.852173 0.042590
-0.700038 0.847760 0.025297
-0.691839 0.852974 0.025742
-0.701228 0.848444 0.008520
-0.693033 0.853808 0.008803
-0.702352 0.849049 -0.007800
-0.694177 0.854516 -0.008060
-0.703022 0.849414 -0.024435
-0.694847 0.854930 -0.024907
-0.703143 0.849501 -0.041244
-0.694953 0.855050 -0.041566
-0.703205 0.849582 -0.056976
-0.695029 0.854995 -0.057075
-0.703152 0.849633 -0.072332
-0.694999 0.854678 -0.072287
-0.702589 0.849504 -0.088538
-0.694417 0.854044 -0.088475
-0.701326 0.849029 -0.104936
-0.693127 0.853209 -0.104869
-0.699630 0.848020 -0.121208
-0.691462 0.852316 -0.121176
-0.696279 0.847242 -0.137616
-0.690135 0.851617 -0.132201
-0.697371 0.843908 -0.153930
-0.697356 0.841046 -0.170364
-0.675254 0.404042 0.173194
-0.673047 0.395211 0.164169
-0.673051 0.395209 0.166988
-0.675882 0.403161 0.158174
-0.682361 0.420349 0.174244
-0.673680 0.409554 0.183866
-0.676012 0.420304 0.186925
-0.684030 0.420333 0.157697
-0.681814 0.420341 0.141032
-0.675105 0.407545 0.140798
-0.679315 0.420338 0.124604
-0.673808 0.409856 0.124458
-0.673039 0.411037 0.108433
-0.677712 0.420345 0.108437
-0.677372 0.420351 0.092154
-0.672710 0.411374 0.092186
-0.677308 0.420344 0.075768
-0.672581 0.411572 0.075804
-0.672522 0.411838 0.063462
-0.676253 0.418778 0.058530
-0.676390 0.418914 -0.169594
-0.672799 0.411669 -0.186644
-0.672652 0.411748 -0.174623
-0.677813 0.420351 -0.186674
-0.673015 0.411430 -0.203039
-0.678176 0.420352 -0.203073
-0.679416 0.420352 -0.219506
-0.673611 0.410348 -0.219456
-0.680218 0.420354 -0.235983
-0.674047 0.409360 -0.235918
-0.673931 0.409690 -0.252510
-0.679843 0.420352 -0.252550
-0.679396 0.420363 -0.269065
-0.673700 0.410374 -0.269042
-0.673716 0.410251 -0.285353
-0.679531 0.420377 -0.285387
-0.679430 0.420375 -0.301926
-0.673679 0.410247 -0.301841
-0.673281 0.410838 -0.319319
-0.678654 0.420368 -0.319532
-0.675400 0.420357 -0.331233
-0.672829 0.411508 -0.328713
-0.687357 0.431581 0.174257
-0.680089 0.437220 0.190751
-0.688315 0.429402 0.157737
-0.687404 0.431131 0.141121
-0.686149 0.433333 0.124688
-0.685244 0.434636 0.108439
-0.685127 0.434361 0.092127
-0.685169 0.434020 0.075731
-0.685194 0.434200 0.059314
-0.685158 0.434241 0.042895
-0.677075 0.420861 0.042976
-0.684999 0.433968 0.026469
-0.676919 0.421604 0.026571
-0.685140 0.433776 0.010029
-0.677061 0.421676 0.010119
-0.677458 0.421245 -0.006437
-0.685531 0.433633 -0.006428
-0.677206 0.422069 -0.022981
-0.685303 0.433520 -0.022919
-0.676335 0.423824 -0.039426
-0.684495 0.433562 -0.039428
-0.675805 0.424468 -0.055682
-0.683975 0.434101 -0.055727
-0.675655 0.424282 -0.071903
-0.683790 0.434892 -0.071944
-0.683650 0.434820 -0.088364
-0.675507 0.424107 -0.088316
-0.683577 0.434438 -0.104825
-0.675402 0.423777 -0.104761
-0.675644 0.423189 -0.121123
-0.683814 0.434618 -0.121178
-0.676152 0.422410 -0.137461
-0.684296 0.434761 -0.137497
-0.684783 0.434105 -0.153874
-0.676639 0.421485 -0.153841
-0.685350 0.433357 -0.170284
-0.685594 0.433493 -0.186691
-0.685767 0.433469 -0.203097
-0.686391 0.432499 -0.219549
-0.686761 0.431912 -0.236048
-0.686569 0.432258 -0.252593
-0.686395 0.432502 -0.269043
-0.686517 0.432243 -0.285382
-0.686484 0.432377 -0.302018
-0.686013 0.433180 -0.319783
-0.679867 0.437907 -0.335745
-0.684243 0.453161 0.194528
-0.673367 0.441942 0.201107
-0.675564 0.454128 0.206607
-0.675601 0.453170 -0.344665
-0.673111 0.443819 -0.343263
-0.683598 0.453143 -0.339459
-0.676419 0.468168 0.222811
-0.672628 0.460244 0.218640
-0.683411 0.469653 0.206292
-0.687001 0.464307 0.197389
-0.681142 0.469925 -0.346610
-0.686876 0.464686 -0.341906
-0.683610 0.486699 0.237667
-0.675227 0.473129 0.238112
-0.673202 0.476599 0.247860
-0.676178 0.485945 0.251690
-0.685126 0.483748 0.221072
-0.686371 0.481769 0.210665
-0.687380 0.496603 0.243732
-0.681710 0.501311 0.256989
-0.686739 0.512880 0.261745
-0.675910 0.506038 0.267668
-0.680786 0.518499 0.272938
-0.685683 0.530009 0.278063
-0.674715 0.524113 0.285512
-0.681159 0.534126 0.290583
-0.685953 0.530675 -0.357462
-0.675208 0.521862 -0.361430
-0.680564 0.517332 -0.356296
-0.679523 0.536527 -0.366199
-0.684281 0.550725 0.306263
-0.675874 0.539255 0.305563
-0.672436 0.542920 0.315081
-0.676398 0.551023 0.320563
-0.687691 0.544667 0.295560
-0.675298 0.551579 -0.378149
-0.673137 0.542393 -0.376042
-0.683308 0.551560 -0.370125
-0.676862 0.567370 0.335818
-0.674301 0.556080 0.332322
-0.685477 0.567497 0.320984
-0.687278 0.561726 0.312036
-0.679340 0.570618 -0.382767
-0.686303 0.565103 -0.372887
-0.683639 0.583371 0.334118
-0.672767 0.572391 0.344854
-0.674751 0.584339 0.348261
-0.687414 0.577236 0.325343
-0.688418 0.576078 -0.329538
-0.688811 0.576082 -0.329735
-0.688808 0.576080 -0.329547
-0.688419 0.576083 -0.329727
-0.688418 0.576383 -0.329732
-0.688807 0.576381 -0.329739
-0.688421 0.576376 -0.329547
-0.682777 0.584388 -0.386686
-0.672327 0.576122 -0.392740
-0.674688 0.584407 -0.395374
-0.685529 0.600786 0.339120
-0.676863 0.599335 0.352390
-0.686198 0.595869 -0.390267
-0.680208 0.601417 -0.401445
-0.680744 0.617121 0.350864
-0.672643 0.603785 0.359588
-0.673261 0.617062 0.359920
-0.687144 0.617163 0.341499
-0.685079 0.612351 -0.406217
-0.674238 0.606956 -0.413106
-0.679987 0.617741 -0.418411
-0.683359 0.618724 -0.448776
-0.674282 0.606941 -0.450779
-0.672786 0.608367 -0.442475
-0.679342 0.618711 -0.437149
-0.680730 0.617063 -0.465923
-0.674928 0.606147 -0.465943
-0.675642 0.616917 -0.480254
-0.673800 0.607237 -0.476940
-0.682355 0.634988 0.349213
-0.672996 0.633301 0.359846
-0.687651 0.630701 0.342366
-0.685871 0.627424 -0.431623
-0.685838 0.627407 -0.423589
-0.683716 0.632954 -0.465937
-0.687809 0.633041 -0.452988
-0.676510 0.632746 -0.480524
-0.681792 0.649693 0.351797
-0.673682 0.649571 0.360268
-0.688093 0.645548 -0.456585
-0.684088 0.649972 -0.464504
-0.675296 0.648445 -0.477829
-0.683354 0.666082 0.354024
-0.675246 0.665958 0.360993
-0.673161 0.664176 -0.475482
-0.681895 0.663080 -0.464827
-0.684808 0.682228 0.356365
-0.676691 0.682203 0.362552
-0.686916 0.667636 -0.457169
-0.676329 0.678420 -0.467086
-0.685527 0.680174 -0.456340
-0.671969 0.672072 -0.474362
-0.686308 0.693762 0.357927
-0.679641 0.698996 0.366441
-0.674967 0.695679 -0.462274
-0.683039 0.695715 -0.455066
-0.684533 0.714917 0.370822
-0.676464 0.715195 0.378429
-0.673070 0.704522 0.376308
-0.679378 0.711088 -0.450775
-0.672861 0.704589 -0.460324
-0.678064 0.733633 0.512789
-0.672848 0.722448 0.499789
-0.672837 0.722223 0.507897
-0.680969 0.730357 0.499364
-0.681499 0.728296 0.484746
-0.673402 0.722290 0.485275
-0.676543 0.719128 0.469435
-0.684732 0.726175 0.469361
-0.677261 0.718062 0.453003
-0.685495 0.726019 0.453026
-0.673999 0.721447 0.436249
-0.682213 0.728826 0.436404
-0.679941 0.732097 0.419247
-0.671999 0.723673 0.427458
-0.687351 0.723929 0.374127
-0.681248 0.730631 0.384030
