0.074374 -0.287272 0.028734
0.074027 -0.269329 0.561841
0.069307 -0.276200 0.030118
0.074376 -0.270908 0.032435
0.080290 -0.281269 0.031261
0.073983 -0.253180 0.561778
0.073700 -0.254782 0.034774
0.073959 -0.237284 0.562054
0.073655 -0.238772 0.036667
0.073976 -0.220730 0.562082
0.073780 -0.221429 0.043306
0.074009 -0.203919 0.561971
0.068432 -0.211084 0.046926
0.073791 -0.205636 0.051016
0.079310 -0.215398 0.048838
0.074005 -0.187756 0.561430
0.073624 -0.189308 0.054400
0.073982 -0.171673 0.560780
0.072885 -0.172145 0.052469
0.075018 -0.188638 -0.017472
0.070597 -0.183384 -0.010676
0.075092 -0.174570 -0.005264
0.081503 -0.180674 -0.014781
0.073978 -0.154998 0.560780
0.068481 -0.166815 0.041669
0.068485 -0.162152 0.041763
0.074284 -0.156343 0.056920
0.069746 -0.168189 0.025585
0.068909 -0.156722 0.024128
0.070337 -0.169710 0.009532
0.072209 -0.156477 0.009602
0.077861 -0.156308 -0.000657
0.073988 -0.138251 0.561084
0.075139 -0.141319 0.060643
0.081543 -0.147948 0.066565
0.081541 -0.149003 0.066556
0.074337 -0.138608 0.008417
0.066622 -0.139790 0.021159
0.078704 -0.143218 0.000005
0.074005 -0.121885 0.561300
0.073618 -0.127839 0.053717
0.077888 -0.127789 0.012902
0.072944 -0.126881 0.026826
0.074026 -0.105444 0.561533
0.073626 -0.124820 0.041879
0.074052 -0.088728 0.561832
0.074067 -0.072150 0.562892
0.074061 -0.055821 0.564875
0.074076 -0.039406 0.566697
0.074135 -0.022853 0.568093
0.074132 -0.006516 0.568614
0.074069 0.009458 0.568162
0.067977 0.000706 0.301392
0.065038 0.002003 0.312391
0.058755 -0.000592 0.305886
0.073598 0.005127 0.306048
0.073817 0.005167 -0.003630
0.073770 -0.001890 -0.011793
0.074050 0.025583 0.567626
0.074261 0.020893 0.354103
0.069161 0.016574 0.348464
0.074377 0.019028 0.075444
0.069338 0.016138 0.069885
0.074058 0.041949 0.567253
0.066332 0.037125 0.510556
0.077280 0.031207 0.510211
0.072550 0.025933 0.510809
0.072493 0.042503 0.510022
0.073679 0.029210 0.367875
0.073645 0.039663 0.376172
0.074027 0.057709 0.566548
0.073624 0.047699 0.380660
0.073616 0.058467 0.383634
0.073959 0.073152 0.565496
0.073576 0.053201 0.510122
0.073559 0.061025 0.511215
0.073589 0.074278 0.385850
0.068719 0.063508 0.140720
0.067093 0.064317 0.150101
0.073011 0.068916 0.156327
0.076913 0.066779 0.140846
0.068184 0.063748 0.128798
0.073665 0.066890 0.123806
0.068908 0.062959 0.091344
0.066127 0.064570 0.101581
0.077095 0.066833 0.091405
0.072427 0.067343 0.107436
0.069903 0.061952 0.074617
0.078089 0.067067 0.074720
0.067375 0.063211 0.057725
0.075562 0.068659 0.057852
0.067473 0.062925 0.041066
0.075649 0.068929 0.041197
0.069500 0.060475 0.024776
0.077671 0.068497 0.024847
0.070499 0.059740 0.008676
0.078675 0.068170 0.008663
0.071080 0.060933 -0.007373
0.079271 0.067665 -0.007423
0.072172 0.061005 -0.023624
0.080372 0.067091 -0.023653
0.075025 0.061088 -0.039230
0.081325 0.066663 -0.033154
0.074765 0.061654 -0.056952
0.071025 0.062719 -0.073839
0.080867 0.067250 -0.062645
0.079189 0.068269 -0.073786
0.068923 0.064302 -0.090044
0.077093 0.069532 -0.090019
0.067149 0.065507 -0.102372
0.073062 0.070036 -0.107011
0.073931 0.089256 0.564748
0.073568 0.090189 0.388339
0.069606 0.081065 0.199227
0.074512 0.079497 0.191267
0.074507 0.086562 0.205451
0.080535 0.082579 0.197562
0.073680 0.074755 0.173710
0.073743 0.073978 -0.122465
0.074523 0.078202 -0.138058
0.070473 0.078881 -0.155904
0.078627 0.085469 -0.155915
0.080467 0.083908 -0.142875
0.067640 0.081258 -0.172550
0.075790 0.088049 -0.172497
0.065804 0.082710 -0.181311
0.072597 0.091918 -0.187439
0.073933 0.105645 0.564320
0.075128 0.107588 0.391614
0.073630 0.095450 0.217103
0.068486 0.096419 -0.201071
0.074520 0.106516 -0.206895
0.079373 0.101315 -0.193564
0.073893 0.121731 0.563982
0.071721 0.122222 0.390513
0.081633 0.113940 0.395747
0.079928 0.122350 0.397613
0.073616 0.112260 0.234026
0.073636 0.104082 0.225405
0.069660 0.111731 -0.217587
0.074584 0.122849 -0.221331
0.080563 0.116941 -0.212727
0.073861 0.137861 0.564027
0.068754 0.138325 0.391054
0.076970 0.138415 0.401008
0.069182 0.129094 0.248490
0.074236 0.123362 0.243098
0.074250 0.137616 0.250436
0.080135 0.131622 0.247277
0.073794 0.139785 -0.227488
0.073888 0.154378 0.564564
0.066755 0.149195 0.393236
0.071687 0.153640 0.405472
0.073778 0.156114 -0.228033
0.073914 0.171001 0.564814
0.080546 0.168909 0.428579
0.076958 0.158847 0.419894
0.080543 0.162673 0.428571
0.073115 0.172235 0.420308
0.065689 0.164415 0.410835
0.073884 0.173372 -0.229592
0.073900 0.187386 0.564411
0.073880 0.187540 0.415798
0.068522 0.179286 -0.231149
0.073892 0.187810 -0.233093
0.079381 0.181557 -0.230636
0.073883 0.203788 0.564048
0.068576 0.192295 0.410138
0.068564 0.201166 0.410010
0.073868 0.206033 0.412648
0.073765 0.205655 -0.237162
0.073886 0.220537 0.564018
0.073597 0.221573 0.416094
0.074109 0.221949 0.245859
0.079941 0.211432 0.246590
0.074138 0.205321 0.248123
0.068998 0.216578 0.247395
0.073744 0.222161 -0.238045
0.073889 0.237225 0.563801
0.073832 0.238199 0.414426
0.073735 0.238606 -0.239419
0.073890 0.253584 0.563116
0.068526 0.243253 0.407631
0.072941 0.254955 0.403199
0.079481 0.249091 0.411649
0.068815 0.242027 0.248126
0.073982 0.237194 0.245776
0.074025 0.254272 0.250391
0.079738 0.248494 0.246523
0.073760 0.254996 -0.243257
0.073930 0.270114 0.562905
0.066375 0.260895 0.394881
0.068366 0.271385 0.394215
0.076600 0.271617 0.399343
0.073803 0.267556 -0.246506
0.074006 0.287026 0.563479
0.071279 0.288014 0.393245
0.079472 0.288127 0.397187
0.073837 0.275824 -0.248527
0.073857 0.287911 -0.251171
0.074006 0.303513 0.563280
0.074974 0.304379 0.392100
0.081220 0.298848 0.395826
0.073873 0.304144 -0.254340
0.070040 0.299446 -0.424244
0.077729 0.293928 -0.433434
0.074781 0.290320 -0.420262
0.069602 0.299465 -0.433511
0.074805 0.290489 -0.449604
0.066700 0.298209 -0.449743
0.068446 0.300306 -0.466126
0.076555 0.291377 -0.465975
0.079691 0.294559 -0.476329
0.074434 0.306168 -0.481717
0.073920 0.319432 0.562037
0.073770 0.320925 0.387554
0.081044 0.316342 0.247113
0.081028 0.309620 0.247183
0.074873 0.304228 0.251914
0.074878 0.321240 0.250055
0.073857 0.320014 -0.257501
0.074306 0.322566 -0.494848
0.080046 0.311625 -0.491944
0.069150 0.317541 -0.487133
0.073890 0.335818 0.561586
0.078408 0.336496 0.510214
0.079695 0.326280 0.510317
0.074025 0.320744 0.511486
0.070247 0.336670 0.511021
0.072435 0.337965 0.383183
0.073833 0.336107 -0.258703
0.073919 0.352637 0.562056
0.069650 0.353050 0.510937
0.077806 0.352876 0.510178
0.066099 0.343856 0.378324
0.067461 0.353884 0.377786
0.075649 0.353863 0.382661
0.078022 0.353024 0.245336
0.079937 0.339892 0.246490
0.074233 0.335424 0.249397
0.069868 0.353294 0.249404
0.073800 0.352546 -0.257915
0.073581 0.354470 -0.512614
0.078731 0.342593 -0.509055
0.073512 0.337541 -0.503016
0.067858 0.348802 -0.505800
0.073895 0.368921 0.562057
0.078711 0.369121 0.510236
0.070556 0.369290 0.511045
0.071011 0.370122 0.375982
0.079196 0.370130 0.380258
0.067576 0.369631 0.248045
0.075732 0.369349 0.243863
0.073797 0.368733 -0.259630
0.073836 0.384830 0.561628
0.080123 0.385239 0.510312
0.071968 0.385407 0.511237
0.075261 0.384870 0.373853
0.081735 0.378743 0.378565
0.065993 0.378624 0.246926
0.072384 0.384436 0.242480
0.073650 0.384580 -0.262920
0.072540 0.368760 -0.434369
0.060454 0.373575 -0.438507
0.066273 0.362698 -0.450096
0.071892 0.367737 -0.468221
0.067225 0.379522 -0.473903
0.073840 0.401185 0.561509
0.069493 0.401570 0.510947
0.077660 0.401382 0.510024
0.075205 0.403433 0.373279
0.068090 0.389910 -0.264475
0.067865 0.401153 -0.264418
0.076007 0.401021 -0.263274
0.073092 0.385160 -0.480630
0.062172 0.390200 -0.477500
0.073493 0.401145 -0.488573
0.074629 0.404526 -0.545218
0.080434 0.394365 -0.542320
0.074575 0.388302 -0.534881
0.069553 0.399327 -0.539268
0.073876 0.417765 0.561468
0.066388 0.411218 0.510577
0.072526 0.416913 0.509423
0.071700 0.418726 0.373835
0.079888 0.418714 0.381582
0.081626 0.409653 0.378580
0.066154 0.410794 -0.264163
0.072464 0.416668 -0.262878
0.073674 0.397905 -0.426215
0.058590 0.403792 -0.427590
0.064785 0.409847 -0.425269
0.073634 0.405996 -0.424427
0.067901 0.413866 -0.490582
0.073860 0.433970 0.560789
0.068273 0.434837 0.375625
0.076368 0.433926 0.387185
0.073595 0.434508 0.227187
0.078924 0.420997 0.229146
0.073613 0.416743 0.233148
0.068039 0.429568 0.231865
0.073796 0.433671 -0.262147
0.073526 0.418928 -0.494765
0.064466 0.424797 -0.492626
0.073769 0.434620 -0.499004
0.061241 0.434698 -0.494221
0.074162 0.437018 -0.562394
0.079612 0.426321 -0.559877
0.074107 0.420607 -0.554060
0.068696 0.431531 -0.557339
0.073831 0.450060 0.560014
0.079427 0.450064 0.413729
0.080254 0.438797 0.402842
0.081648 0.441395 0.411426
0.074452 0.450432 0.402749
0.068471 0.449883 0.386656
0.066145 0.444050 0.377156
0.073829 0.449836 -0.261141
0.074746 0.451603 -0.504270
0.073852 0.466386 0.559991
0.067959 0.461795 0.402701
0.074716 0.467468 0.418599
0.066340 0.459767 0.392508
0.073833 0.466181 -0.258644
0.069138 0.467259 -0.506811
0.075689 0.470090 -0.578031
0.082210 0.461287 -0.575821
0.075713 0.454803 -0.570786
0.071368 0.464797 -0.573966
0.073880 0.482769 0.560110
0.075096 0.481946 0.422306
0.081454 0.476102 0.426770
0.081460 0.473328 0.426837
0.065738 0.475078 0.213800
0.076616 0.470904 0.212114
0.072207 0.466073 0.215575
0.072203 0.481261 0.210994
0.073820 0.482562 -0.255749
0.065952 0.476118 -0.508361
0.073860 0.499045 0.559667
0.073691 0.498630 0.418803
0.073805 0.498879 -0.254970
0.067062 0.477553 -0.410038
0.057726 0.483361 -0.412245
0.063403 0.488542 -0.408084
0.074297 0.483879 -0.401700
0.062713 0.487090 -0.510508
0.073698 0.483608 -0.516520
0.070627 0.500085 -0.521580
0.073849 0.515330 0.559170
0.072182 0.516053 0.413826
0.074735 0.515145 -0.258008
0.067373 0.511977 -0.524229
0.073602 0.518407 -0.595421
0.078616 0.506902 -0.593477
0.073505 0.501785 -0.590149
0.067611 0.512502 -0.591457
0.073878 0.531724 0.559159
0.065780 0.522232 0.409888
0.067304 0.531325 0.409242
0.075467 0.531310 0.412506
0.070713 0.531482 -0.257674
0.062842 0.531601 -0.249903
0.066628 0.509060 -0.393329
0.057557 0.515017 -0.397563
0.063176 0.520155 -0.389159
0.069418 0.514887 -0.384212
0.064665 0.522836 -0.526492
0.073226 0.516944 -0.530563
0.074127 0.532054 -0.537385
0.062555 0.532571 -0.528587
0.073888 0.548099 0.558836
0.073256 0.547582 0.406608
0.078481 0.542057 0.411072
0.065840 0.524669 0.212753
0.058088 0.531000 0.208056
0.064008 0.535542 0.216402
0.067912 0.530713 0.222177
0.062131 0.547928 -0.251574
0.068061 0.547844 -0.259006
0.066577 0.525712 -0.378609
0.059804 0.531465 -0.384031
0.063641 0.536896 -0.372686
0.068345 0.531641 -0.368454
0.059799 0.548674 -0.531128
0.069501 0.548588 -0.539264
0.073839 0.564408 0.557584
0.073019 0.564622 0.397424
0.067815 0.548209 0.239920
0.062854 0.548348 0.222650
0.064834 0.553872 0.234633
0.066403 0.542992 0.228437
0.066313 0.561071 -0.260601
0.061953 0.565734 -0.254950
0.070464 0.549621 -0.320883
0.064445 0.554525 -0.336124
0.065390 0.556206 -0.327523
0.068550 0.546224 -0.336371
0.062328 0.551284 -0.352934
0.066866 0.542943 -0.353221
0.065888 0.540939 -0.362764
0.067886 0.564764 -0.540406
0.073272 0.580252 0.556370
0.067150 0.573329 0.393605
0.069004 0.565136 0.286143
0.064060 0.569613 0.269522
0.064915 0.571283 0.280876
0.068417 0.561368 0.269986
0.063466 0.567363 0.254121
0.066986 0.559119 0.254875
0.063259 0.563500 0.239353
0.065968 0.557375 0.245290
0.067364 0.565626 -0.269338
0.065350 0.572031 -0.262944
0.065734 0.573223 -0.274725
0.062259 0.579502 -0.269905
0.068173 0.564867 -0.303622
0.063243 0.565016 -0.321314
0.064471 0.570701 -0.309360
0.066819 0.559734 -0.316801
0.066720 0.575803 -0.541274
0.067545 0.585376 0.555572
0.070875 0.597267 0.555200
0.079063 0.597205 0.556062
0.072433 0.579131 0.384477
0.066785 0.590299 0.378584
0.070300 0.582077 0.318766
0.064123 0.585254 0.303468
0.065340 0.588562 0.312514
0.067397 0.577039 0.302862
0.065851 0.573326 0.291947
0.062496 0.579529 0.286461
0.061843 0.582128 -0.288182
0.065980 0.573906 -0.288249
0.061229 0.579865 -0.304130
0.065834 0.573674 -0.299075
0.064365 0.586675 -0.543525
0.072896 0.581180 -0.548628
0.074268 0.595831 -0.554947
0.062199 0.597252 -0.545659
0.075164 0.612219 0.553976
0.081673 0.605612 0.555878
0.069198 0.593424 0.369695
0.064223 0.603782 0.353887
0.070177 0.595594 0.353955
0.068727 0.595040 0.337644
0.064301 0.603233 0.337816
0.067128 0.592662 0.323980
0.063460 0.597664 0.319610
0.061113 0.613567 -0.546673
0.074221 0.614917 -0.555716
0.073744 0.629937 0.550859
0.062961 0.629918 -0.545003
0.073836 0.629974 -0.552106
0.073726 0.646333 0.548279
0.072356 0.646955 -0.547943
0.064777 0.641814 -0.543594
0.073803 0.662858 0.545665
0.066929 0.662697 -0.542048
0.065897 0.652799 -0.542776
0.073320 0.648169 -0.596382
0.067178 0.653244 -0.591121
0.068607 0.664331 -0.590123
0.076949 0.664268 -0.596397
0.073841 0.679298 0.542351
0.067520 0.679206 -0.541956
0.071594 0.680469 -0.586981
0.079737 0.680367 -0.593595
0.073849 0.690513 0.539860
0.066714 0.688772 -0.542766
0.075708 0.694335 -0.582944
0.081960 0.688837 -0.591278
0.073774 0.698894 0.536512
0.073666 0.712002 0.531021
0.073599 0.694756 -0.551758
0.070856 0.698196 -0.568517
0.079459 0.713389 -0.552078
0.076222 0.713134 -0.568603
0.079040 0.713378 -0.579119
0.073646 0.725943 0.525627
0.066119 0.720068 -0.526239
0.067013 0.729214 -0.525837
0.078026 0.729329 -0.552151
0.081426 0.719462 -0.542941
0.080680 0.729327 -0.541779
0.077164 0.729490 -0.568121
0.079702 0.729600 -0.577044
0.073629 0.734074 0.520333
0.074112 0.745165 0.511333
0.067026 0.738917 -0.526064
0.080131 0.746184 -0.539079
0.077444 0.745959 -0.552169
0.079229 0.746757 -0.568042
0.080669 0.742225 -0.574525
0.068952 0.750762 0.504865
0.074015 0.760759 0.501685
0.079961 0.754604 0.507176
0.067016 0.738947 -0.527893
0.079254 0.762979 -0.534684
0.076237 0.762471 -0.551416
0.079282 0.761685 -0.564106
0.073699 0.777928 0.495128
0.078565 0.778916 -0.525176
0.081671 0.768627 -0.526662
0.072967 0.778980 -0.535324
0.074464 0.778558 -0.550043
0.079704 0.778028 -0.560722
0.073788 0.790763 0.491600
0.072850 0.794628 -0.521215
0.067514 0.794688 -0.533803
0.074113 0.794401 -0.548442
0.080799 0.794203 -0.557942
0.073816 0.799049 0.487301
0.073607 0.811253 0.478702
0.073733 0.806109 -0.513032
0.077170 0.809123 -0.547313
0.068137 0.810549 -0.534874
0.081661 0.802840 -0.556163
0.068011 0.816953 0.470078
0.073398 0.826928 0.464423
0.078991 0.821210 0.474912
0.073699 0.814317 -0.506868
0.073143 0.826091 -0.500313
0.078740 0.820731 -0.541686
0.073408 0.823460 -0.530601
0.067991 0.832481 0.454345
0.073555 0.842503 0.448742
0.078966 0.837539 0.459375
0.067285 0.831294 -0.490496
0.068774 0.842414 -0.484160
0.073455 0.831194 -0.517336
0.075031 0.845145 0.432537
0.068924 0.859981 0.428277
0.065554 0.851445 -0.461046
0.065756 0.859764 -0.458788
0.066913 0.869632 0.425476
0.065672 0.868494 -0.456948
0.057470 0.874988 -0.451525
0.068147 0.856585 -0.482524
0.066691 0.860859 -0.467613
0.066993 0.852983 -0.498353
0.065559 0.851369 -0.506707
0.067765 0.875576 0.414500
0.065866 0.884496 0.408421
0.065668 0.868456 -0.461397
0.055567 0.874866 -0.462335
0.066949 0.886220 0.399765
0.067360 0.887918 0.383376
0.066233 0.886290 0.368446
0.065588 0.884482 0.360923
0.060122 0.890984 0.353539
0.081789 -0.983409 0.147771
0.078619 -0.982258 0.158546
0.073395 -0.983852 0.153851
0.087513 -0.976200 0.154346
0.089751 -0.958821 0.221249
0.079216 -0.966151 0.224010
0.073760 -0.970338 0.218923
0.081737 -0.967829 0.213157
0.088799 -0.946264 0.271751
0.081372 -0.950625 0.277497
0.074967 -0.955236 0.270866
0.082575 -0.952152 0.266997
0.089960 -0.925710 0.336671
0.079510 -0.932052 0.338239
0.074007 -0.937903 0.333114
0.081834 -0.934185 0.327361
0.082280 -0.937528 0.134343
0.083428 -0.938116 0.122383
0.088545 -0.933496 0.140285
0.091624 -0.934073 0.122336
0.085165 -0.938833 0.104910
0.093380 -0.934943 0.104790
0.087079 -0.939564 0.088628
0.095300 -0.935799 0.088524
0.087209 -0.939644 0.072628
0.095447 -0.935879 0.072536
0.085558 -0.939003 0.056461
0.093782 -0.935080 0.056316
0.083668 -0.938102 0.045025
0.089445 -0.933476 0.039414
0.090357 -0.909730 0.369892
0.079605 -0.915231 0.373489
0.084354 -0.919105 0.363326
0.085791 -0.922437 0.254573
0.084799 -0.921861 0.266059
0.090164 -0.915757 0.270719
0.094006 -0.917601 0.254400
0.085434 -0.922528 0.237720
0.093667 -0.917280 0.237668
0.089705 -0.923082 0.220283
0.095197 -0.918520 0.224914
0.089695 -0.925537 0.205219
0.089713 -0.925670 0.188899
0.089750 -0.925835 0.172764
0.089751 -0.929140 0.156991
0.089519 -0.925320 0.022255
0.083780 -0.922047 0.013231
0.089447 -0.912839 0.009279
0.094768 -0.918644 0.016637
0.091107 -0.894326 0.386936
0.079685 -0.899521 0.390602
0.085370 -0.904389 0.380073
0.089411 -0.907486 0.284634
0.083538 -0.905121 0.294922
0.094486 -0.902466 0.288986
0.089315 -0.895624 0.302107
0.089867 -0.900812 0.001078
0.082097 -0.884903 0.408894
0.077794 -0.876346 0.421397
0.088588 -0.875073 0.413316
0.084139 -0.888802 0.312331
0.089719 -0.881991 0.319280
0.095094 -0.886345 0.309321
0.089834 -0.892466 -0.004366
0.089869 -0.881924 -0.011369
0.081441 -0.867514 0.426146
0.090108 -0.864185 0.423277
0.089904 -0.873020 0.333557
0.089887 -0.873861 -0.017571
0.089914 -0.863180 -0.024342
0.090160 -0.856010 0.430372
0.079022 -0.848355 0.440443
0.090628 -0.842981 0.439127
0.089901 -0.867612 0.341717
0.089993 -0.859488 0.350872
0.090373 -0.846947 -0.031645
0.085555 -0.837390 0.444559
0.077698 -0.826781 0.454923
0.090748 -0.827634 0.448483
0.089994 -0.843018 0.362820
0.090013 -0.851352 0.357863
0.085158 -0.841638 -0.034863
0.090352 -0.828677 -0.035264
0.096173 -0.833337 -0.033449
0.091740 -0.811516 0.456267
0.081482 -0.817841 0.457509
0.090275 -0.828609 0.371074
0.084839 -0.822316 0.376096
0.090233 -0.814264 0.381888
0.095831 -0.820436 0.374861
0.089972 -0.817847 -0.034998
0.091105 -0.794322 0.466196
0.077065 -0.797759 0.470978
0.087364 -0.806893 0.460331
0.089988 -0.809766 -0.033859
0.090037 -0.797455 -0.032892
0.089870 -0.777445 0.478100
0.083841 -0.786799 0.474481
0.090059 -0.796065 0.396907
0.090083 -0.804175 0.391224
0.090044 -0.781059 -0.031840
0.090630 -0.765572 0.486919
0.081047 -0.768504 0.489507
0.090046 -0.764668 -0.030699
0.090617 -0.757422 0.492905
0.090425 -0.744072 0.501394
0.090106 -0.771775 0.408088
0.090088 -0.763538 0.412097
0.089644 -0.747726 -0.031327
0.089650 -0.761687 -0.061187
0.089604 -0.769924 -0.064909
0.090336 -0.728512 0.509795
0.084739 -0.738177 0.507388
0.084076 -0.740951 0.428938
0.089765 -0.747025 0.422413
0.095076 -0.738232 0.426833
0.089727 -0.732061 0.433023
0.086199 -0.743221 -0.041046
0.094329 -0.737499 -0.041001
0.094835 -0.737646 -0.032128
0.090554 -0.748291 -0.053043
0.096423 -0.739078 -0.049396
0.089578 -0.710599 0.518530
0.083453 -0.704289 0.523428
0.089535 -0.694963 0.524715
0.089846 -0.708589 0.445982
0.089880 -0.716906 0.442005
0.090446 -0.679008 0.528675
0.090467 -0.662597 0.533952
0.089823 -0.687252 0.459758
0.089895 -0.678803 0.466683
0.081961 -0.654115 0.539395
0.090515 -0.651450 0.538353
0.090545 -0.643289 0.540740
0.090544 -0.629751 0.543069
0.089903 -0.648731 0.476459
0.089907 -0.640432 0.477929
0.090528 -0.613349 0.545287
0.090537 -0.596936 0.548585
0.089922 -0.616630 0.491343
0.089938 -0.608389 0.495303
0.090567 -0.580520 0.552505
0.080961 -0.570490 0.555744
0.090017 -0.564660 0.554928
0.087684 -0.547769 0.556488
0.084171 -0.559606 0.556040
0.092081 -0.532949 0.557616
0.090565 -0.514943 0.559938
0.082962 -0.527338 0.014609
0.089145 -0.517959 0.015159
0.090535 -0.498599 0.560480
0.089879 -0.519602 0.509849
0.089907 -0.511368 0.511142
0.090140 -0.502000 0.015835
0.090506 -0.482256 0.560541
0.090154 -0.485697 0.016070
0.090539 -0.465800 0.561327
0.090196 -0.468964 0.017512
0.090556 -0.449376 0.562270
0.090219 -0.452364 0.018945
0.090504 -0.433164 0.562711
0.090179 -0.436272 0.019254
0.090462 -0.416878 0.562805
0.090151 -0.420040 0.019734
0.090491 -0.400325 0.562848
0.090179 -0.403330 0.021324
0.090523 -0.383864 0.562833
0.090229 -0.386715 0.022558
0.090522 -0.367631 0.562714
0.090274 -0.370471 0.022892
0.090534 -0.351220 0.562463
0.090314 -0.353940 0.023868
0.090583 -0.334605 0.562027
0.090349 -0.336843 0.025968
0.090585 -0.318266 0.562037
0.090331 -0.320356 0.027339
0.090530 -0.302260 0.562382
0.090274 -0.304560 0.027856
0.090484 -0.285922 0.562067
0.090233 -0.290900 0.029551
0.090453 -0.269264 0.561447
0.090199 -0.282339 0.031499
0.090171 -0.271374 0.034024
0.090437 -0.253040 0.561623
0.090129 -0.254996 0.037187
0.090422 -0.237052 0.562208
0.090091 -0.238906 0.040444
0.090425 -0.220539 0.562262
0.090074 -0.225682 0.045198
0.090439 -0.203822 0.562024
0.090064 -0.217285 0.049373
0.090051 -0.205834 0.053622
0.090429 -0.187684 0.561688
0.090015 -0.189674 0.056060
0.090406 -0.171605 0.561202
0.090495 -0.172463 0.052913
0.090404 -0.154951 0.561058
0.089120 -0.156415 0.056915
0.081925 -0.180679 -0.014780
0.089489 -0.173127 -0.005996
0.090420 -0.138220 0.561094
0.081986 -0.149011 0.066553
0.081989 -0.147957 0.066562
0.090438 -0.121826 0.560883
0.088440 -0.141661 0.060315
0.090011 -0.128752 0.053312
0.085257 -0.143336 0.000012
0.091392 -0.138601 0.008704
0.090454 -0.105361 0.560787
0.090018 -0.125644 0.041847
0.091217 -0.127246 0.026052
0.086570 -0.127968 0.012816
0.090472 -0.088674 0.560990
0.090482 -0.072117 0.561873
0.090477 -0.055770 0.563517
0.090495 -0.039347 0.565238
0.090552 -0.022814 0.566813
0.090558 -0.006442 0.568074
0.090500 0.009690 0.568476
0.083261 0.000459 -0.013308
0.090429 0.009749 -0.006621
0.090481 0.025952 0.567701
0.083846 0.016155 0.333775
0.080093 0.018844 0.344747
0.074252 0.013850 0.338639
0.091095 0.026620 0.337447
0.084790 0.014816 0.054096
0.080262 0.017581 0.065761
0.074390 0.012504 0.059305
0.090243 0.020220 0.059145
0.090492 0.042379 0.566983
0.091013 0.041826 0.371652
0.087337 0.031622 0.365799
0.083311 0.032892 0.184911
0.078925 0.034774 0.195747
0.073558 0.030950 0.190060
0.090324 0.041237 0.190877
0.090468 0.058252 0.566490
0.086565 0.058813 0.382044
0.083730 0.048926 0.380405
0.090404 0.073717 0.565671
0.090039 0.054001 0.510085
0.090013 0.061936 0.511040
0.091040 0.074083 0.384194
0.083901 0.065695 -0.051270
0.083885 0.065615 -0.044158
0.089718 0.070877 -0.057007
0.089702 0.069998 -0.039374
0.090377 0.089761 0.564916
0.089999 0.090733 0.390039
0.090934 0.075519 0.192098
0.090128 0.076008 0.173773
0.090131 0.071778 0.157313
0.090130 0.068452 0.140808
0.090117 0.069467 0.124356
0.090110 0.070814 0.107863
0.090121 0.068898 0.091287
0.090126 0.070945 0.074593
0.091084 0.077119 0.057640
0.088691 0.077211 0.041179
0.096911 0.081780 0.041103
0.097206 0.081617 0.051914
0.089317 0.076796 0.024636
0.097516 0.081654 0.024432
0.089718 0.076478 0.008399
0.097907 0.081788 0.008184
0.091639 0.076521 -0.006621
0.098104 0.081969 -0.000794
0.090181 0.072791 -0.023737
0.090218 0.075025 -0.073787
0.091522 0.078575 -0.090436
0.088130 0.079115 -0.106127
0.096338 0.084313 -0.106382
0.097870 0.083419 -0.096136
0.084695 0.081094 -0.122565
0.092893 0.085946 -0.122725
0.082305 0.082536 -0.131733
0.088736 0.087788 -0.138103
0.090378 0.106111 0.564302
0.088584 0.107967 0.393778
0.089726 0.087205 0.205369
0.090072 0.096109 0.215943
0.084000 0.082671 0.197555
0.091161 0.094245 -0.156232
0.086194 0.096292 -0.172532
0.094391 0.102023 -0.172797
0.097288 0.100090 -0.162099
0.083191 0.098276 -0.182500
0.090663 0.107200 -0.190055
0.090347 0.122061 0.563784
0.088592 0.122236 0.398737
0.082157 0.113954 0.395746
0.090101 0.107883 0.225280
0.084641 0.114021 0.232241
0.090121 0.121827 0.237228
0.095634 0.116005 0.230623
0.087157 0.112276 -0.201762
0.091660 0.119249 -0.206844
0.098111 0.115653 -0.197544
0.090309 0.138068 0.563627
0.090006 0.138560 0.405298
0.090224 0.128301 -0.218022
0.090239 0.140024 -0.224812
0.090310 0.154601 0.564099
0.091387 0.153639 0.409464
0.090096 0.134036 0.246203
0.090075 0.142089 0.249482
0.090198 0.156368 -0.227534
0.090322 0.171286 0.564354
0.082966 0.168955 0.428579
0.082970 0.162700 0.428572
0.090166 0.172835 -0.228831
0.090319 0.187704 0.563856
0.090380 0.172679 0.420317
0.091398 0.189765 0.415749
0.090184 0.181801 -0.230718
0.090323 0.204151 0.563425
0.091417 0.203630 0.413140
0.090210 0.190152 -0.233894
0.090215 0.206026 -0.237865
0.090344 0.220970 0.563470
0.090049 0.221980 0.417510
0.090210 0.222514 -0.238651
0.090356 0.237654 0.563315
0.090066 0.238721 0.416619
0.090212 0.238887 -0.239865
0.090351 0.253915 0.562714
0.090113 0.249900 0.411732
0.090237 0.255177 -0.243527
0.090368 0.270333 0.562594
0.090132 0.258147 0.408103
0.090164 0.271635 0.403218
0.090091 0.256999 0.249128
0.090081 0.248730 0.246345
0.090281 0.267592 -0.246665
0.090417 0.287096 0.563249
0.090180 0.287999 0.398929
0.090286 0.275770 -0.248687
0.090282 0.287802 -0.251425
0.090086 0.286306 -0.433391
0.092570 0.277291 -0.449468
0.095467 0.279123 -0.438599
0.084348 0.282247 -0.449514
0.085731 0.283154 -0.465962
0.093930 0.277940 -0.465989
0.097320 0.280067 -0.474918
0.091218 0.289030 -0.478150
0.090407 0.303474 0.563181
0.090195 0.299206 0.396074
0.090287 0.303899 -0.254352
0.090326 0.319361 0.562018
0.090171 0.307406 0.394123
0.090170 0.320744 0.391466
0.090272 0.319680 -0.256891
0.090299 0.335709 0.561668
0.090162 0.337193 0.388875
0.089453 0.320810 0.247937
0.084647 0.316224 0.247102
0.089346 0.334913 0.245939
0.094256 0.325372 0.246990
0.083305 0.328768 0.247606
0.090249 0.335753 -0.257757
0.084480 0.331607 -0.506174
0.095413 0.328323 -0.508010
0.090069 0.322416 -0.502526
0.090108 0.337569 -0.511052
0.090327 0.352495 0.562224
0.090169 0.353694 0.387109
0.090221 0.352199 -0.257002
0.090643 0.337961 -0.433866
0.080303 0.343155 -0.449810
0.080884 0.343898 -0.440669
0.085196 0.334760 -0.449807
0.090769 0.338229 -0.465673
0.080752 0.343885 -0.458876
0.085947 0.353538 -0.470548
0.077027 0.353638 -0.462122
0.090304 0.368763 0.562242
0.090170 0.369939 0.382942
0.090221 0.368406 -0.258573
0.082792 0.362885 -0.473781
0.089327 0.369740 -0.529200
0.094044 0.360513 -0.525127
0.089287 0.354860 -0.520454
0.083141 0.363350 -0.523600
0.090247 0.384674 0.561819
0.091424 0.384667 0.378800
0.090241 0.384453 -0.261403
0.090466 0.370067 -0.483203
0.078091 0.373449 -0.477132
0.086504 0.385678 -0.489098
0.090245 0.400967 0.561837
0.086765 0.389290 0.377165
0.086757 0.398600 0.377106
0.091394 0.403203 0.380571
0.090222 0.400716 -0.261892
0.082810 0.395101 -0.491562
0.090272 0.417428 0.562051
0.089140 0.417991 0.389643
0.088817 0.416055 0.227792
0.093425 0.405608 0.229314
0.088856 0.400644 0.231768
0.082470 0.409928 0.230534
0.090186 0.417071 -0.260998
0.088565 0.400044 -0.420519
0.082078 0.394123 -0.425497
0.078758 0.406107 -0.493307
0.089061 0.401111 -0.496698
0.091516 0.419342 -0.503506
0.091823 0.420702 -0.561275
0.098175 0.411881 -0.558829
0.091797 0.405430 -0.552779
0.087272 0.415270 -0.556858
0.090254 0.433618 0.561547
0.084528 0.430931 0.402920
0.092748 0.421561 0.402819
0.095331 0.423265 0.413726
0.089953 0.435191 0.415894
0.082989 0.428016 0.393371
0.090197 0.433314 -0.260955
0.087169 0.434521 -0.505362
0.090219 0.449754 0.560820
0.091606 0.450496 0.422668
0.090225 0.449567 -0.261372
0.083941 0.446619 -0.507000
0.090233 0.466081 0.560738
0.087079 0.462418 0.424900
0.098045 0.456232 0.427155
0.091563 0.466987 0.427337
0.090942 0.465206 -0.261941
0.080838 0.457521 -0.509157
0.089721 0.451494 -0.513751
0.090040 0.465751 -0.520598
0.077282 0.467207 -0.511236
0.090261 0.482456 0.560797
0.089981 0.481757 0.427086
0.086881 0.482367 -0.260774
0.086221 0.465009 -0.401051
0.072929 0.465352 -0.411550
0.077903 0.469975 -0.406547
0.082179 0.458934 -0.409604
0.084485 0.480124 -0.522610
0.090248 0.498783 0.560356
0.084415 0.486955 0.426071
0.089939 0.497317 0.423367
0.095349 0.491032 0.426516
0.084585 0.498717 -0.261521
0.084076 0.479232 -0.395528
0.081485 0.490178 -0.391918
0.087085 0.483780 -0.386350
0.090863 0.484826 -0.532899
0.081444 0.491123 -0.525654
0.078778 0.500061 -0.527797
0.086716 0.500049 -0.536287
0.090215 0.501840 -0.595480
0.095367 0.491687 -0.593225
0.090112 0.486117 -0.589615
0.084364 0.495818 -0.591596
0.090245 0.515123 0.559807
0.090000 0.514889 0.416965
0.085022 0.497728 0.223252
0.073045 0.498023 0.210491
0.078087 0.502659 0.218504
0.082627 0.491616 0.212839
0.082826 0.509480 -0.263234
0.083774 0.494427 -0.381940
0.078373 0.499475 -0.386033
0.080684 0.505566 -0.375085
0.085945 0.499675 -0.370215
0.083962 0.516338 -0.539559
0.090271 0.531529 0.559647
0.089499 0.530340 0.412511
0.083438 0.509814 0.238234
0.079242 0.518062 0.238631
0.080990 0.521467 0.249733
0.085649 0.515595 0.255241
0.074905 0.513790 0.223047
0.082099 0.507158 0.229360
0.080681 0.520399 -0.266712
0.084677 0.514995 -0.271772
0.082558 0.525590 -0.276037
0.078595 0.531235 -0.270809
0.083957 0.511733 -0.353869
0.079579 0.520031 -0.353795
0.080982 0.521960 -0.341075
0.084801 0.515925 -0.335741
0.077230 0.515055 -0.369911
0.082777 0.509342 -0.365253
0.082621 0.526301 -0.541449
0.090284 0.547924 0.559260
0.083682 0.542027 0.411114
0.085316 0.532626 0.285999
0.080843 0.537019 0.271143
0.081654 0.538936 0.280283
0.084158 0.528818 0.271445
0.078867 0.531422 0.255529
0.082883 0.525871 0.260865
0.083911 0.528910 -0.285862
0.080672 0.537116 -0.285679
0.080803 0.537900 -0.301936
0.084329 0.529680 -0.301883
0.078862 0.534452 -0.319244
0.082986 0.526172 -0.319227
0.077205 0.530355 -0.335828
0.082095 0.523829 -0.329595
0.079757 0.537078 -0.543857
0.087968 0.531970 -0.550050
0.086793 0.548522 -0.553705
0.077688 0.548503 -0.545321
0.093841 0.550993 -0.609896
0.096275 0.540843 -0.609020
0.090671 0.535274 -0.605770
0.085470 0.551124 -0.607358
0.090234 0.564280 0.558091
0.089580 0.547232 0.401951
0.084512 0.559452 0.397032
0.083617 0.543102 0.302038
0.079551 0.551345 0.302065
0.081095 0.554365 0.312951
0.085429 0.548408 0.318950
0.078482 0.546657 0.285453
0.082401 0.540412 0.290350
0.084898 0.564842 -0.555429
0.076090 0.564768 -0.547069
0.094262 0.567136 -0.609948
0.085891 0.567334 -0.607925
0.090201 0.580669 0.556977
0.078054 0.570400 0.390404
0.086336 0.564603 0.385685
0.082547 0.573942 0.380103
0.084142 0.564038 0.338011
0.078651 0.564077 0.319183
0.080507 0.569481 0.332944
0.082822 0.558521 0.324744
0.083052 0.581143 -0.557790
0.096757 0.577978 -0.609234
0.090941 0.583421 -0.607864
0.090240 0.597130 0.556304
0.077385 0.583978 0.369899
0.083657 0.575751 0.370075
0.083241 0.574960 0.354001
0.078371 0.583169 0.353969
0.082002 0.572893 0.344548
0.077122 0.579254 0.338254
0.082156 0.589392 -0.559156
0.090253 0.606111 0.555920
0.079912 0.600422 -0.561090
0.088214 0.596108 -0.567118
0.090042 0.614661 -0.568432
0.079906 0.610331 -0.561152
0.090216 0.614433 0.554430
0.090154 0.629888 0.551948
0.082191 0.621227 -0.559300
0.083172 0.630021 -0.558285
0.090143 0.646296 0.549551
0.084599 0.646390 -0.556936
0.090215 0.662816 0.547005
0.085722 0.662766 -0.556115
0.075130 0.662710 -0.547817
0.087290 0.664130 -0.603393
0.096788 0.653329 -0.608300
0.090957 0.648486 -0.605088
0.095449 0.663857 -0.607743
0.090251 0.679256 0.543945
0.086603 0.679267 -0.555581
0.075755 0.679211 -0.547318
0.088524 0.680120 -0.600400
0.096585 0.679790 -0.606060
0.089391 0.695839 0.540960
0.088392 0.695929 -0.555729
0.091532 0.693772 -0.597451
0.098313 0.688128 -0.605128
0.083374 0.701403 0.538100
0.086130 0.712025 0.535953
0.094643 0.712096 0.540121
0.090608 0.711615 -0.552815
0.084317 0.699719 -0.588076
0.086217 0.713179 -0.585665
0.094395 0.712781 -0.593807
0.089582 0.728965 0.530343
0.097483 0.721162 0.539596
0.082489 0.719433 -0.542930
0.083476 0.729266 -0.541749
0.095988 0.728809 -0.591166
0.087896 0.729245 -0.583944
0.082325 0.736185 0.522585
0.088690 0.744896 0.517373
0.093243 0.739296 0.525140
0.084468 0.746045 -0.539044
0.097394 0.739471 -0.589561
0.089840 0.745999 -0.580932
0.090128 0.756631 0.508333
0.085257 0.762688 -0.534627
0.081969 0.752603 -0.572186
0.091519 0.761135 -0.576643
0.083448 0.761330 -0.570883
0.090165 0.764966 0.503305
0.090150 0.777766 0.497053
0.082284 0.768571 -0.526653
0.083225 0.778762 -0.525140
0.094529 0.777556 -0.573664
0.086423 0.777758 -0.568692
0.090213 0.791237 0.492112
0.084575 0.794469 -0.522744
0.096998 0.786173 -0.572483
0.089961 0.792377 -0.562700
0.092518 0.794685 0.482206
0.087453 0.810519 0.478504
0.084581 0.811129 -0.517653
0.084408 0.821022 0.474940
0.082003 0.817385 -0.509823
0.081856 0.826631 -0.508060
0.086478 0.809014 -0.547327
0.082873 0.802827 -0.556165
0.087214 0.826677 0.464740
0.083683 0.837355 0.459423
0.081615 0.834973 -0.506539
0.074160 0.841564 -0.500725
0.085075 0.823152 -0.531176
0.083059 0.827396 -0.514251
0.084214 0.820693 -0.541706
0.084759 0.840894 0.448857
0.083841 0.840228 0.436377
0.081617 0.834969 -0.507071
0.071957 0.841552 -0.508450
0.104835 -0.961946 0.139647
0.097922 -0.967088 0.145418
0.091737 -0.973833 0.139728
0.098396 -0.967383 0.134497
0.105193 -0.946715 0.223144
0.097800 -0.950365 0.229407
0.098961 -0.951602 0.218208
0.099495 -0.935285 0.295870
0.095843 -0.932771 0.307251
0.090305 -0.938388 0.301471
0.105584 -0.929581 0.302583
0.106512 -0.914587 0.339657
0.098174 -0.917620 0.346067
0.101060 -0.919353 0.335001
0.098443 -0.920997 0.214152
0.099647 -0.921654 0.205162
0.107845 -0.914414 0.204557
0.105632 -0.911713 0.219552
0.099622 -0.921623 0.188918
0.107793 -0.915272 0.188563
0.099426 -0.921446 0.172919
0.107603 -0.915745 0.172817
0.103042 -0.922968 0.157178
0.111262 -0.918383 0.157160
0.107753 -0.924785 0.141971
0.114245 -0.920458 0.148860
0.106315 -0.928444 0.122355
0.106373 -0.930150 0.104727
0.106384 -0.931799 0.088496
0.106387 -0.932086 0.072549
0.106421 -0.930522 0.056282
0.107052 -0.925424 0.038736
0.101860 -0.922732 0.027534
0.107818 -0.913502 0.021121
0.112946 -0.919565 0.032668
0.103160 -0.904076 0.365984
0.096300 -0.899904 0.376640
0.107710 -0.897205 0.371214
0.101765 -0.907330 0.269550
0.098836 -0.904604 0.278111
0.105139 -0.898337 0.284204
0.109943 -0.901363 0.269065
0.103963 -0.909410 0.253761
0.112152 -0.902418 0.253271
0.103674 -0.909091 0.237630
0.111881 -0.902204 0.237604
0.112811 -0.902970 0.225468
0.102833 -0.907687 0.011925
0.107021 -0.896470 0.006022
0.113875 -0.903825 0.015009
0.106335 -0.881109 0.390186
0.096813 -0.883966 0.393562
0.106327 -0.888527 0.382402
0.106421 -0.890586 0.296981
0.100326 -0.889256 -0.002308
0.105181 -0.878964 -0.007754
0.111252 -0.886015 0.000239
0.099093 -0.868651 0.411404
0.104880 -0.858825 0.418874
0.099528 -0.871271 0.330862
0.105572 -0.874788 0.320308
0.110467 -0.869027 0.326557
0.106587 -0.862817 0.338185
0.106425 -0.883778 0.305651
0.099107 -0.871914 -0.015673
0.105282 -0.863107 -0.018662
0.110035 -0.868467 -0.013195
0.099769 -0.852394 0.428925
0.105800 -0.843391 0.432930
0.102724 -0.856702 0.348239
0.113640 -0.853591 0.345429
0.107302 -0.846738 0.353397
0.106367 -0.846592 -0.026307
0.096509 -0.833574 0.442998
0.106599 -0.830183 0.441406
0.100978 -0.839774 0.360919
0.106454 -0.830207 0.364819
0.111862 -0.836243 0.358510
0.104874 -0.828611 -0.031394
0.106727 -0.810265 0.451482
0.106655 -0.822047 0.445886
0.098426 -0.822272 -0.034211
0.098429 -0.821027 -0.034228
0.104930 -0.814795 -0.032529
0.098315 -0.801780 0.458053
0.106797 -0.799447 0.456662
0.106491 -0.810514 0.381519
0.106482 -0.818754 0.373135
0.106501 -0.797332 -0.031956
0.106901 -0.791305 0.461636
0.094837 -0.782807 0.471879
0.108531 -0.777350 0.470357
0.106526 -0.794055 0.396548
0.106544 -0.802265 0.389711
0.106501 -0.780922 -0.031394
0.104150 -0.771865 0.475679
0.108168 -0.761648 0.482084
0.106506 -0.764553 -0.030140
0.106841 -0.745361 0.494465
0.101205 -0.754096 0.490997
0.106583 -0.771490 0.408123
0.106557 -0.763326 0.411200
0.106537 -0.748287 -0.028891
0.101050 -0.758591 -0.062822
0.106277 -0.764460 -0.066064
0.111836 -0.755405 -0.064299
0.106403 -0.749347 -0.059372
0.108295 -0.728438 0.503813
0.095739 -0.734057 0.505256
0.107234 -0.732042 -0.030760
0.103701 -0.723126 0.508081
0.108266 -0.713265 0.511628
0.106494 -0.735355 0.425506
0.106479 -0.726949 0.430803
0.107148 -0.728940 -0.040281
0.113078 -0.723099 -0.034491
0.113123 -0.723085 -0.032193
0.106341 -0.736318 -0.051359
0.106525 -0.694914 0.520145
0.094450 -0.700075 0.521960
0.105811 -0.713396 0.439937
0.099928 -0.707033 0.445356
0.105783 -0.698700 0.449855
0.110877 -0.705045 0.444075
0.106489 -0.678666 0.524986
0.100787 -0.689135 0.523720
0.106894 -0.662603 0.530035
0.106311 -0.686332 0.458983
0.106373 -0.677917 0.465819
0.107390 -0.645608 0.536767
0.107438 -0.630400 0.540804
0.102233 -0.639774 0.539935
0.107087 -0.646299 0.476223
0.102065 -0.640033 0.477858
0.107124 -0.632343 0.481647
0.113023 -0.638868 0.477532
0.107011 -0.613347 0.543190
0.107008 -0.596935 0.546306
0.107886 -0.613371 0.491415
0.103406 -0.607287 0.494694
0.107907 -0.599088 0.495042
0.114362 -0.605491 0.494052
0.107026 -0.580522 0.550239
0.107003 -0.564135 0.552845
0.106960 -0.547781 0.554379
0.095862 -0.547775 0.555460
0.098527 -0.539426 0.555840
0.106965 -0.538153 0.555553
0.107034 -0.529980 0.556803
0.107105 -0.514933 0.558439
0.107084 -0.498575 0.559209
0.107669 -0.515419 0.509706
0.103038 -0.509713 0.510870
0.107723 -0.500782 0.512477
0.114042 -0.507219 0.510448
0.106660 -0.502009 0.015448
0.106672 -0.512970 0.014868
0.105093 -0.503532 -0.005087
0.109782 -0.510585 -0.001096
0.105200 -0.512619 0.005145
0.098783 -0.510038 -0.000674
0.107025 -0.482224 0.559478
0.106625 -0.485706 0.015961
0.107005 -0.465786 0.560128
0.106627 -0.469039 0.017220
0.104982 -0.470251 -0.014853
0.109705 -0.479432 -0.014625
0.105105 -0.485106 -0.013113
0.098771 -0.476488 -0.014408
0.106978 -0.449375 0.560896
0.106610 -0.452487 0.018511
0.106903 -0.433147 0.561355
0.106537 -0.436352 0.018854
0.106899 -0.416823 0.561521
0.106543 -0.420069 0.019362
0.107029 -0.400247 0.561659
0.106698 -0.403266 0.021068
0.107116 -0.383766 0.561597
0.106817 -0.386568 0.022459
0.107092 -0.367471 0.561393
0.106831 -0.370345 0.022952
0.107060 -0.351073 0.561121
0.106819 -0.353861 0.023909
0.098814 -0.361995 -0.014427
0.090993 -0.368558 -0.015204
0.097208 -0.362018 -0.014427
0.105100 -0.368398 -0.015309
0.105091 -0.354921 -0.015063
0.098826 -0.361457 -0.014426
0.107056 -0.334550 0.560818
0.106799 -0.336855 0.025769
0.107014 -0.318222 0.560890
0.106729 -0.320451 0.027166
0.106927 -0.302150 0.561127
0.106636 -0.304657 0.027966
0.106897 -0.285787 0.561000
0.106600 -0.292252 0.029707
0.106920 -0.269144 0.560726
0.106598 -0.283724 0.031890
0.106608 -0.271368 0.035500
0.106926 -0.252855 0.560988
0.106592 -0.254942 0.039322
0.106912 -0.236780 0.561486
0.106555 -0.238868 0.042580
0.106904 -0.220328 0.561464
0.106528 -0.227764 0.046212
0.106903 -0.203719 0.561192
0.106480 -0.206002 0.053475
0.106513 -0.219448 0.049668
0.106878 -0.187574 0.560949
0.106431 -0.189832 0.054506
0.106853 -0.171462 0.560582
0.106411 -0.175968 0.051581
0.103387 -0.194272 -0.015891
0.088431 -0.188792 -0.017293
0.092904 -0.183668 -0.012131
0.107830 -0.189092 -0.010794
0.106865 -0.154841 0.560555
0.106385 -0.169731 0.041515
0.095505 -0.166646 0.041636
0.106370 -0.170117 0.025312
0.095175 -0.166850 0.025463
0.095537 -0.166615 0.009453
0.106359 -0.170082 0.009361
0.106341 -0.175126 -0.001783
0.106891 -0.138136 0.560493
0.106605 -0.139595 0.051858
0.106383 -0.153805 0.051936
0.106905 -0.121704 0.559780
0.101281 -0.131589 0.050381
0.106903 -0.140016 0.024705
0.097480 -0.133883 0.020862
0.103337 -0.144995 0.015078
0.106915 -0.105220 0.559287
0.101529 -0.131441 0.041821
0.099567 -0.131713 0.031781
0.106925 -0.088588 0.559520
0.106922 -0.072067 0.560375
0.106920 -0.055708 0.561758
0.106939 -0.039289 0.563222
0.106985 -0.022786 0.564671
0.106990 -0.006388 0.566263
0.106952 0.009854 0.567679
0.106942 0.026187 0.567521
0.100707 0.015822 -0.010880
0.097559 0.018303 0.000049
0.106400 0.020260 -0.006035
0.106951 0.042644 0.566386
0.105200 0.038341 0.355640
0.098324 0.034646 0.362026
0.091754 0.029772 0.355656
0.098787 0.034346 0.351042
0.101643 0.032723 0.318543
0.098319 0.034674 0.329505
0.094025 0.026947 0.322961
0.106905 0.038135 0.322977
0.098630 0.034405 0.250561
0.098229 0.034875 0.261483
0.091744 0.029378 0.256045
0.105128 0.039639 0.256001
0.099439 0.032883 0.117013
0.094639 0.036067 0.127883
0.089541 0.030271 0.123371
0.105585 0.038630 0.123104
0.103678 0.031606 0.070383
0.097301 0.034084 0.081585
0.091161 0.027104 0.075779
0.108112 0.035726 0.075476
0.106925 0.058707 0.565619
0.106560 0.044947 0.366910
0.094813 0.058956 0.377403
0.106541 0.059084 0.373026
0.106550 0.058555 0.190940
0.097229 0.058389 0.196604
0.106540 0.047861 0.185787
0.106872 0.074339 0.565002
0.102694 0.051934 0.510400
0.107499 0.058014 0.511018
0.106532 0.071862 0.376797
0.097231 0.068434 0.378400
0.109128 0.076752 0.190776
0.106860 0.090395 0.564432
0.106500 0.079861 0.380515
0.106476 0.091247 0.385820
0.108180 0.086511 0.205288
0.107416 0.076423 0.205114
0.114495 0.083304 0.190042
0.108033 0.079426 0.175156
0.114460 0.083336 0.181535
0.106599 0.073460 0.157266
0.106588 0.069868 0.140716
0.106586 0.071177 0.124221
0.106581 0.072438 0.107693
0.106572 0.070267 0.091104
0.106682 0.075562 0.073444
0.101289 0.080176 0.063007
0.106683 0.083473 0.057505
0.112218 0.082110 0.067174
0.102998 0.080033 -0.023817
0.100152 0.081152 -0.011336
0.111197 0.084370 -0.023814
0.106024 0.084650 -0.006723
0.107624 0.079597 -0.040461
0.113731 0.083516 -0.034944
0.106434 0.080211 -0.055881
0.100862 0.081463 -0.073770
0.109047 0.086300 -0.073772
0.111727 0.084907 -0.060625
0.099302 0.082454 -0.085315
0.105527 0.086914 -0.090504
0.106864 0.106730 0.563842
0.106450 0.107241 0.391369
0.106535 0.095263 0.215971
0.106568 0.085676 0.040929
0.106589 0.085460 0.024203
0.106604 0.085441 0.008005
0.106645 0.090565 -0.106506
0.107273 0.094871 -0.122248
0.102307 0.096431 -0.139372
0.113140 0.100492 -0.127342
0.110475 0.102273 -0.139427
0.099773 0.098236 -0.150869
0.105792 0.104450 -0.156372
0.106826 0.122553 0.563152
0.106429 0.119184 0.394338
0.093142 0.116901 0.394862
0.106855 0.111080 -0.172013
0.101519 0.113091 -0.186547
0.106837 0.119700 -0.191080
0.112445 0.117626 -0.176936
0.106785 0.138421 0.562672
0.106427 0.127011 0.399460
0.106448 0.138924 0.403662
0.106535 0.117890 0.229701
0.106536 0.125796 0.236014
0.105599 0.127818 -0.205174
0.099439 0.131026 -0.215560
0.105614 0.141346 -0.218256
0.110376 0.136735 -0.210044
0.106800 0.154989 0.562977
0.106449 0.155386 0.404419
0.107497 0.139572 0.244765
0.102657 0.145041 0.248591
0.107470 0.154415 0.250051
0.113613 0.148522 0.247400
0.106654 0.156526 -0.223676
0.106823 0.171731 0.563334
0.097797 0.165228 0.410898
0.105967 0.171424 0.407851
0.106634 0.173021 -0.227223
0.106798 0.188084 0.563000
0.100167 0.185172 0.412342
0.100162 0.176426 0.412416
0.106644 0.184091 -0.230230
0.106796 0.204486 0.562682
0.097807 0.196077 0.411244
0.105982 0.189933 0.409729
0.106497 0.199680 0.410516
0.097808 0.197097 0.411227
0.107077 0.205709 0.245637
0.112908 0.194706 0.246565
0.107060 0.188798 0.249075
0.101953 0.200514 0.247595
0.106642 0.192395 -0.233383
0.106658 0.206084 -0.236815
0.106863 0.221362 0.562662
0.106559 0.222104 0.414991
0.106509 0.208013 0.412074
0.106708 0.222602 -0.238146
0.106897 0.238035 0.562443
0.106603 0.238792 0.415083
0.106738 0.238948 -0.239856
0.106849 0.254129 0.562044
0.106631 0.251761 0.411887
0.106726 0.255069 -0.243641
0.106825 0.270406 0.562011
0.106625 0.259903 0.409124
0.106623 0.271451 0.404889
0.106592 0.248224 0.246392
0.106574 0.256367 0.248641
0.106725 0.267772 -0.246753
0.107554 0.273349 -0.434142
0.112287 0.262326 -0.449383
0.114067 0.263474 -0.440198
0.104079 0.269000 -0.449443
0.106696 0.269585 -0.466269
0.112188 0.262411 -0.460786
0.106860 0.287097 0.562534
0.106607 0.287760 0.400310
0.106719 0.275923 -0.248692
0.106711 0.287470 -0.251508
0.101011 0.283369 -0.428159
0.101013 0.283353 -0.424238
0.106560 0.273857 -0.418365
0.106847 0.303453 0.562423
0.106606 0.300069 0.396755
0.106704 0.303545 -0.254624
0.101397 0.298457 -0.489378
0.112286 0.295545 -0.492013
0.106769 0.289598 -0.485302
0.106798 0.304518 -0.496087
0.106769 0.319373 0.561263
0.106584 0.308254 0.394015
0.106580 0.320482 0.391862
0.107864 0.319589 0.245889
0.114148 0.310933 0.247449
0.107864 0.304718 0.249871
0.103210 0.314466 0.248217
0.106694 0.319353 -0.257376
0.106746 0.335684 0.561066
0.106575 0.336936 0.390010
0.106674 0.335430 -0.258198
0.101330 0.314683 -0.449692
0.093420 0.322840 -0.449708
0.094995 0.324896 -0.437882
0.106465 0.320490 -0.433152
0.106710 0.320479 -0.466575
0.095121 0.324655 -0.460930
0.102353 0.332602 -0.472638
0.106780 0.352372 0.561936
0.106587 0.353437 0.389871
0.106647 0.351822 -0.257038
0.106744 0.337064 -0.422188
0.097208 0.343010 -0.424738
0.101395 0.332058 -0.427177
0.097395 0.343773 -0.475910
0.107345 0.337585 -0.478034
0.106633 0.353298 -0.484186
0.094173 0.353463 -0.477581
0.107930 0.354890 -0.526378
0.114130 0.345987 -0.524109
0.107878 0.339588 -0.518148
0.103216 0.349495 -0.522143
0.106758 0.368575 0.562079
0.111733 0.368361 0.510263
0.112828 0.358760 0.510354
0.107023 0.353036 0.510946
0.103546 0.368611 0.510812
0.106594 0.369624 0.387132
0.106651 0.368029 -0.258284
0.106646 0.365578 -0.490050
0.106699 0.384469 0.561622
0.109747 0.384481 0.509997
0.101552 0.384745 0.510735
0.106591 0.385545 0.383463
0.106677 0.384127 -0.260944
0.098141 0.377348 -0.492759
0.106641 0.373552 -0.494287
0.094716 0.385690 -0.494251
0.106631 0.385526 -0.499239
0.101242 0.380747 -0.540483
0.112158 0.378044 -0.542481
0.106736 0.371943 -0.536199
0.106778 0.386815 -0.546079
0.106690 0.400694 0.561798
0.099235 0.393600 0.510544
0.105376 0.399543 0.509041
0.106006 0.401493 0.388722
0.106608 0.400056 0.227977
0.112101 0.388934 0.229220
0.106642 0.383962 0.231819
0.101171 0.394402 0.230549
0.106654 0.400394 -0.261493
0.106923 0.401641 -0.505306
0.106707 0.417066 0.562228
0.101386 0.413176 0.402693
0.109590 0.405487 0.402543
0.111571 0.406962 0.414398
0.106230 0.417096 0.419531
0.100157 0.411895 0.392588
0.106604 0.416731 -0.261412
0.101668 0.414470 -0.507150
0.106689 0.433306 0.561742
0.100826 0.433553 0.424953
0.111843 0.421791 0.428021
0.109006 0.433286 0.428291
0.105885 0.431953 -0.262802
0.106644 0.418030 -0.401843
0.091541 0.418520 -0.414432
0.097962 0.424476 -0.409047
0.099660 0.413645 -0.410611
0.106931 0.419022 -0.511886
0.097868 0.425361 -0.508965
0.107266 0.434536 -0.519454
0.095362 0.434397 -0.510886
0.106656 0.449543 0.560923
0.099108 0.445439 0.426849
0.105341 0.450217 0.428013
0.099826 0.449459 -0.263479
0.101462 0.450667 -0.523029
0.107319 0.452986 -0.578867
0.112998 0.443542 -0.576459
0.107267 0.437553 -0.572841
0.102044 0.447203 -0.575040
0.106668 0.465896 0.560846
0.106509 0.465705 0.428638
0.098771 0.459066 -0.264029
0.100028 0.444821 -0.395324
0.092544 0.450139 -0.400733
0.097400 0.455848 -0.391792
0.103172 0.449990 -0.386515
0.098673 0.459248 -0.525125
0.106690 0.482285 0.560895
0.106646 0.483242 0.427526
0.102632 0.465113 -0.271889
0.096811 0.470085 -0.265751
0.095030 0.482242 -0.269478
0.100077 0.482199 -0.277571
0.100013 0.461083 -0.381737
0.095271 0.466340 -0.386216
0.097399 0.472215 -0.376098
0.102656 0.466452 -0.370894
0.102871 0.465728 -0.534316
0.095394 0.470287 -0.528767
0.100403 0.478547 -0.540191
0.106677 0.498652 0.560219
0.101238 0.491004 0.426511
0.101015 0.477818 0.227173
0.092789 0.482960 0.221789
0.097178 0.488802 0.234934
0.102433 0.482845 0.239617
0.098292 0.490405 -0.280478
0.092407 0.497016 -0.274006
0.101911 0.483350 -0.334994
0.096836 0.487805 -0.353817
0.097815 0.489580 -0.340749
0.100992 0.479509 -0.353803
0.094741 0.482367 -0.370671
0.099543 0.476806 -0.365799
0.097226 0.489549 -0.543377
0.106218 0.483718 -0.547342
0.094929 0.499960 -0.545323
0.107005 0.499308 -0.554341
0.106662 0.515021 0.559409
0.106580 0.497274 0.421828
0.105379 0.513888 0.412871
0.102653 0.499320 0.287474
0.096136 0.502937 0.271412
0.097489 0.505315 0.282666
0.101020 0.494700 0.270918
0.094047 0.500163 0.254936
0.099310 0.491901 0.254664
0.092237 0.497197 0.239441
0.098536 0.490651 0.245739
0.095618 0.501527 -0.286852
0.099594 0.493259 -0.287200
0.100382 0.495104 -0.301998
0.096313 0.503362 -0.301875
0.095137 0.500873 -0.318581
0.099254 0.492621 -0.318344
0.098523 0.490892 -0.328436
0.094212 0.497392 -0.335330
0.101755 0.513347 -0.556584
0.093437 0.517861 -0.550917
0.106688 0.531435 0.559178
0.099216 0.524202 0.410857
0.101589 0.512934 0.319088
0.097239 0.521163 0.318973
