-0.396130 0.253287 -0.105763
-0.393814 0.242939 -0.105532
-0.394231 0.242621 -0.121730
-0.397190 0.253835 -0.121595
-0.398765 0.254594 -0.137833
-0.394786 0.242194 -0.138222
-0.398813 0.255238 -0.154901
-0.394827 0.242481 -0.155756
-0.394736 0.243096 -0.173550
-0.398440 0.255683 -0.172652
-0.394654 0.244325 -0.190671
-0.399066 0.255949 -0.190318
-0.397219 0.255165 -0.207418
-0.394109 0.245988 -0.202155
-0.397917 0.269138 -0.075471
-0.394801 0.269084 -0.062806
-0.399578 0.269231 -0.091407
-0.399868 0.269435 -0.106868
-0.401797 0.269955 -0.122222
-0.404503 0.270748 -0.137946
-0.405178 0.271469 -0.154353
-0.405879 0.273459 -0.172077
-0.405762 0.270699 -0.189855
-0.405776 0.270722 -0.207262
-0.402073 0.272644 -0.223001
-0.395676 0.260168 -0.218970
-0.397428 0.285481 -0.075760
-0.394236 0.285404 -0.065122
-0.400866 0.285551 -0.092175
-0.403430 0.285685 -0.108225
-0.407101 0.286319 -0.123631
-0.408715 0.281261 -0.138655
-0.409368 0.280116 -0.154414
-0.409367 0.280399 -0.166253
-0.402261 0.288495 -0.236635
-0.397615 0.276008 -0.232467
-0.408558 0.282335 -0.227024
-0.393802 0.294298 -0.066671
-0.395185 0.300612 -0.076906
-0.399413 0.301827 -0.092322
-0.404652 0.301939 -0.108683
-0.408690 0.302190 -0.119580
-0.395645 0.316843 -0.093405
-0.394023 0.310452 -0.083009
-0.402621 0.318186 -0.108649
-0.408485 0.318345 -0.118966
-0.397378 0.329956 -0.108569
-0.394358 0.326772 -0.099516
-0.402724 0.335542 -0.121639
-0.401804 0.345794 -0.129723
-0.401842 0.354036 -0.137193
-0.401824 0.362148 -0.145326
-0.401851 0.370354 -0.155913
-0.401841 0.377505 -0.164137
-0.402134 0.385699 -0.174896
-0.407739 0.393297 -0.180690
-0.405781 0.399415 -0.191780
-0.409885 0.408622 -0.198316
-0.408476 0.411789 -0.206680
-0.413961 0.420142 -0.207001
-0.410774 0.423643 -0.217329
-0.406931 0.417565 -0.222206
-0.412412 0.432931 -0.222464
-0.409606 0.427205 -0.226952
-0.409653 0.409996 -0.261129
-0.418575 0.415954 -0.263253
-0.413247 0.420967 -0.256811
-0.408182 0.415835 -0.251937
-0.412421 0.435974 -0.237177
-0.409484 0.427635 -0.236992
-0.409849 0.426228 -0.245528
-0.384978 -0.531740 0.091328
-0.378444 -0.541959 0.091264
-0.377263 -0.540348 0.099550
-0.379370 -0.530596 0.105817
-0.379889 -0.543920 0.075295
-0.389154 -0.530236 0.076474
-0.379950 -0.544028 0.058979
-0.388899 -0.530184 0.059556
-0.386813 -0.531547 0.042630
-0.379482 -0.543335 0.042604
-0.378994 -0.542521 0.026252
-0.385933 -0.531523 0.026065
-0.378149 -0.541167 0.015050
-0.381882 -0.532210 0.009449
-0.379949 -0.515461 0.118855
-0.377415 -0.524346 0.115537
-0.387885 -0.515014 0.106859
-0.391840 -0.520893 0.091407
-0.393514 -0.523420 0.082712
-0.392955 -0.522600 0.054532
-0.392632 -0.522145 0.042662
-0.392258 -0.521620 0.025854
-0.390483 -0.519086 0.009302
-0.387795 -0.514253 -0.006469
-0.379433 -0.526912 -0.006824
-0.377699 -0.524135 -0.016246
-0.380504 -0.514636 -0.022250
-0.391449 -0.504201 0.111761
-0.385384 -0.499516 0.123697
-0.391842 -0.504389 -0.011610
-0.389429 -0.498815 -0.023827
-0.381432 -0.498490 -0.039436
-0.378371 -0.508846 -0.033812
-0.390693 -0.482533 0.128402
-0.382542 -0.482466 0.137439
-0.379343 -0.494774 0.133999
-0.392596 -0.488927 -0.029759
-0.389977 -0.482974 -0.040469
-0.378507 -0.492881 -0.050223
-0.381343 -0.481709 -0.056107
-0.393023 -0.473431 0.131065
-0.386151 -0.468198 0.140998
-0.392649 -0.472497 -0.046650
-0.389504 -0.466588 -0.056851
-0.381026 -0.465841 -0.069814
-0.378205 -0.475903 -0.066291
-0.390188 -0.452693 0.144923
-0.379263 -0.462984 0.150313
-0.384965 -0.448299 0.152502
-0.386285 -0.451020 -0.073668
-0.392168 -0.455278 -0.062610
-0.385260 -0.434534 0.160199
-0.384413 -0.431262 -0.087414
-0.380371 -0.446798 -0.083445
-0.391242 -0.437004 -0.077284
-0.390706 -0.420462 0.163053
-0.379764 -0.429813 0.167462
-0.385292 -0.415990 0.169519
-0.387366 -0.416918 -0.090572
-0.377478 -0.425458 -0.096684
-0.379217 -0.416933 -0.098153
-0.384989 -0.401446 0.176625
-0.391058 -0.400527 -0.093962
-0.382915 -0.400520 -0.101249
-0.390790 -0.384731 0.179893
-0.382576 -0.384807 0.185460
-0.379294 -0.396304 0.183394
-0.393327 -0.390817 -0.096121
-0.385668 -0.384434 -0.104647
-0.393233 -0.376061 0.181982
-0.385427 -0.368724 0.189526
-0.387177 -0.367995 -0.106922
-0.377942 -0.377951 -0.113875
-0.378997 -0.367926 -0.114894
-0.388089 -0.352309 0.193875
-0.379904 -0.352381 0.198872
-0.377649 -0.361329 0.197183
-0.388950 -0.351651 -0.108781
-0.380784 -0.351585 -0.116309
-0.391337 -0.339795 0.196559
-0.385715 -0.335191 0.201221
-0.383058 -0.335070 -0.117681
-0.391205 -0.335094 -0.111064
-0.385511 -0.319889 0.205704
-0.384169 -0.318737 -0.118445
-0.392301 -0.318755 -0.112046
-0.384872 -0.304415 0.210097
-0.384007 -0.302593 -0.118573
-0.392132 -0.302663 -0.111776
-0.389722 -0.287120 0.212001
-0.381539 -0.287255 0.216524
-0.378996 -0.299667 0.214764
-0.384617 -0.286162 -0.118898
-0.392739 -0.286261 -0.112228
-0.392247 -0.274065 0.213981
-0.386292 -0.269679 0.217762
-0.387164 -0.269201 -0.118200
-0.393534 -0.274544 -0.112890
-0.385591 -0.254702 0.219640
-0.385612 -0.238240 0.220652
-0.393447 -0.248568 -0.112683
-0.387114 -0.253576 -0.118068
-0.393000 -0.236893 -0.112216
-0.384889 -0.236827 -0.118720
-0.385616 -0.221808 0.222515
-0.393187 -0.220374 -0.112397
-0.385059 -0.220323 -0.118777
-0.385611 -0.205441 0.224599
-0.393678 -0.203799 -0.112865
-0.385541 -0.203746 -0.118984
-0.384223 -0.189530 0.226577
-0.384780 -0.187378 -0.118643
-0.392921 -0.187453 -0.112084
-0.386776 -0.173009 0.225427
-0.377847 -0.184465 0.231186
-0.378608 -0.173193 0.231323
-0.391637 -0.171117 -0.110828
-0.383482 -0.171019 -0.117986
-0.387424 -0.156605 0.225280
-0.379270 -0.156802 0.231306
-0.391300 -0.154569 -0.110479
-0.383133 -0.154492 -0.117561
-0.387103 -0.140196 0.224757
-0.378953 -0.140389 0.230745
-0.382260 -0.138028 -0.116795
-0.390429 -0.138079 -0.109572
-0.384360 -0.123134 0.224733
-0.378151 -0.128190 0.229945
-0.380040 -0.124702 -0.115073
-0.385598 -0.120378 -0.108241
-0.385514 -0.107501 0.221545
-0.385500 -0.090937 0.218884
-0.393228 -0.100189 -0.096145
-0.387001 -0.105579 -0.102622
-0.391980 -0.089033 -0.095245
-0.383842 -0.089035 -0.102160
-0.386492 -0.074238 0.215337
-0.381597 -0.072574 -0.100313
-0.389747 -0.072576 -0.093482
-0.392609 -0.068487 0.210519
-0.389213 -0.057720 0.207829
-0.381029 -0.057868 0.213511
-0.379140 -0.056278 -0.098034
-0.387302 -0.056337 -0.091300
-0.384951 -0.042353 0.203774
-0.377884 -0.048737 0.211775
-0.385666 -0.040178 -0.088516
-0.377871 -0.047116 -0.096882
-0.392045 -0.036027 0.196433
-0.386217 -0.023862 0.195272
-0.381116 -0.028198 0.200603
-0.393414 -0.033255 -0.079903
-0.383643 -0.023549 -0.085646
-0.391770 -0.023591 -0.078254
-0.385956 -0.009280 0.188099
-0.380613 -0.007137 -0.083069
-0.388753 -0.007203 -0.074885
-0.391608 -0.003919 0.180574
-0.385952 0.007862 0.177641
-0.380635 0.003139 0.185071
-0.378475 0.003563 -0.081236
-0.385284 0.008195 -0.071772
-0.386091 0.021913 0.170508
-0.392051 0.012808 -0.061736
-0.390784 0.025381 -0.060422
-0.382654 0.025523 -0.069539
-0.391854 0.026462 0.163707
-0.388595 0.039774 0.160419
-0.380363 0.039885 0.168255
-0.382048 0.041910 -0.068390
-0.390176 0.041698 -0.059996
-0.384458 0.054090 0.156027
-0.377983 0.048737 0.166298
-0.381590 0.057855 -0.068019
-0.389721 0.057612 -0.059670
-0.390934 0.059477 0.145323
-0.386101 0.073385 0.140814
-0.379927 0.068718 0.151033
-0.389925 0.073288 -0.060058
-0.381786 0.073496 -0.069003
-0.392282 0.078022 0.129923
-0.390951 0.088523 0.128448
-0.382729 0.088618 0.138426
-0.390986 0.089315 -0.061162
-0.381959 0.090430 -0.073147
-0.389580 0.104870 0.126807
-0.381332 0.104969 0.137262
-0.392329 0.102675 -0.062647
-0.387506 0.107278 -0.071073
-0.377732 0.096589 -0.081281
-0.378832 0.106073 -0.083269
-0.389076 0.121821 0.122747
-0.379948 0.121429 0.135663
-0.389424 0.120925 -0.071205
-0.380434 0.122368 -0.086791
-0.378563 0.137959 0.133408
-0.385515 0.137805 0.123098
-0.393245 0.127567 0.114469
-0.392242 0.137663 0.112124
-0.393267 0.125463 -0.063671
-0.388956 0.138417 -0.072953
-0.392882 0.138295 -0.062544
-0.380855 0.138161 -0.090716
-0.377494 0.148725 0.131674
-0.381712 0.154188 0.123873
-0.390769 0.154138 0.109001
-0.392862 0.154854 -0.062319
-0.389579 0.155019 -0.072925
-0.383401 0.155299 -0.089361
-0.378491 0.155550 -0.101475
-0.377616 0.143413 -0.098786
-0.389167 0.169554 0.105199
-0.380686 0.170704 0.119930
-0.392950 0.171421 -0.062412
-0.390378 0.171632 -0.072956
-0.385410 0.171865 -0.089366
-0.379674 0.171850 -0.106725
-0.378669 0.187044 0.116513
-0.383921 0.187045 0.105608
-0.392274 0.174319 0.093258
-0.390296 0.185964 0.087837
-0.390687 0.187934 -0.073362
-0.392758 0.189021 -0.057672
-0.387089 0.188090 -0.089729
-0.382912 0.188290 -0.106324
-0.379424 0.187392 -0.124712
-0.377721 0.177457 -0.119738
-0.379681 0.203018 0.105319
-0.377491 0.197225 0.114180
-0.385371 0.203539 0.088546
-0.392193 0.190762 0.075779
-0.390507 0.202530 0.070972
-0.393224 0.195209 -0.049148
-0.393221 0.196762 -0.049189
-0.392810 0.202976 -0.057817
-0.391314 0.204150 -0.073485
-0.388635 0.204263 -0.089777
-0.385707 0.204453 -0.106365
-0.383973 0.205005 -0.123145
-0.378551 0.191577 -0.140318
-0.382659 0.205681 -0.140093
-0.381169 0.206068 -0.157045
-0.377507 0.195728 -0.157058
-0.379280 0.205362 -0.172363
-0.376966 0.197829 -0.165750
-0.381472 0.219926 0.088489
-0.377960 0.219857 0.099153
-0.386168 0.220001 0.072082
-0.392306 0.207291 0.059606
-0.390870 0.219271 0.054766
-0.393102 0.213579 -0.063274
-0.392744 0.219757 -0.074459
-0.390786 0.220659 -0.089172
-0.388865 0.220844 -0.105828
-0.388281 0.221455 -0.122429
-0.388020 0.222200 -0.139288
-0.387588 0.222622 -0.156734
-0.386515 0.222865 -0.174046
-0.384581 0.223072 -0.190561
-0.378668 0.211027 -0.190009
-0.380097 0.223193 -0.202319
-0.377653 0.214043 -0.198296
-0.376891 0.228082 0.096742
-0.378234 0.231010 0.088478
-0.380621 0.236951 0.072479
-0.385703 0.236319 0.055692
-0.392436 0.223979 0.039513
-0.388867 0.236364 0.039447
-0.392917 0.226624 0.023670
-0.390445 0.236405 0.023456
-0.393132 0.227836 0.015255
-0.392044 0.236588 0.008499
-0.393289 0.228930 -0.080277
-0.392669 0.231770 -0.088862
-0.391958 0.234875 -0.105507
-0.391952 0.234573 -0.121911
-0.392062 0.234138 -0.138629
-0.392080 0.234351 -0.156295
-0.391743 0.234900 -0.173902
-0.390990 0.236076 -0.190781
-0.386360 0.238832 -0.207954
-0.378180 0.246415 0.067257
-0.379326 0.252130 0.054045
-0.382589 0.252538 0.039324
-0.385471 0.252572 0.023086
-0.388264 0.252610 0.006779
-0.392686 0.242087 -0.005222
-0.391292 0.251595 -0.010325
-0.386753 0.255625 -0.222998
-0.381461 0.242618 -0.216881
-0.392419 0.249074 -0.212520
-0.377139 0.260661 0.047522
-0.378114 0.262305 0.039279
-0.379896 0.265790 0.022940
-0.381519 0.270025 0.007375
-0.386401 0.268919 -0.009684
-0.391977 0.253989 -0.026115
-0.388928 0.268959 -0.026107
-0.392322 0.254475 -0.042639
-0.390300 0.269015 -0.042656
-0.392805 0.257057 -0.052581
-0.392200 0.269047 -0.054608
-0.386092 0.271319 -0.233285
-0.381461 0.261600 -0.229488
-0.392300 0.264940 -0.228239
-0.378482 0.279169 0.002432
-0.379905 0.284903 -0.011069
-0.383727 0.285288 -0.026044
-0.387119 0.285311 -0.042432
-0.391120 0.285338 -0.056720
-0.377444 0.293635 -0.017413
-0.378781 0.294972 -0.025993
-0.381165 0.297826 -0.042316
-0.385560 0.301314 -0.059845
-0.390486 0.305219 -0.072123
-0.385308 0.313504 -0.076759
-0.379722 0.311285 -0.064262
-0.385601 0.321555 -0.088997
-0.385627 0.327989 -0.097093
-0.385613 0.334840 -0.108491
-0.385630 0.341238 -0.118679
-0.385639 0.347122 -0.126702
-0.384357 0.355823 -0.140282
-0.388923 0.361464 -0.145292
-0.385631 0.366581 -0.157728
-0.393096 0.375943 -0.165306
-0.393457 0.363821 -0.261140
-0.400750 0.368921 -0.264439
-0.394199 0.374306 -0.260756
-0.387418 0.366828 -0.254098
-0.390979 0.378278 -0.173980
-0.388621 0.381307 -0.189398
-0.396675 0.389610 -0.189791
-0.394485 0.391024 -0.201655
-0.389070 0.384805 -0.206061
-0.399489 0.398676 -0.206815
-0.393596 0.392111 -0.212308
-0.390034 0.385051 -0.239507
-0.395831 0.384694 -0.255477
-0.394227 0.391430 -0.244860
-0.391680 0.380294 -0.251156
-0.398384 0.401247 -0.222095
-0.393237 0.392864 -0.221921
-0.397392 0.399064 -0.239115
-0.393289 0.392919 -0.234426
-0.365231 -0.565780 0.059090
-0.360853 -0.572549 0.064652
-0.360859 -0.572548 0.068230
-0.365126 -0.565374 0.074380
-0.372756 -0.550109 0.091372
-0.364589 -0.561608 0.091602
-0.362540 -0.558926 0.103747
-0.368427 -0.547990 0.106818
-0.374329 -0.552084 0.075338
-0.374460 -0.552205 0.058964
-0.374025 -0.551535 0.042581
-0.365834 -0.563906 0.042628
-0.365487 -0.563713 0.026251
-0.373690 -0.550726 0.026246
-0.363895 -0.561202 0.009766
-0.372491 -0.547115 0.009632
-0.361918 -0.557840 -0.001736
-0.365523 -0.548440 -0.007196
-0.374353 -0.535280 0.110096
-0.368265 -0.530728 0.122324
-0.363442 -0.544748 0.118263
-0.374016 -0.535062 -0.006885
-0.376120 -0.538096 0.003961
-0.370636 -0.530326 -0.022337
-0.362516 -0.542494 -0.023338
-0.360786 -0.539616 -0.031373
-0.363204 -0.530571 -0.037880
-0.373479 -0.515364 0.127090
-0.362187 -0.526176 0.132763
-0.365307 -0.515317 0.136398
-0.374869 -0.519771 -0.027108
-0.372006 -0.514609 -0.039381
-0.363967 -0.514059 -0.055486
-0.361590 -0.524542 -0.049087
-0.376270 -0.505789 0.130688
-0.369623 -0.500694 0.140772
-0.372139 -0.498496 -0.056130
-0.375487 -0.503842 -0.044809
-0.363368 -0.497034 -0.072348
-0.361464 -0.507949 -0.066098
-0.374540 -0.482425 0.145869
-0.366344 -0.482454 0.152596
-0.362979 -0.495616 0.149672
-0.371144 -0.481757 -0.072433
-0.375257 -0.486858 -0.061627
-0.362928 -0.482281 -0.083573
-0.360872 -0.490511 -0.081821
-0.376908 -0.473727 0.148338
-0.369461 -0.467027 0.157097
-0.366141 -0.464852 -0.088846
-0.375180 -0.465859 -0.077959
-0.373396 -0.449871 0.162226
-0.365196 -0.449903 0.168823
-0.362021 -0.460264 0.166480
-0.377276 -0.457636 -0.080639
-0.372990 -0.451225 -0.088732
-0.363760 -0.449628 -0.098921
-0.361421 -0.458696 -0.096983
-0.376332 -0.440634 0.164985
-0.369041 -0.434038 0.173573
-0.369512 -0.431950 -0.101352
-0.375092 -0.436329 -0.094180
-0.372730 -0.417468 0.178386
-0.361777 -0.427508 0.182312
-0.364566 -0.417653 0.183946
-0.375776 -0.407252 0.180945
-0.368324 -0.400384 0.188236
-0.365669 -0.400613 -0.117325
-0.363058 -0.413856 -0.114940
-0.368777 -0.418378 -0.107519
-0.373816 -0.400577 -0.109564
-0.371327 -0.385031 0.192185
-0.360869 -0.393580 0.195480
-0.363131 -0.385259 0.197042
-0.376059 -0.388799 -0.111954
-0.368582 -0.382555 -0.120965
-0.374793 -0.372269 0.194737
-0.369214 -0.367710 0.199595
-0.362289 -0.367958 -0.131167
-0.361058 -0.376269 -0.130118
-0.370457 -0.367919 -0.123270
-0.369076 -0.352665 0.204551
-0.363781 -0.351663 -0.132191
-0.371921 -0.351597 -0.124645
-0.368918 -0.337935 0.209211
-0.364437 -0.335160 -0.132244
-0.372547 -0.335076 -0.125930
-0.374688 -0.320192 0.211385
-0.363375 -0.333637 0.213555
-0.366541 -0.320443 0.215776
-0.373338 -0.318708 -0.126700
-0.365238 -0.318814 -0.132712
-0.376896 -0.310718 0.213049
-0.370570 -0.304721 0.218161
-0.374063 -0.302531 -0.126877
-0.365957 -0.302627 -0.133381
-0.368098 -0.287529 0.223969
-0.366453 -0.286125 -0.133675
-0.374548 -0.286068 -0.127188
-0.371308 -0.271179 0.225349
-0.361937 -0.282276 0.228891
-0.363197 -0.271310 0.230341
-0.374930 -0.269399 -0.127590
-0.366840 -0.269434 -0.133808
-0.372291 -0.254851 0.226892
-0.364176 -0.255007 0.232112
-0.375050 -0.253008 -0.127452
-0.366963 -0.253055 -0.133875
-0.372914 -0.238477 0.227947
-0.364790 -0.238675 0.233471
-0.374943 -0.236760 -0.127022
-0.366852 -0.236827 -0.133835
-0.374379 -0.222016 0.229188
-0.366245 -0.222253 0.234582
-0.366823 -0.220345 -0.133649
-0.374922 -0.220271 -0.127053
-0.376128 -0.205570 0.230441
-0.367995 -0.205820 0.235295
-0.374938 -0.203685 -0.127248
-0.366834 -0.203750 -0.133442
-0.377085 -0.195173 0.230973
-0.370749 -0.189780 0.234837
-0.374837 -0.187284 -0.126939
-0.366729 -0.187325 -0.133342
-0.369377 -0.173327 0.236340
-0.366316 -0.170923 -0.133058
-0.374433 -0.170911 -0.126297
-0.369375 -0.156979 0.236642
-0.365444 -0.154423 -0.132386
-0.373570 -0.154415 -0.125848
-0.369351 -0.140593 0.235980
-0.364335 -0.138000 -0.131608
-0.372469 -0.137979 -0.125073
-0.370725 -0.123427 0.233422
-0.372569 -0.120295 -0.120830
-0.363244 -0.121785 -0.130888
-0.377051 -0.117343 0.228977
-0.375732 -0.107746 0.227684
-0.367640 -0.107890 0.232637
-0.377459 -0.113996 -0.112889
-0.376270 -0.105541 -0.111911
-0.367355 -0.104443 -0.122633
-0.362213 -0.109151 -0.130165
-0.373206 -0.091270 0.225732
-0.365098 -0.091462 0.230574
-0.374131 -0.089054 -0.110395
-0.365995 -0.089060 -0.119143
-0.370814 -0.074795 0.224100
-0.362696 -0.075017 0.228779
-0.363736 -0.072644 -0.116140
-0.371893 -0.072607 -0.108553
-0.367777 -0.059105 0.222406
-0.361458 -0.065391 0.228018
-0.362077 -0.060306 -0.114117
-0.368278 -0.055425 -0.107451
-0.368806 -0.042865 0.215488
-0.374020 -0.038083 0.209295
-0.370293 -0.024088 0.205788
-0.363139 -0.030666 0.213377
-0.376230 -0.036192 -0.095510
-0.370263 -0.040931 -0.102153
-0.366049 -0.023563 -0.101107
-0.374193 -0.023525 -0.093851
-0.377463 -0.017510 0.198735
-0.374836 -0.009304 0.196656
-0.366645 -0.009439 0.202490
-0.363121 -0.007164 -0.098521
-0.371276 -0.007126 -0.091310
-0.371974 0.007954 0.190582
-0.363057 0.007018 0.200418
-0.368952 0.008150 -0.088249
-0.361440 0.001785 -0.096977
-0.365334 0.022635 0.190319
-0.361628 0.016727 0.199419
-0.376470 0.013957 0.181666
-0.374170 0.023340 0.179781
-0.376432 0.014456 -0.079106
-0.367174 0.025661 -0.085750
-0.375289 0.025621 -0.077794
-0.368874 0.040279 0.176958
-0.363017 0.035009 0.184612
-0.366022 0.042084 -0.084768
-0.374150 0.042051 -0.076657
-0.368445 0.054957 0.169401
-0.373817 0.058053 -0.076280
-0.365672 0.058168 -0.084736
-0.373320 0.059437 0.162599
-0.369433 0.073194 0.157531
-0.362314 0.066758 0.167039
-0.374689 0.073709 -0.077221
-0.366530 0.073968 -0.086101
-0.376544 0.079620 0.147749
-0.375215 0.088693 0.146818
-0.367010 0.088786 0.154033
-0.376030 0.085690 -0.078966
-0.369186 0.090525 -0.088526
-0.373828 0.105073 0.145571
-0.365604 0.105190 0.153267
-0.363913 0.108067 -0.104627
-0.362328 0.095341 -0.098734
-0.372670 0.106337 -0.091374
-0.373130 0.121570 0.143897
-0.364884 0.121730 0.152626
-0.375434 0.122606 -0.094926
-0.368961 0.122969 -0.105471
-0.362536 0.123457 -0.117548
-0.361125 0.114625 -0.113774
-0.372389 0.138142 0.141536
-0.364134 0.138353 0.151441
-0.376874 0.132454 -0.097014
-0.373656 0.138613 -0.104894
-0.365022 0.138822 -0.123737
-0.371585 0.154469 0.137738
-0.362590 0.154860 0.149431
-0.375086 0.155784 -0.109849
-0.371018 0.156269 -0.122923
-0.365386 0.155748 -0.140614
-0.362425 0.143853 -0.135394
-0.361162 0.167368 0.147659
-0.365825 0.171965 0.140006
-0.376119 0.159686 0.129773
-0.374848 0.170805 0.127774
-0.375612 0.172432 -0.124555
-0.376463 0.166350 -0.112747
-0.372734 0.173186 -0.140069
-0.362847 0.161341 -0.155608
-0.368827 0.173470 -0.156089
-0.363854 0.174106 -0.170657
-0.361179 0.164611 -0.164176
-0.373044 0.187078 0.124554
-0.364846 0.187123 0.136215
-0.376915 0.181302 -0.131366
-0.376277 0.183515 -0.140247
-0.374766 0.187636 -0.156734
-0.372999 0.191550 -0.171606
-0.365364 0.190596 -0.188140
-0.362070 0.180017 -0.181679
-0.371438 0.202973 0.120328
-0.362730 0.203364 0.132678
-0.373612 0.202824 -0.189587
-0.376398 0.199330 -0.176547
-0.368150 0.207892 -0.200852
-0.362363 0.196291 -0.197336
-0.361219 0.213435 0.130513
-0.365199 0.219268 0.122013
-0.375787 0.208182 0.110929
-0.374017 0.219815 0.107372
-0.368642 0.235711 0.104373
-0.363346 0.232486 0.116870
-0.370204 0.238169 -0.218152
-0.365897 0.227340 -0.213793
-0.370363 0.222418 -0.209431
-0.376807 0.231523 -0.212647
-0.374165 0.239127 0.088412
-0.365903 0.253000 0.088524
-0.363174 0.247908 0.101027
-0.376288 0.242795 0.078193
-0.373012 0.252103 0.072401
-0.364496 0.265171 0.071969
-0.362255 0.262373 0.083119
-0.375113 0.257317 0.058404
-0.368584 0.268262 0.054330
-0.372155 0.270502 0.039255
-0.362072 0.278260 0.050250
-0.364125 0.280620 0.039300
-0.375025 0.273971 0.022921
-0.366100 0.285690 0.022136
-0.376650 0.276213 0.013335
-0.372468 0.284860 0.007455
-0.363673 0.295482 0.006856
-0.361577 0.293804 0.016265
-0.374749 0.290111 -0.006482
-0.369311 0.297288 -0.011051
-0.369188 0.301804 -0.026105
-0.369503 0.306626 -0.041322
-0.375094 0.308357 -0.053091
-0.369562 0.313055 -0.058767
-0.364332 0.310944 -0.045998
-0.369355 0.319548 -0.075542
-0.369414 0.324519 -0.087139
-0.369401 0.328295 -0.095268
-0.369387 0.333840 -0.108435
-0.369154 0.339691 -0.124001
-0.374460 0.344755 -0.128754
-0.369191 0.346932 -0.142404
-0.370117 0.352872 -0.156211
-0.378153 0.358570 -0.149989
-0.375976 0.360638 -0.160933
-0.382895 0.370731 -0.173761
-0.374469 0.362447 -0.173330
-0.380556 0.372166 -0.189012
-0.373593 0.363865 -0.188668
-0.373856 0.364126 -0.204530
-0.379929 0.372428 -0.204673
-0.380112 0.371514 -0.222098
-0.375076 0.363189 -0.222098
-0.381358 0.369007 -0.239291
-0.376800 0.360767 -0.239226
-0.377653 0.359275 -0.246623
-0.354626 -0.579087 0.059159
-0.345048 -0.589669 0.059184
-0.344882 -0.589447 0.072171
-0.352445 -0.580642 0.075676
-0.344924 -0.589533 0.042681
-0.352820 -0.580647 0.042653
-0.344702 -0.589254 0.029192
-0.350777 -0.582240 0.024682
-0.348149 -0.564355 0.119199
-0.346821 -0.575461 0.107714
-0.344574 -0.572903 0.115816
-0.355774 -0.564386 0.108443
-0.350187 -0.579144 0.091851
-0.358407 -0.569771 0.091763
-0.360061 -0.571565 0.079180
-0.360567 -0.572255 0.053637
-0.360432 -0.572103 0.042635
-0.360318 -0.571928 0.026194
-0.358373 -0.569427 0.009639
-0.350171 -0.578631 0.009556
-0.346950 -0.575241 -0.003964
-0.353129 -0.564965 -0.008462
-0.360061 -0.555598 0.114037
-0.353839 -0.550175 0.124467
-0.356440 -0.550694 -0.023433
-0.348232 -0.560923 -0.023470
-0.359302 -0.554330 -0.013060
-0.345490 -0.557416 -0.033352
-0.351490 -0.546425 -0.037786
-0.358559 -0.537054 0.129063
-0.352041 -0.531147 0.138692
-0.347627 -0.544747 0.133892
-0.357478 -0.535461 -0.042288
-0.346541 -0.542267 -0.050657
-0.351926 -0.530649 -0.055738
-0.357289 -0.515257 0.144372
-0.345524 -0.525275 0.147941
-0.349077 -0.515209 0.150110
-0.357295 -0.518891 -0.060763
-0.346373 -0.525828 -0.067631
-0.351520 -0.513723 -0.072481
-0.360385 -0.506602 0.147319
-0.352418 -0.498778 0.155421
-0.351791 -0.497071 -0.085218
-0.345738 -0.508552 -0.083159
-0.356669 -0.501449 -0.077342
-0.355047 -0.482436 0.160692
-0.344440 -0.490951 0.164241
-0.346803 -0.482397 0.166187
-0.358453 -0.471119 0.163671
-0.352758 -0.465843 0.169833
-0.358031 -0.469598 -0.094234
-0.347090 -0.478478 -0.098792
-0.352588 -0.483268 -0.091966
-0.352673 -0.464889 -0.101364
-0.352346 -0.450584 0.177332
-0.357812 -0.438177 0.179690
-0.346781 -0.445639 0.182983
-0.352432 -0.433224 0.184683
-0.358472 -0.433484 -0.110695
-0.347037 -0.446939 -0.115001
-0.352612 -0.451271 -0.108293
-0.350306 -0.433480 -0.117485
-0.351759 -0.417184 0.190841
-0.353193 -0.418111 -0.121534
-0.360661 -0.424820 -0.112657
-0.356658 -0.404361 0.193217
-0.345715 -0.411450 0.196322
-0.351729 -0.400022 0.197778
-0.347831 -0.400725 -0.132458
-0.345671 -0.411351 -0.130683
-0.356000 -0.400665 -0.125787
-0.352587 -0.385390 0.202977
-0.353080 -0.382808 -0.133784
-0.358714 -0.387174 -0.128161
-0.352458 -0.370247 0.208304
-0.358416 -0.352937 0.210359
-0.346913 -0.365655 0.213200
-0.350208 -0.353045 0.215355
-0.360649 -0.344387 0.211792
-0.354206 -0.338158 0.217707
-0.352428 -0.321582 0.223972
-0.353736 -0.318857 -0.140937
-0.344924 -0.332395 -0.146320
-0.351372 -0.336851 -0.141624
-0.345544 -0.318864 -0.146627
-0.357889 -0.303976 0.225798
-0.346721 -0.316790 0.229591
-0.349669 -0.304004 0.231942
-0.346479 -0.302740 -0.147137
-0.354654 -0.302695 -0.141618
-0.360194 -0.293118 0.227433
-0.353992 -0.287687 0.233627
-0.347110 -0.286257 -0.147504
-0.355283 -0.286204 -0.141933
-0.351558 -0.271154 0.239572
-0.347445 -0.269560 -0.147732
-0.355624 -0.269510 -0.142055
-0.354057 -0.255064 0.240223
-0.345854 -0.255080 0.247249
-0.345207 -0.265604 0.246061
-0.355820 -0.253133 -0.142124
-0.347640 -0.253181 -0.147757
-0.354730 -0.238749 0.241490
-0.346511 -0.238772 0.248731
-0.347763 -0.236956 -0.147641
-0.355948 -0.236912 -0.142091
-0.355202 -0.222387 0.242673
-0.346976 -0.222450 0.249533
-0.347519 -0.220471 -0.147441
-0.355708 -0.220434 -0.141901
-0.355404 -0.206039 0.243469
-0.347174 -0.206125 0.249573
-0.355244 -0.203836 -0.141687
-0.347055 -0.203871 -0.147195
-0.355475 -0.189757 0.243806
-0.347232 -0.189825 0.249322
-0.346739 -0.187442 -0.146968
-0.354928 -0.187401 -0.141608
-0.355711 -0.173472 0.243914
-0.347458 -0.173517 0.249191
-0.354282 -0.170986 -0.141344
-0.346083 -0.171017 -0.146586
-0.355953 -0.157149 0.243932
-0.347700 -0.157190 0.249222
-0.345309 -0.159419 -0.146198
-0.351634 -0.154146 -0.141516
-0.355554 -0.140789 0.243619
-0.347306 -0.140822 0.248836
-0.354260 -0.124409 0.242816
-0.346011 -0.124437 0.247684
-0.351510 -0.108584 0.242124
-0.345046 -0.114491 0.246801
-0.352921 -0.091531 0.237654
-0.354453 -0.104394 -0.133762
-0.360854 -0.098211 -0.129139
-0.350742 -0.088947 -0.132710
-0.358919 -0.088989 -0.127398
-0.352868 -0.075043 0.234205
-0.347348 -0.072463 -0.131012
-0.355545 -0.072546 -0.124402
-0.353670 -0.059348 0.231205
-0.353178 -0.055963 -0.121340
-0.345396 -0.062504 -0.129890
-0.359699 -0.054314 0.226878
-0.356780 -0.042035 0.224393
-0.348568 -0.042077 0.229984
-0.360929 -0.049395 -0.112744
-0.359435 -0.039891 -0.111548
-0.351245 -0.039853 -0.118679
-0.352541 -0.025860 0.219748
-0.345722 -0.031807 0.228410
-0.348498 -0.023428 -0.116447
-0.356709 -0.023525 -0.109345
-0.359411 -0.019994 0.210904
-0.353488 -0.008186 0.210601
-0.348453 -0.012692 0.216237
-0.346331 -0.011742 -0.114622
-0.352272 -0.006655 -0.107587
-0.352735 0.006951 0.206618
-0.352045 0.022598 0.201674
-0.353396 0.008116 -0.101361
-0.359137 0.012749 -0.095251
-0.357560 0.025722 -0.093992
-0.349372 0.025745 -0.100363
-0.357166 0.027531 0.195564
-0.352937 0.039714 0.190553
-0.346212 0.033413 0.199766
-0.348393 0.042154 -0.099571
-0.356586 0.042102 -0.093059
-0.359699 0.046034 0.181245
-0.356497 0.056221 0.178253
-0.348186 0.056246 0.185238
-0.356649 0.058256 -0.093032
-0.348457 0.058344 -0.099900
-0.351971 0.071949 0.173483
-0.345280 0.066270 0.182990
-0.349887 0.074345 -0.101503
-0.358074 0.074230 -0.094366
-0.358656 0.077611 0.164104
-0.356635 0.088830 0.162551
-0.348362 0.088883 0.169677
-0.352960 0.090440 -0.105182
-0.359660 0.084496 -0.095865
-0.355538 0.105266 0.161531
-0.347273 0.105341 0.168416
-0.351275 0.109164 -0.120048
-0.346274 0.096425 -0.115114
-0.357175 0.103694 -0.109713
-0.355622 0.121780 0.160753
-0.347370 0.121795 0.167550
-0.348454 0.125249 -0.137620
-0.345427 0.114683 -0.131012
-0.357100 0.123820 -0.125936
-0.355945 0.138355 0.159493
-0.347712 0.138270 0.166381
-0.357214 0.139297 -0.140101
-0.360295 0.132880 -0.129900
-0.348283 0.141563 -0.154097
-0.345162 0.131473 -0.147699
-0.355117 0.154885 0.157493
-0.346908 0.154822 0.164982
-0.359977 0.149654 -0.146455
-0.356789 0.153044 -0.155517
-0.350634 0.159234 -0.169558
-0.345359 0.147723 -0.164067
-0.352835 0.173022 0.155116
-0.345422 0.167998 0.163740
-0.350193 0.175571 -0.186142
-0.345152 0.164847 -0.179549
-0.355963 0.168832 -0.174921
-0.360225 0.178056 0.146206
-0.358612 0.187124 0.144362
-0.350452 0.187071 0.152188
-0.351004 0.190558 -0.198043
-0.344574 0.181977 -0.195309
-0.355313 0.185270 -0.192507
-0.354857 0.203313 0.140959
-0.346712 0.203252 0.148205
-0.351480 0.217989 0.137121
-0.344420 0.211597 0.146420
-0.358503 0.224367 0.128020
-0.353667 0.237222 0.122172
-0.347720 0.231077 0.132684
-0.359605 0.243336 0.112009
-0.353413 0.253004 0.105297
-0.348837 0.247213 0.116313
-0.357971 0.258815 0.094093
-0.352666 0.264539 0.088532
-0.347208 0.261587 0.098607
-0.352214 0.273087 0.071129
-0.357231 0.275841 0.061190
-0.352254 0.279385 0.055759
-0.346463 0.277385 0.065174
-0.352886 0.285465 0.039400
-0.352934 0.290952 0.025292
-0.352961 0.294068 0.017233
-0.352971 0.297275 0.006857
-0.352979 0.301743 -0.009670
-0.353002 0.305589 -0.026038
-0.353041 0.308611 -0.038733
-0.353050 0.310655 -0.046912
-0.353054 0.313615 -0.058873
-0.353077 0.317888 -0.075480
-0.353516 0.322623 -0.091795
-0.359266 0.327162 -0.097008
-0.356150 0.328852 -0.108387
-0.351836 0.330395 -0.125007
-0.363639 0.341294 -0.138085
-0.354756 0.335994 -0.142618
-0.361277 0.342666 -0.148806
-0.355451 0.335986 -0.207162
-0.362812 0.340031 -0.222968
-0.361488 0.342476 -0.212990
-0.357968 0.331762 -0.222992
-0.367076 0.334280 -0.238469
-0.360271 0.328525 -0.232765
-0.360584 0.343392 -0.157230
-0.359699 0.344441 -0.173478
-0.366334 0.352740 -0.173361
-0.359620 0.344816 -0.189168
-0.365486 0.353133 -0.188872
-0.364971 0.350135 -0.206351
-0.360281 0.344102 -0.201629
-0.333711 -0.598355 0.092278
-0.329441 -0.607002 0.075569
-0.328523 -0.605948 0.087205
-0.338900 -0.595761 0.076780
-0.330173 -0.607775 0.059166
-0.338364 -0.597869 0.059145
-0.338268 -0.597728 0.042648
-0.330073 -0.607614 0.042657
-0.338854 -0.595633 0.024634
-0.329332 -0.606812 0.026076
-0.328509 -0.605877 0.016102
-0.333296 -0.597391 0.010129
-0.334156 -0.578563 0.121503
-0.331522 -0.593845 0.107736
-0.328996 -0.590584 0.116805
-0.339726 -0.583669 0.107729
-0.342959 -0.587329 0.091842
-0.344262 -0.588692 0.083086
-0.344281 -0.588755 0.018131
-0.342378 -0.586810 0.009475
-0.330200 -0.591514 -0.007202
-0.339368 -0.580697 -0.008607
-0.328012 -0.588990 -0.015832
-0.332365 -0.580417 -0.022164
-0.340274 -0.564299 0.127101
-0.332099 -0.564285 0.134446
-0.328428 -0.573288 0.131523
-0.343952 -0.572048 -0.015119
-0.341569 -0.569138 -0.023554
-0.330069 -0.574797 -0.035215
-0.336048 -0.564151 -0.039727
-0.343864 -0.555656 0.130569
-0.337142 -0.549490 0.139823
-0.342012 -0.553205 -0.044238
-0.331085 -0.559887 -0.052331
-0.336536 -0.548436 -0.057382
-0.341363 -0.536117 0.144649
-0.335923 -0.530995 0.150909
-0.330427 -0.543337 0.148498
-0.336096 -0.531548 -0.074152
-0.331054 -0.543653 -0.069241
-0.341979 -0.536749 -0.062514
-0.335467 -0.515348 0.158097
-0.341146 -0.519497 -0.078930
-0.330227 -0.526345 -0.084517
-0.335173 -0.514011 -0.088714
-0.340651 -0.501914 0.161025
-0.329662 -0.510025 0.163956
-0.335493 -0.497367 0.166166
-0.340627 -0.498683 -0.093558
-0.329182 -0.508480 -0.097964
-0.332488 -0.498687 -0.100823
-0.335992 -0.482361 0.172396
-0.343716 -0.489376 -0.096202
-0.336869 -0.483555 -0.105320
-0.336893 -0.467640 0.178800
-0.341758 -0.465970 -0.110462
-0.329940 -0.477656 -0.114528
-0.333611 -0.465954 -0.117542
-0.342998 -0.456389 0.180833
-0.332025 -0.463263 0.183382
-0.336929 -0.450556 0.185895
-0.337136 -0.451434 -0.121841
-0.344519 -0.457743 -0.112945
-0.336205 -0.434500 0.192189
-0.340400 -0.433509 -0.125907
-0.329673 -0.445032 -0.130976
-0.332213 -0.433516 -0.133015
-0.341809 -0.422175 0.194058
-0.336242 -0.417126 0.199593
-0.330821 -0.429578 0.197430
-0.337055 -0.417070 -0.135190
-0.342963 -0.422299 -0.128168
-0.335716 -0.401735 0.206694
-0.341473 -0.385493 0.209605
-0.329994 -0.396514 0.213246
-0.333258 -0.385551 0.215466
-0.331449 -0.384731 -0.148414
-0.329635 -0.396639 -0.147481
-0.335585 -0.401583 -0.141646
-0.339594 -0.384514 -0.142950
-0.343953 -0.376506 0.211308
-0.336081 -0.369217 0.219627
-0.342218 -0.368391 -0.144768
-0.334080 -0.368677 -0.149268
-0.338387 -0.353215 0.223400
-0.330183 -0.353311 0.229601
-0.328218 -0.361999 0.228182
-0.344207 -0.351989 -0.146009
-0.336050 -0.352223 -0.150174
-0.342051 -0.336815 0.225983
-0.333829 -0.336724 0.232537
-0.338102 -0.336974 -0.150235
-0.344659 -0.343524 -0.146225
-0.344080 -0.327705 0.227436
-0.336696 -0.321103 0.236337
-0.339764 -0.304024 0.240221
-0.329364 -0.314560 0.245493
-0.331602 -0.304005 0.247633
-0.342473 -0.287658 0.242821
-0.334320 -0.287649 0.250464
-0.343951 -0.276463 0.244444
-0.337725 -0.271105 0.251662
-0.335493 -0.255770 0.257163
-0.338797 -0.238725 0.256837
-0.329355 -0.250795 0.264034
-0.330628 -0.238684 0.264777
-0.339308 -0.222426 0.257483
-0.331134 -0.222407 0.265492
-0.338599 -0.206119 0.257605
-0.330430 -0.206113 0.265617
-0.338090 -0.189844 0.257398
-0.329915 -0.189862 0.265111
-0.337969 -0.173545 0.257346
-0.329780 -0.173573 0.264710
-0.337662 -0.157199 0.257528
-0.329462 -0.157212 0.264634
-0.335299 -0.140533 0.258385
-0.328937 -0.145814 0.264393
-0.344039 -0.148380 -0.145601
-0.337774 -0.154152 -0.148426
-0.342594 -0.138010 -0.144932
-0.334413 -0.138026 -0.148197
-0.336607 -0.124441 0.254595
-0.340105 -0.121829 -0.143882
-0.331909 -0.121855 -0.147183
-0.337731 -0.108629 0.250724
-0.329771 -0.110406 -0.146396
-0.335757 -0.105166 -0.143060
-0.343953 -0.103525 0.245666
-0.342251 -0.091559 0.243981
-0.334057 -0.091552 0.249756
-0.339989 -0.075075 0.241803
-0.331791 -0.075077 0.247743
-0.337941 -0.058636 0.240196
-0.329734 -0.058685 0.245661
-0.334875 -0.043356 0.238568
-0.328448 -0.049698 0.244507
-0.343665 -0.051709 -0.128568
-0.337540 -0.056740 -0.133272
-0.333575 -0.039840 -0.132590
-0.341766 -0.039825 -0.126959
-0.336713 -0.026045 0.231820
-0.339166 -0.023304 -0.124699
-0.330967 -0.023235 -0.131205
-0.342447 -0.020837 0.225921
-0.337854 -0.007721 0.222043
-0.331495 -0.013593 0.229824
-0.336516 -0.007014 -0.121236
-0.329247 -0.013183 -0.130177
-0.344268 -0.001812 0.214507
-0.340883 0.006883 0.213144
-0.332688 0.006854 0.217999
-0.343793 -0.000826 -0.112398
-0.341362 0.009347 -0.110554
-0.333155 0.009384 -0.117118
-0.335245 0.022445 0.210227
-0.329110 0.016393 0.215785
-0.338926 0.025788 -0.108642
-0.330730 0.025813 -0.115058
-0.335894 0.039283 0.202526
-0.329944 0.042333 -0.114391
-0.338134 0.042253 -0.107874
-0.341107 0.044455 0.196488
-0.335894 0.057191 0.194067
-0.330151 0.052357 0.200096
-0.330676 0.058575 -0.115243
-0.338856 0.058471 -0.108197
-0.336399 0.072129 0.186591
-0.332506 0.074577 -0.117066
-0.340680 0.074492 -0.109807
-0.341986 0.077117 0.179812
-0.340020 0.088949 0.177556
-0.331733 0.089098 0.184243
-0.335933 0.091650 -0.121305
-0.342498 0.085448 -0.111676
-0.339049 0.105447 0.175920
-0.330767 0.105596 0.182740
-0.334218 0.109805 -0.136607
-0.329422 0.097864 -0.131009
-0.340299 0.103596 -0.126229
-0.338125 0.121820 0.174886
-0.329879 0.121876 0.180726
-0.334651 0.125234 -0.150513
-0.328197 0.115846 -0.146653
-0.339072 0.120634 -0.142228
-0.334827 0.139014 0.174773
-0.328690 0.134075 0.179290
-0.335821 0.154693 0.171920
-0.337435 0.172336 0.167669
-0.343954 0.178587 0.162637
-0.341488 0.187018 0.160382
-0.333326 0.186979 0.165742
-0.335701 0.203260 0.156855
-0.329954 0.197820 0.163862
-0.335854 0.218066 0.149901
-0.341047 0.222533 0.143895
-0.336150 0.235848 0.138104
-0.330271 0.229716 0.148375
-0.341997 0.241968 0.127506
-0.336597 0.249805 0.121734
-0.331253 0.245979 0.132124
-0.336533 0.258051 0.109064
-0.336566 0.262423 0.100845
-0.336572 0.268176 0.088451
-0.336604 0.274505 0.073591
-0.336623 0.277427 0.065468
-0.336632 0.280569 0.055930
-0.336647 0.285709 0.039615
-0.336942 0.290842 0.022605
-0.342606 0.293857 0.016786
-0.336980 0.295083 0.006768
-0.336695 0.298480 -0.009465
-0.336705 0.301581 -0.025756
-0.338333 0.305868 -0.043646
-0.344842 0.309806 -0.050198
-0.342775 0.310632 -0.058779
-0.339099 0.312267 -0.075521
-0.335380 0.313633 -0.091306
-0.347957 0.324407 -0.108489
-0.336736 0.317783 -0.108449
-0.345579 0.325713 -0.119834
-0.338141 0.321146 -0.125071
-0.344465 0.326489 -0.130563
-0.336960 0.317974 -0.189253
-0.346540 0.324043 -0.206573
-0.345032 0.326117 -0.197409
-0.340418 0.315750 -0.206225
-0.350229 0.317977 -0.222886
-0.343186 0.312457 -0.216863
-0.343811 0.327048 -0.141144
-0.352373 0.335927 -0.157509
-0.343224 0.327658 -0.157535
-0.351500 0.335903 -0.173839
-0.343397 0.327628 -0.173907
-0.344130 0.327003 -0.186810
-0.350172 0.333264 -0.191150
-0.318586 -0.616442 0.076834
-0.312940 -0.622741 0.059061
-0.312365 -0.622223 0.072233
-0.321104 -0.616003 0.059082
-0.321008 -0.615867 0.042593
-0.312863 -0.622711 0.042583
-0.318515 -0.616061 0.025954
-0.312264 -0.622198 0.031326
-0.324944 -0.602067 0.107649
-0.316786 -0.609950 0.107654
-0.313653 -0.607300 0.117247
-0.318619 -0.596016 0.122047
-0.321023 -0.611465 0.092283
-0.327328 -0.604707 0.097930
-0.325806 -0.603133 0.005045
-0.314463 -0.607947 -0.007084
-0.320126 -0.610480 0.010278
-0.322595 -0.599729 -0.007185
-0.318478 -0.595696 -0.021424
-0.312038 -0.605732 -0.016372
-0.323605 -0.584231 0.126983
-0.312735 -0.590490 0.131477
-0.318768 -0.579591 0.134721
-0.320325 -0.581204 -0.040621
-0.314083 -0.591418 -0.035199
-0.324905 -0.585752 -0.026597
-0.320502 -0.565900 0.142982
-0.326557 -0.570864 -0.046085
-0.315704 -0.576635 -0.053318
-0.321260 -0.566074 -0.058660
-0.326535 -0.554281 0.145622
-0.319100 -0.547145 0.154114
-0.315631 -0.561493 0.148976
-0.326814 -0.554590 -0.064062
-0.315944 -0.561275 -0.070422
-0.321016 -0.549487 -0.075687
-0.322605 -0.531454 0.159035
-0.311686 -0.540004 0.162925
-0.314435 -0.531471 0.164691
-0.326104 -0.537267 -0.080750
-0.315225 -0.544374 -0.085896
-0.320007 -0.531712 -0.090026
-0.326046 -0.520914 0.161479
-0.320174 -0.515341 0.167873
-0.318285 -0.513254 -0.103772
-0.313871 -0.526103 -0.098912
-0.324773 -0.519419 -0.094207
-0.319315 -0.499748 0.175365
-0.314677 -0.498768 -0.115414
-0.311722 -0.507047 -0.113115
-0.322846 -0.498736 -0.108954
-0.325394 -0.482352 0.178891
-0.313730 -0.494918 0.181847
-0.317210 -0.482344 0.184972
-0.326524 -0.488569 -0.111883
-0.319520 -0.482227 -0.120916
-0.327725 -0.474079 0.181122
-0.320511 -0.467723 0.188882
-0.323563 -0.466062 -0.125979
-0.312443 -0.475838 -0.130341
-0.315396 -0.466138 -0.132238
-0.324430 -0.449893 0.192849
-0.313313 -0.461382 0.197132
-0.316228 -0.449875 0.199508
-0.326795 -0.455873 -0.128753
-0.320794 -0.450238 -0.135170
-0.326898 -0.440351 0.194713
-0.319498 -0.433676 0.203695
-0.322922 -0.417565 0.208087
-0.314737 -0.417479 0.214260
-0.312134 -0.427006 0.212164
-0.316799 -0.417630 -0.149149
-0.313815 -0.429803 -0.147770
-0.319519 -0.434465 -0.142192
-0.324938 -0.417452 -0.144316
-0.326096 -0.407165 0.210423
-0.318976 -0.400445 0.219505
-0.321164 -0.401848 -0.150662
-0.327326 -0.407653 -0.146003
-0.322172 -0.385467 0.223817
-0.314019 -0.385279 0.230810
-0.311863 -0.393668 0.228710
-0.325457 -0.372627 0.226176
-0.318786 -0.367337 0.235288
-0.321745 -0.353203 0.237961
-0.313677 -0.353100 0.247220
-0.312145 -0.362086 0.245272
-0.324653 -0.336604 0.240838
-0.316605 -0.336677 0.251210
-0.322272 -0.335548 -0.159341
-0.312739 -0.347306 -0.162961
-0.318960 -0.352711 -0.158970
-0.314143 -0.335687 -0.163680
-0.326844 -0.325342 0.243065
-0.320110 -0.321063 0.254411
-0.323482 -0.319054 -0.159905
-0.315366 -0.319191 -0.164344
-0.323500 -0.303966 0.257075
-0.315407 -0.303988 0.266314
-0.313368 -0.316668 0.264992
-0.323946 -0.303006 -0.160127
-0.315817 -0.303073 -0.164576
-0.325613 -0.287612 0.259735
-0.317480 -0.287695 0.267986
-0.324822 -0.286605 -0.160476
-0.316695 -0.286679 -0.165029
-0.327097 -0.271220 0.261967
-0.318951 -0.271410 0.269549
-0.317740 -0.270054 -0.165553
-0.325856 -0.269906 -0.160940
-0.328064 -0.261651 0.263130
-0.321704 -0.255839 0.269780
-0.325659 -0.253483 -0.160700
-0.317541 -0.253635 -0.165428
-0.318907 -0.239211 0.274568
-0.324580 -0.237229 -0.159852
-0.316445 -0.237351 -0.164908
-0.320963 -0.222525 0.273970
-0.312519 -0.234130 0.280443
-0.312789 -0.222703 0.280710
-0.315963 -0.220921 -0.164665
-0.324100 -0.220766 -0.159404
-0.321047 -0.206251 0.273969
-0.312878 -0.206459 0.280917
-0.315675 -0.204434 -0.164428
-0.323803 -0.204217 -0.159159
-0.319000 -0.190224 0.274598
-0.312649 -0.195956 0.280778
-0.322550 -0.187834 -0.158483
-0.314419 -0.188045 -0.163679
-0.320355 -0.173669 0.272230
-0.312956 -0.174947 -0.162891
-0.319097 -0.170174 -0.158561
-0.320338 -0.157327 0.271841
-0.321692 -0.140669 0.269318
-0.328051 -0.134902 0.263608
-0.326808 -0.124487 0.262242
-0.318679 -0.124618 0.268519
-0.325106 -0.108125 0.260315
-0.316995 -0.108242 0.267013
-0.323603 -0.091680 0.258845
-0.315495 -0.091848 0.266171
-0.327884 -0.099433 -0.145639
-0.321564 -0.105355 -0.149986
-0.318885 -0.089198 -0.149929
-0.326987 -0.088987 -0.144977
-0.321505 -0.075216 0.257269
-0.313415 -0.075387 0.264914
-0.325327 -0.072495 -0.143659
-0.317207 -0.072665 -0.149072
-0.318541 -0.060344 0.256009
-0.312149 -0.067032 0.264040
-0.323417 -0.056318 -0.142201
-0.315266 -0.056436 -0.147992
-0.320254 -0.043400 0.248620
-0.313475 -0.040063 -0.146895
-0.321640 -0.039953 -0.140867
-0.325796 -0.038656 0.242743
-0.322558 -0.025740 0.240551
-0.314444 -0.025812 0.246173
-0.312407 -0.029790 -0.146220
-0.318767 -0.023862 -0.140273
-0.319447 -0.009898 0.235951
-0.312179 -0.017004 0.244398
-0.326805 -0.002815 0.226841
-0.323269 0.006877 0.224367
-0.315064 0.006890 0.230438
-0.320674 -0.007450 -0.134526
-0.326471 -0.002374 -0.127857
-0.324017 0.009410 -0.125398
-0.315842 0.009372 -0.132934
-0.318981 0.021399 0.220842
-0.311972 0.015603 0.228035
-0.313795 0.025780 -0.131360
-0.321964 0.025805 -0.123352
-0.325988 0.027305 0.213674
-0.322606 0.039644 0.210916
-0.314435 0.039453 0.217035
-0.312927 0.042257 -0.130469
-0.321084 0.042317 -0.122632
-0.319731 0.055917 0.206370
-0.312057 0.048379 0.215187
-0.321444 0.058579 -0.123454
-0.313300 0.058510 -0.130743
-0.327456 0.063334 0.197990
-0.325796 0.072819 0.194625
-0.317578 0.072830 0.201272
-0.322885 0.074617 -0.125282
-0.314745 0.074574 -0.132124
-0.323082 0.089359 0.191058
-0.314869 0.089510 0.197727
-0.319776 0.091760 -0.134883
-0.325115 0.086672 -0.127365
-0.318771 0.106059 0.190343
-0.312780 0.100867 0.195907
-0.319525 0.122028 0.186028
-0.320913 0.139041 0.182254
-0.321227 0.139152 -0.172054
-0.317071 0.128177 -0.165881
-0.321486 0.123317 -0.158659
-0.327943 0.131977 -0.163086
-0.327269 0.144984 0.178433
-0.326094 0.154600 0.177786
-0.317964 0.154628 0.181396
-0.320019 0.155664 -0.183952
-0.314662 0.146058 -0.180248
-0.325545 0.149546 -0.177953
-0.322860 0.170881 0.176181
-0.314727 0.170867 0.179888
-0.318447 0.185710 0.173478
-0.312145 0.179521 0.178952
-0.319732 0.203232 0.166169
-0.325130 0.208719 0.161540
-0.319846 0.219224 0.159001
-0.314333 0.213526 0.164481
-0.320041 0.232412 0.150868
-0.320128 0.240586 0.143165
-0.320210 0.247306 0.134588
-0.320269 0.254328 0.121519
-0.320305 0.259386 0.110543
-0.320318 0.262782 0.102335
-0.320311 0.268362 0.088597
-0.320650 0.274653 0.071107
-0.326349 0.277162 0.064825
-0.320679 0.278842 0.057010
-0.320353 0.283364 0.039906
-0.320362 0.287274 0.023646
-0.331743 0.292613 0.012056
-0.320586 0.291130 0.007134
-0.326214 0.293842 0.001319
-0.320596 0.294666 -0.009758
-0.320378 0.296987 -0.025306
-0.320398 0.299304 -0.041462
-0.334604 0.307328 -0.058772
-0.320389 0.301727 -0.058441
-0.330933 0.308691 -0.075642
-0.320364 0.303968 -0.075590
-0.329061 0.309518 -0.085503
-0.321359 0.306138 -0.091513
-0.327475 0.310444 -0.096283
-0.324700 0.302452 -0.186801
-0.332307 0.305045 -0.206032
-0.329746 0.308554 -0.191863
-0.326656 0.296800 -0.205615
-0.337451 0.300340 -0.218617
-0.328445 0.293944 -0.213994
-0.326350 0.311365 -0.108395
-0.325752 0.311971 -0.124591
-0.335668 0.320162 -0.140995
-0.325987 0.311895 -0.140522
-0.326752 0.311489 -0.156181
-0.335074 0.319745 -0.157039
-0.335264 0.318751 -0.173114
-0.327921 0.310507 -0.172068
-0.328581 0.309842 -0.180316
-0.301918 -0.632237 0.042355
-0.295471 -0.638337 0.047574
-0.295472 -0.638309 0.054212
-0.301907 -0.632308 0.059494
-0.307748 -0.618162 0.107695
-0.299586 -0.625641 0.107778
-0.296967 -0.623488 0.117089
-0.302378 -0.612700 0.122052
-0.310480 -0.620660 0.091854
-0.302296 -0.627831 0.091915
-0.311496 -0.621504 0.083172
-0.304983 -0.628017 0.076833
-0.311057 -0.621100 0.020477
-0.301178 -0.627187 0.009840
-0.304737 -0.627835 0.026044
-0.309326 -0.619496 0.009769
-0.297920 -0.624325 -0.007010
-0.306068 -0.616195 -0.007054
-0.302272 -0.612327 -0.021734
-0.295807 -0.622361 -0.016574
-0.307814 -0.601433 0.127167
-0.301494 -0.595290 0.136699
-0.296919 -0.607167 0.131305
-0.308728 -0.602369 -0.026967
-0.297874 -0.607933 -0.035309
-0.304132 -0.597859 -0.040621
-0.307380 -0.580803 0.142972
-0.295168 -0.589158 0.146208
-0.299181 -0.580873 0.148639
-0.310383 -0.587580 -0.045970
-0.298490 -0.592290 -0.056239
-0.307513 -0.581574 -0.057933
-0.295312 -0.589001 -0.065030
-0.298798 -0.579500 -0.072062
-0.311384 -0.572541 0.146189
-0.304052 -0.565422 0.154621
-0.311403 -0.572232 -0.064845
-0.308190 -0.565802 -0.075281
-0.299306 -0.564330 -0.086190
-0.295797 -0.573213 -0.083154
-0.307621 -0.551008 0.159800
-0.296744 -0.558291 0.163936
-0.302597 -0.546477 0.166150
-0.304775 -0.549665 -0.091231
-0.310961 -0.555311 -0.082174
-0.302519 -0.531409 0.173546
-0.309465 -0.537054 -0.095474
-0.298565 -0.544007 -0.100142
-0.303005 -0.531071 -0.104807
-0.307984 -0.515147 0.176534
-0.299777 -0.515139 0.183135
-0.296588 -0.525920 0.180627
-0.302539 -0.513612 -0.116582
-0.296479 -0.525032 -0.114183
-0.307397 -0.518000 -0.109602
-0.310732 -0.505878 0.178756
-0.303499 -0.499451 0.187753
-0.307318 -0.482340 0.192455
-0.299080 -0.482323 0.199202
-0.296262 -0.493034 0.196727
-0.303451 -0.481942 -0.134375
-0.297919 -0.494809 -0.131772
-0.303404 -0.499620 -0.124561
-0.308859 -0.486754 -0.127393
-0.310122 -0.472165 0.194651
-0.303157 -0.466161 0.203513
-0.306898 -0.449805 0.207562
-0.296221 -0.460147 0.212693
-0.298669 -0.449732 0.214766
-0.300345 -0.450021 -0.149868
-0.297286 -0.462618 -0.148144
-0.303053 -0.467351 -0.141759
-0.308527 -0.449874 -0.144213
-0.309611 -0.437824 0.209990
-0.303781 -0.432825 0.216779
-0.304766 -0.434772 -0.151583
-0.310980 -0.440432 -0.146173
-0.302961 -0.418328 0.223348
-0.308263 -0.404441 0.225710
-0.301898 -0.398878 0.235506
-0.297342 -0.413532 0.230580
-0.305866 -0.401422 -0.158993
-0.295977 -0.411240 -0.162886
-0.302294 -0.417103 -0.157588
-0.297726 -0.401603 -0.163573
-0.305858 -0.385152 0.239470
-0.297768 -0.385118 0.248738
-0.295572 -0.393337 0.246151
-0.300264 -0.385173 -0.164594
-0.308393 -0.385037 -0.160540
-0.309258 -0.372669 0.242520
-0.303181 -0.368269 0.253571
-0.310159 -0.368961 -0.161609
-0.302006 -0.369060 -0.165414
-0.307201 -0.352970 0.256857
-0.299104 -0.352902 0.266771
-0.297102 -0.363749 0.265100
-0.311259 -0.358527 -0.162244
-0.305007 -0.352861 -0.165878
-0.310045 -0.336746 0.260970
-0.301912 -0.336838 0.269423
-0.311717 -0.327700 0.263466
-0.303869 -0.320457 0.272400
-0.305292 -0.304090 0.274920
-0.295997 -0.313220 0.280783
-0.297108 -0.304212 0.281428
-0.307270 -0.287810 0.276602
-0.299072 -0.287911 0.282798
-0.309096 -0.271591 0.278061
-0.300896 -0.271669 0.284577
-0.310851 -0.255282 0.279336
-0.302653 -0.255370 0.285686
-0.295713 -0.254062 -0.178742
-0.295668 -0.262479 -0.178739
-0.302190 -0.268818 -0.174398
-0.303881 -0.253875 -0.173629
-0.311865 -0.245012 0.280043
-0.305427 -0.239422 0.285002
-0.302240 -0.238217 -0.174152
-0.295709 -0.244183 -0.178721
-0.303981 -0.222778 0.287286
-0.303995 -0.206486 0.288116
-0.305356 -0.190417 0.285957
-0.311734 -0.185051 0.279942
-0.311254 -0.173786 0.279517
-0.303066 -0.173896 0.286102
-0.310923 -0.157458 0.279365
-0.302740 -0.157543 0.285449
-0.305405 -0.170523 -0.166298
-0.311858 -0.163950 -0.162340
-0.311239 -0.155034 -0.162090
-0.303118 -0.155340 -0.165832
-0.310049 -0.141119 0.278650
-0.301870 -0.141187 0.284528
-0.301254 -0.138951 -0.164827
-0.309388 -0.138608 -0.161272
-0.308149 -0.124738 0.276920
-0.299966 -0.124815 0.283183
-0.298718 -0.122847 -0.163775
-0.306871 -0.122517 -0.159987
-0.306094 -0.108343 0.275484
-0.297916 -0.108432 0.281891
-0.305035 -0.106287 -0.158913
-0.296874 -0.106594 -0.162940
-0.302828 -0.091695 0.275565
-0.296604 -0.097092 0.281132
-0.302421 -0.089493 -0.158912
-0.296044 -0.095149 -0.162530
-0.303972 -0.075460 0.271540
-0.304464 -0.060473 0.267525
-0.310231 -0.055930 0.262034
-0.307241 -0.042281 0.259367
-0.299099 -0.042368 0.265971
-0.302663 -0.026587 0.256261
-0.296574 -0.032571 0.264378
-0.303547 -0.010758 0.248067
-0.310839 -0.018763 -0.145171
-0.304758 -0.024133 -0.149387
-0.308689 -0.007050 -0.143564
-0.300527 -0.007287 -0.148775
-0.308912 -0.006081 0.242003
-0.303388 0.008405 0.239684
-0.297954 0.003923 0.246041
-0.305954 0.009252 -0.141293
-0.297768 0.009083 -0.147698
-0.303328 0.021902 0.232432
-0.304413 0.025654 -0.139691
-0.296240 0.025510 -0.146784
-0.308734 0.026402 0.225880
-0.303451 0.040080 0.223799
-0.297847 0.035098 0.229926
-0.295767 0.035650 -0.146299
-0.302268 0.041587 -0.139968
-0.304062 0.054713 0.217766
-0.309823 0.059490 0.211689
-0.307227 0.072750 0.208630
-0.299040 0.072722 0.214692
-0.302506 0.089564 0.206240
