0.046120 0.138098 0.122990
0.047721 0.139396 0.106503
0.047687 0.136604 0.088983
0.047868 0.135732 0.071635
0.048103 0.134699 0.055105
0.048546 0.132522 0.041962
0.045593 0.155235 0.911597
0.047272 0.150188 0.923749
0.034705 0.140319 0.895536
0.040981 0.154387 0.895549
0.033376 0.143974 0.878324
0.037560 0.154356 0.878683
0.032996 0.145428 0.868114
0.034957 0.153583 0.862352
0.034268 0.140821 0.598220
0.033800 0.142679 0.610616
0.037404 0.154135 0.598891
0.035428 0.152873 0.616038
0.034129 0.140408 0.582463
0.037289 0.154052 0.582906
0.037816 0.154088 0.566694
0.038671 0.154185 0.550150
0.039165 0.154156 0.533056
0.039666 0.154108 0.516033
0.040381 0.154306 0.500150
0.041405 0.154616 0.484517
0.042553 0.154667 0.468212
0.043643 0.154637 0.451844
0.044609 0.154794 0.435729
0.045563 0.154829 0.418969
0.047620 0.155705 0.399900
0.047872 0.155548 0.385192
0.045624 0.154243 0.369307
0.044887 0.154185 0.354040
0.045528 0.154299 0.337487
0.044825 0.154374 0.321199
0.043368 0.154411 0.305106
0.042727 0.154384 0.287874
0.042503 0.154325 0.269848
0.042291 0.154427 0.253563
0.042147 0.154667 0.238766
0.042487 0.154659 0.223046
0.043131 0.154497 0.206660
0.043700 0.154443 0.189752
0.044480 0.154414 0.172411
0.045934 0.154313 0.155173
0.047741 0.154716 0.139338
0.048492 0.149408 0.122440
0.049078 0.147085 0.111646
0.047530 0.170146 0.894027
0.048610 0.164586 0.906039
0.043841 0.170766 0.879065
0.040245 0.170962 0.862235
0.035147 0.155642 0.845155
0.039122 0.170946 0.845795
0.035188 0.155529 0.829084
0.038808 0.170794 0.829562
0.034109 0.158432 0.816765
0.035462 0.169784 0.812185
0.032557 0.162337 0.674222
0.032779 0.161741 0.665686
0.034126 0.169860 0.680534
0.035167 0.170506 0.665655
0.032849 0.161409 0.648594
0.035219 0.170389 0.648570
0.033742 0.158395 0.631693
0.036840 0.170406 0.631949
0.039674 0.170594 0.615881
0.040537 0.170611 0.599664
0.040303 0.170478 0.583402
0.040321 0.170539 0.567297
0.040623 0.170703 0.551036
0.041462 0.170657 0.533757
0.042737 0.170557 0.516366
0.043940 0.170863 0.500605
0.046122 0.172920 0.483742
0.046619 0.169944 0.468821
0.047319 0.168297 0.452361
0.047725 0.168688 0.436185
0.048109 0.168615 0.419456
0.048634 0.166098 0.405449
0.047456 0.171738 0.370769
0.048598 0.167118 0.381056
0.045923 0.170640 0.354356
0.046095 0.170807 0.337599
0.045526 0.170893 0.321271
0.044543 0.170902 0.305227
0.044043 0.170783 0.288049
0.044136 0.170628 0.270018
0.044343 0.170757 0.253766
0.044513 0.171092 0.238998
0.045087 0.171041 0.223139
0.045755 0.170771 0.206679
0.046448 0.170777 0.189894
0.047725 0.171825 0.172453
0.048387 0.166406 0.155575
0.048912 0.163248 0.145818
0.047991 0.185352 0.877743
0.049075 0.178905 0.887663
0.044519 0.187051 0.862346
0.041843 0.187113 0.845835
0.040164 0.187044 0.829120
0.038411 0.186938 0.812279
0.033963 0.173495 0.796565
0.037099 0.186845 0.795563
0.034154 0.172818 0.779773
0.037119 0.186799 0.779089
0.034348 0.171998 0.763471
0.037329 0.186787 0.762943
0.033535 0.175070 0.747753
0.036198 0.186796 0.747042
0.032952 0.177296 0.731561
0.035234 0.186792 0.730811
0.033006 0.177008 0.714653
0.035155 0.186763 0.714097
0.033609 0.174874 0.698058
0.036195 0.186763 0.697521
0.038030 0.186839 0.681286
0.038810 0.186855 0.664783
0.038591 0.186781 0.647958
0.040183 0.186786 0.631432
0.043013 0.186879 0.615231
0.043538 0.186902 0.599017
0.042610 0.186854 0.582880
0.042386 0.186891 0.566915
0.043084 0.186982 0.550730
0.044212 0.186972 0.533493
0.046008 0.186932 0.516149
0.047956 0.186414 0.501806
0.048513 0.180912 0.488098
0.047839 0.187008 0.354207
0.048708 0.186947 0.365723
0.047168 0.187141 0.337508
0.046718 0.187126 0.321008
0.046501 0.187025 0.304645
0.046563 0.186933 0.287542
0.047026 0.186857 0.270015
0.047739 0.187700 0.255031
0.047675 0.184494 0.238760
0.047956 0.183207 0.222879
0.048194 0.181954 0.206399
0.048499 0.181050 0.189468
0.048814 0.180057 0.177679
0.047857 0.198907 0.862229
0.048938 0.195737 0.871107
0.046323 0.204282 0.846259
0.043190 0.203263 0.828717
0.041831 0.203227 0.811499
0.041178 0.203183 0.794643
0.040623 0.203162 0.778498
0.040319 0.203165 0.762581
0.039594 0.203167 0.746518
0.038897 0.203167 0.730178
0.038657 0.203156 0.713588
0.039371 0.203154 0.697058
0.041101 0.203174 0.680678
0.041718 0.203183 0.664157
0.041191 0.203162 0.647521
0.042743 0.203163 0.631042
0.045723 0.203204 0.614690
0.046262 0.203235 0.598408
0.045215 0.203245 0.582270
0.045207 0.203252 0.566401
0.046241 0.203276 0.550332
0.047642 0.204071 0.533491
0.048350 0.198253 0.515923
0.049082 0.195326 0.507413
0.049294 0.195321 0.362391
0.049080 0.196924 0.354023
0.048563 0.199902 0.337212
0.048357 0.200768 0.320532
0.048429 0.200232 0.304046
0.048580 0.198595 0.287088
0.048879 0.196148 0.269991
0.049017 0.195268 0.260870
0.047588 0.214858 0.828955
0.048539 0.212904 0.841099
0.046765 0.217451 0.811883
0.046875 0.221072 0.794052
0.046537 0.221325 0.779327
0.046065 0.221270 0.764634
0.043922 0.219701 0.747312
0.042691 0.219675 0.730871
0.042238 0.219606 0.714017
0.042796 0.219586 0.697501
0.044203 0.219655 0.681493
0.044701 0.219665 0.665036
0.044243 0.219591 0.648075
0.045441 0.219613 0.631564
0.048008 0.220356 0.615389
0.048286 0.216561 0.598807
0.047933 0.215896 0.582274
0.048046 0.215370 0.566352
0.048574 0.213887 0.550383
0.048993 0.212364 0.539742
0.049135 0.228324 0.788263
0.049121 0.228296 0.785032
0.048714 0.229450 0.760612
0.047815 0.233046 0.747943
0.047166 0.237677 0.732808
0.045923 0.236039 0.714558
0.046277 0.236019 0.698023
0.047663 0.237428 0.681655
0.047678 0.235344 0.665691
0.047538 0.235345 0.648534
0.047992 0.232736 0.632007
0.048771 0.229460 0.621267
0.048470 0.247596 0.714763
0.048809 0.245783 0.728171
0.048543 0.247311 0.698222
0.048913 0.245405 0.686679
0.048940 -0.096629 -0.622449
0.051386 -0.090012 -0.616125
0.049191 -0.080306 -0.295123
0.042262 -0.088594 -0.289494
0.049187 -0.081269 -0.294988
0.049282 -0.079295 -0.303469
0.049489 -0.076427 -0.318509
0.045788 -0.068183 -0.319936
0.049500 -0.071342 -0.336294
0.048208 -0.065397 -0.331854
0.049211 -0.063635 -0.343605
0.049399 -0.062381 -0.353380
0.050016 -0.058773 -0.369908
0.050561 -0.054245 -0.385325
0.050509 -0.040422 -0.385795
0.049488 -0.032761 -0.359305
0.051116 -0.024182 -0.354006
0.050522 -0.016230 0.982804
0.051238 -0.006267 0.983053
0.050497 -0.006276 0.877035
0.048547 -0.011784 0.882024
0.046757 -0.021392 0.877110
0.049437 -0.015034 0.871456
0.049933 -0.016867 0.809551
0.049084 -0.013697 0.820399
0.047815 -0.022474 0.813884
0.051390 -0.007440 0.813985
0.051292 -0.007481 0.748724
0.049070 -0.013780 0.755132
0.047640 -0.022490 0.748662
0.049925 -0.016886 0.744391
0.049580 -0.014903 -0.296653
0.051513 -0.007823 -0.290413
0.051839 0.009916 0.983239
0.049573 0.000515 -0.245780
0.052414 0.007297 -0.240405
0.052207 0.026173 0.983238
0.049736 0.016589 0.118974
0.049070 0.018807 0.128077
0.047009 0.010477 0.123314
0.050755 0.025110 0.123361
0.053425 0.023976 -0.190674
0.050626 0.015077 -0.195538
0.052482 0.007439 -0.318953
0.052696 0.004163 -0.334796
0.053060 0.003420 -0.350859
0.053245 0.002131 -0.367179
0.053129 0.000613 -0.383644
0.052766 0.000180 -0.400237
0.052546 0.000235 -0.417713
0.053235 0.000536 -0.435879
0.054921 0.001199 -0.453267
0.058423 0.002196 -0.470697
0.057112 0.006343 -0.485649
0.057003 0.008415 -0.499888
0.056946 0.009823 -0.515227
0.056913 0.011707 -0.532588
0.058466 0.013110 -0.550890
0.056722 0.012477 -0.567018
0.064998 0.014560 -0.556774
0.064941 0.014556 -0.566911
0.058560 0.012672 -0.584958
0.065081 0.014533 -0.580514
0.056991 0.012341 -0.599911
0.058548 0.012844 -0.616856
0.056349 0.012248 -0.632716
0.064561 0.014637 -0.632575
0.065057 0.014571 -0.622424
0.056113 0.012306 -0.649158
0.064318 0.014666 -0.648954
0.056580 0.012795 -0.665632
0.064802 0.014624 -0.665366
0.056248 0.012978 -0.682020
0.064476 0.014658 -0.681761
0.055330 0.012885 -0.698426
0.063523 0.014741 -0.698159
0.054969 0.013168 -0.714927
0.063163 0.014752 -0.714601
0.054461 0.013706 -0.731429
0.062673 0.014730 -0.731061
0.053523 0.013786 -0.747847
0.061717 0.014816 -0.747489
0.052601 0.013671 -0.764286
0.060767 0.014955 -0.763909
0.051010 0.013967 -0.777933
0.056695 0.014890 -0.782058
0.051620 0.042598 0.982970
0.051179 0.041350 0.223963
0.049032 0.035068 0.230120
0.046974 0.026055 0.223989
0.049836 0.031766 0.219148
0.049657 0.033767 -0.148698
0.053310 0.042061 -0.142971
0.052894 0.023045 -0.267571
0.053357 0.018300 -0.285126
0.051827 0.016377 -0.301480
0.050077 0.015189 -0.313043
0.057008 0.015077 -0.796943
0.057010 0.015233 -0.813289
0.057012 0.015374 -0.829677
0.057021 0.015564 -0.846222
0.057038 0.016179 -0.862707
0.057063 0.017464 -0.879038
0.057101 0.018934 -0.895347
0.057147 0.020418 -0.911672
0.057191 0.022178 -0.928453
0.057229 0.024228 -0.945391
0.057216 0.024567 -0.961634
0.057194 0.023089 -0.976810
0.057255 0.019478 -0.985298
0.050476 0.052010 0.982650
0.051370 0.047422 -0.131321
0.056948 0.055421 -0.125879
0.054701 0.036200 -0.219939
0.057950 0.041654 -0.202992
0.053410 0.033739 -0.235894
0.050775 0.031941 -0.252225
0.049144 0.031040 -0.260960
0.055037 0.057613 0.973736
0.053123 0.073083 0.968061
0.052295 0.068761 -0.098661
0.052395 0.064487 -0.098846
0.060067 0.056721 -0.155447
0.057063 0.054819 -0.171433
0.057052 0.051072 -0.186895
0.057051 0.048297 -0.197318
0.050306 0.082213 0.966406
0.056258 0.071779 -0.104852
0.055615 0.088638 -0.092139
0.055595 0.073305 -0.093776
0.059092 0.084634 -0.105604
0.057184 0.074199 -0.123929
0.062364 0.081801 -0.117343
0.057089 0.068898 -0.138739
0.057057 0.064990 -0.148981
0.056590 0.088700 0.961155
0.057475 0.105551 0.955601
0.048945 0.096665 -0.050785
0.049639 0.095060 -0.058862
0.051199 0.104703 -0.043349
0.055134 0.104790 -0.057267
0.051484 0.092304 -0.074182
0.060195 0.104619 -0.071206
0.062088 0.099125 -0.084359
0.057457 0.116970 0.951333
0.050143 0.110294 -0.028562
0.054177 0.119867 -0.023053
0.060630 0.121202 -0.038508
0.062475 0.115376 -0.055598
0.064529 0.113399 -0.064510
0.057427 0.125032 0.945248
0.056458 0.139258 0.936417
0.050213 0.125661 0.022196
0.049310 0.129246 0.031290
0.050876 0.137773 0.037258
0.053443 0.137768 0.022994
0.051190 0.122347 0.006433
0.056045 0.137659 0.008164
0.052062 0.121988 -0.008558
0.060208 0.138232 -0.007033
0.062616 0.132549 -0.022760
0.064758 0.129705 -0.031650
0.050387 0.145262 0.933106
0.055785 0.154676 0.927239
0.061303 0.147644 0.933714
0.049458 0.145586 0.099714
0.049652 0.144895 0.088491
0.052455 0.154855 0.088248
0.051239 0.153821 0.105297
0.049871 0.144079 0.071605
0.053122 0.154561 0.071468
0.050325 0.142932 0.055098
0.053912 0.154359 0.055106
0.055648 0.154209 0.039657
0.058870 0.154104 0.025058
0.062572 0.153455 0.011417
0.063699 0.147546 -0.001049
0.050375 0.161506 0.916382
0.053676 0.170476 0.910414
0.061593 0.171311 0.920213
0.049484 0.161682 0.391223
0.049490 0.161722 0.393162
0.050068 0.171922 0.385368
0.050330 0.171200 0.400094
0.049745 0.160717 0.134449
0.050723 0.158112 0.121990
0.053444 0.171647 0.121475
0.051034 0.169799 0.139322
0.054893 0.171904 0.104736
0.055955 0.171426 0.088107
0.057029 0.170892 0.071926
0.058269 0.170603 0.056588
0.061606 0.170833 0.041843
0.063728 0.164937 0.026512
0.065204 0.162458 0.018122
0.062270 0.185979 0.907616
0.064687 0.179940 0.917429
0.051075 0.175279 0.897928
0.054727 0.185411 0.892881
0.049187 0.179595 0.477449
0.049903 0.178275 0.468990
0.055332 0.188203 0.469122
0.052751 0.187181 0.483624
0.050560 0.176725 0.452549
0.055714 0.188153 0.452790
0.050169 0.176995 0.436277
0.054181 0.187921 0.436350
0.049896 0.176786 0.419502
0.052969 0.187566 0.419354
0.053542 0.187251 0.401417
0.052708 0.187071 0.384510
0.049353 0.177988 0.376447
0.050271 0.186976 0.373027
0.050008 0.174707 0.155319
0.049332 0.177936 0.166312
0.052522 0.187353 0.154645
0.050913 0.186286 0.171408
0.053947 0.187449 0.137963
0.054898 0.187622 0.121460
0.055780 0.187607 0.105231
0.057488 0.187282 0.089399
0.060318 0.186945 0.073934
0.063137 0.186097 0.060371
0.063937 0.180201 0.048276
0.063058 0.202067 0.891417
0.064689 0.195758 0.901171
0.051989 0.189769 0.882074
0.055489 0.202050 0.876672
0.051573 0.191699 0.497640
0.054052 0.202298 0.501465
0.059529 0.204521 0.484929
0.061017 0.204812 0.469209
0.060381 0.204740 0.452915
0.058253 0.204306 0.436216
0.056541 0.203874 0.418983
0.056483 0.203664 0.401352
0.055448 0.203632 0.384863
0.051810 0.202046 0.368467
0.049666 0.193747 0.250634
0.050245 0.192601 0.238474
0.051131 0.201889 0.255185
0.053017 0.203627 0.238694
0.050648 0.191384 0.222561
0.053680 0.203747 0.222485
0.050804 0.190267 0.205960
0.053891 0.203738 0.205443
0.050956 0.189368 0.188696
0.054175 0.203754 0.187850
0.054617 0.203779 0.170607
0.055556 0.203797 0.153888
0.056386 0.203704 0.137522
0.056347 0.203522 0.121962
0.057023 0.203359 0.106861
0.061179 0.203355 0.091482
0.063748 0.197288 0.075665
0.065212 0.195098 0.067340
0.063583 0.218540 0.875314
0.064964 0.212098 0.884934
0.051856 0.207178 0.862106
0.058988 0.220095 0.861845
0.049968 0.210476 0.852260
0.054013 0.219312 0.846541
0.049795 0.210133 0.527759
0.051196 0.206659 0.515918
0.052152 0.218912 0.533750
0.055619 0.220135 0.516137
0.058920 0.220430 0.500177
0.061076 0.220726 0.484979
0.061500 0.220737 0.469207
0.060721 0.220611 0.452808
0.059136 0.220491 0.435932
0.057981 0.220362 0.418659
0.058211 0.220268 0.401337
0.057484 0.220383 0.385384
0.054589 0.220555 0.370453
0.050428 0.205307 0.354123
0.052500 0.220378 0.354315
0.049831 0.208142 0.336979
0.051908 0.219973 0.336681
0.049615 0.208997 0.320193
0.051595 0.219827 0.319858
0.049704 0.208493 0.303971
0.051621 0.219930 0.304264
0.050065 0.206878 0.287157
0.052287 0.219924 0.287654
0.050623 0.204455 0.270103
0.053333 0.219830 0.270442
0.054452 0.220096 0.254607
0.055487 0.220593 0.239336
0.055847 0.220594 0.222716
0.055918 0.220287 0.205140
0.056171 0.220252 0.187487
0.056956 0.220326 0.170478
0.058577 0.220239 0.153690
0.059743 0.219992 0.137231
0.059504 0.219749 0.122636
0.061706 0.219483 0.108689
0.063436 0.213924 0.097654
0.064581 0.230178 0.861477
0.065580 0.228315 0.868934
0.062860 0.232973 0.846011
0.052973 0.223461 0.829441
0.061874 0.237031 0.828695
0.050960 0.225966 0.812459
0.057234 0.236470 0.812860
0.049647 0.227577 0.799146
0.052919 0.234899 0.794842
0.049218 0.227929 0.774656
0.049199 0.227899 0.771187
0.051770 0.235588 0.765273
0.052309 0.234874 0.780024
0.050072 0.225063 0.599358
0.049419 0.226501 0.610453
0.053544 0.236797 0.599497
0.051110 0.235761 0.615935
0.050599 0.224335 0.582496
0.054996 0.236671 0.582684
0.050853 0.223887 0.566512
0.055860 0.236773 0.566668
0.051430 0.222527 0.550667
0.056954 0.237004 0.550882
0.058423 0.236877 0.533816
0.060087 0.236646 0.516440
0.061571 0.236771 0.500284
0.062362 0.236950 0.484850
0.062324 0.236833 0.469005
0.061608 0.236703 0.452640
0.060367 0.236811 0.435839
0.059660 0.236934 0.418760
0.060100 0.236986 0.401704
0.059355 0.237132 0.385904
0.056542 0.237307 0.370752
0.054927 0.237078 0.354391
0.055210 0.236568 0.336559
0.054995 0.236453 0.319820
0.054524 0.236727 0.304662
0.054929 0.236714 0.287985
0.055884 0.236499 0.270392
0.056951 0.236853 0.254549
0.057681 0.237470 0.239486
0.057782 0.237310 0.222807
0.057668 0.236718 0.205176
0.058152 0.236549 0.187690
0.059488 0.236543 0.170673
0.061366 0.236417 0.153701
0.062517 0.236191 0.137032
0.063500 0.235955 0.122999
0.063978 0.230488 0.114535
0.063804 0.251149 0.811975
0.065274 0.244891 0.822514
0.060463 0.252613 0.796660
0.059430 0.252734 0.780428
0.058209 0.252770 0.764282
0.050472 0.241285 0.748015
0.054596 0.252639 0.748000
0.049167 0.244158 0.739258
0.051206 0.251774 0.732822
0.049306 0.243800 0.676005
0.049372 0.243543 0.665645
0.051075 0.251605 0.681531
0.051866 0.252606 0.665372
0.049326 0.243581 0.648542
0.051388 0.252559 0.648452
0.050044 0.241039 0.631995
0.052977 0.252691 0.631807
0.056368 0.253049 0.615428
0.058901 0.253322 0.598992
0.060422 0.253409 0.582670
0.062677 0.254989 0.565154
0.062991 0.252483 0.550784
0.063477 0.251471 0.533903
0.063968 0.250978 0.516652
0.064428 0.250426 0.500220
0.064686 0.250379 0.484370
0.064745 0.251142 0.468584
0.064537 0.254395 0.453140
0.062974 0.253331 0.436062
0.062287 0.253416 0.419339
0.062067 0.253664 0.402480
0.060808 0.253756 0.386288
0.058885 0.253651 0.370554
0.058146 0.253514 0.354176
0.058803 0.253412 0.337018
0.058738 0.253436 0.320502
0.057920 0.253567 0.304748
0.057834 0.253534 0.287615
0.058496 0.253388 0.269814
0.059756 0.253577 0.253616
0.060952 0.253840 0.238457
0.060748 0.253569 0.222282
0.060114 0.253013 0.205382
0.061028 0.252690 0.188683
0.062462 0.252546 0.171739
0.064057 0.253788 0.152988
0.064435 0.248830 0.137154
0.064834 0.245547 0.127625
0.065196 0.260940 0.805699
0.064350 0.261991 0.796805
0.063769 0.262936 0.780479
0.063184 0.264077 0.764197
0.062174 0.269057 0.746756
0.059528 0.268972 0.731445
0.050706 0.255850 0.714868
0.058231 0.268977 0.714832
0.050581 0.255587 0.698310
0.057691 0.269041 0.698247
0.058214 0.269230 0.681757
0.058141 0.269321 0.665114
0.057526 0.269276 0.648341
0.058937 0.269319 0.631749
0.062732 0.270573 0.614971
0.063755 0.267890 0.598964
0.064371 0.267082 0.582916
0.065073 0.264880 0.569546
0.065061 0.271137 0.436491
0.065499 0.266477 0.448082
0.064306 0.270033 0.419806
0.063758 0.270286 0.402867
0.062602 0.270362 0.386232
0.061450 0.270246 0.370182
0.061323 0.270248 0.353906
0.062340 0.270402 0.337338
0.062661 0.270557 0.320999
0.061905 0.270635 0.304813
0.061887 0.270474 0.287561
0.063152 0.271436 0.269768
0.063384 0.268703 0.253253
0.064202 0.267945 0.237889
0.064268 0.270236 0.221074
0.063324 0.269156 0.205910
0.064206 0.269142 0.190396
0.064702 0.263549 0.172845
0.065049 0.261351 0.158750
0.065436 0.277471 0.740480
0.065214 0.277799 0.731404
0.064849 0.278249 0.714714
0.064433 0.279087 0.698106
0.064161 0.280796 0.681738
0.063916 0.281706 0.665162
0.063729 0.281299 0.648337
0.064280 0.280230 0.631893
0.065144 0.278830 0.620506
0.065397 0.280710 0.419973
0.065623 0.279147 0.431297
0.065150 0.281721 0.402771
0.064712 0.283233 0.385827
0.064395 0.288299 0.368815
0.064403 0.288033 0.355034
0.064883 0.282062 0.337286
0.065192 0.280887 0.321029
0.064869 0.282533 0.304890
0.065057 0.281426 0.287825
0.065460 0.279204 0.275864
0.065315 0.277515 0.206414
0.065467 0.277455 0.215313
0.065272 0.277368 0.196639
0.065450 0.296734 0.361343
0.065452 0.296700 0.362853
0.065753 -0.031923 -0.488810
0.065355 -0.029190 -0.480497
0.064052 -0.038091 -0.484869
0.066456 -0.023368 -0.484336
0.065649 -0.015154 -0.461322
0.063025 -0.009802 -0.455098
0.062979 -0.021648 -0.455098
0.065649 -0.015158 -0.461322
0.066419 -0.015529 -0.965941
0.066207 -0.014233 -0.955335
0.064172 -0.021682 -0.961509
0.067398 -0.007808 -0.961253
0.064645 -0.005876 -0.465692
0.066010 -0.009360 -0.470531
0.065709 -0.001176 -0.475932
0.066406 0.000410 -0.484793
0.067425 0.002907 -0.499070
0.068291 0.005109 -0.514975
0.068610 0.006730 -0.532012
0.067911 0.008919 -0.550098
0.065251 0.014562 -0.556799
0.068457 0.007623 -0.598886
0.068057 0.009088 -0.584064
0.067754 0.009040 -0.616074
0.065335 0.014574 -0.622439
0.065317 0.014559 -0.566895
0.065328 0.014535 -0.580455
0.065521 0.014645 -0.632544
0.065589 0.014679 -0.648909
0.065404 0.014631 -0.665335
0.065461 0.014667 -0.681727
0.065701 0.014761 -0.698095
0.065713 0.014777 -0.714517
0.065611 0.014758 -0.730968
0.065788 0.014853 -0.747370
0.066104 0.015001 -0.763750
0.066149 0.015053 -0.780207
0.066087 0.015059 -0.796668
0.066204 0.015119 -0.812980
0.066368 0.015207 -0.829340
0.066424 0.015281 -0.845918
0.066659 0.015573 -0.862371
0.067004 0.016168 -0.878473
0.067153 0.016850 -0.894499
0.067144 0.017615 -0.910681
0.067245 0.018466 -0.927619
0.067586 0.019356 -0.944865
0.067174 0.019330 -0.961168
0.066138 0.018265 -0.976451
0.065658 0.017580 -0.983990
0.066073 0.049727 0.873291
0.065174 0.052957 0.883602
0.063332 0.043654 0.878122
0.066835 0.058807 0.878262
0.067210 0.058403 0.813957
0.065509 0.052347 0.820442
0.064345 0.042908 0.814031
0.066448 0.048400 0.809631
0.066902 0.058551 0.748402
0.065509 0.052583 0.754595
0.064044 0.043426 0.748543
0.066195 0.049277 0.744131
0.066769 0.057732 0.683527
0.065639 0.051211 0.690307
0.063984 0.043933 0.683654
0.065966 0.050111 0.679570
0.065675 0.048910 -0.162260
0.059355 0.043003 -0.157963
0.065640 0.052077 -0.161634
0.066841 0.063680 0.953592
0.061296 0.073645 0.961994
0.063308 0.058347 0.959023
0.069006 0.074387 0.954078
0.067138 0.074252 0.912906
0.065613 0.067837 0.919478
0.064392 0.059821 0.913067
0.065986 0.065665 0.908058
0.066232 0.064568 -0.111918
0.057730 0.063238 -0.107755
0.068306 0.072117 -0.106153
0.065759 0.051715 -0.171305
0.065563 0.049050 -0.186708
0.065330 0.047697 -0.195047
0.070809 0.090343 0.953139
0.066911 0.091492 0.122895
0.065116 0.085512 0.126813
0.062938 0.076585 0.122770
0.065965 0.083111 0.118032
0.066583 0.068738 -0.137904
0.067347 0.073654 -0.123383
0.065939 0.065579 -0.149212
0.070371 0.106444 0.951797
0.067042 0.107506 0.285492
0.065346 0.101507 0.291005
0.063095 0.093015 0.285585
0.065888 0.099674 0.278544
0.066245 0.098653 0.184699
0.064796 0.102258 0.195493
0.062588 0.092483 0.189953
0.067632 0.108088 0.190053
0.068356 0.085132 -0.104945
0.071085 0.090161 -0.090150
0.066877 0.081975 -0.117237
0.068345 0.116559 0.950588
0.075577 0.105242 -0.069980
0.069935 0.099472 -0.084296
0.072684 0.122957 0.941652
0.070985 0.138981 0.935607
0.073384 0.126383 -0.042726
0.073396 0.118865 -0.055434
0.073401 0.113804 -0.064822
0.068279 0.148070 0.933679
0.067757 0.144234 -0.012162
0.073239 0.139994 -0.022008
0.074360 0.152972 -0.005258
0.078637 0.147239 -0.016066
0.073377 0.131519 -0.034268
0.073869 0.155108 0.929203
0.073945 0.172283 0.922075
0.070085 0.158682 0.007121
0.074782 0.165329 0.011728
0.081056 0.162822 0.001403
0.073960 0.181169 0.917634
0.067848 0.176633 0.037093
0.073364 0.173643 0.026321
0.073427 0.183239 0.042941
0.078719 0.180174 0.031614
0.073863 0.188870 0.909386
0.073811 0.196424 0.901394
0.073597 0.191504 0.056158
0.073802 0.204710 0.893608
0.073820 0.213595 0.885628
0.068905 0.209142 0.086417
0.074029 0.205220 0.076537
0.074915 0.219162 0.093303
0.079890 0.213188 0.082539
0.073584 0.197082 0.064547
0.073854 0.221991 0.878815
0.073899 0.230347 0.870952
0.069956 0.225122 0.103700
0.074763 0.233174 0.108774
0.080985 0.228940 0.099846
0.074769 0.237841 0.859787
0.070470 0.241011 0.845426
0.080824 0.245514 0.853513
0.078610 0.246861 0.844870
0.067793 0.242799 0.833363
0.073452 0.249006 0.828329
0.073680 0.242199 0.118392
0.073744 0.256484 0.817334
0.073770 0.263744 0.809085
0.066318 0.260558 0.550674
0.065805 0.261439 0.558746
0.067096 0.270165 0.565429
0.068577 0.269809 0.550763
0.066793 0.259677 0.533917
0.069065 0.269764 0.533921
0.066852 0.259386 0.516714
0.068866 0.269772 0.516674
0.066961 0.258841 0.499930
0.068611 0.269805 0.499761
0.066893 0.258729 0.483791
0.068102 0.269876 0.483462
0.066545 0.259587 0.468196
0.067592 0.270051 0.467865
0.066135 0.260816 0.458882
0.066467 0.271254 0.453004
0.072419 0.257209 0.136002
0.065607 0.260118 0.146565
0.072889 0.267956 0.154963
0.076586 0.263536 0.141392
0.073706 0.248556 0.124780
0.074982 0.270605 0.796024
0.072584 0.271294 0.780261
0.080748 0.277923 0.780151
0.081253 0.277535 0.790125
0.070953 0.272491 0.763981
0.079144 0.279164 0.763803
0.068183 0.274781 0.751320
0.073739 0.281485 0.746617
0.066183 0.276920 0.609592
0.066613 0.276184 0.599423
0.071045 0.286444 0.599994
0.069846 0.285388 0.615656
0.066863 0.275337 0.583308
0.070484 0.286340 0.583770
0.070743 0.286376 0.567446
0.071681 0.286478 0.550937
0.071960 0.286332 0.533875
0.071388 0.286137 0.516439
0.069929 0.286183 0.499482
0.068565 0.286332 0.483151
0.068221 0.286446 0.467455
0.067771 0.286582 0.452128
0.065834 0.277518 0.442048
0.066671 0.285636 0.436617
0.066206 0.276870 0.253548
0.065981 0.277682 0.264133
0.068397 0.285387 0.270507
0.069241 0.286189 0.254307
0.066226 0.276034 0.238274
0.068373 0.286003 0.238910
0.065955 0.276214 0.226054
0.067651 0.284097 0.221778
0.066093 0.274801 0.185692
0.068762 0.271836 0.173451
0.073120 0.284805 0.190751
0.076908 0.281103 0.173991
0.080159 0.278298 0.163611
0.075420 0.287463 0.729647
0.073568 0.286730 0.714451
0.081970 0.294404 0.722873
0.081759 0.294276 0.714252
0.072524 0.287624 0.697857
0.080717 0.295024 0.697612
0.070302 0.289621 0.681744
0.078480 0.297326 0.681524
0.069388 0.290610 0.665249
0.077562 0.298502 0.665036
0.070192 0.290072 0.648323
0.078372 0.297819 0.648153
0.070494 0.288944 0.632008
0.078645 0.297905 0.631924
0.078645 0.299154 0.616240
0.078269 0.301043 0.600187
0.078003 0.303848 0.585112
0.076025 0.302428 0.567648
0.075865 0.302577 0.551135
0.075666 0.302448 0.534274
0.074645 0.302238 0.517086
0.072490 0.302273 0.499815
0.070392 0.302372 0.482914
0.069194 0.302361 0.467120
0.068621 0.302449 0.452057
0.068129 0.302724 0.436505
0.066598 0.289334 0.420077
0.067980 0.302876 0.420186
0.067068 0.290191 0.402629
0.068751 0.302735 0.402839
0.066936 0.291722 0.385480
0.068873 0.302789 0.385768
0.066090 0.294498 0.373149
0.067592 0.301998 0.368921
0.066413 0.294109 0.350350
0.067734 0.290689 0.337195
0.068038 0.302143 0.355048
0.070532 0.303114 0.336919
0.068202 0.289450 0.320990
0.071135 0.303104 0.320766
0.067431 0.291218 0.304953
0.070411 0.303280 0.305097
0.067780 0.289975 0.288115
0.071164 0.302968 0.288664
0.073235 0.302328 0.271849
0.074059 0.302020 0.255589
0.076067 0.303124 0.238796
0.076003 0.299185 0.223284
0.069821 0.285722 0.206615
0.077950 0.296128 0.206853
0.080166 0.294460 0.195657
0.080782 0.312488 0.567637
0.081367 0.311224 0.580403
0.080280 0.314454 0.551269
0.079791 0.316672 0.534836
0.079232 0.319614 0.519406
0.076342 0.318192 0.500280
0.073587 0.318201 0.482701
0.070555 0.318151 0.466885
0.068737 0.318144 0.452134
0.068315 0.318135 0.436600
0.068331 0.318132 0.420288
0.068621 0.318107 0.403409
0.069420 0.318118 0.386659
0.070909 0.318206 0.370515
0.071884 0.318248 0.353922
0.071885 0.318191 0.336506
0.072966 0.318125 0.320401
0.076644 0.319293 0.304352
0.077089 0.315930 0.289005
0.078088 0.313640 0.272453
0.079065 0.312037 0.256077
0.080194 0.310939 0.243735
0.080169 0.328092 0.500312
0.081170 0.326905 0.514832
0.078583 0.330045 0.482450
0.076531 0.331988 0.466793
0.075281 0.333161 0.452234
0.075041 0.333704 0.436647
0.074976 0.333596 0.420314
0.074963 0.332919 0.403683
0.075507 0.331800 0.387091
0.076839 0.330296 0.370753
0.077517 0.329388 0.353975
0.077149 0.329230 0.336391
0.078005 0.328334 0.320362
0.079996 0.327077 0.309155
0.083548 0.114678 -0.013154
0.080967 0.117774 -0.003251
0.078075 0.108778 -0.008924
0.087482 0.123307 -0.007492
0.083684 0.140550 0.912514
0.081799 0.134509 0.918347
0.080586 0.125792 0.912623
0.082462 0.131849 0.907265
0.083637 0.139726 0.730879
0.082193 0.133235 0.736629
0.080715 0.126463 0.731345
0.082239 0.132950 0.725489
0.084844 0.128390 0.004872
0.081725 0.132816 0.014886
0.079571 0.123490 0.007983
0.088979 0.138739 0.010111
0.085899 0.123123 -0.039839
0.083572 0.117042 -0.055403
0.082051 0.113787 -0.064369
0.082996 0.145105 0.922815
0.079525 0.139639 0.927127
0.084189 0.157226 0.922796
0.084018 0.156374 0.762902
0.082095 0.149959 0.767736
0.080590 0.142350 0.762423
0.082433 0.148640 0.757133
0.082961 0.147595 0.068603
0.082246 0.149536 0.079545
0.080409 0.141651 0.073036
0.085946 0.155985 0.072962
0.087633 0.137891 -0.021958
0.084310 0.132111 -0.034681
0.084197 0.173308 0.919700
0.082188 0.165473 0.200678
0.081655 0.166979 0.211628
0.079127 0.159039 0.206419
0.083865 0.173139 0.206418
0.084058 0.147320 -0.016078
0.087391 0.153670 -0.004876
0.083006 0.181777 0.917447
0.089402 0.166749 0.010605
0.090142 0.175520 0.023671
0.083365 0.162888 0.001403
0.084936 0.187509 0.907702
0.082977 0.196352 0.901138
0.090112 0.192219 0.055614
0.090086 0.185377 0.043079
0.090063 0.180540 0.031911
0.086635 0.202991 0.891911
0.084207 0.213881 0.885528
0.090120 0.198009 0.063980
0.091338 0.207518 0.076610
0.089986 0.220776 0.877399
0.090387 0.231808 0.871225
0.086545 0.213586 0.082538
0.091364 0.221194 0.092283
0.090250 0.239781 0.859818
0.084610 0.245763 0.853550
0.090201 0.243232 0.118279
0.090465 0.234158 0.107328
0.085160 0.229206 0.099845
0.090209 0.247905 0.845209
0.090235 0.253570 0.829235
0.090218 0.258827 0.819171
0.090255 0.265758 0.810880
0.090209 0.257618 0.132943
0.090217 0.249618 0.124718
0.090248 0.273980 0.799161
0.090258 0.278213 0.790989
0.090521 0.271866 0.156524
0.090190 0.263828 0.141653
0.090244 0.280088 0.780121
0.091598 0.286760 0.762425
0.086669 0.291004 0.747594
0.094900 0.295752 0.747419
0.097993 0.294570 0.756025
0.083181 0.293712 0.734049
0.089307 0.296586 0.729434
0.090471 0.282015 0.173581
0.090107 0.290472 0.187880
0.085212 0.278414 0.163612
0.090204 0.297479 0.714014
0.090220 0.298987 0.697288
0.090284 0.302900 0.680945
0.091896 0.306486 0.662838
0.091882 0.306215 0.648769
0.098440 0.310283 0.654771
0.098443 0.310282 0.656009
0.090645 0.306430 0.632362
0.085767 0.306915 0.615666
0.096376 0.311879 0.627626
0.093966 0.314738 0.615147
0.083330 0.308832 0.599797
0.091522 0.317425 0.599123
0.082151 0.310098 0.591149
0.090014 0.318672 0.585246
0.090093 0.303879 0.223304
0.090093 0.308459 0.234824
0.090062 0.298047 0.206849
0.090055 0.294699 0.196126
0.087558 0.320488 0.567586
0.097876 0.326511 0.579644
0.095795 0.327515 0.567545
0.084499 0.322423 0.551306
0.092732 0.329059 0.551330
0.082669 0.324692 0.534959
0.090903 0.329871 0.535001
0.081995 0.325972 0.526086
0.088541 0.330047 0.519562
0.089677 0.323777 0.289593
0.084036 0.325529 0.298326
0.089721 0.327811 0.304393
0.095009 0.326467 0.295494
0.090003 0.318606 0.272466
0.090028 0.314408 0.256088
0.090068 0.311293 0.243085
0.090146 0.333840 0.500118
0.091699 0.338570 0.480868
0.088498 0.340246 0.466669
0.098203 0.342825 0.474443
0.096713 0.343107 0.466841
0.085837 0.341402 0.452228
0.094033 0.343543 0.452383
0.083921 0.341934 0.436684
0.092145 0.343689 0.436685
0.085877 0.341837 0.420325
0.094140 0.343182 0.420307
0.090985 0.341030 0.404840
0.097213 0.342699 0.411170
0.089979 0.338542 0.387105
0.090024 0.336163 0.370758
0.090057 0.334333 0.353940
0.090014 0.333343 0.336287
0.089971 0.331333 0.320222
0.099918 0.171980 0.042728
0.097922 0.166608 0.047035
0.093840 0.158347 0.040510
0.098931 0.164393 0.037220
0.099617 0.180199 0.068731
0.097671 0.183778 0.078562
0.094779 0.174497 0.072355
0.100712 0.189014 0.074777
0.099400 0.165395 0.016239
0.099546 0.171401 0.027879
0.102809 0.205665 0.107540
0.098068 0.199786 0.111847
0.095597 0.191069 0.105715
0.099583 0.196813 0.101682
0.099862 0.181611 0.043075
0.100450 0.187946 0.060351
0.098792 0.180035 0.034109
0.098893 0.222712 0.870057
0.095329 0.207261 0.876654
0.098702 0.214394 0.870495
0.098680 0.214961 0.129733
0.097458 0.217535 0.140146
0.095045 0.208473 0.135985
0.101722 0.222952 0.135830
0.102151 0.207054 0.090709
0.097519 0.212582 0.084519
0.100420 0.200867 0.075851
0.099139 0.196681 0.066607
0.098939 0.231181 0.869398
0.098737 0.231068 0.758089
0.098314 0.233011 0.768853
0.096707 0.224669 0.763439
0.099969 0.239039 0.763933
0.099658 0.239411 0.550570
0.098124 0.233636 0.555669
0.096354 0.224663 0.550435
0.098811 0.231015 0.544763
0.098876 0.230859 0.298777
0.097847 0.233763 0.309340
0.095476 0.224527 0.304332
0.100481 0.239514 0.304487
0.103288 0.238380 0.189241
0.098390 0.231970 0.195363
0.096316 0.223733 0.188961
0.099899 0.229516 0.183843
0.101753 0.218248 0.095629
0.096150 0.228699 0.101302
0.104985 0.223321 0.107489
0.099515 0.233670 0.861645
0.095642 0.244249 0.851069
0.099833 0.239393 0.846243
0.099410 0.247594 0.840617
0.100563 0.255155 0.371722
0.098408 0.248941 0.377696
0.096927 0.239819 0.371827
0.099399 0.245349 0.367004
0.101303 0.255320 0.321664
0.098146 0.249168 0.326862
0.096732 0.239355 0.321103
0.099637 0.244715 0.316645
0.103167 0.232881 0.112192
0.104802 0.238555 0.123139
0.100241 0.249559 0.829682
0.101958 0.254489 0.813706
0.100811 0.263987 0.808229
0.104511 0.253481 0.138246
0.101377 0.247767 0.127736
0.103077 0.269892 0.796382
0.100957 0.278507 0.790282
0.107914 0.271769 0.173322
0.096272 0.275622 0.167416
0.106241 0.264704 0.156611
0.100507 0.262315 0.144816
0.102770 0.280143 0.780327
0.105731 0.286479 0.762666
0.102525 0.294891 0.756065
0.106479 0.286405 0.190709
0.103209 0.280396 0.178844
0.107461 0.296938 0.748902
0.106715 0.300005 0.730915
0.106664 0.300886 0.713854
0.106675 0.302438 0.697079
0.106757 0.306453 0.680638
0.106762 0.309871 0.667095
0.106742 0.311089 0.658764
0.099494 0.310068 0.643870
0.099463 0.310094 0.638152
0.105595 0.314629 0.632092
0.105623 0.311770 0.648478
0.106578 0.301984 0.223354
0.107324 0.307463 0.240088
0.105204 0.296681 0.207350
0.098861 0.294430 0.198288
0.105983 0.322669 0.614788
0.099754 0.325421 0.598557
0.110981 0.327089 0.609501
0.107897 0.328238 0.598634
0.098628 0.326120 0.589936
0.105074 0.329097 0.584178
0.106493 0.318285 0.272532
0.106751 0.323652 0.289623
0.107199 0.312859 0.255226
0.102272 0.310740 0.245688
0.106588 0.332529 0.567505
0.106571 0.335640 0.551379
0.106544 0.337008 0.535026
0.106548 0.338072 0.518185
0.106575 0.340703 0.501261
0.101114 0.341787 0.485379
0.106575 0.344030 0.480888
0.112045 0.343769 0.495701
0.106483 0.338159 0.387127
0.105225 0.340491 0.404864
0.106531 0.336695 0.370724
0.106561 0.335101 0.353844
0.106517 0.333528 0.336187
0.106492 0.331273 0.320174
0.106691 0.327800 0.304377
0.101369 0.326468 0.295525
0.106525 0.344507 0.466891
0.106475 0.344459 0.452429
0.107430 0.343802 0.436038
0.102015 0.343196 0.420318
0.098864 0.342701 0.411182
0.118819 0.271603 0.206208
0.114125 0.265592 0.211022
0.110779 0.257423 0.205657
0.115369 0.263674 0.200199
0.117077 0.288393 0.746357
0.113279 0.287888 0.754363
0.111621 0.273041 0.748740
0.115596 0.279198 0.743619
0.115702 0.279913 0.248794
0.113978 0.283239 0.258822
0.111328 0.273718 0.253525
0.118762 0.288824 0.254689
0.116964 0.270783 0.189261
0.114125 0.274873 0.182977
0.115269 0.264081 0.173651
0.115301 0.262920 0.163682
0.117175 0.297523 0.744645
0.123234 0.305597 0.370454
0.114272 0.298024 0.375080
0.111683 0.290089 0.370139
0.115498 0.296272 0.364618
0.121519 0.304031 0.319488
0.113237 0.298953 0.324044
0.110869 0.290528 0.319949
0.115116 0.296997 0.313608
0.119720 0.288125 0.207432
0.109783 0.292485 0.202122
0.117732 0.282255 0.194071
0.118583 0.298658 0.731213
0.118866 0.299000 0.714233
0.118763 0.299754 0.697550
0.118776 0.301873 0.681388
0.118676 0.305282 0.665356
0.116767 0.311770 0.659529
0.121527 0.301383 0.239853
0.113189 0.309393 0.249036
0.120752 0.304704 0.255161
0.120123 0.298816 0.223413
0.116884 0.296891 0.213140
0.118539 0.312849 0.647595
0.120348 0.315569 0.631504
0.124680 0.320598 0.615067
0.123077 0.327542 0.610135
0.123866 0.323286 0.304494
0.112310 0.325589 0.298331
0.122917 0.318985 0.289099
0.123756 0.314327 0.272027
0.119001 0.312077 0.260103
0.123012 0.330099 0.599018
0.122946 0.333008 0.583348
0.122918 0.336041 0.567561
0.122908 0.338965 0.551482
0.122903 0.340574 0.535106
0.124013 0.342210 0.516945
0.119348 0.342840 0.508563
0.124058 0.344070 0.501463
0.130219 0.343445 0.510447
0.122920 0.337960 0.420339
0.110252 0.341569 0.420335
0.113584 0.342347 0.430098
0.123362 0.340920 0.436074
0.122904 0.336492 0.403758
0.122908 0.334876 0.387150
0.122963 0.332809 0.370686
0.122973 0.331423 0.353761
0.122911 0.330833 0.336108
0.123769 0.328523 0.319598
0.118993 0.327108 0.309218
0.122957 0.345462 0.482367
0.122881 0.345014 0.467132
0.123274 0.343771 0.452678
0.118153 0.343235 0.441024
0.132681 0.319168 0.370905
0.130947 0.313969 0.376509
0.131572 0.313145 0.365699
0.131500 0.325384 0.608693
0.131494 0.327401 0.608492
0.132237 0.320449 0.319828
0.129792 0.324936 0.314563
0.132476 0.316553 0.305425
0.132447 0.314608 0.289098
0.131790 0.313105 0.277097
0.132178 0.328651 0.599424
0.132896 0.330433 0.583596
0.133180 0.332016 0.567680
0.133380 0.333530 0.551523
0.133713 0.334649 0.535142
0.133502 0.337155 0.517122
0.131096 0.343473 0.510475
0.134174 0.336891 0.452556
0.129004 0.342391 0.447566
0.134010 0.333315 0.436674
0.133610 0.331458 0.420306
0.133941 0.331012 0.403728
0.133786 0.330142 0.387105
0.132736 0.328486 0.370634
0.132207 0.327709 0.353709
0.132422 0.327903 0.336030
0.132051 0.327496 0.323836
0.131495 0.343858 0.500394
0.131970 0.344247 0.482458
0.131775 0.343880 0.467260
0.131340 0.343357 0.457921
-0.041248 -0.351010 0.567737
-0.041220 -0.351928 0.551363
-0.041203 -0.353289 0.534653
-0.031009 -0.393547 0.598440
-0.029342 -0.384666 0.599110
-0.030339 -0.394558 0.582781
-0.028270 -0.384927 0.583269
-0.030007 -0.395052 0.566850
-0.027882 -0.384942 0.567245
-0.029775 -0.395368 0.550748
-0.027691 -0.384839 0.551044
-0.029867 -0.396254 0.534631
-0.027765 -0.385039 0.534742
-0.030004 -0.397188 0.518260
-0.027724 -0.385269 0.518105
-0.029690 -0.397430 0.501000
-0.027057 -0.385070 0.500496
-0.029110 -0.397157 0.483753
-0.025883 -0.384797 0.482958
-0.028532 -0.396746 0.467965
-0.024291 -0.384863 0.467041
-0.027891 -0.396135 0.452497
-0.022266 -0.384946 0.451610
-0.027366 -0.395221 0.436449
-0.020101 -0.384821 0.435735
-0.027221 -0.394523 0.420123
-0.019029 -0.384741 0.419544
-0.027270 -0.394384 0.403723
-0.019141 -0.384799 0.403170
-0.026591 -0.394122 0.387337
-0.031710 -0.377961 0.647495
-0.031144 -0.380783 0.631445
-0.029517 -0.368634 0.500532
-0.027898 -0.368458 0.483531
-0.025671 -0.368307 0.467035
-0.021920 -0.368249 0.450795
-0.016679 -0.376607 0.419038
-0.016797 -0.376448 0.402660
-0.032942 -0.360606 0.706560
-0.030751 -0.352583 0.700282
-0.022830 -0.353203 0.483974
-0.021602 -0.354495 0.467232
-0.019220 -0.356961 0.450494
-0.030854 -0.346758 0.746500
-0.026303 -0.336452 0.747710
-0.030552 -0.348563 0.731218
-0.025622 -0.336559 0.731854
-0.025064 -0.336682 0.715247
-0.031538 -0.347090 0.682615
-0.023373 -0.337278 0.682209
-0.032080 -0.346045 0.666221
-0.023888 -0.338067 0.665779
-0.031586 -0.347035 0.649673
-0.023382 -0.338255 0.649103
-0.031279 -0.347712 0.633294
-0.023084 -0.339027 0.632831
-0.030956 -0.347965 0.617045
-0.022774 -0.340106 0.616828
-0.030386 -0.348531 0.600555
-0.022186 -0.340303 0.600287
-0.029583 -0.349127 0.583911
-0.021375 -0.340172 0.583422
-0.028509 -0.349535 0.567465
-0.020315 -0.341125 0.566998
-0.027202 -0.350065 0.551095
-0.019012 -0.342447 0.550748
-0.026519 -0.350724 0.534178
-0.018323 -0.342707 0.533724
-0.017759 -0.342769 0.516510
-0.027943 -0.332803 0.778643
-0.024028 -0.319455 0.780120
-0.022981 -0.319956 0.764458
-0.019834 -0.324976 0.731879
-0.019911 -0.325538 0.715035
-0.023457 -0.288310 0.813979
-0.026118 -0.290354 0.797621
-0.024854 -0.299070 0.143042
-0.024867 -0.292348 0.134485
-0.024616 -0.253665 0.875690
-0.016612 -0.393259 0.354522
-0.016052 -0.385159 0.354097
-0.016534 -0.393569 0.338247
-0.015737 -0.385160 0.337868
-0.016500 -0.393358 0.321896
-0.015460 -0.385008 0.321637
-0.016593 -0.392905 0.311667
-0.015604 -0.385149 0.305854
-0.015075 -0.369341 0.369275
-0.014730 -0.369594 0.352807
-0.014687 -0.369293 0.336231
-0.014545 -0.369079 0.319865
-0.014257 -0.368990 0.303612
-0.015265 -0.380591 0.289075
-0.013827 -0.368804 0.287566
-0.015784 -0.378090 0.272738
-0.013985 -0.368546 0.271843
-0.016443 -0.376584 0.263900
-0.015169 -0.367869 0.257373
-0.015619 -0.368539 0.418408
-0.012320 -0.352689 0.417887
-0.015716 -0.368265 0.401966
-0.012656 -0.352561 0.401233
-0.012622 -0.352717 0.384825
-0.011709 -0.353400 0.368831
-0.011271 -0.353641 0.352224
-0.011555 -0.353283 0.335056
-0.011746 -0.353161 0.318358
-0.011854 -0.353321 0.301984
-0.011904 -0.353190 0.285771
-0.011793 -0.352845 0.269955
-0.012116 -0.352704 0.254318
-0.015692 -0.362109 0.244220
-0.014009 -0.353412 0.238238
-0.015840 -0.344883 0.484014
-0.011136 -0.335787 0.484389
-0.015322 -0.346283 0.467363
-0.010301 -0.335803 0.467861
-0.014651 -0.348909 0.450661
-0.009273 -0.335942 0.451211
-0.007607 -0.336294 0.434791
-0.006885 -0.336633 0.418133
-0.007739 -0.336793 0.401127
-0.007936 -0.336979 0.384761
-0.006637 -0.337228 0.369308
-0.005730 -0.337271 0.352896
-0.005726 -0.337099 0.335390
-0.005391 -0.337170 0.318493
-0.005168 -0.337478 0.302117
-0.006097 -0.337466 0.285543
-0.007908 -0.337204 0.268892
-0.009290 -0.337169 0.252452
-0.010057 -0.337235 0.236513
-0.014476 -0.348490 0.222977
-0.010016 -0.336979 0.221136
-0.015412 -0.345499 0.212586
-0.011510 -0.337022 0.206148
-0.016345 -0.328910 0.681877
-0.014072 -0.319632 0.681128
-0.015988 -0.329612 0.665357
-0.013472 -0.319451 0.664629
-0.015729 -0.329818 0.648547
-0.013036 -0.319272 0.648145
-0.015251 -0.330624 0.632400
-0.012198 -0.319406 0.632070
-0.014704 -0.331779 0.616661
-0.011189 -0.319800 0.616197
-0.014465 -0.332005 0.600092
-0.010855 -0.319690 0.599578
-0.014349 -0.331859 0.583021
-0.010745 -0.319277 0.582495
-0.013621 -0.332866 0.566624
-0.009539 -0.319372 0.565949
-0.012698 -0.334331 0.550559
-0.007982 -0.319740 0.549686
-0.012666 -0.334718 0.533550
-0.007884 -0.319798 0.532869
-0.012876 -0.334864 0.516386
-0.008215 -0.319663 0.516003
-0.007448 -0.319617 0.499846
-0.006400 -0.319620 0.483883
-0.006042 -0.319607 0.467584
-0.005492 -0.319674 0.451090
-0.004099 -0.319912 0.434475
-0.003468 -0.320167 0.417695
-0.004257 -0.320316 0.400819
-0.004324 -0.320430 0.384467
-0.003262 -0.320564 0.368801
-0.002412 -0.320547 0.352479
-0.002029 -0.320373 0.335330
-0.001312 -0.320499 0.318531
-0.000704 -0.320891 0.302065
-0.001387 -0.320932 0.285439
-0.003311 -0.320686 0.268806
-0.005437 -0.320749 0.252286
-0.006979 -0.320977 0.235855
-0.006874 -0.320866 0.219747
-0.005597 -0.320512 0.204284
-0.012194 -0.331333 0.190147
-0.005944 -0.320215 0.188855
-0.014651 -0.328743 0.181354
-0.009758 -0.319537 0.174438
-0.015161 -0.316283 0.731551
-0.010884 -0.302871 0.730546
-0.014685 -0.316754 0.714561
-0.009764 -0.302755 0.713696
-0.009683 -0.302620 0.696769
-0.010015 -0.302570 0.679945
-0.009763 -0.302443 0.663543
-0.009189 -0.302249 0.647601
-0.008362 -0.302390 0.631560
-0.007829 -0.302875 0.615256
-0.007830 -0.302934 0.598627
-0.007787 -0.302650 0.581784
-0.007171 -0.302765 0.565072
-0.006233 -0.303080 0.548493
-0.005862 -0.303063 0.531966
-0.005787 -0.302889 0.515480
-0.005555 -0.302927 0.499040
-0.005429 -0.302976 0.482690
-0.005435 -0.302834 0.466545
-0.004989 -0.302810 0.450260
-0.003731 -0.303179 0.433557
-0.002741 -0.303431 0.416878
-0.002546 -0.303239 0.400416
-0.002273 -0.303199 0.384041
-0.002123 -0.303547 0.367731
-0.001893 -0.303621 0.351349
-0.000538 -0.306244 0.318415
-0.000202 -0.307660 0.301853
-0.000255 -0.308980 0.285327
-0.000699 -0.308911 0.268864
-0.001837 -0.303730 0.252815
-0.004562 -0.304025 0.236104
-0.005367 -0.303928 0.219744
-0.004531 -0.303572 0.203495
-0.002915 -0.303548 0.187415
-0.001416 -0.303551 0.171558
-0.011585 -0.313629 0.163082
-0.007153 -0.303806 0.156160
-0.007799 -0.285710 0.746761
-0.004826 -0.285937 0.730352
-0.004010 -0.285954 0.713510
-0.004378 -0.285893 0.696598
-0.005111 -0.285824 0.679790
-0.005010 -0.285743 0.663453
-0.004201 -0.285668 0.647635
-0.003429 -0.285744 0.631628
-0.002761 -0.284491 0.600162
-0.003864 -0.286163 0.581614
-0.002665 -0.287027 0.548564
-0.002378 -0.287257 0.531965
-0.002215 -0.286883 0.515409
-0.002270 -0.287040 0.499082
-0.002496 -0.286921 0.482842
-0.002195 -0.284754 0.467178
-0.001725 -0.288931 0.433474
-0.001112 -0.291271 0.416830
-0.000736 -0.292053 0.400362
-0.000593 -0.292386 0.383958
-0.000749 -0.292176 0.367580
-0.000790 -0.292238 0.351180
-0.001922 -0.290266 0.236332
-0.000867 -0.292724 0.247712
-0.002421 -0.288252 0.219963
-0.001782 -0.289112 0.203442
-0.000865 -0.292720 0.186987
-0.000332 -0.294974 0.170627
-0.000259 -0.294738 0.154521
-0.011204 -0.298407 0.142838
-0.006919 -0.293968 0.137927
-0.015355 -0.279713 0.813996
-0.010429 -0.269219 0.813964
-0.014649 -0.280619 0.797560
-0.008116 -0.269078 0.797418
-0.013464 -0.282395 0.780444
-0.003816 -0.270157 0.763107
-0.002125 -0.273152 0.747204
-0.000902 -0.275529 0.731003
-0.000739 -0.275774 0.713964
-0.000941 -0.274930 0.696936
-0.001151 -0.274093 0.680229
-0.001035 -0.274256 0.663911
-0.000618 -0.275512 0.647966
-0.000325 -0.276524 0.631976
-0.000786 -0.275036 0.581808
-0.000440 -0.276153 0.595750
-0.000268 -0.277307 0.462276
-0.008447 -0.288920 0.123558
-0.013862 -0.267203 0.845669
-0.008609 -0.253004 0.846206
-0.006658 -0.252961 0.829782
-0.001670 -0.256573 0.796945
-0.013806 -0.249208 0.875892
-0.007748 -0.236270 0.877479
-0.004502 -0.236426 0.862277
-0.001828 -0.240719 0.828966
-0.004764 -0.222093 0.893911
-0.002034 -0.224811 0.878685
-0.000692 -0.226672 0.862789
0.000041 -0.297647 0.318353
0.000958 -0.286697 0.318423
0.000142 -0.299039 0.301774
0.001382 -0.286768 0.301943
0.000231 -0.300338 0.285287
0.001561 -0.286735 0.285437
0.000259 -0.300257 0.268876
0.001451 -0.286605 0.268964
0.000175 -0.297833 0.258546
0.000852 -0.286882 0.253024
0.000009 -0.277719 0.607293
0.000650 -0.270118 0.600642
0.000118 -0.278693 0.549088
0.001153 -0.269710 0.549637
0.000128 -0.278990 0.532305
0.001126 -0.269845 0.532679
0.000030 -0.278734 0.515529
0.000901 -0.269991 0.515635
0.000102 -0.278790 0.499397
0.001088 -0.269810 0.499785
0.000122 -0.278581 0.483387
0.001192 -0.269642 0.484055
0.000037 -0.278210 0.473448
0.000724 -0.271003 0.467791
0.000314 -0.280666 0.433791
0.001585 -0.270017 0.434265
0.000644 -0.282885 0.417199
0.002208 -0.269928 0.417863
0.000609 -0.283808 0.400559
0.002090 -0.269945 0.400915
0.000635 -0.284176 0.384128
0.002092 -0.269926 0.384432
0.000750 -0.283774 0.367969
0.002427 -0.269830 0.368719
0.000729 -0.283855 0.351579
0.002460 -0.269974 0.352364
0.002321 -0.270446 0.335215
0.002761 -0.270487 0.318607
0.003655 -0.270083 0.302438
0.003778 -0.270016 0.285861
0.003239 -0.270178 0.269107
0.002797 -0.270112 0.252911
0.000539 -0.281718 0.236599
0.002278 -0.269943 0.237088
0.000162 -0.279740 0.220233
0.001689 -0.269995 0.220738
0.000176 -0.280820 0.203644
0.001811 -0.270213 0.204052
0.001119 -0.284482 0.187247
0.003893 -0.270500 0.187839
0.002193 -0.286726 0.170922
0.006264 -0.270639 0.171482
0.002217 -0.286553 0.154534
0.006316 -0.270412 0.154560
0.001980 -0.285835 0.138545
0.005763 -0.270319 0.137730
0.002214 -0.284628 0.122942
0.006358 -0.270844 0.121465
0.001645 -0.281801 0.107645
0.006320 -0.271188 0.105981
0.000492 -0.279521 0.099234
0.004070 -0.270776 0.092171
0.000267 -0.261902 0.763005
0.001347 -0.252591 0.762410
0.000693 -0.264877 0.747320
0.002048 -0.252623 0.746550
0.000796 -0.267236 0.731217
0.002317 -0.252725 0.730473
0.000627 -0.267526 0.714144
0.002118 -0.252912 0.713667
0.000560 -0.266708 0.697136
0.001886 -0.252974 0.696860
0.000697 -0.265830 0.680538
0.001805 -0.252854 0.680326
0.000779 -0.266022 0.664224
0.001853 -0.252833 0.664039
0.000848 -0.267356 0.648161
0.002113 -0.252928 0.647978
0.000918 -0.268340 0.632151
0.002220 -0.252919 0.631814
0.002140 -0.252830 0.615443
0.001871 -0.252936 0.598712
0.000519 -0.266809 0.581915
0.001522 -0.253185 0.581840
0.001690 -0.253248 0.565557
0.002020 -0.253192 0.549422
0.001960 -0.253323 0.532479
0.001750 -0.253451 0.515523
0.001846 -0.253301 0.499657
0.001944 -0.253162 0.483908
0.001709 -0.253367 0.467219
0.001712 -0.253577 0.450412
0.002346 -0.253540 0.434135
0.002770 -0.253470 0.417690
0.002576 -0.253478 0.400826
0.002517 -0.253421 0.384371
0.002875 -0.253245 0.368568
0.003042 -0.253321 0.352244
0.003029 -0.253726 0.335270
0.003547 -0.253777 0.318666
0.004413 -0.253470 0.302379
0.004612 -0.253434 0.285770
0.004200 -0.253582 0.269041
0.003797 -0.253503 0.252835
0.003405 -0.253319 0.237020
0.003208 -0.253364 0.220766
0.003726 -0.253593 0.204140
0.005587 -0.253911 0.187789
0.007590 -0.254119 0.171268
0.007860 -0.253997 0.154374
0.007613 -0.253969 0.137665
0.008205 -0.254418 0.121202
0.008965 -0.254786 0.104921
0.009120 -0.254719 0.089174
0.002925 -0.264991 0.078139
0.005245 -0.255902 0.072494
0.000610 -0.248440 0.796244
0.002691 -0.236400 0.795368
0.002861 -0.236407 0.778422
0.002887 -0.236374 0.761698
0.003481 -0.236356 0.745458
0.003958 -0.236373 0.729227
0.003915 -0.236416 0.712810
0.003552 -0.236422 0.696363
0.003047 -0.236386 0.679924
0.002943 -0.236375 0.663647
0.003339 -0.236384 0.647537
0.003369 -0.236395 0.631113
0.002959 -0.236416 0.614404
0.002754 -0.236460 0.597961
0.002683 -0.236525 0.581707
0.002562 -0.236625 0.565216
0.002390 -0.236748 0.548528
0.002347 -0.236820 0.531821
0.002251 -0.236824 0.515262
0.002115 -0.236786 0.499031
0.002042 -0.236757 0.482923
