0.418993 -0.371495 0.549314
0.423643 -0.375948 0.533832
0.424770 -0.375770 0.543377
0.415428 -0.374157 0.533910
0.415135 -0.374294 0.517277
0.423353 -0.375954 0.517188
0.414765 -0.374374 0.501347
0.422958 -0.376076 0.501365
0.422433 -0.376249 0.485435
0.414249 -0.374476 0.485351
0.421033 -0.376444 0.468577
0.412821 -0.374836 0.468627
0.412538 -0.374961 0.451978
0.420746 -0.376392 0.451827
0.418022 -0.374574 0.434403
0.423262 -0.375935 0.438537
0.418485 -0.356459 0.570472
0.418499 -0.362985 0.562949
0.413048 -0.358424 0.315041
0.423958 -0.359414 0.311572
0.418427 -0.360822 0.320645
0.418395 -0.356390 0.305734
0.418470 -0.348262 0.577785
0.418502 -0.336855 0.585996
0.418537 -0.318006 0.595685
0.418498 -0.328678 0.591180
0.418601 -0.301587 0.601628
0.418640 -0.288547 0.605816
0.412526 -0.293032 0.051638
0.423424 -0.293753 0.049002
0.418061 -0.295318 0.057587
0.418041 -0.291203 0.042926
0.418633 -0.280357 0.607850
0.418614 -0.268796 0.611098
0.418592 -0.252415 0.617558
0.418585 -0.243418 0.622035
0.414588 -0.243525 -0.143968
0.425477 -0.244392 -0.146665
0.419252 -0.245372 -0.138342
0.419281 -0.241265 -0.153383
0.418538 -0.219656 0.631583
0.418559 -0.235216 0.625891
0.418567 -0.215235 0.678588
0.418528 -0.210995 0.686732
0.407473 -0.209874 0.637448
0.419909 -0.203962 0.636377
0.413976 -0.211034 -0.259629
0.424859 -0.211705 -0.261447
0.418886 -0.213282 -0.253808
0.418895 -0.208785 -0.267964
0.418454 -0.196171 0.723624
0.418473 -0.192943 0.731899
0.418410 -0.180275 0.756565
0.418423 -0.176253 0.764662
0.418471 -0.163957 0.789133
0.418501 -0.159768 0.797310
0.418416 -0.147212 0.821675
0.418435 -0.142847 0.829906
0.418452 -0.131394 0.856469
0.418471 -0.127641 0.864613
0.417349 -0.126750 -0.514432
0.422207 -0.129501 -0.508035
0.417323 -0.131305 -0.501219
0.411302 -0.129265 -0.507347
0.418418 -0.108423 0.895450
0.418389 -0.114975 0.887525
0.418440 -0.117553 0.640085
0.418362 -0.118322 0.629739
0.413591 -0.118869 0.614745
0.423791 -0.113047 0.624058
0.421918 -0.107603 0.614655
0.412123 -0.118074 0.605210
0.414678 -0.107238 0.602498
0.418355 -0.096174 0.901981
0.418371 -0.101015 0.902011
0.419855 -0.101122 0.711323
0.416744 -0.101796 0.694231
0.410247 -0.099972 0.687868
0.418473 -0.102637 0.662812
0.416842 -0.101374 0.680004
0.418454 -0.109406 0.648277
0.418548 -0.090227 0.598749
0.425262 -0.095064 0.609588
0.418247 -0.091182 0.892497
0.418171 -0.088242 0.876513
0.418175 -0.088575 0.860322
0.418158 -0.089116 0.843707
0.418141 -0.089925 0.826993
0.418148 -0.090446 0.810525
0.418156 -0.090845 0.794100
0.418143 -0.091850 0.777640
0.418154 -0.093243 0.761266
0.418213 -0.095786 0.745110
0.419879 -0.098659 0.727135
0.415459 -0.099374 0.716375
0.410261 -0.099950 0.686019
0.411841 -0.085410 0.587634
0.414068 -0.075006 0.585627
0.422317 -0.074997 0.594881
0.416692 -0.058907 0.583853
0.424939 -0.058881 0.590979
0.418164 -0.042208 0.581090
0.426288 -0.049821 0.589330
0.410049 -0.034593 0.572508
0.412280 -0.026423 0.571748
0.420516 -0.026394 0.577828
0.415017 -0.010077 0.570749
0.423243 -0.010046 0.575602
0.415749 0.006299 0.570299
0.423971 0.006325 0.574383
0.413144 0.002476 -0.917453
0.424058 0.001639 -0.921584
0.418462 0.000751 -0.911817
0.418517 0.004121 -0.927742
0.413948 0.019666 0.570949
0.418911 0.024159 0.575723
0.418316 0.024741 -0.972927
0.423865 0.018048 -0.969918
0.418397 0.015502 -0.963315
0.412885 0.018608 -0.969279
0.418847 0.038943 0.583250
0.414430 0.055478 0.585655
0.422663 0.055484 0.591847
0.424811 0.044338 0.590366
0.412082 0.071881 0.587759
0.420305 0.071884 0.593726
0.418785 0.053180 -0.963336
0.408331 0.063619 -0.952877
0.418222 0.062257 -0.951431
0.413454 0.048989 -0.971166
0.410651 0.084858 0.589236
0.416872 0.089511 0.594707
0.418205 0.068464 -0.943431
0.418072 0.076753 -0.932333
0.417973 0.104695 0.596911
0.416580 0.094583 -0.531273
0.417935 0.091591 -0.549875
0.417987 0.089257 -0.566317
0.418030 0.088353 -0.582691
0.418020 0.089021 -0.599240
0.417997 0.091290 -0.615227
0.404724 0.095732 -0.626100
0.418918 0.095172 -0.631069
0.414075 0.096880 -0.636490
0.418018 0.089492 -0.911308
0.407505 0.095966 -0.901281
0.418005 0.094760 -0.898434
0.418067 0.083165 -0.923806
0.418021 0.119985 0.593855
0.417860 0.106696 -0.467380
0.405841 0.111871 -0.453794
0.416730 0.110903 -0.449439
0.417858 0.102988 -0.483841
0.417874 0.099878 -0.499736
0.416568 0.097316 -0.515357
0.410216 0.096563 -0.524365
0.418928 0.099034 -0.645351
0.417998 0.103898 -0.663957
0.417657 0.109613 -0.681524
0.411975 0.113182 -0.687374
0.416672 0.109905 -0.843519
0.405227 0.111648 -0.847909
0.417962 0.105227 -0.861478
0.417995 0.101354 -0.877920
0.418037 0.097942 -0.890040
0.412586 0.124699 0.588841
0.418007 0.137773 0.586435
0.423537 0.132520 0.591911
0.417846 0.125071 -0.384422
0.406207 0.128720 -0.372723
0.417393 0.127982 -0.368084
0.417845 0.121125 -0.400955
0.417859 0.116554 -0.418020
0.416732 0.113535 -0.434069
0.410506 0.112987 -0.442946
0.417638 0.114465 -0.695626
0.417915 0.116727 -0.712741
0.417903 0.117152 -0.729452
0.417902 0.117805 -0.745564
0.417925 0.118266 -0.761494
0.417934 0.117587 -0.778145
0.417933 0.116200 -0.795150
0.419408 0.114382 -0.813028
0.414075 0.113594 -0.828219
0.410369 0.113026 -0.836958
0.416625 0.155093 0.578691
0.417858 0.144025 -0.288489
0.417869 0.140707 -0.303306
0.417876 0.137102 -0.319561
0.417880 0.133657 -0.336037
0.417399 0.130572 -0.353298
0.411619 0.129499 -0.362418
0.410295 0.161324 0.573024
0.416658 0.171456 0.567948
0.421282 0.167245 0.575917
0.417876 0.157169 -0.220660
0.408502 0.161792 -0.210641
0.419090 0.161013 -0.204727
0.417870 0.153554 -0.237085
0.417862 0.150892 -0.253037
0.417861 0.147989 -0.269390
0.417863 0.146119 -0.279782
0.412072 0.175672 0.553726
0.418531 0.186148 0.549138
0.423031 0.182387 0.562878
0.417831 0.172344 -0.154611
0.407335 0.177980 -0.143665
0.418616 0.177150 -0.138076
0.417853 0.167348 -0.171394
0.419078 0.163892 -0.188875
0.414432 0.162856 -0.199663
0.414630 0.189323 0.533390
0.422888 0.198487 0.533220
0.424989 0.196313 0.544587
0.412004 0.192612 0.516811
0.420252 0.200846 0.516636
0.411271 0.193943 0.500921
0.419489 0.200431 0.500883
0.411089 0.194217 0.489413
0.417156 0.198420 0.484350
0.417821 0.193899 -0.045394
0.417829 0.192419 -0.056779
0.417831 0.190324 -0.072749
0.417827 0.186324 -0.089203
0.417825 0.182175 -0.105806
0.418608 0.179558 -0.121933
0.413682 0.179014 -0.132708
0.418040 0.201068 0.467968
0.419251 0.207113 0.449784
0.414576 0.210048 0.440271
0.419177 0.213017 0.435019
0.425526 0.211477 0.443415
0.417846 0.210502 0.087439
0.403913 0.210807 0.074872
0.405217 0.210960 0.084951
0.417854 0.209719 0.074389
0.406018 0.210838 0.058600
0.417839 0.209649 0.058391
0.417832 0.208354 0.042108
0.417833 0.205523 0.025276
0.417829 0.203322 0.008997
0.417824 0.201552 -0.006789
0.417819 0.198689 -0.023245
0.417821 0.195990 -0.036762
0.417847 0.216954 0.419065
0.417812 0.219475 0.402480
0.417800 0.220426 0.386175
0.417802 0.220049 0.370296
0.417798 0.220261 0.353989
0.417790 0.221230 0.337149
0.417799 0.222248 0.320670
0.417805 0.223211 0.304568
0.417801 0.223779 0.288116
0.417792 0.224152 0.271464
0.417804 0.224571 0.255256
0.402666 0.226577 0.239090
0.417819 0.224703 0.239222
0.417829 0.223705 0.222639
0.417834 0.222359 0.205861
0.417831 0.221800 0.189542
0.417824 0.221140 0.173347
0.417816 0.219092 0.156738
0.417818 0.216819 0.140256
0.417824 0.215158 0.124260
0.417824 0.213455 0.108039
0.417837 0.211922 0.096126
0.434923 -0.376519 0.545117
0.434912 -0.372780 0.552999
0.426621 -0.375398 0.428066
0.435185 -0.377713 0.419756
0.433227 -0.378086 0.434342
0.426951 -0.375295 0.419779
0.435335 -0.377350 0.403253
0.427130 -0.375247 0.403102
0.438309 -0.376516 0.386908
0.430147 -0.374278 0.386739
0.441984 -0.375686 0.377505
0.435806 -0.372073 0.371549
0.435755 -0.363616 0.566666
0.430884 -0.357840 0.572104
0.435725 -0.351753 0.578126
0.441729 -0.359262 0.573855
0.430104 -0.357622 0.300746
0.441060 -0.359632 0.291611
0.435242 -0.361006 0.305664
0.435199 -0.357000 0.287107
0.434866 -0.338732 0.587288
0.427250 -0.342320 0.232511
0.438181 -0.343898 0.223034
0.433520 -0.345684 0.238589
0.429990 -0.341453 0.222986
0.435354 -0.339799 0.206707
0.441274 -0.342999 0.212693
0.434925 -0.318008 0.597781
0.434874 -0.330552 0.592295
0.429162 -0.325200 0.151626
0.440020 -0.326880 0.146353
0.434589 -0.328220 0.157328
0.434569 -0.323281 0.140702
0.434997 -0.301588 0.603448
0.428656 -0.309037 0.102740
0.439578 -0.310698 0.096789
0.434289 -0.312334 0.108266
0.434293 -0.307430 0.091204
0.435035 -0.291700 0.606587
0.435146 -0.290050 0.026151
0.441014 -0.293775 0.032317
0.435166 -0.294694 0.042991
0.430096 -0.292104 0.037843
0.435006 -0.268787 0.612913
0.435027 -0.283505 0.608817
0.426798 -0.276902 -0.014070
0.438645 -0.278006 -0.023213
0.433203 -0.279978 -0.007947
0.430446 -0.275692 -0.023217
0.442252 -0.277162 -0.032088
0.435906 -0.273224 -0.038850
0.434003 -0.251083 0.619491
0.426438 -0.260658 -0.080791
0.438062 -0.261949 -0.089087
0.432991 -0.263755 -0.074346
0.429887 -0.259075 -0.089328
0.435656 -0.256447 -0.104849
0.441852 -0.260932 -0.098453
0.427875 -0.244047 0.622404
0.438781 -0.244748 0.622604
0.433981 -0.237548 0.625426
0.435919 -0.240438 -0.170363
0.442252 -0.244379 -0.163748
0.435874 -0.245287 -0.153294
0.431354 -0.242576 -0.158137
0.434950 -0.219631 0.632158
0.426972 -0.227625 -0.211522
0.438788 -0.228968 -0.220362
0.433297 -0.230784 -0.205205
0.430624 -0.226074 -0.220726
0.435933 -0.223195 -0.235507
0.442296 -0.227978 -0.228867
0.429873 -0.211250 0.687128
0.435193 -0.214749 0.680861
0.440709 -0.211513 0.687760
0.435112 -0.207052 0.694127
0.433655 -0.204384 0.636733
0.429432 -0.209919 -0.272691
0.440355 -0.212263 -0.280214
0.434721 -0.213348 -0.268011
0.434754 -0.207519 -0.286162
0.434839 -0.196622 0.725510
0.434860 -0.193803 0.733795
0.427337 -0.194679 0.637984
0.426316 -0.194679 0.637981
0.427338 -0.194676 0.638389
0.433651 -0.204396 0.641071
0.428382 -0.193687 -0.324482
0.439308 -0.196445 -0.331757
0.434134 -0.197827 -0.319173
0.434116 -0.191915 -0.336777
0.434791 -0.176864 0.765986
0.434782 -0.180894 0.757889
0.433191 -0.176982 -0.385464
0.437755 -0.179820 -0.380812
0.433192 -0.181189 -0.369730
0.426843 -0.178466 -0.375796
0.434890 -0.160411 0.798720
0.434859 -0.164663 0.790545
0.434791 -0.159375 -0.433693
0.440331 -0.162556 -0.427483
0.434747 -0.164620 -0.418724
0.429480 -0.161533 -0.425193
0.434809 -0.143519 0.831289
0.434787 -0.147871 0.823054
0.434833 -0.132017 0.858169
0.434862 -0.128387 0.866286
0.434799 -0.108910 0.896513
0.434774 -0.115920 0.888576
0.434875 -0.119956 0.642459
0.434885 -0.119926 0.631674
0.434874 -0.113013 0.623764
0.434730 -0.096441 0.901935
0.434746 -0.101539 0.901960
0.434635 -0.103922 0.712209
0.426417 -0.100221 0.720475
0.434649 -0.100736 0.722533
0.434689 -0.107175 0.695695
0.434825 -0.106428 0.679359
0.434888 -0.105634 0.662942
0.434874 -0.110534 0.650689
0.434870 -0.105134 0.618023
0.435588 -0.089961 0.609722
0.435667 -0.092948 -0.597261
0.441720 -0.096615 -0.590562
0.435668 -0.098986 -0.583455
0.430823 -0.096048 -0.589799
0.434618 -0.091701 0.892479
0.434552 -0.088930 0.876486
0.434556 -0.089578 0.860347
0.434532 -0.090567 0.843803
0.434509 -0.091648 0.827112
0.434527 -0.091966 0.810630
0.434543 -0.092076 0.794201
0.434518 -0.093199 0.777741
0.434521 -0.094735 0.761363
0.434593 -0.097000 0.745189
0.434654 -0.099364 0.730832
0.430603 -0.084135 0.606495
0.435552 -0.076182 0.602986
0.441534 -0.082203 0.606843
0.434761 -0.058828 0.595622
0.434012 -0.043709 0.591859
0.428073 -0.039002 0.588043
0.430957 -0.026400 0.586182
0.439140 -0.026398 0.591079
0.435637 -0.010228 0.584727
0.441768 -0.015783 0.589878
0.434584 0.006305 0.581537
0.434784 0.022915 0.584994
0.429482 0.033383 0.587859
0.434783 0.038934 0.593033
0.440387 0.028541 0.590449
0.436070 0.056664 0.600687
0.434430 0.045179 -0.967606
0.418469 0.041222 -0.973755
0.424518 0.046654 -0.969061
0.434435 0.037709 -0.973273
0.433333 0.071871 0.602364
0.442555 0.062941 0.606843
0.441540 0.071877 0.607467
0.434562 0.051609 -0.959850
0.434569 0.060061 -0.948939
0.431234 0.088284 0.604471
0.439442 0.088288 0.608606
0.434443 0.074968 -0.930114
0.434560 0.066726 -0.940835
0.430228 0.104695 0.605410
0.438435 0.104696 0.609234
0.434935 0.094598 -0.531741
0.421145 0.095938 -0.520628
0.429893 0.095940 -0.520652
0.440805 0.096744 -0.525226
0.434924 0.097535 -0.515392
0.434335 0.091827 -0.549747
0.434403 0.089935 -0.566139
0.434441 0.089046 -0.582457
0.434408 0.089207 -0.598915
0.434385 0.091287 -0.614961
0.433132 0.095215 -0.630366
0.424993 0.096380 -0.638692
0.426839 0.096380 -0.638690
0.433125 0.099117 -0.645334
0.437762 0.097242 -0.635441
0.435576 0.093942 -0.893463
0.434407 0.086529 -0.911338
0.434444 0.081666 -0.921564
0.434407 0.121352 0.603355
0.439914 0.116102 0.608854
0.434404 0.111127 -0.450426
0.421434 0.112352 -0.439238
0.429034 0.112351 -0.439229
0.434390 0.113768 -0.433964
0.439934 0.113261 -0.444589
0.434257 0.106876 -0.467145
0.434243 0.102763 -0.483530
0.434274 0.099899 -0.499590
0.434377 0.103232 -0.663822
0.434359 0.107814 -0.680271
0.434339 0.112014 -0.690728
0.422901 0.112331 -0.689933
0.434330 0.114156 -0.698740
0.433867 0.111694 -0.812834
0.422217 0.112007 -0.828380
0.425807 0.112842 -0.819342
0.434373 0.109539 -0.828271
0.434366 0.105863 -0.844871
0.434360 0.102071 -0.861422
0.435606 0.098350 -0.879334
0.430956 0.096951 -0.887239
0.433654 0.137784 0.595305
0.434241 0.127391 -0.368507
0.422558 0.128871 -0.359302
0.434226 0.128788 -0.358573
0.434254 0.125026 -0.384399
0.434249 0.121127 -0.400955
0.434253 0.116620 -0.417905
0.434313 0.115361 -0.712620
0.434289 0.115322 -0.729236
0.434295 0.115728 -0.745433
0.434321 0.116011 -0.761498
0.435723 0.114618 -0.779483
0.431452 0.113818 -0.795144
0.428152 0.113258 -0.808369
0.427745 0.143420 0.589540
0.433639 0.154584 0.587474
0.438643 0.149602 0.592816
0.434274 0.139837 -0.303134
0.434263 0.143531 -0.287127
0.434302 0.136613 -0.319423
0.434282 0.133360 -0.335825
0.434244 0.130575 -0.350271
0.432846 0.171763 0.579461
0.427783 0.161982 -0.195032
0.425356 0.161982 -0.195052
0.433669 0.160558 -0.202984
0.433659 0.163350 -0.188821
0.438721 0.162361 -0.196808
0.434282 0.155803 -0.220428
0.434268 0.152130 -0.236819
0.434277 0.149952 -0.252964
0.434273 0.147446 -0.269401
0.434274 0.145893 -0.278505
0.426452 0.178174 0.573355
0.429839 0.187405 0.567259
0.437651 0.186744 0.576371
0.428566 0.178292 -0.127210
0.424589 0.178292 -0.127235
0.434106 0.176862 -0.136958
0.434104 0.179057 -0.121795
0.439495 0.178721 -0.130803
0.434240 0.171635 -0.154582
0.434260 0.166698 -0.171316
0.441169 0.196286 0.574830
0.438698 0.198804 0.566136
0.427874 0.193290 0.555407
0.434793 0.202990 0.549878
0.434220 0.193626 -0.044573
0.434241 0.191865 -0.056667
0.434260 0.189699 -0.072686
0.434239 0.185597 -0.089048
0.434216 0.181389 -0.105536
0.431305 0.206674 0.533340
0.439481 0.214642 0.533667
0.441705 0.212304 0.544449
0.428818 0.209037 0.516625
0.436969 0.216853 0.516976
0.431219 0.208624 0.500833
0.439402 0.214290 0.500940
0.436084 0.207253 0.486527
0.442648 0.211371 0.493033
0.434457 0.205828 0.468056
0.434443 0.208931 0.452542
0.434419 0.211653 0.444352
0.434239 0.210661 0.086583
0.434255 0.209925 0.074510
0.434271 0.209688 0.058424
0.434258 0.208065 0.042168
0.434228 0.204567 0.025557
0.434223 0.202330 0.009263
0.434234 0.201071 -0.006756
0.434227 0.198393 -0.023247
0.434225 0.195858 -0.035989
0.434376 0.214210 0.435138
0.434302 0.218040 0.419074
0.434251 0.220344 0.402605
0.434232 0.221490 0.386306
0.434240 0.221698 0.370286
0.434229 0.221839 0.353960
0.434207 0.222287 0.337237
0.434220 0.222946 0.320765
0.434245 0.223710 0.304569
0.434232 0.223669 0.288172
0.434206 0.223266 0.271660
0.434220 0.223984 0.255395
0.434244 0.224982 0.239209
0.434245 0.224100 0.222648
0.434244 0.222486 0.205953
0.434256 0.221922 0.189592
0.434256 0.221200 0.173360
0.434227 0.218695 0.156902
0.434214 0.216214 0.140509
0.434229 0.215136 0.124363
0.434233 0.213964 0.108034
0.434239 0.212207 0.095177
0.451271 -0.374133 0.556000
0.451286 -0.377900 0.548106
0.446355 -0.374410 0.366541
0.457038 -0.375973 0.354191
0.451549 -0.376783 0.371433
0.448853 -0.373729 0.354227
0.452136 -0.373319 0.338314
0.458332 -0.375627 0.344049
0.451187 -0.350806 0.581612
0.451161 -0.360141 0.574641
0.446995 -0.358156 0.272276
0.455165 -0.359756 0.272335
0.449645 -0.361214 0.287155
0.443108 -0.358966 0.280712
0.459059 -0.359037 0.264036
0.452599 -0.355715 0.257497
0.451203 -0.340760 0.588738
0.446419 -0.341740 0.201767
0.457305 -0.342931 0.197050
0.451525 -0.343835 0.207013
0.451532 -0.340047 0.190980
0.451275 -0.318001 0.599700
0.451212 -0.332564 0.593377
0.447763 -0.325165 0.135588
0.458653 -0.326283 0.132583
0.452288 -0.327469 0.141085
0.452317 -0.322813 0.126125
0.450823 -0.301056 0.604860
0.446413 -0.309050 0.085702
0.457284 -0.310104 0.082372
0.451492 -0.311679 0.091424
0.451488 -0.307004 0.076178
0.445035 -0.292492 0.606467
0.455940 -0.295240 0.607074
0.450848 -0.286285 0.609270
0.451370 -0.268778 0.614857
0.451364 -0.254469 0.619734
0.451343 -0.235999 0.627462
0.451353 -0.246283 0.623098
0.451357 -0.218284 0.635197
0.451194 -0.206564 0.696158
0.451232 -0.211619 0.688040
0.445897 -0.210546 0.638001
0.451350 -0.216056 0.645334
0.445897 -0.210544 0.638892
0.452206 -0.207963 -0.301254
0.458496 -0.211600 -0.294813
0.452192 -0.213092 -0.285871
0.447620 -0.210011 -0.291338
0.446850 -0.194603 0.736050
0.451857 -0.196888 0.729855
0.451851 -0.190579 0.743757
0.457771 -0.195129 0.737363
0.450440 -0.191563 -0.351309
0.455620 -0.195717 -0.345431
0.450498 -0.197895 -0.336388
0.444739 -0.194479 -0.342577
0.451110 -0.177512 0.767446
0.451109 -0.181569 0.759328
0.449894 -0.175478 -0.400655
0.454678 -0.179515 -0.394998
0.449895 -0.181202 -0.385630
0.443753 -0.178336 -0.391690
0.451228 -0.161104 0.800379
0.451201 -0.165394 0.792179
0.451126 -0.144299 0.832915
0.451101 -0.148576 0.824692
0.451159 -0.142511 -0.481748
0.456760 -0.145944 -0.475320
0.451167 -0.148808 -0.467925
0.445865 -0.145385 -0.474319
0.445405 -0.129077 0.867676
0.450970 -0.132170 0.861431
0.456314 -0.129593 0.868804
0.450996 -0.126048 0.875027
0.451132 -0.117290 0.889901
0.451141 -0.109421 0.897859
0.451257 -0.119804 0.631371
0.451245 -0.119867 0.643241
0.451256 -0.112126 0.623347
0.451079 -0.102090 0.901815
0.451061 -0.096775 0.901790
0.450983 -0.107186 0.712346
0.451004 -0.101786 0.725849
0.451032 -0.111542 0.695870
0.451189 -0.109050 0.679618
0.451264 -0.106850 0.663191
0.451253 -0.111160 0.651512
0.451253 -0.104185 0.619104
0.451238 -0.090490 0.612938
0.450957 -0.092132 0.892453
0.450897 -0.089354 0.876434
0.450911 -0.090589 0.860358
0.450869 -0.092251 0.843982
0.450823 -0.093480 0.827411
0.450858 -0.093547 0.810951
0.450891 -0.093356 0.794507
0.450853 -0.094630 0.777996
0.450845 -0.096308 0.761570
0.450937 -0.098038 0.745336
0.451013 -0.099664 0.734167
0.451672 -0.075846 0.608264
0.446494 -0.071589 0.604410
0.451615 -0.058652 0.602565
0.457425 -0.063855 0.606957
0.451122 -0.042590 0.599771
0.452662 -0.025003 0.600565
0.451340 -0.011437 0.596895
0.459193 -0.017963 0.606392
0.459194 -0.018642 0.606386
0.443501 -0.004893 0.588713
0.444621 0.006295 0.588019
0.452848 0.006297 0.593175
0.444494 0.017608 0.588166
0.450374 0.022911 0.594157
0.450552 0.038064 0.602272
0.444782 0.052001 0.604956
0.450534 0.056668 0.608490
0.455755 0.042873 0.607353
0.450808 0.043413 -0.964753
0.450808 0.035940 -0.972698
0.450911 0.071874 0.611186
0.450875 0.057767 -0.946550
0.450928 0.049427 -0.956792
0.450856 0.088283 0.613314
0.449992 0.074301 -0.926803
0.450889 0.065156 -0.938330
0.450801 0.104691 0.614062
0.450701 0.092686 -0.549274
0.450695 0.094823 -0.534164
0.450791 0.091446 -0.565575
0.450837 0.090588 -0.581896
0.450784 0.090110 -0.598332
0.450754 0.091863 -0.614588
0.450771 0.095287 -0.626373
0.450786 0.097556 -0.634353
0.450773 0.095671 -0.881905
0.441819 0.096492 -0.885649
0.450808 0.091047 -0.894514
0.450033 0.083307 -0.911990
0.444034 0.080676 -0.920072
0.450110 0.121376 0.611158
0.450680 0.111982 -0.454055
0.450640 0.108164 -0.466654
0.450603 0.103491 -0.483041
0.450657 0.100872 -0.499462
0.450714 0.098586 -0.515988
0.450714 0.096835 -0.525727
0.450774 0.100177 -0.646939
0.450740 0.102939 -0.663547
0.450733 0.107116 -0.679900
0.450739 0.111529 -0.691982
0.450747 0.113834 -0.700079
0.450668 0.110000 -0.794627
0.439556 0.112280 -0.794811
0.442075 0.112854 -0.785872
0.451918 0.112085 -0.779485
0.450719 0.108367 -0.811296
0.450783 0.106447 -0.828016
0.450769 0.103070 -0.844644
0.450746 0.099505 -0.861211
0.450784 0.097299 -0.873611
0.444192 0.127005 0.606717
0.450072 0.138002 0.604149
0.455130 0.132905 0.609295
0.450602 0.127599 -0.368160
0.450577 0.128729 -0.358031
0.450662 0.125728 -0.384532
0.450656 0.121998 -0.401006
0.450619 0.117571 -0.417520
0.450643 0.114811 -0.433937
0.450674 0.113487 -0.445836
0.450717 0.114447 -0.712414
0.450667 0.114075 -0.728869
0.452277 0.113821 -0.746300
0.450156 0.114029 -0.761609
0.447320 0.113617 -0.774837
0.449999 0.154603 0.595825
0.450640 0.139606 -0.302548
0.451131 0.143660 -0.284980
0.450695 0.137003 -0.318974
0.450676 0.133894 -0.335366
0.450604 0.130743 -0.349780
0.444066 0.160516 0.590245
0.449993 0.171282 0.588317
0.455011 0.166463 0.592843
0.450719 0.160283 -0.204915
0.450676 0.155483 -0.220032
0.450647 0.151499 -0.236427
0.450686 0.149784 -0.252935
0.451170 0.147206 -0.270735
0.446015 0.145956 -0.278705
0.450667 0.186735 0.582511
0.450651 0.171861 -0.154468
0.450659 0.176719 -0.138837
0.450640 0.166952 -0.170965
0.450690 0.163848 -0.187354
0.450727 0.162371 -0.196728
0.451619 0.202311 0.576609
0.450629 0.191977 -0.056244
0.450603 0.193568 -0.044047
0.450679 0.190063 -0.072486
0.450653 0.186001 -0.088796
0.450598 0.181707 -0.105155
0.450617 0.179300 -0.121528
0.450647 0.178684 -0.130583
0.446952 0.207000 0.566211
0.457724 0.212116 0.574581
0.455147 0.214272 0.566260
0.444188 0.209672 0.555198
0.451096 0.218858 0.549715
0.444907 0.209914 0.482001
0.446141 0.209361 0.468183
0.454330 0.214125 0.468200
0.450590 0.215859 0.486401
0.445065 0.210122 0.455423
0.450646 0.213421 0.450633
0.451570 0.210953 0.076077
0.446741 0.211174 0.083756
0.457655 0.211373 0.082334
0.451576 0.212688 0.090187
0.450684 0.210556 0.058652
0.450686 0.208736 0.042337
0.450620 0.204365 0.025998
0.450608 0.201925 0.009634
0.450653 0.201197 -0.006782
0.450651 0.198577 -0.023273
0.450618 0.195893 -0.035686
0.447330 0.222847 0.533921
0.455500 0.230975 0.534120
0.457980 0.228674 0.544311
0.445120 0.225058 0.517198
0.453299 0.232682 0.517358
0.450119 0.223398 0.499572
0.455061 0.230939 0.504008
0.450820 0.216307 0.435297
0.450782 0.219624 0.419096
0.450700 0.221536 0.402849
0.450660 0.223226 0.386551
0.450688 0.224910 0.370211
0.450677 0.225123 0.353861
0.450619 0.224315 0.337515
0.450623 0.224523 0.321117
0.450684 0.225648 0.304652
0.450674 0.224863 0.288296
0.450618 0.222992 0.272018
0.450631 0.224034 0.255609
0.450681 0.226352 0.239104
0.450669 0.225487 0.222676
0.450633 0.223273 0.206311
0.450658 0.222937 0.189895
0.450683 0.222498 0.173493
0.450636 0.219442 0.157196
0.450599 0.216593 0.140891
0.450635 0.216225 0.124465
0.450662 0.215596 0.107972
0.466424 -0.379990 0.551889
0.460105 -0.375168 0.557981
0.466395 -0.371276 0.565581
0.471063 -0.376850 0.560434
0.468092 -0.373410 0.322461
0.473977 -0.375572 0.328394
0.468123 -0.375927 0.338103
0.463038 -0.374922 0.333032
0.466444 -0.350525 0.585312
0.467614 -0.362226 0.576184
0.460138 -0.342143 0.589564
0.471155 -0.344891 0.591283
0.466451 -0.335772 0.595344
0.467489 -0.318350 0.604088
0.461909 -0.306192 0.605729
0.467557 -0.301060 0.609017
0.472841 -0.313129 0.607918
0.467786 -0.285167 0.613560
0.467395 -0.291114 0.010495
0.472937 -0.293559 0.016282
0.467409 -0.294877 0.024309
0.461933 -0.293232 0.018187
0.469161 -0.267337 0.619015
0.464591 -0.257360 0.620927
0.475546 -0.260936 0.622188
0.469150 -0.252082 0.623960
0.467766 -0.235987 0.629485
0.468520 -0.242519 -0.186135
0.474756 -0.244317 -0.179992
0.468494 -0.245399 -0.172893
0.463819 -0.244158 -0.179105
0.466741 -0.218263 0.635434
0.462432 -0.227638 -0.243771
0.473378 -0.228046 -0.245765
0.467658 -0.229051 -0.237835
0.467679 -0.225497 -0.251894
0.467705 -0.211829 0.688209
0.467666 -0.206210 0.696353
0.467666 -0.195329 0.737434
0.467644 -0.190534 0.745546
0.468419 -0.181644 0.762369
0.463471 -0.178091 0.768595
0.468451 -0.174816 0.776261
0.474483 -0.178710 0.769635
0.467662 -0.161702 0.801641
0.467634 -0.166024 0.793414
0.462458 -0.161971 -0.441166
0.473367 -0.162297 -0.442174
0.467660 -0.163980 -0.435123
0.467694 -0.159091 -0.448588
0.468445 -0.148780 0.827966
0.463536 -0.145022 0.834145
0.474563 -0.145912 0.835496
0.468505 -0.142176 0.842075
0.467646 -0.130092 0.869549
0.467630 -0.125900 0.877666
0.467583 -0.117784 0.890434
0.467592 -0.109962 0.898396
0.467702 -0.118422 0.634251
0.467701 -0.118468 0.641965
0.466809 -0.106154 0.626909
0.467531 -0.102706 0.901863
0.467506 -0.096930 0.901839
0.467104 -0.102748 0.729651
0.467451 -0.108870 0.712176
0.467505 -0.111302 0.695730
0.467668 -0.107024 0.679409
0.467740 -0.104733 0.662987
0.467714 -0.110031 0.650203
0.460733 -0.100998 0.621113
0.463590 -0.090355 0.619077
0.471826 -0.090252 0.624593
0.467403 -0.092467 0.892455
0.467337 -0.089939 0.876330
0.467354 -0.091286 0.860064
0.467320 -0.092773 0.843663
0.467275 -0.093556 0.827202
0.467292 -0.093970 0.810881
0.467315 -0.094413 0.794496
0.467294 -0.095479 0.777913
0.467302 -0.096856 0.761405
0.467058 -0.098993 0.744273
0.461350 -0.099982 0.735990
0.468541 -0.073782 0.617434
0.474646 -0.078662 0.622989
0.466521 -0.058518 0.611804
0.460308 -0.053285 0.605233
0.460543 -0.042526 0.604991
0.468771 -0.042494 0.611648
0.459983 -0.029499 0.605553
0.466301 -0.024954 0.610694
0.467151 -0.011533 0.610155
0.461921 -0.014089 -0.852529
0.472854 -0.014789 -0.855183
0.467426 -0.016679 -0.846286
0.467449 -0.012764 -0.861179
0.461389 -0.007129 0.603892
0.463762 0.006298 0.601719
0.472022 0.006297 0.609322
0.460068 0.002103 -0.936450
0.471092 0.001325 -0.939624
0.466314 -0.000214 -0.929889
0.466467 0.004182 -0.945304
0.462611 0.022673 0.603026
0.470849 0.022672 0.609747
0.459801 0.031925 0.605607
0.466117 0.038058 0.611676
0.468757 0.055840 0.617726
0.467023 0.041967 -0.960896
0.467252 0.033934 -0.971298
0.465903 0.071879 0.618735
0.475147 0.061569 0.623123
0.474117 0.071881 0.623751
0.466223 0.055341 -0.945147
0.461519 0.048114 -0.954529
0.464502 0.088291 0.620173
0.472726 0.088290 0.624899
0.466121 0.068971 -0.929438
0.454916 0.079624 -0.917996
0.467193 0.078323 -0.915215
0.459884 0.064258 -0.937135
0.464107 0.104701 0.620764
0.472333 0.104697 0.625576
0.467147 0.091259 -0.549517
0.465957 0.093787 -0.531907
0.467214 0.089961 -0.565495
0.467259 0.089063 -0.581740
0.467228 0.088771 -0.598487
0.467200 0.090389 -0.614964
0.467056 0.094237 -0.630993
0.461495 0.097178 -0.636154
0.467240 0.087032 -0.894942
0.465695 0.093417 -0.876683
0.467244 0.081935 -0.906942
0.467665 0.121039 0.619536
0.473477 0.115591 0.625140
0.466830 0.110876 -0.450106
0.467065 0.106544 -0.466683
0.467055 0.102238 -0.483423
0.468001 0.098759 -0.500694
0.462680 0.097525 -0.516240
0.459692 0.096708 -0.525289
0.467058 0.098146 -0.647486
0.467173 0.100605 -0.663854
0.467158 0.104390 -0.680053
0.466559 0.109848 -0.696555
0.460697 0.113330 -0.702313
0.467143 0.110390 -0.761959
0.458314 0.112811 -0.761710
0.458796 0.112917 -0.752476
0.465615 0.111049 -0.746558
0.467136 0.108797 -0.778464
0.467112 0.106523 -0.795003
0.467150 0.104963 -0.811456
0.467204 0.103100 -0.827994
0.467198 0.100148 -0.844745
0.465712 0.097341 -0.860252
0.459238 0.096650 -0.869858
0.466616 0.138026 0.612094
0.467043 0.125950 -0.368597
0.467024 0.128038 -0.355646
0.467090 0.123769 -0.384967
0.467090 0.120265 -0.401406
0.467060 0.116266 -0.417794
0.466819 0.113760 -0.432736
0.461188 0.113325 -0.444645
0.460702 0.113330 -0.712333
0.459543 0.113091 -0.728812
0.459143 0.113011 -0.741509
0.460776 0.143816 0.606746
0.466587 0.153902 0.603763
0.471720 0.148471 0.609652
0.468065 0.144529 -0.270921
0.456945 0.145553 -0.277105
0.467076 0.141011 -0.286268
0.467064 0.137651 -0.302658
0.467095 0.135247 -0.318819
0.467082 0.132434 -0.335256
0.467036 0.130106 -0.347206
0.466118 0.171293 0.595178
0.465735 0.158787 -0.202241
0.467099 0.153258 -0.220125
0.467083 0.149653 -0.236656
0.468064 0.147500 -0.253764
0.463244 0.146737 -0.266181
0.459977 0.177394 0.590546
0.466137 0.187837 0.588650
0.470984 0.183119 0.592434
0.465463 0.175001 -0.136437
0.467083 0.169407 -0.154603
0.467883 0.164490 -0.171895
0.462289 0.162851 -0.187309
0.459345 0.162212 -0.195871
0.467122 0.203140 0.581689
0.467045 0.190506 -0.056335
0.467032 0.192965 -0.042556
0.467072 0.188477 -0.072381
0.467060 0.184578 -0.088775
0.466553 0.180227 -0.105443
0.460326 0.178807 -0.121557
0.458890 0.178547 -0.129783
0.467120 0.213961 0.575489
0.467077 0.210014 0.058732
0.466273 0.210896 0.075907
0.467078 0.208029 0.042429
0.467050 0.204107 0.025781
0.467049 0.201510 0.009317
0.467068 0.200172 -0.006913
0.467065 0.197545 -0.023387
0.467041 0.195470 -0.034177
0.467428 0.221873 0.565571
0.462205 0.225414 0.554968
0.467531 0.232045 0.550064
0.473135 0.229433 0.560236
0.459291 0.227502 0.493257
0.461040 0.225162 0.484739
0.469243 0.234550 0.484832
0.466159 0.237561 0.498598
0.463736 0.222331 0.468115
0.471943 0.231728 0.468067
0.464942 0.221938 0.451557
0.473155 0.229904 0.451427
0.464878 0.222954 0.435415
0.473067 0.229425 0.435497
0.464337 0.224227 0.419251
0.472519 0.229384 0.419417
0.464729 0.225010 0.402851
0.472937 0.228862 0.402785
0.463738 0.225969 0.386496
0.471956 0.229024 0.386354
0.466715 0.227040 0.369224
0.471937 0.229052 0.373952
0.467095 0.226923 0.353858
0.467046 0.226387 0.337400
0.467045 0.226299 0.321067
0.467086 0.226481 0.304796
0.467086 0.225558 0.288392
0.467054 0.224183 0.271905
0.467066 0.224854 0.255460
0.467100 0.226417 0.239038
0.467091 0.225683 0.222579
0.467064 0.223895 0.206189
0.467068 0.223106 0.189926
0.467075 0.222096 0.173626
0.467053 0.219234 0.157152
0.467036 0.216592 0.140675
0.467056 0.215817 0.124326
0.467073 0.214973 0.107897
0.466269 0.212488 0.090057
0.460261 0.211373 0.082273
0.467541 0.239620 0.534462
0.463689 0.240875 0.517404
0.471940 0.246023 0.517225
0.473223 0.245229 0.528898
0.473044 0.245571 0.503709
0.485170 -0.387263 0.549450
0.488703 -0.392580 0.534182
0.491352 -0.392001 0.543463
0.480501 -0.390319 0.534199
0.485473 -0.393273 0.517245
0.477264 -0.391357 0.517290
0.476436 -0.391640 0.501138
0.484634 -0.393476 0.501131
0.484941 -0.393386 0.485108
0.476749 -0.391559 0.485063
0.485161 -0.393267 0.468337
0.476968 -0.391496 0.468271
0.478926 -0.390902 0.451728
0.487101 -0.392876 0.451796
0.484369 -0.389504 0.435991
0.490062 -0.392280 0.441269
0.484083 -0.379046 0.563255
0.484093 -0.373367 0.570532
0.484097 -0.365157 0.578417
0.484134 -0.355799 0.586748
0.479474 -0.358085 0.250637
0.490399 -0.359332 0.245924
0.484536 -0.360467 0.255771
0.484509 -0.356190 0.240052
0.483944 -0.333573 0.602347
0.484125 -0.347599 0.593088
0.485206 -0.339331 0.175337
0.491617 -0.342692 0.181755
0.485245 -0.343875 0.190439
0.480705 -0.341527 0.185436
0.478332 -0.324067 0.606241
0.483967 -0.318364 0.609146
0.489277 -0.327584 0.607663
0.482293 -0.324602 0.123855
0.486812 -0.327044 0.128827
0.482373 -0.328856 0.138856
0.475889 -0.326201 0.132412
0.484195 -0.301578 0.613669
0.484216 -0.285164 0.618073
0.484224 -0.272770 0.621139
0.483606 -0.275163 -0.056280
0.488978 -0.277465 -0.050800
0.483613 -0.278826 -0.041474
0.478044 -0.276671 -0.047709
0.484224 -0.264570 0.622922
0.484211 -0.252370 0.626735
0.482791 -0.259607 -0.122775
0.487612 -0.261153 -0.117749
0.482800 -0.262474 -0.107459
0.476672 -0.260592 -0.113883
0.484198 -0.235976 0.632403
0.484203 -0.219576 0.635898
0.485374 -0.206829 0.694223
0.480721 -0.211785 0.687902
0.471265 -0.203204 0.637200
0.485093 -0.203702 0.637268
0.484139 -0.191168 0.745765
0.484164 -0.195610 0.737641
0.474125 -0.193050 0.637655
0.480199 -0.193059 0.637622
0.485079 -0.203719 0.640013
0.480193 -0.193048 0.638991
0.484033 -0.179101 0.770378
0.484086 -0.174897 0.778648
0.483059 -0.165991 0.795731
0.476918 -0.162057 0.802252
0.483072 -0.159105 0.809345
0.487848 -0.162529 0.803162
0.484133 -0.142724 0.844661
0.484067 -0.146392 0.836488
0.484094 -0.126175 0.878756
0.484114 -0.130810 0.870571
0.484074 -0.110570 0.898804
0.484049 -0.118065 0.890843
0.478241 -0.116243 0.639870
0.478247 -0.116224 0.636983
0.483871 -0.104629 0.635550
0.483913 -0.106146 0.645719
0.483978 -0.097038 0.901904
0.484006 -0.103365 0.901924
0.483955 -0.105315 0.728446
0.472339 -0.100895 0.738157
0.483922 -0.101637 0.739624
0.483947 -0.109752 0.711985
0.484009 -0.109657 0.695538
0.484176 -0.104847 0.679124
0.484237 -0.101943 0.662708
0.484107 -0.089993 0.630589
0.483866 -0.092719 0.892463
0.483802 -0.090426 0.876253
0.483821 -0.091813 0.859810
0.483794 -0.092893 0.843344
0.483755 -0.093207 0.826923
0.483755 -0.094142 0.810683
0.483766 -0.095336 0.794345
0.483760 -0.096242 0.777724
0.483791 -0.097279 0.761179
0.483874 -0.099067 0.747768
0.482882 -0.073647 0.625619
0.476602 -0.068100 0.621905
0.478671 -0.058443 0.620727
0.486890 -0.058317 0.624385
0.480578 -0.042413 0.619728
0.488798 -0.042312 0.623546
0.480786 -0.026236 0.619792
0.489007 -0.026176 0.623482
0.481977 -0.009999 0.619077
0.490199 -0.009967 0.623034
0.485250 0.005696 0.617901
0.491643 -0.000124 0.622444
0.484646 0.022466 0.618320
0.479704 0.039067 0.620492
0.487920 0.039080 0.624071
0.490633 0.027804 0.622994
0.477000 0.050605 0.622101
0.483006 0.055846 0.625246
0.482968 0.036118 -0.963005
0.472586 0.046609 -0.952761
0.483819 0.044894 -0.951317
0.476934 0.032643 -0.970126
0.483772 0.071879 0.627992
0.483812 0.052658 -0.943324
0.470825 0.062856 -0.935690
0.483689 0.061083 -0.933754
0.483735 0.088287 0.630218
0.482841 0.076349 -0.910767
0.483690 0.068052 -0.925357
0.483694 0.104693 0.631436
0.483612 0.093174 -0.516875
0.470884 0.095263 -0.516594
0.474097 0.096141 -0.506900
0.483572 0.095527 -0.504837
0.483613 0.090705 -0.533537
0.483618 0.089136 -0.549884
0.483654 0.087543 -0.565636
0.483687 0.086629 -0.581816
0.483680 0.086751 -0.598850
0.483657 0.088430 -0.615456
0.483642 0.091477 -0.631304
0.484659 0.094929 -0.647806
0.472438 0.095508 -0.642296
0.479868 0.097032 -0.653466
0.482349 0.093313 -0.860693
0.470163 0.095355 -0.865215
0.483660 0.087925 -0.878748
0.482910 0.082524 -0.895150
0.476907 0.080668 -0.904576
0.483522 0.121071 0.627836
0.483502 0.107690 -0.450098
0.472122 0.112124 -0.437279
0.482415 0.111266 -0.432898
0.483509 0.104013 -0.466916
0.483535 0.100323 -0.483997
0.483564 0.097495 -0.496731
0.484657 0.097557 -0.663880
0.483595 0.100813 -0.680362
0.483573 0.105009 -0.696044
0.483565 0.106680 -0.712547
0.468906 0.110930 -0.712397
0.467760 0.110708 -0.729100
0.483553 0.106293 -0.729599
0.483563 0.106018 -0.746171
0.483575 0.105858 -0.762328
0.483583 0.104509 -0.778871
0.483582 0.102569 -0.795525
0.483609 0.101014 -0.811809
0.484756 0.098735 -0.828732
0.479380 0.097572 -0.844922
0.476078 0.096737 -0.854223
0.477950 0.126481 0.622758
0.483478 0.136873 0.619452
0.488893 0.131056 0.625369
0.483052 0.127155 -0.351402
0.483513 0.123388 -0.369184
0.483526 0.120745 -0.385382
0.483533 0.117510 -0.401780
0.482427 0.114077 -0.418575
0.476216 0.112986 -0.426822
0.483541 0.151741 0.611442
0.483548 0.141953 -0.269861
0.474183 0.145381 -0.259755
0.483541 0.144700 -0.256660
0.483524 0.138345 -0.286614
0.483518 0.135319 -0.302976
0.483510 0.132787 -0.318866
0.483043 0.130259 -0.335381
0.477271 0.129503 -0.344854
0.483511 0.159898 0.606629
0.483558 0.170318 0.600796
0.483523 0.161153 -0.175672
0.470485 0.160828 -0.187378
0.473918 0.161778 -0.178023
0.483532 0.158620 -0.187425
0.483538 0.154956 -0.203664
0.483539 0.150788 -0.220409
0.483544 0.147730 -0.237107
0.483555 0.146224 -0.248527
0.482770 0.187850 0.593463
0.483491 0.176946 -0.109193
0.468544 0.176694 -0.121783
0.471735 0.177686 -0.111282
0.483507 0.174217 -0.122040
0.483521 0.171141 -0.138222
0.483524 0.166663 -0.154768
0.483527 0.163131 -0.167490
0.476770 0.194035 0.590112
0.482793 0.202373 0.586209
0.487727 0.196412 0.591234
0.483077 0.192387 -0.039064
0.483480 0.188521 -0.056531
0.483472 0.186466 -0.072364
0.483472 0.182742 -0.088848
0.483486 0.179495 -0.100774
0.483608 0.216516 0.576819
0.483513 0.211033 0.084186
0.471233 0.211213 0.083399
0.483507 0.210330 0.074506
0.483484 0.209057 0.058716
0.483471 0.206968 0.042442
0.483492 0.203886 0.025419
0.483505 0.201185 0.008848
0.483489 0.198892 -0.007074
0.483065 0.196015 -0.024192
0.477331 0.195074 -0.032574
0.483629 0.224722 0.569897
0.483669 0.232921 0.562641
0.475772 0.227522 0.353905
0.475784 0.227522 0.363197
0.482187 0.232536 0.369309
0.484004 0.232600 0.353992
0.475654 0.227570 0.337242
0.483883 0.232900 0.337330
0.475814 0.227481 0.320930
0.484032 0.232665 0.321014
0.476506 0.227128 0.304893
0.484717 0.231838 0.304962
0.477312 0.226733 0.288455
0.485530 0.231093 0.288505
0.477936 0.226502 0.271735
0.486149 0.230546 0.271770
0.477996 0.226649 0.255283
0.486203 0.230003 0.255316
0.478108 0.226916 0.239026
0.486310 0.229432 0.239071
0.479860 0.226563 0.222529
0.488069 0.228680 0.222574
0.484184 0.226164 0.205466
0.490120 0.228125 0.210601
0.483501 0.224437 0.189878
0.483479 0.222407 0.173700
0.483484 0.219758 0.157012
0.483499 0.217296 0.140337
0.483496 0.215543 0.124134
0.483491 0.214040 0.107841
0.483507 0.212306 0.092784
0.483074 0.241169 0.551895
0.477225 0.243253 0.540381
0.483131 0.247561 0.534402
0.488177 0.245715 0.547413
0.475591 0.244141 0.493181
0.477640 0.242738 0.484947
0.482168 0.247875 0.499483
0.485866 0.246995 0.485039
0.480969 0.239912 0.468262
0.489191 0.245956 0.468476
0.482698 0.238098 0.451690
0.490918 0.244963 0.451977
0.485070 0.238740 0.435780
0.491517 0.244477 0.441265
0.483614 0.236629 0.419577
0.483581 0.234769 0.402865
0.483558 0.234233 0.386383
0.483762 0.250274 0.517168
0.500461 -0.390054 0.554498
0.500476 -0.393079 0.546692
0.495030 -0.390383 0.419859
0.503197 -0.393677 0.419842
0.499616 -0.394095 0.436095
0.493605 -0.391069 0.430787
0.496985 -0.389748 0.403216
0.505131 -0.392903 0.403344
0.507066 -0.392237 0.391268
0.501126 -0.389303 0.386135
0.493036 -0.375108 0.572539
0.499264 -0.381455 0.566926
0.503894 -0.376917 0.574707
0.499669 -0.367485 0.581605
0.492309 -0.375348 0.313375
0.503245 -0.377209 0.305040
0.498827 -0.378728 0.319783
0.495052 -0.373890 0.305083
0.506827 -0.376075 0.292862
0.500931 -0.372371 0.287889
0.495423 -0.357912 0.588612
0.500745 -0.351791 0.593960
0.506300 -0.359872 0.590158
0.494638 -0.357901 0.235033
0.505568 -0.359936 0.226403
0.500221 -0.361158 0.239991
0.500162 -0.356707 0.221670
0.500548 -0.337440 0.603138
0.501470 -0.338692 0.158311
0.507772 -0.342809 0.164625
0.501487 -0.343740 0.175187
0.496825 -0.340873 0.170730
0.500553 -0.329251 0.608123
0.500558 -0.317998 0.611651
0.493699 -0.325488 0.118196
0.504641 -0.327173 0.112328
0.499614 -0.328694 0.123832
0.499563 -0.323705 0.107311
0.500592 -0.301579 0.616606
0.499888 -0.307323 0.058865
0.505155 -0.310554 0.064418
0.499919 -0.312293 0.074231
0.494255 -0.309242 0.068346
0.499238 -0.286186 0.621063
0.495172 -0.292708 0.002600
0.506088 -0.293784 -0.000337
0.500467 -0.294945 0.008389
0.500469 -0.290555 -0.006377
0.492875 -0.276470 0.622053
0.503770 -0.281402 0.623234
0.499228 -0.270109 0.624901
0.496637 -0.276059 -0.061096
0.507557 -0.277177 -0.065219
0.501331 -0.278069 -0.056077
0.501332 -0.274235 -0.071422
0.500572 -0.252373 0.630977
0.493612 -0.260253 -0.128380
0.504539 -0.261362 -0.134220
0.499531 -0.262307 -0.122771
0.499529 -0.258939 -0.139307
0.499315 -0.237520 0.636491
0.499806 -0.242352 -0.204253
0.505036 -0.244911 -0.198986
0.499824 -0.245871 -0.188024
0.494096 -0.243760 -0.193339
0.501073 -0.223411 0.661491
0.503576 -0.232132 0.646423
0.506681 -0.228311 0.655193
0.494924 -0.220473 0.644902
0.492999 -0.219581 0.637781
0.499656 -0.225513 -0.270035
0.504793 -0.228685 -0.264613
0.499679 -0.229905 -0.254040
0.493857 -0.227369 -0.259636
0.500608 -0.211101 0.686582
0.491715 -0.211304 0.687136
0.485504 -0.216084 0.680683
0.500691 -0.215095 0.678414
0.492559 -0.209507 0.638032
0.492562 -0.209506 0.638426
0.498865 -0.209926 -0.319851
0.503468 -0.212378 -0.315005
0.498892 -0.214163 -0.304270
0.492567 -0.211370 -0.310557
0.500488 -0.191547 0.746522
0.500523 -0.195953 0.738431
0.498941 -0.193286 -0.369308
0.503537 -0.195784 -0.363735
0.498925 -0.198079 -0.354071
0.492660 -0.194982 -0.361050
0.500392 -0.179702 0.771672
0.500450 -0.175583 0.779934
0.495254 -0.178083 -0.409062
0.506136 -0.178898 -0.410619
0.500485 -0.181406 -0.402756
0.500497 -0.175170 -0.417034
0.500452 -0.163095 0.804275
0.500430 -0.158881 0.812399
0.500482 -0.143425 0.846172
0.500405 -0.146941 0.838021
0.500465 -0.131515 0.872219
0.500449 -0.127139 0.880346
0.500417 -0.111452 0.899605
0.500397 -0.119035 0.891614
0.500312 -0.097416 0.901615
0.500342 -0.104241 0.901631
0.500272 -0.101880 0.742357
0.500327 -0.105740 0.728668
0.500314 -0.111001 0.712155
0.500379 -0.112000 0.695670
0.500560 -0.107727 0.679250
0.499888 -0.101386 0.661598
0.493789 -0.098791 0.646283
0.502661 -0.090986 0.645584
0.504796 -0.097012 0.655338
0.492693 -0.098385 0.637833
0.495937 -0.089894 0.636184
0.500203 -0.093274 0.892464
0.500155 -0.091007 0.876319
0.500180 -0.092663 0.860025
0.500140 -0.094019 0.843648
0.500087 -0.094506 0.827228
0.500105 -0.095323 0.810905
0.500134 -0.096510 0.794485
0.500116 -0.097448 0.777847
0.500136 -0.098508 0.761313
0.500207 -0.099710 0.750465
0.501483 -0.074320 0.634309
0.507616 -0.079777 0.639587
0.500398 -0.058306 0.630650
0.500383 -0.042302 0.628724
0.500386 -0.026163 0.627934
0.500355 -0.009958 0.627095
0.499283 0.005724 0.625432
0.493156 0.010749 0.621559
0.493134 0.016866 0.621595
0.499238 0.022473 0.626174
0.500210 0.039070 0.629629
0.500071 0.028531 -0.967063
0.482870 0.025249 -0.971889
0.487916 0.030233 -0.968472
0.500071 0.021341 -0.971984
0.501083 0.055418 0.633807
0.500182 0.035094 -0.959284
0.500159 0.043010 -0.948622
0.497529 0.071878 0.635054
0.507099 0.060864 0.639255
0.505660 0.071880 0.640134
0.500035 0.058634 -0.930601
0.500155 0.050293 -0.940497
0.496503 0.088289 0.636438
0.504637 0.088287 0.640392
0.500015 0.077205 -0.895040
0.487797 0.079036 -0.900535
0.500012 0.070571 -0.911819
0.500037 0.065566 -0.922179
0.496843 0.104696 0.637400
0.504974 0.104694 0.640008
0.499998 0.095527 -0.504299
0.500035 0.093088 -0.516734
0.500013 0.090256 -0.533246
0.500002 0.088353 -0.549568
0.500050 0.086912 -0.565585
0.500076 0.085975 -0.581900
0.500046 0.085787 -0.598747
0.500022 0.087499 -0.615232
0.500023 0.091244 -0.631126
0.500003 0.094257 -0.647366
0.499910 0.095973 -0.663749
0.490792 0.096382 -0.658130
0.494455 0.096726 -0.669255
0.499996 0.090517 -0.845088
0.487530 0.095284 -0.845013
0.490937 0.096258 -0.834707
0.499246 0.093716 -0.828906
0.499989 0.087001 -0.861887
0.500044 0.082675 -0.878212
0.494625 0.081115 -0.889476
0.500574 0.119812 0.634712
0.506381 0.113523 0.639750
0.499920 0.109846 -0.434095
0.487165 0.112435 -0.424315
0.499912 0.112047 -0.422473
0.499922 0.106798 -0.450244
0.499914 0.103229 -0.466957
0.499926 0.099658 -0.483843
0.499965 0.097222 -0.496128
0.499896 0.098031 -0.679362
0.499945 0.101339 -0.696158
0.499945 0.102391 -0.712797
0.499926 0.101763 -0.729926
0.499933 0.101382 -0.746412
0.499947 0.101101 -0.762406
0.501452 0.099212 -0.779967
0.498385 0.098531 -0.795403
0.495610 0.097725 -0.811816
0.493315 0.097027 -0.823636
0.499976 0.132973 0.626656
0.499899 0.125252 -0.352378
0.488224 0.128866 -0.341174
0.499910 0.128345 -0.337873
0.499919 0.121802 -0.369006
0.499936 0.119002 -0.385300
0.499928 0.116001 -0.401649
0.499914 0.113694 -0.414294
0.499953 0.141115 0.620599
0.498742 0.155441 0.612117
0.499957 0.140983 -0.269937
0.499955 0.144168 -0.254776
0.499928 0.137584 -0.286490
0.499919 0.134386 -0.302873
0.499916 0.131431 -0.319008
0.499910 0.129610 -0.329425
0.492477 0.161913 0.608165
0.498749 0.169290 0.604257
0.503420 0.163141 0.608477
0.497092 0.161179 -0.175712
0.501507 0.159412 -0.185866
0.501499 0.163137 -0.170562
0.507995 0.162156 -0.179297
0.499956 0.154528 -0.203846
0.499955 0.150383 -0.220533
0.499956 0.147316 -0.237175
0.499962 0.145952 -0.246604
0.499965 0.186732 0.596154
0.499896 0.177410 -0.110327
0.499919 0.174931 -0.121978
0.499941 0.171561 -0.138247
0.499936 0.167076 -0.154709
0.499962 0.198158 0.592008
0.499884 0.191394 -0.040063
0.488285 0.194539 -0.030330
0.499907 0.194297 -0.028206
0.499885 0.188295 -0.056336
0.499892 0.186063 -0.072436
0.499888 0.182760 -0.088899
0.499893 0.179697 -0.101980
0.499960 0.206346 0.586931
0.499991 0.220427 0.577776
0.494558 0.211058 0.084127
0.499962 0.210636 0.074967
0.499973 0.212436 0.090484
0.505450 0.211595 0.080775
0.499911 0.208880 0.058697
0.499899 0.206742 0.042358
0.499895 0.203996 0.025575
0.499907 0.201103 0.009034
0.499921 0.198120 -0.007130
0.499919 0.195623 -0.019886
0.494582 0.226474 0.572092
0.498994 0.236411 0.566159
0.505449 0.228914 0.574180
0.492250 0.227544 0.199683
0.493782 0.226855 0.189906
0.501978 0.230082 0.190014
0.498615 0.230797 0.205696
0.496858 0.225599 0.173681
0.505079 0.228843 0.173650
0.501045 0.224519 0.157501
0.507299 0.228025 0.163341
0.499913 0.221060 0.140522
0.499932 0.217848 0.124180
0.499938 0.214883 0.107812
0.492529 0.243889 0.558013
0.498877 0.248694 0.551778
0.503455 0.245978 0.560022
0.492519 0.243846 0.430621
0.493655 0.243213 0.419697
0.498864 0.247265 0.436036
0.501904 0.248037 0.419700
0.495612 0.241868 0.403065
0.503826 0.247024 0.403241
0.496326 0.241175 0.386605
0.504533 0.246656 0.386841
0.496146 0.240942 0.370444
0.504387 0.246825 0.370522
0.496325 0.240790 0.354107
0.504575 0.246663 0.354163
0.496652 0.241094 0.337547
0.504871 0.246245 0.337755
0.497531 0.240874 0.321202
0.505745 0.245573 0.321381
0.498730 0.240045 0.304991
0.506975 0.244864 0.304986
0.501392 0.240100 0.288600
0.507872 0.244370 0.294135
0.499946 0.237898 0.271966
0.499964 0.236587 0.255480
0.499986 0.235248 0.239094
0.499971 0.233443 0.222674
0.500174 0.253735 0.534097
0.500176 0.253627 0.517384
0.500197 0.251889 0.501175
0.500197 0.250582 0.485124
0.500154 0.248643 0.468719
0.500117 0.247515 0.452292
0.515652 -0.395045 0.551561
0.509361 -0.391544 0.557649
0.515603 -0.388276 0.565683
0.520289 -0.392906 0.560650
0.512755 -0.390686 0.370563
0.520918 -0.392654 0.370606
0.515647 -0.393669 0.386321
0.509444 -0.391531 0.380369
0.517974 -0.389514 0.355017
0.524240 -0.391945 0.361034
0.516846 -0.370382 0.585312
0.516789 -0.379395 0.577125
0.509761 -0.375070 0.281846
0.520629 -0.376363 0.275419
0.515883 -0.377568 0.287857
0.515761 -0.374230 0.270838
0.516932 -0.350803 0.598013
0.516886 -0.362177 0.591459
0.515627 -0.357214 0.206282
0.520422 -0.359724 0.211625
0.515746 -0.361173 0.221726
0.509535 -0.358784 0.215433
0.516967 -0.339996 0.604404
0.516949 -0.331793 0.609026
0.516946 -0.318001 0.614202
0.512328 -0.325542 0.101347
0.523236 -0.326375 0.099240
0.517332 -0.327813 0.107329
0.517298 -0.322620 0.092875
0.516120 -0.301434 0.619632
0.513626 -0.308811 0.053498
0.524555 -0.309883 0.050281
0.518092 -0.311134 0.058881
0.518111 -0.306598 0.043785
0.510091 -0.292323 0.621801
0.521019 -0.295876 0.622893
0.516117 -0.286182 0.624737
0.516949 -0.268770 0.629743
0.515427 -0.252633 0.635637
0.512120 -0.260154 -0.145173
0.523042 -0.260780 -0.147410
0.517202 -0.261988 -0.139250
0.517200 -0.257650 -0.153785
0.508924 -0.244008 0.638061
0.515449 -0.239927 0.646944
0.519895 -0.247352 0.641803
0.512094 -0.243624 -0.210127
0.523013 -0.244476 -0.213672
0.517185 -0.245681 -0.204555
0.517176 -0.241711 -0.219811
0.517006 -0.230803 0.657225
0.517064 -0.222452 0.665484
0.516869 -0.213865 0.680422
0.511244 -0.211105 0.686564
0.522164 -0.211696 0.688051
0.516763 -0.207754 0.694369
0.510581 -0.211088 -0.325947
0.521513 -0.211811 -0.328547
0.516254 -0.213178 -0.320007
0.516252 -0.208323 -0.334666
0.516872 -0.196431 0.739432
0.516832 -0.191903 0.747498
0.516815 -0.176333 0.781258
0.516754 -0.180267 0.773021
0.516763 -0.159402 0.813829
0.516799 -0.163856 0.805649
0.516812 -0.143983 0.847564
0.516737 -0.147431 0.839389
0.516791 -0.128105 0.881961
0.516799 -0.132152 0.873900
0.516745 -0.120014 0.892254
0.516755 -0.112615 0.900260
0.516680 -0.105402 0.901367
0.516644 -0.097768 0.901351
