-0.106600 0.910773 -0.232074
-0.106630 0.926689 -0.231349
-0.090144 -0.022783 -0.238310
-0.090140 -0.006392 -0.240892
-0.090070 0.009971 -0.242453
-0.090200 0.052411 -0.246046
-0.090219 0.060521 -0.249113
-0.090250 0.124665 -0.264508
-0.090248 0.140993 -0.266120
-0.090227 0.157475 -0.267240
-0.090189 0.173964 -0.267483
-0.090149 0.190318 -0.266390
-0.090126 0.206632 -0.266578
-0.090834 0.224192 -0.272879
-0.096793 0.230506 -0.278254
-0.090430 0.239019 -0.286011
-0.085842 0.232453 -0.276390
-0.095022 0.245576 -0.295451
-0.089892 0.252815 -0.300665
-0.084097 0.247164 -0.293861
-0.090352 0.265780 -0.309062
-0.090384 0.273885 -0.310667
-0.090406 0.285782 -0.312547
-0.090416 0.302182 -0.313889
-0.090401 0.318400 -0.314109
-0.090408 0.334900 -0.314330
-0.090424 0.351734 -0.314539
-0.090424 0.368208 -0.314018
-0.090417 0.384351 -0.312926
-0.090414 0.400931 -0.312171
-0.094850 0.434189 -0.310705
-0.086654 0.434035 -0.308617
-0.090384 0.466782 -0.305901
-0.090378 0.483181 -0.304655
-0.090388 0.499110 -0.302761
-0.090420 0.515174 -0.300785
-0.091640 0.548173 -0.297987
-0.083461 0.548163 -0.293218
-0.093731 0.564435 -0.296952
-0.085528 0.564441 -0.291765
-0.095231 0.580801 -0.296149
-0.087012 0.580805 -0.290811
-0.095887 0.597470 -0.295602
-0.087665 0.597448 -0.290195
-0.097154 0.614000 -0.294799
-0.088926 0.613969 -0.289194
-0.090473 0.646677 -0.284418
-0.091923 0.680341 -0.282170
-0.083705 0.680208 -0.276065
-0.093969 0.696913 -0.280889
-0.085745 0.696803 -0.274164
-0.094526 0.713783 -0.280420
-0.086314 0.713669 -0.273672
-0.094045 0.730675 -0.280601
-0.085865 0.730533 -0.274180
-0.094507 0.746690 -0.279919
-0.086336 0.746453 -0.274146
-0.090408 0.826655 -0.238952
-0.090448 0.843170 -0.238520
-0.090398 0.859820 -0.237675
-0.090231 0.876633 -0.234544
-0.090134 0.893738 -0.231973
-0.090190 0.911020 -0.230940
-0.090232 0.927028 -0.230473
-0.073908 0.091238 -0.263874
-0.073899 0.107891 -0.264965
-0.073889 0.124210 -0.266129
-0.073879 0.140488 -0.267296
-0.073845 0.157085 -0.267771
-0.073795 0.173698 -0.267350
-0.073750 0.190079 -0.265844
-0.073725 0.206410 -0.265142
-0.073727 0.222807 -0.268239
-0.073735 0.234091 -0.274491
-0.073770 0.241825 -0.284168
-0.073806 0.247880 -0.292749
-0.073880 0.255286 -0.301163
-0.073958 0.267674 -0.308655
-0.073992 0.275739 -0.310386
-0.074003 0.285550 -0.311744
-0.074023 0.301941 -0.312573
-0.074834 0.334691 -0.311740
-0.066762 0.334637 -0.309823
-0.075915 0.351420 -0.311731
-0.067835 0.351304 -0.309363
-0.077885 0.367914 -0.311453
-0.069787 0.367826 -0.308415
-0.079987 0.384151 -0.310935
-0.071862 0.384150 -0.307196
-0.081050 0.400718 -0.310510
-0.072902 0.400723 -0.306314
-0.073981 0.433901 -0.303136
-0.073962 0.450193 -0.300587
-0.076157 0.483210 -0.298096
-0.067928 0.483166 -0.292875
-0.078170 0.499139 -0.297102
-0.069972 0.499130 -0.291493
-0.080206 0.515175 -0.296048
-0.072021 0.515194 -0.290266
-0.074043 0.548188 -0.286563
-0.075033 0.580817 -0.282437
-0.066844 0.580861 -0.276691
-0.075871 0.597444 -0.281926
-0.067659 0.597496 -0.275700
-0.077185 0.613949 -0.280988
-0.068972 0.614001 -0.274613
-0.079487 0.630183 -0.279401
-0.071294 0.630230 -0.273194
-0.081157 0.646628 -0.278223
-0.072958 0.646679 -0.271989
-0.075083 0.696688 -0.265858
-0.066910 0.696683 -0.259658
-0.075939 0.713487 -0.265399
-0.067764 0.713403 -0.258824
-0.075680 0.730270 -0.265917
-0.067496 0.730068 -0.259039
-0.075699 0.746156 -0.265880
-0.067540 0.745972 -0.258726
-0.076658 0.761707 -0.264873
-0.068522 0.761644 -0.257618
-0.074013 0.826674 -0.236778
-0.074048 0.843182 -0.236746
-0.074001 0.859815 -0.236090
-0.073827 0.876594 -0.233249
-0.073730 0.893701 -0.230838
-0.073805 0.911045 -0.229873
-0.073862 0.927176 -0.229688
-0.057576 0.054920 -0.256711
-0.057640 0.062984 -0.261378
-0.057623 0.073508 -0.263041
-0.057593 0.090294 -0.264511
-0.057568 0.107125 -0.265165
-0.057552 0.123486 -0.266014
-0.057541 0.139741 -0.266730
-0.057500 0.156450 -0.266801
-0.057445 0.173242 -0.266293
-0.057404 0.189797 -0.265168
-0.057381 0.206264 -0.264258
-0.057368 0.222744 -0.264868
-0.057369 0.235856 -0.271848
-0.057395 0.243566 -0.282301
-0.057417 0.248705 -0.291118
-0.057519 0.256167 -0.301184
-0.058295 0.270053 -0.308461
-0.064151 0.276005 -0.310336
-0.062535 0.285408 -0.310744
-0.054437 0.285423 -0.308830
-0.063080 0.301809 -0.310819
-0.054956 0.301862 -0.307586
-0.057720 0.334665 -0.305038
-0.057699 0.351288 -0.304004
-0.057676 0.367791 -0.302101
-0.059559 0.400727 -0.298922
-0.051310 0.400737 -0.292931
-0.060547 0.417414 -0.297975
-0.052328 0.417392 -0.291530
-0.062310 0.433858 -0.296885
-0.054108 0.433796 -0.290163
-0.064536 0.450182 -0.295724
-0.056359 0.450083 -0.288781
-0.059633 0.499087 -0.282889
-0.051460 0.499088 -0.275512
-0.061149 0.515198 -0.281644
-0.052967 0.515251 -0.273906
-0.062276 0.531730 -0.280459
-0.054091 0.531813 -0.272777
-0.063597 0.548238 -0.279291
-0.055408 0.548340 -0.271782
-0.058389 0.597581 -0.267255
-0.050232 0.597677 -0.259943
-0.059670 0.614083 -0.266226
-0.051508 0.614143 -0.258355
-0.061122 0.630275 -0.264785
-0.052971 0.630334 -0.256470
-0.062452 0.646695 -0.263582
-0.054305 0.646728 -0.255068
-0.063637 0.663476 -0.262570
-0.055484 0.663402 -0.254235
-0.058832 0.696601 -0.251476
-0.050654 0.696568 -0.243361
-0.059764 0.713258 -0.250602
-0.051573 0.713141 -0.242429
-0.059978 0.729794 -0.250765
-0.051791 0.729527 -0.241899
-0.060545 0.745813 -0.250481
-0.052387 0.745663 -0.240911
-0.061479 0.761666 -0.249388
-0.053339 0.761711 -0.239763
-0.063189 0.777948 -0.246960
-0.055063 0.777994 -0.239044
-0.057646 0.810510 -0.234901
-0.057673 0.826770 -0.233849
-0.057682 0.843256 -0.233943
-0.057636 0.859838 -0.233492
-0.057503 0.876537 -0.231678
-0.057419 0.893542 -0.230090
-0.057476 0.910815 -0.229221
-0.057520 0.927146 -0.229039
-0.041200 -0.024886 -0.317955
-0.041226 -0.008941 -0.318967
-0.041215 0.006970 -0.318351
-0.041199 0.053731 -0.257722
-0.041250 0.061796 -0.261495
-0.041236 0.072725 -0.262854
-0.041210 0.089476 -0.263820
-0.041184 0.106356 -0.264179
-0.041160 0.122732 -0.264591
-0.041149 0.138965 -0.264770
-0.041108 0.155736 -0.264447
-0.041053 0.172665 -0.263803
-0.044564 0.206061 -0.262617
-0.036366 0.205827 -0.259752
-0.046696 0.222688 -0.262291
-0.038515 0.222531 -0.258657
-0.041482 0.239087 -0.269151
-0.037124 0.233198 -0.259212
-0.045873 0.244962 -0.280252
-0.040714 0.250565 -0.286792
-0.034950 0.247181 -0.276531
-0.041124 0.258340 -0.299236
-0.041190 0.269186 -0.302781
-0.043838 0.302020 -0.301017
-0.035396 0.302129 -0.293029
-0.045456 0.318299 -0.299450
-0.037083 0.318326 -0.290160
-0.046601 0.334718 -0.298356
-0.039499 0.351358 -0.287056
-0.033527 0.351366 -0.277288
-0.047210 0.351329 -0.297520
-0.041447 0.367832 -0.286832
-0.034332 0.367819 -0.275673
-0.048312 0.367815 -0.296380
-0.035274 0.384096 -0.274125
-0.044561 0.400689 -0.284378
-0.036286 0.400616 -0.272603
-0.045441 0.417346 -0.283026
-0.037188 0.417266 -0.271493
-0.046323 0.433715 -0.281619
-0.038074 0.433619 -0.270677
-0.047380 0.449952 -0.280131
-0.039134 0.449844 -0.270048
-0.048518 0.466467 -0.278688
-0.034312 0.482726 -0.259215
-0.044178 0.499027 -0.267092
-0.035985 0.498942 -0.256937
-0.045646 0.515244 -0.265437
-0.037466 0.515190 -0.254982
-0.046517 0.531840 -0.264347
-0.038344 0.531726 -0.253590
-0.047259 0.548394 -0.263390
-0.042043 0.564578 -0.253000
-0.034989 0.564411 -0.242209
-0.048239 0.564638 -0.262215
-0.036042 0.580800 -0.240642
-0.044761 0.597494 -0.251862
-0.036613 0.597279 -0.239406
-0.045627 0.613953 -0.250210
-0.037480 0.613725 -0.238084
-0.046930 0.630240 -0.248391
-0.040950 0.646547 -0.236789
-0.034277 0.646392 -0.227020
-0.047817 0.646653 -0.246954
-0.041426 0.663078 -0.236384
-0.034431 0.662865 -0.226420
-0.048201 0.663221 -0.246028
-0.034953 0.679399 -0.225730
-0.044011 0.696344 -0.235181
-0.035807 0.696012 -0.224977
-0.044499 0.712890 -0.234203
-0.036295 0.712525 -0.224432
-0.044773 0.729235 -0.233627
-0.036596 0.728899 -0.223912
-0.045384 0.745469 -0.232633
-0.037215 0.745227 -0.223313
-0.045978 0.761674 -0.231487
-0.037800 0.761530 -0.222903
-0.046175 0.777984 -0.230763
-0.037992 0.777882 -0.222678
-0.046049 0.794302 -0.230302
-0.037869 0.794230 -0.222706
-0.045499 0.810524 -0.230014
-0.037324 0.810498 -0.223198
-0.044896 0.826816 -0.229919
-0.036731 0.826815 -0.223790
-0.044650 0.843279 -0.229946
-0.036483 0.843272 -0.224137
-0.045064 0.859822 -0.229756
-0.036878 0.859827 -0.224202
-0.046089 0.876473 -0.229232
-0.037893 0.876501 -0.224222
-0.046583 0.893403 -0.228756
-0.038414 0.893370 -0.224978
-0.046730 0.910595 -0.228352
-0.038625 0.910478 -0.226037
-0.047295 0.927046 -0.228224
-0.039216 0.926902 -0.225623
-0.040310 0.957924 0.222859
-0.024310 -0.838276 0.056800
-0.024395 -0.839296 0.040063
-0.024540 -0.838694 0.023434
-0.024595 -0.838006 0.008053
-0.024580 -0.837479 -0.006801
-0.024613 -0.829997 -0.106599
-0.024605 -0.829000 -0.123255
-0.024589 -0.827916 -0.140059
-0.024817 -0.188523 -0.333821
-0.024834 -0.172356 -0.333734
-0.024823 -0.156039 -0.333628
-0.024803 -0.139671 -0.332764
-0.024790 -0.123371 -0.330520
-0.024817 -0.074571 -0.323790
-0.024818 -0.058188 -0.322992
-0.024856 -0.041837 -0.323257
-0.024923 -0.025530 -0.324221
-0.024900 -0.009353 -0.322708
-0.025537 0.057365 -0.256380
-0.031558 0.063529 -0.261005
-0.025524 0.072261 -0.261584
-0.020578 0.066678 -0.259327
-0.024754 0.089021 -0.262448
-0.024747 0.105824 -0.262334
-0.026644 0.138419 -0.262092
-0.018466 0.138167 -0.259088
-0.028565 0.155252 -0.261829
-0.020400 0.154944 -0.257547
-0.030598 0.172292 -0.261454
-0.022449 0.171948 -0.256356
-0.025451 0.222241 -0.251138
-0.017126 0.221990 -0.245632
-0.022906 0.237880 -0.254453
-0.017377 0.232210 -0.245087
-0.028363 0.243368 -0.265364
-0.022993 0.252193 -0.271144
-0.017441 0.247144 -0.259881
-0.025799 0.268895 0.254009
-0.029148 0.257661 -0.287865
-0.026048 0.269300 -0.288218
-0.018516 0.269297 -0.275600
-0.032192 0.260437 -0.297210
-0.032103 0.269282 -0.297506
-0.019852 0.285738 -0.273836
-0.029955 0.302108 -0.284393
-0.025002 0.318302 -0.270377
-0.018126 0.318242 -0.258847
-0.031575 0.318306 -0.281451
-0.019529 0.334638 -0.256450
-0.028771 0.351355 -0.268772
-0.020597 0.351239 -0.254949
-0.029689 0.367796 -0.267220
-0.023166 0.383924 -0.253526
-0.017431 0.383775 -0.244135
-0.030388 0.384039 -0.265732
-0.024475 0.400405 -0.253438
-0.018067 0.400213 -0.243013
-0.031061 0.400536 -0.264248
-0.025249 0.417000 -0.253117
-0.018346 0.416735 -0.242026
-0.031573 0.417174 -0.263152
-0.026098 0.433365 -0.253183
-0.018772 0.433123 -0.241493
-0.031998 0.433514 -0.262343
-0.027220 0.449625 -0.253405
-0.019445 0.449442 -0.240951
-0.032438 0.449723 -0.261717
-0.020187 0.465889 -0.239855
-0.029269 0.482565 -0.251211
-0.021116 0.482362 -0.238322
-0.030626 0.498824 -0.248977
-0.025508 0.515045 -0.237176
-0.018433 0.514964 -0.226506
-0.031851 0.515099 -0.247066
-0.027273 0.531507 -0.236877
-0.019448 0.531394 -0.224830
-0.032623 0.531566 -0.245564
-0.020385 0.547825 -0.223362
-0.029870 0.564327 -0.234117
-0.021716 0.564222 -0.221877
-0.030892 0.580719 -0.232577
-0.023486 0.597070 -0.219963
-0.017013 0.596982 -0.211006
-0.031380 0.597158 -0.231251
-0.024954 0.613492 -0.219865
-0.017774 0.613399 -0.209451
-0.032080 0.613577 -0.229873
-0.019138 0.629796 -0.206891
-0.028138 0.646284 -0.218464
-0.019985 0.646210 -0.204969
-0.028408 0.662748 -0.218040
-0.020254 0.662655 -0.203892
-0.028743 0.679228 -0.217369
-0.018231 0.695494 -0.188372
-0.021823 0.695566 -0.203220
-0.029049 0.695737 -0.216567
-0.018830 0.711900 -0.173748
-0.017357 0.711870 -0.162275
-0.019498 0.711937 -0.188458
-0.022593 0.712029 -0.203219
-0.029378 0.712209 -0.216057
-0.020232 0.728320 -0.173570
-0.018132 0.728275 -0.158666
-0.020436 0.728367 -0.188346
-0.023262 0.728469 -0.203180
-0.029768 0.728620 -0.215603
-0.019496 0.744739 0.170592
-0.019541 0.744759 0.155230
-0.020958 0.744761 -0.173547
-0.018475 0.744700 -0.157163
-0.021076 0.744815 -0.188365
-0.023785 0.744906 -0.203190
-0.030014 0.745010 -0.214997
-0.020623 0.761068 0.252351
-0.019285 0.761231 0.188793
-0.021145 0.761273 0.170619
-0.021124 0.761276 0.154812
-0.018907 0.761218 0.139900
-0.021253 0.761197 -0.173622
-0.018574 0.761127 -0.156673
-0.021423 0.761258 -0.188475
-0.024099 0.761325 -0.203236
-0.030125 0.761383 -0.214557
-0.024211 0.777544 0.252270
-0.019329 0.777563 0.236362
-0.017907 0.777592 0.221584
-0.018724 0.777597 0.206546
-0.020808 0.777651 0.188789
-0.022740 0.777692 0.170735
-0.022974 0.777681 0.154978
-0.020658 0.777619 0.140024
-0.021758 0.777601 -0.173567
-0.021732 0.777669 -0.188488
-0.024417 0.777739 -0.203261
-0.030334 0.777774 -0.214355
-0.021378 0.794103 0.235996
-0.019822 0.794109 0.220597
-0.020269 0.794040 0.205512
-0.022180 0.794034 0.188352
-0.024113 0.794034 0.170735
-0.024455 0.794008 0.155222
-0.022019 0.793966 0.140344
-0.019831 0.793925 -0.155743
-0.017302 0.793889 -0.142942
-0.021980 0.793995 -0.173521
-0.021821 0.794065 -0.188486
-0.024554 0.794133 -0.203272
-0.030429 0.794149 -0.214416
-0.023655 0.810537 0.235972
-0.021834 0.810621 0.219875
-0.022011 0.810615 0.204040
-0.023713 0.810560 0.187414
-0.025305 0.810465 0.170519
-0.024787 0.810386 0.154769
-0.021763 0.810332 0.139763
-0.019295 0.810338 -0.155827
-0.017127 0.810300 -0.143490
-0.021276 0.810407 -0.173665
-0.021366 0.810449 -0.188607
-0.024228 0.810478 -0.203298
-0.030233 0.810466 -0.214910
-0.026021 0.826933 0.235985
-0.024230 0.827111 0.219621
-0.024394 0.827216 0.203301
-0.025627 0.827151 0.186853
-0.026460 0.826981 0.170382
-0.024859 0.826842 0.154321
-0.021185 0.826764 0.139205
-0.018451 0.826773 -0.155989
-0.016739 0.826733 -0.144907
-0.020409 0.826845 -0.173836
-0.020805 0.826858 -0.188741
-0.023803 0.826852 -0.203325
-0.029984 0.826816 -0.215501
-0.027426 0.843412 0.235986
-0.026042 0.843503 0.219693
-0.026401 0.843575 0.203536
-0.027354 0.843585 0.187036
-0.027572 0.843521 0.170431
-0.025661 0.843419 0.154521
-0.021752 0.843311 0.139561
-0.018252 0.843210 -0.156171
-0.016655 0.843167 -0.145487
-0.020171 0.843288 -0.173886
-0.020765 0.843321 -0.188767
-0.023752 0.843327 -0.203337
-0.029853 0.843281 -0.215861
-0.027814 0.859797 0.236016
-0.027039 0.859761 0.220119
-0.027655 0.859762 0.204250
-0.028721 0.859852 0.187363
-0.028816 0.859923 0.170412
-0.026432 0.859868 0.154862
-0.021598 0.859744 0.140189
-0.017399 0.858787 -0.156286
-0.016604 0.852690 -0.146017
-0.019189 0.859736 -0.173812
-0.020131 0.859849 -0.189033
-0.023266 0.859898 -0.203717
-0.029512 0.859837 -0.215997
-0.027996 0.876215 0.252218
-0.027688 0.876082 0.236387
-0.028287 0.876020 0.221170
-0.029812 0.876024 0.205077
-0.030841 0.876140 0.187494
-0.030323 0.876243 0.170323
-0.026199 0.876133 0.155037
-0.017110 0.876112 -0.175094
-0.016781 0.870345 -0.162347
-0.018342 0.876494 -0.189775
-0.021887 0.876598 -0.205007
-0.028795 0.876513 -0.216467
-0.025831 0.892677 0.252190
-0.027499 0.892444 0.237055
-0.029110 0.892371 0.222289
-0.030654 0.892440 0.205691
-0.031182 0.892688 0.187620
-0.029802 0.892866 0.170269
-0.016838 0.886827 -0.190286
-0.016378 0.884732 -0.181522
-0.019177 0.893244 -0.205500
-0.027588 0.893314 -0.217606
-0.023876 0.909624 0.252288
-0.026988 0.908966 0.237528
-0.029118 0.908897 0.222910
-0.029611 0.909133 0.206147
-0.029047 0.909631 0.187915
-0.026900 0.909982 0.170159
-0.026134 0.910291 -0.218424
-0.018009 0.910258 -0.209857
-0.024082 0.926090 0.252354
-0.027968 0.925375 0.237683
-0.030197 0.925299 0.223079
-0.030040 0.925544 0.206345
-0.029060 0.926083 0.188078
-0.027022 0.926480 0.170117
-0.027307 0.926628 -0.218026
-0.019174 0.926487 -0.209164
-0.027074 0.941891 0.252428
-0.024633 0.941882 0.155673
-0.030884 0.942178 -0.216221
-0.025097 0.958244 -0.190119
-0.025212 0.974794 -0.104888
-0.025536 0.974760 -0.121404
-0.025928 0.974667 -0.138207
-0.007798 -0.836669 0.106123
-0.007804 -0.837741 0.089873
-0.007822 -0.838923 0.073459
-0.007846 -0.841126 0.056693
-0.007938 -0.842168 0.039961
-0.008082 -0.841617 0.023286
-0.008137 -0.841101 0.007881
-0.008116 -0.840583 -0.006935
-0.008119 -0.839776 -0.022843
-0.008149 -0.838788 -0.039347
-0.008150 -0.837838 -0.055945
-0.008130 -0.836833 -0.072704
-0.007835 -0.821740 0.187013
-0.007830 -0.823532 0.170324
-0.007864 -0.825339 0.154221
-0.007879 -0.828171 0.138649
-0.008491 -0.796251 -0.205181
-0.008435 -0.237710 -0.334065
-0.008467 -0.221778 -0.336057
-0.008467 -0.205508 -0.336875
-0.008467 -0.189282 -0.336415
-0.008468 -0.172997 -0.335424
-0.008445 -0.156515 -0.334590
-0.008421 -0.140047 -0.333500
-0.008411 -0.123792 -0.331582
-0.008413 -0.107588 -0.329523
-0.008508 -0.009559 -0.321342
-0.008357 0.039865 -0.251084
-0.008386 0.056085 -0.251236
-0.008331 0.072123 -0.256674
-0.013741 0.077499 -0.261101
-0.013239 0.088790 -0.261167
-0.005121 0.088701 -0.257312
-0.014931 0.105550 -0.260996
-0.006810 0.105359 -0.256060
-0.010583 0.137987 -0.252164
-0.002319 0.137846 -0.245514
-0.012518 0.154656 -0.250500
-0.004293 0.154418 -0.244227
-0.013768 0.171543 -0.249098
-0.005592 0.171152 -0.243107
-0.014780 0.188331 -0.248047
-0.006658 0.187832 -0.242368
-0.008440 0.236404 0.239392
-0.009578 0.237213 -0.238665
-0.000428 0.236950 -0.228358
-0.010804 0.252716 0.222835
-0.008686 0.252738 0.206047
-0.005759 0.252678 0.188928
-0.006459 0.253282 -0.237063
-0.000986 0.252966 -0.226968
-0.015237 0.242535 -0.249330
-0.013445 0.252720 -0.254149
-0.012556 0.268981 0.205522
-0.009069 0.268958 0.188394
-0.005209 0.268912 0.171567
-0.005336 0.269233 -0.236809
-0.001124 0.269090 -0.226264
-0.010671 0.269301 -0.253457
-0.015136 0.257226 -0.265321
-0.014627 0.269276 -0.266784
-0.011719 0.285280 0.205395
-0.008442 0.285277 0.188121
-0.004701 0.285263 0.171093
-0.004968 0.285527 -0.236615
-0.000948 0.285399 -0.226524
-0.011114 0.285661 -0.253437
-0.015208 0.285696 -0.265026
-0.010936 0.301642 0.205551
-0.007154 0.301644 0.188105
-0.005911 0.301831 -0.236677
-0.001297 0.301725 -0.225790
-0.011809 0.318033 0.205832
-0.005540 0.318033 0.188250
-0.008219 0.318114 -0.237065
-0.002319 0.318053 -0.223807
-0.014283 0.318183 -0.250748
-0.010364 0.334426 0.205874
-0.009766 0.334505 -0.236970
-0.002908 0.334443 -0.222439
-0.015275 0.334559 -0.248368
-0.011290 0.350855 0.222751
-0.007020 0.350840 0.205621
-0.010382 0.351000 -0.236480
-0.003046 0.350896 -0.221996
-0.015772 0.351094 -0.246697
-0.009248 0.367279 0.222791
-0.006012 0.367255 0.205282
-0.009143 0.383681 0.222740
-0.006422 0.383657 0.205035
-0.005591 0.383653 -0.220091
-0.001112 0.383644 -0.209627
-0.012993 0.383716 -0.235808
-0.011079 0.400109 0.239095
-0.007620 0.400106 0.222709
-0.005597 0.400076 0.205326
-0.002434 0.400062 0.187623
-0.006596 0.400071 -0.220047
-0.001447 0.400053 -0.208746
-0.013681 0.400142 -0.234708
-0.007913 0.416532 0.238735
-0.005060 0.416530 0.222756
-0.003891 0.416496 0.205959
-0.001792 0.416471 0.188094
-0.006825 0.416528 -0.219783
-0.001295 0.416479 -0.208957
-0.014060 0.416631 -0.233688
-0.005963 0.432904 0.239081
-0.003359 0.432911 0.223029
-0.002697 0.432902 0.206247
-0.001438 0.432890 0.188221
-0.007770 0.432933 -0.219910
-0.001761 0.432888 -0.207600
-0.014534 0.433026 -0.233186
-0.011232 0.449267 0.254504
-0.004966 0.449280 0.239611
-0.002327 0.449285 0.223266
-0.001858 0.449286 0.206073
-0.001221 0.449299 0.187949
-0.009025 0.449304 -0.220173
-0.002477 0.449282 -0.205565
-0.015065 0.449365 -0.232704
-0.009781 0.465688 0.254669
-0.003873 0.465701 0.239752
-0.001353 0.465689 0.223174
-0.001117 0.465671 0.205461
-0.000925 0.465686 0.187426
-0.009769 0.465736 -0.220054
-0.002811 0.465697 -0.204859
-0.015492 0.465797 -0.231576
-0.008964 0.482116 0.254767
-0.003618 0.482131 0.239792
-0.001438 0.482104 0.223065
-0.001415 0.482076 0.205033
-0.001286 0.482083 0.187097
-0.010726 0.482187 -0.219840
-0.003285 0.482125 -0.204235
-0.015995 0.482251 -0.229975
-0.009497 0.498505 0.254804
-0.005022 0.498520 0.239769
-0.003403 0.498504 0.223167
-0.003629 0.498484 0.205417
-0.003000 0.498496 0.187388
-0.001623 0.498517 0.170443
-0.010235 0.514888 0.254834
-0.006434 0.514904 0.239759
-0.005262 0.514903 0.223303
-0.005726 0.514891 0.205982
-0.004811 0.514900 0.187835
-0.002928 0.514922 0.170468
-0.007131 0.514894 -0.203294
-0.013708 0.514915 -0.217801
-0.010161 0.531303 0.254919
-0.006746 0.531330 0.239793
-0.005663 0.531325 0.223342
-0.006003 0.531307 0.206128
-0.005595 0.531299 0.187973
-0.004271 0.531306 0.170509
-0.003406 0.531300 -0.187432
-0.008410 0.531317 -0.203239
-0.014397 0.531336 -0.216251
-0.010151 0.547713 0.254933
-0.007311 0.547743 0.239816
-0.006161 0.547734 0.223348
-0.006105 0.547710 0.206081
-0.006070 0.547701 0.187919
-0.005376 0.547697 0.170519
-0.003630 0.547703 0.155182
-0.002539 0.547713 -0.171757
-0.005038 0.547713 -0.187376
-0.009845 0.547731 -0.203200
-0.015046 0.547756 -0.214873
-0.010762 0.564109 0.254813
-0.008786 0.564134 0.239776
-0.007732 0.564136 0.223303
-0.007313 0.564126 0.205910
-0.006865 0.564128 0.187761
-0.006051 0.564131 0.170472
-0.004463 0.564143 0.154879
-0.001952 0.564117 -0.155143
-0.000576 0.564108 -0.143740
-0.004323 0.564123 -0.172192
-0.007079 0.564115 -0.187627
-0.011804 0.564127 -0.203283
-0.015915 0.564144 -0.213233
-0.010852 0.580520 0.254777
-0.009290 0.580542 0.239761
-0.008423 0.580544 0.223181
-0.008009 0.580531 0.205476
-0.007518 0.580538 0.187437
-0.006794 0.580557 0.170444
-0.005429 0.580572 0.154812
-0.002938 0.580577 0.140126
-0.003044 0.580531 -0.155319
-0.005790 0.580541 -0.172485
-0.008779 0.580530 -0.187791
-0.010057 0.596955 0.254899
-0.008022 0.596994 0.239808
-0.007396 0.596961 0.222871
-0.007620 0.596924 0.204810
-0.007894 0.596921 0.187074
-0.007840 0.596932 0.170447
-0.006830 0.596950 0.155263
-0.004361 0.596965 0.140679
-0.001817 0.596947 -0.138184
-0.000550 0.596983 -0.125757
-0.004038 0.596943 -0.155247
-0.006995 0.596965 -0.172410
-0.009951 0.596962 -0.187703
-0.014055 0.596958 -0.202778
-0.009644 0.613364 0.254893
-0.007681 0.613411 0.239816
-0.007522 0.613374 0.222811
-0.008234 0.613332 0.204682
-0.008826 0.613328 0.187011
-0.009000 0.613334 0.170486
-0.008167 0.613353 0.155405
-0.005676 0.613370 0.140804
-0.003427 0.613361 -0.138167
-0.005629 0.613360 -0.155281
-0.008551 0.613382 -0.172533
-0.011308 0.613376 -0.187752
-0.014658 0.613376 -0.201214
-0.009887 0.629745 0.254683
-0.009032 0.629777 0.239730
-0.009392 0.629771 0.223097
-0.010219 0.629755 0.205329
-0.010509 0.629763 0.187382
-0.010156 0.629779 0.170503
-0.009253 0.629813 0.154950
-0.006824 0.629826 0.140212
-0.003636 0.629797 0.124739
-0.001889 0.629768 0.108466
-0.001653 0.629754 0.091850
-0.001371 0.629750 0.075311
-0.002081 0.629856 -0.007096
-0.002100 0.629891 -0.023501
-0.001842 0.629888 -0.039921
-0.002360 0.629924 -0.056522
-0.003307 0.629987 -0.073576
-0.003433 0.630030 -0.091228
-0.003369 0.630019 -0.108437
-0.004254 0.629884 -0.123674
-0.005694 0.629766 -0.138290
-0.007788 0.629762 -0.155477
-0.010505 0.629782 -0.172950
-0.013055 0.629764 -0.188023
-0.015490 0.629765 -0.198665
-0.009892 0.646146 0.254601
-0.009286 0.646181 0.239726
-0.010017 0.646191 0.223274
-0.011256 0.646186 0.205913
-0.011694 0.646185 0.187826
-0.011336 0.646195 0.170532
-0.010567 0.646223 0.154865
-0.008370 0.646236 0.140108
-0.005409 0.646201 0.124695
-0.003623 0.646171 0.108446
-0.002953 0.646161 0.091847
-0.002513 0.646158 0.075333
-0.001962 0.646157 0.059088
-0.001770 0.646152 0.042674
-0.002115 0.646152 0.025910
-0.002698 0.646181 0.009268
-0.003442 0.646243 -0.007113
-0.003873 0.646280 -0.023524
-0.003976 0.646282 -0.039966
-0.004498 0.646329 -0.056551
-0.005198 0.646403 -0.073553
-0.005369 0.646448 -0.091202
-0.005399 0.646434 -0.108498
-0.005860 0.646281 -0.123762
-0.006947 0.646170 -0.138333
-0.009289 0.646166 -0.155548
-0.012205 0.646186 -0.173081
-0.014538 0.646177 -0.188083
-0.016142 0.646169 -0.196755
-0.009576 0.662580 0.254663
-0.008332 0.662647 0.239812
-0.009271 0.662651 0.223341
-0.011037 0.662621 0.206107
-0.012183 0.662596 0.187988
-0.012611 0.662564 0.170605
-0.012171 0.662583 0.155274
-0.010246 0.662594 0.140618
-0.007514 0.662581 0.124818
-0.005689 0.662570 0.108454
-0.004741 0.662569 0.091908
-0.004077 0.662576 0.075465
-0.003383 0.662589 0.059209
-0.002805 0.662587 0.042815
-0.002609 0.662575 0.026187
-0.003062 0.662588 0.009601
-0.004310 0.662627 -0.006854
-0.005276 0.662645 -0.023304
-0.005587 0.662643 -0.039740
-0.005459 0.662671 -0.056334
-0.005094 0.662711 -0.073347
-0.005412 0.662728 -0.091039
-0.006137 0.662728 -0.108373
-0.006432 0.662640 -0.123625
-0.007396 0.662587 -0.138279
-0.010271 0.662586 -0.155477
-0.013512 0.662614 -0.172835
-0.015554 0.662621 -0.187872
-0.016533 0.662609 -0.195689
-0.009983 0.678985 0.254554
-0.008946 0.679052 0.239826
-0.009770 0.679061 0.223345
-0.011422 0.679039 0.205982
-0.012841 0.679013 0.187847
-0.013690 0.678973 0.170592
-0.013427 0.678982 0.155244
-0.011711 0.678993 0.140560
-0.009241 0.678984 0.124810
-0.007536 0.678979 0.108451
-0.006644 0.678988 0.091850
-0.006078 0.679007 0.075341
-0.005598 0.679027 0.059085
-0.005028 0.679025 0.042742
-0.004534 0.679008 0.026247
-0.004963 0.679010 0.009769
-0.006429 0.679027 -0.006674
-0.007367 0.679033 -0.023156
-0.007494 0.679030 -0.039663
-0.007118 0.679044 -0.056193
-0.006533 0.679060 -0.072975
-0.006923 0.679060 -0.090660
-0.007864 0.679066 -0.108147
-0.008234 0.679025 -0.123516
-0.009181 0.678998 -0.138352
-0.012042 0.679005 -0.155676
-0.011013 0.695363 0.254344
-0.010683 0.695410 0.239777
-0.011269 0.695435 0.223317
-0.012429 0.695448 0.205732
-0.013663 0.695451 0.187577
-0.014553 0.695447 0.170482
-0.014380 0.695462 0.154778
-0.012855 0.695462 0.140019
-0.010600 0.695429 0.124691
-0.009160 0.695408 0.108433
-0.008724 0.695420 0.091661
-0.008312 0.695450 0.074899
-0.007817 0.695470 0.058546
-0.007488 0.695468 0.042345
-0.007149 0.695456 0.026136
-0.007444 0.695450 0.009838
-0.008721 0.695445 -0.006543
-0.009458 0.695438 -0.023059
-0.009397 0.695441 -0.039711
-0.009376 0.695448 -0.056154
-0.009461 0.695450 -0.072569
-0.010016 0.695446 -0.090170
-0.010866 0.695451 -0.107866
-0.011242 0.695437 -0.123457
-0.011940 0.695415 -0.138552
-0.012514 0.711790 0.254167
-0.011795 0.711872 0.239684
-0.012109 0.711897 0.223337
-0.013220 0.711872 0.205983
-0.014617 0.711871 0.187813
-0.014352 0.711905 0.140189
-0.012400 0.711863 0.124727
-0.011094 0.711830 0.108435
-0.010661 0.711837 0.091674
-0.009990 0.711867 0.074839
-0.009081 0.711901 0.058283
-0.008479 0.711908 0.042096
-0.007944 0.711896 0.026104
-0.008226 0.711882 0.009902
-0.009689 0.711865 -0.006461
-0.010519 0.711851 -0.022970
-0.010410 0.711845 -0.039650
-0.010569 0.711849 -0.056116
-0.011014 0.711852 -0.072502
-0.011734 0.711851 -0.089999
-0.012619 0.711854 -0.107665
-0.013083 0.711847 -0.123298
-0.013808 0.711831 -0.138511
-0.015531 0.711823 -0.152774
-0.012730 0.728450 0.239401
-0.012750 0.728452 0.223392
-0.014149 0.728305 0.206558
-0.014410 0.728265 0.124846
-0.013115 0.728236 0.108441
-0.012350 0.728237 0.091822
-0.011383 0.728264 0.075114
-0.010057 0.728317 0.058446
-0.008886 0.728337 0.042137
-0.007916 0.728316 0.026130
-0.008162 0.728302 0.009927
-0.009929 0.728295 -0.006430
-0.010974 0.728274 -0.022910
-0.010897 0.728247 -0.039526
-0.011215 0.728248 -0.056071
-0.011936 0.728268 -0.072652
-0.012683 0.728263 -0.090074
-0.013424 0.728250 -0.107512
-0.013932 0.728250 -0.123031
-0.014876 0.728245 -0.138268
-0.016144 0.728228 -0.149113
-0.014139 0.744877 0.223318
-0.013998 0.744663 0.108310
-0.013351 0.744675 0.091627
-0.012650 0.744706 0.074924
-0.011317 0.744743 0.058396
-0.010209 0.744758 0.042059
-0.009590 0.744753 0.025862
-0.009624 0.744748 0.009680
-0.010722 0.744745 -0.006537
-0.011545 0.744732 -0.022943
-0.011585 0.744712 -0.039490
-0.011901 0.744716 -0.055993
-0.012484 0.744731 -0.072561
-0.013097 0.744723 -0.089853
-0.013765 0.744703 -0.107167
-0.014294 0.744691 -0.122751
-0.015301 0.744676 -0.138130
-0.016354 0.744656 -0.147578
-0.014145 0.761090 0.108028
-0.013817 0.761124 0.091205
-0.013522 0.761160 0.074512
-0.012380 0.761159 0.058299
-0.011664 0.761155 0.041965
-0.011678 0.761173 0.025372
-0.011436 0.761180 0.009150
-0.011461 0.761166 -0.006790
-0.011832 0.761167 -0.023052
-0.011923 0.761183 -0.039507
-0.012019 0.761193 -0.055925
-0.012195 0.761194 -0.072399
-0.012655 0.761188 -0.089561
-0.013387 0.761173 -0.106816
-0.014115 0.761138 -0.122531
-0.015347 0.761101 -0.138061
-0.016374 0.761073 -0.147061
-0.014794 0.777491 0.107897
-0.014291 0.777519 0.091160
-0.013883 0.777552 0.074624
-0.012552 0.777552 0.058531
-0.011546 0.777545 0.042146
-0.011401 0.777557 0.025281
-0.011214 0.777551 0.008874
-0.011267 0.777520 -0.007025
-0.011426 0.777519 -0.023182
-0.011267 0.777539 -0.039540
-0.011257 0.777554 -0.056015
-0.011428 0.777571 -0.072680
-0.011824 0.777572 -0.089851
-0.012538 0.777557 -0.106921
-0.013825 0.777528 -0.122509
-0.015246 0.793887 0.107958
-0.014438 0.793899 0.091324
-0.013721 0.793921 0.074912
-0.012104 0.793933 0.058834
-0.010680 0.793931 0.042408
-0.010174 0.793934 0.025402
-0.010238 0.793916 0.008769
-0.010731 0.793879 -0.007260
-0.010786 0.793873 -0.023358
-0.010341 0.793883 -0.039607
-0.010263 0.793903 -0.056166
-0.010533 0.793935 -0.073099
-0.010931 0.793940 -0.090344
-0.011686 0.793918 -0.107238
-0.013574 0.793907 -0.122614
-0.015727 0.793877 -0.134718
-0.014495 0.810320 0.108029
-0.013821 0.810350 0.091134
-0.013218 0.810351 0.074649
-0.011572 0.810312 0.058849
-0.010231 0.810298 0.042504
-0.009975 0.810326 0.025211
-0.010078 0.810341 0.008349
-0.010551 0.810335 -0.007661
-0.010580 0.810357 -0.023636
-0.009947 0.810402 -0.039719
-0.009830 0.810427 -0.056184
-0.010210 0.810423 -0.073057
-0.010726 0.810422 -0.090370
-0.011638 0.810403 -0.107392
-0.013530 0.810358 -0.122721
-0.015664 0.810299 -0.135272
-0.013526 0.826769 0.108145
-0.013202 0.826809 0.090997
-0.012934 0.826789 0.074410
-0.011492 0.826708 0.058829
-0.010438 0.826683 0.042581
-0.010502 0.826731 0.025176
-0.010525 0.826782 0.008173
-0.010785 0.826830 -0.007891
-0.010824 0.826887 -0.023807
-0.010240 0.826953 -0.039761
-0.010261 0.826985 -0.056105
-0.010763 0.826971 -0.072834
-0.011413 0.826961 -0.090211
-0.012381 0.826927 -0.107447
-0.013806 0.826838 -0.122842
-0.015569 0.826742 -0.136671
-0.013448 0.843188 0.108314
-0.013194 0.843186 0.091338
-0.013165 0.843162 0.074783
-0.012136 0.843115 0.058991
-0.011405 0.843100 0.042717
-0.011505 0.843121 0.025666
-0.011425 0.843162 0.008780
-0.011304 0.843223 -0.007567
-0.011236 0.843262 -0.023638
-0.011025 0.843287 -0.039627
-0.011274 0.843331 -0.056010
-0.011834 0.843380 -0.072780
-0.012421 0.843375 -0.090150
-0.013082 0.843316 -0.107375
-0.014086 0.843238 -0.122926
-0.015596 0.843169 -0.137208
-0.013287 0.859577 0.108387
-0.012872 0.859552 0.091652
-0.012841 0.859541 0.075145
-0.012209 0.859533 0.059065
-0.011845 0.859528 0.042730
-0.011965 0.859526 0.026015
-0.011790 0.859545 0.009320
-0.011325 0.859579 -0.007190
-0.011168 0.859584 -0.023430
-0.011324 0.859573 -0.039549
-0.011612 0.859612 -0.055981
-0.012003 0.859690 -0.072751
-0.012441 0.859700 -0.089977
-0.012945 0.859650 -0.107074
-0.013874 0.859618 -0.122877
-0.015494 0.858746 -0.139770
-0.012284 0.875995 0.108270
-0.011832 0.876032 0.091586
-0.011663 0.876053 0.075044
-0.011140 0.876027 0.058747
-0.011051 0.876012 0.042322
-0.011493 0.876027 0.025702
-0.011384 0.876040 0.009192
-0.010700 0.876030 -0.007156
-0.010624 0.876019 -0.023440
-0.011099 0.876013 -0.039705
-0.011279 0.876031 -0.056107
-0.011313 0.876062 -0.072689
-0.011742 0.876075 -0.089635
-0.012460 0.876081 -0.106584
-0.013365 0.876094 -0.122657
-0.014444 0.876117 -0.138676
-0.016139 0.863661 -0.150109
-0.015638 0.875969 -0.156027
-0.012384 0.892439 0.124857
-0.010659 0.892498 0.108245
-0.010303 0.892623 0.091618
-0.010077 0.892680 0.075051
-0.009401 0.892608 0.058536
-0.009273 0.892570 0.042014
-0.009945 0.892614 0.025497
-0.009951 0.892612 0.009121
-0.009246 0.892543 -0.007143
-0.009274 0.892512 -0.023444
-0.009864 0.892524 -0.039779
-0.009988 0.892529 -0.056155
-0.009859 0.892523 -0.072611
-0.010317 0.892533 -0.089320
-0.011164 0.892572 -0.106076
-0.011924 0.892618 -0.122329
-0.012703 0.892662 -0.138531
-0.013592 0.892727 -0.155470
-0.016041 0.881454 -0.170209
-0.014949 0.891286 -0.174465
-0.012812 0.909142 0.141227
-0.009864 0.909133 0.124928
-0.008482 0.909164 0.108395
-0.008194 0.909289 0.091870
-0.007890 0.909340 0.075348
-0.006932 0.909242 0.058778
-0.006518 0.909185 0.042244
-0.006991 0.909225 0.025807
-0.007011 0.909199 0.009412
-0.006485 0.909099 -0.006973
-0.006506 0.909051 -0.023303
-0.006974 0.909053 -0.039600
-0.007128 0.909079 -0.056000
-0.007120 0.909112 -0.072500
-0.007590 0.909114 -0.089093
-0.008361 0.909112 -0.105658
-0.008966 0.909141 -0.121967
-0.009594 0.909179 -0.138264
-0.010612 0.909227 -0.154965
-0.011873 0.909406 -0.172162
-0.015475 0.895115 -0.190063
-0.013195 0.909909 -0.189630
-0.016032 0.898628 -0.200016
-0.015248 0.910224 -0.202402
-0.010270 0.925538 0.124968
-0.009052 0.925518 0.108487
-0.008899 0.925584 0.091985
-0.008621 0.925613 0.075484
-0.007662 0.925552 0.058978
-0.007290 0.925525 0.042502
-0.007763 0.925576 0.026101
-0.007815 0.925563 0.009688
-0.007389 0.925470 -0.006779
-0.007417 0.925435 -0.023190
-0.007804 0.925455 -0.039551
-0.007934 0.925487 -0.055971
-0.007942 0.925514 -0.072442
-0.008324 0.925520 -0.088929
-0.008889 0.925514 -0.105369
-0.009250 0.925513 -0.121724
-0.009656 0.925512 -0.138150
-0.010540 0.925538 -0.154865
-0.011827 0.925686 -0.172041
-0.013443 0.926088 -0.189542
-0.015527 0.926375 -0.201708
-0.013967 0.941612 0.124969
-0.012924 0.941584 0.108510
-0.012783 0.941602 0.091982
-0.012602 0.941622 0.075468
-0.011917 0.941619 0.059040
-0.011734 0.941640 0.042643
-0.012326 0.941725 0.026269
-0.012411 0.941745 0.009865
-0.011902 0.941669 -0.006594
-0.011880 0.941666 -0.023089
-0.012231 0.941739 -0.039627
-0.012265 0.941747 -0.056052
-0.012130 0.941698 -0.072375
-0.012397 0.941723 -0.088745
-0.012858 0.941776 -0.105133
-0.013063 0.941754 -0.121559
-0.013328 0.941705 -0.138159
-0.014003 0.941725 -0.155129
-0.015299 0.958051 -0.023031
-0.015396 0.958077 -0.072311
0.008600 -0.838369 0.106331
0.008597 -0.838701 0.090126
0.008584 -0.839484 0.073719
0.008566 -0.841854 0.056869
0.008479 -0.843464 0.040094
0.008347 -0.843288 0.023356
0.008290 -0.842757 0.007998
0.008308 -0.842517 -0.006823
0.008309 -0.841801 -0.022791
0.008288 -0.840836 -0.039284
0.008287 -0.839972 -0.055838
0.008302 -0.839165 -0.072499
0.008308 -0.838517 -0.089341
0.008306 -0.838144 -0.106278
0.008311 -0.838071 -0.123074
0.008329 -0.837838 -0.140091
0.008371 -0.837050 -0.157314
0.008363 -0.835633 -0.170327
0.008306 -0.833119 -0.178440
0.008497 -0.822458 0.238305
0.008549 -0.823320 0.220869
0.008577 -0.823634 0.203993
0.008602 -0.824880 0.187157
0.008610 -0.826753 0.170485
0.008586 -0.827927 0.154424
0.008562 -0.830004 0.138842
0.008146 -0.825786 -0.189747
0.008014 -0.819630 -0.197622
0.007992 -0.810892 -0.203078
0.007939 -0.762512 -0.221515
0.008117 -0.680509 -0.221841
0.008122 -0.663997 -0.220682
0.008052 -0.267321 -0.328832
0.007993 -0.253941 -0.332511
0.007918 -0.238694 -0.333898
0.007900 -0.222631 -0.334673
0.007923 -0.206145 -0.335340
0.007939 -0.189790 -0.335084
0.007947 -0.173423 -0.334350
0.007962 -0.156877 -0.333801
0.007977 -0.140390 -0.333153
0.007979 -0.124161 -0.332110
0.007958 -0.107975 -0.330689
0.007913 -0.091671 -0.329101
0.007862 -0.075348 -0.327829
0.001644 -0.042608 -0.326501
0.009736 -0.042714 -0.325120
0.003945 0.039719 -0.247802
0.012080 0.039679 -0.244469
0.002757 0.056007 -0.247655
0.010915 0.055999 -0.243826
0.003809 0.072174 -0.249626
0.011980 0.072165 -0.244184
0.003609 0.088616 -0.250108
0.011810 0.088569 -0.243681
0.002402 0.105170 -0.248634
0.010578 0.105073 -0.242420
0.006813 0.154225 -0.236474
0.015221 0.154147 -0.230252
0.006907 0.170380 0.255871
0.011098 0.170390 0.239584
0.005237 0.170795 -0.235235
0.013576 0.170638 -0.228404
0.005292 0.186855 0.239539
0.007852 0.186901 0.223016
0.009686 0.186921 0.205967
0.011172 0.186931 0.188259
0.003780 0.187328 -0.234298
0.012034 0.187107 -0.225940
0.003361 0.203416 0.222973
0.005020 0.203454 0.205964
0.006838 0.203478 0.188547
0.009699 0.203452 0.171620
0.002519 0.203867 -0.233161
0.010713 0.203574 -0.222881
0.002165 0.219964 0.206375
0.003704 0.219980 0.189090
0.005930 0.219934 0.172048
0.009956 0.219818 0.156390
0.005523 0.236200 0.156428
0.009295 0.236141 0.140918
0.005145 0.236684 -0.219838
0.007165 0.252519 0.124705
0.009195 0.252517 0.108456
0.008921 0.252511 0.091834
0.009449 0.252495 0.075148
0.009213 0.252606 -0.203544
0.003061 0.252798 -0.218517
0.005539 0.268872 0.124664
0.007733 0.268861 0.108455
0.007708 0.268853 0.091741
0.008266 0.268849 0.074941
0.010469 0.268839 0.058420
0.011870 0.268831 0.042092
0.011899 0.268838 0.025840
0.013076 0.268845 0.009615
0.012858 0.268805 -0.155014
0.010991 0.268822 -0.171818
0.009532 0.268850 -0.187684
0.006674 0.268901 -0.203536
0.002138 0.268983 -0.217880
0.003981 0.285243 0.140443
0.007369 0.285247 0.124760
0.009291 0.285245 0.108480
0.009683 0.285237 0.091818
0.010448 0.285234 0.075026
0.012355 0.285237 0.058362
0.014747 0.283040 0.025844
0.015200 0.281804 0.009636
0.015777 0.285496 -0.006744
0.013264 0.285203 -0.138008
0.015368 0.285211 -0.125519
0.011213 0.285202 -0.154849
0.009813 0.285211 -0.171646
0.009341 0.285228 -0.187564
0.007189 0.285260 -0.203450
0.002407 0.285324 -0.218191
0.006092 0.301629 0.140452
0.009092 0.301630 0.124814
0.010602 0.301633 0.108509
0.010904 0.301631 0.091866
0.011680 0.301631 0.075086
0.013691 0.301635 0.058423
0.015905 0.294692 -0.012288
0.012588 0.301604 -0.137947
0.015040 0.301622 -0.125051
0.010686 0.301601 -0.154797
0.009471 0.301603 -0.171643
0.009064 0.301608 -0.187487
0.006843 0.301630 -0.203359
0.002149 0.301673 -0.217404
0.004616 0.318026 0.155076
0.008001 0.318029 0.140219
0.010697 0.318022 0.124803
0.011697 0.318018 0.108538
0.011145 0.318022 0.091850
0.011777 0.318028 0.075064
0.012821 0.318010 -0.138042
0.015232 0.318058 -0.127055
0.010887 0.318006 -0.154951
0.009453 0.318002 -0.171907
0.008059 0.317994 -0.187528
0.005093 0.318005 -0.203286
0.001194 0.318019 -0.215222
0.005950 0.334425 0.155161
0.008670 0.334428 0.140354
0.010959 0.334423 0.124851
0.011794 0.334417 0.108556
0.011158 0.334419 0.091899
0.012097 0.334426 0.075169
0.013064 0.334417 -0.138069
0.015384 0.334460 -0.127922
0.011099 0.334412 -0.155014
0.009614 0.334406 -0.171949
0.007825 0.334399 -0.187464
0.004267 0.334411 -0.203225
0.000611 0.334408 -0.213871
0.002373 0.350822 0.170755
0.005644 0.350828 0.155515
0.007996 0.350838 0.140775
0.009802 0.350836 0.124941
0.010723 0.350837 0.108567
0.010886 0.350840 0.091999
0.012542 0.350844 0.075361
0.013102 0.350834 -0.138016
0.015390 0.350855 -0.127591
0.011135 0.350829 -0.154961
0.009761 0.350828 -0.171750
0.008091 0.350826 -0.187299
0.004328 0.350846 -0.203165
0.000532 0.350851 -0.213627
0.002135 0.367233 0.170689
0.005408 0.367239 0.155407
0.008087 0.367249 0.140673
0.010019 0.367246 0.124929
0.010770 0.367248 0.108568
0.010704 0.367250 0.091987
0.012120 0.367256 0.075334
0.012263 0.367241 -0.138080
0.014929 0.367255 -0.125876
0.010375 0.367238 -0.155079
0.008988 0.367233 -0.171836
0.007044 0.367231 -0.187323
0.005241 0.383658 0.154973
0.008661 0.383660 0.140217
0.011134 0.383649 0.124854
0.011610 0.383643 0.108565
0.010610 0.383646 0.091905
0.011148 0.383653 0.075157
0.013809 0.383651 0.058673
0.010812 0.383633 -0.138232
0.008982 0.383632 -0.155336
0.007561 0.383626 -0.172165
0.005267 0.383615 -0.187492
0.001750 0.383628 -0.201403
0.004651 0.400064 0.154997
0.008094 0.400068 0.140275
0.010794 0.400055 0.124872
0.011428 0.400050 0.108571
0.010405 0.400055 0.091945
0.010801 0.400059 0.075220
0.013196 0.400058 0.058677
0.013523 0.400046 -0.122743
0.015942 0.400044 -0.112333
0.009969 0.400033 -0.138295
0.008140 0.400034 -0.155438
0.006708 0.400030 -0.172262
0.004397 0.400023 -0.187519
0.001333 0.400033 -0.200517
0.003754 0.416453 0.155272
0.006827 0.416462 0.140631
0.009525 0.416459 0.124946
0.010520 0.416466 0.108580
0.010010 0.416474 0.092038
0.010682 0.416481 0.075389
0.012968 0.416478 0.058747
0.014817 0.416466 0.042265
0.012805 0.416448 -0.122718
0.009464 0.416438 -0.138282
0.007611 0.416440 -0.155422
0.006087 0.416440 -0.172202
0.004032 0.416441 -0.187457
0.001271 0.416457 -0.200736
0.003128 0.432884 0.155103
0.006231 0.432888 0.140472
0.008958 0.432879 0.124925
0.009971 0.432882 0.108574
0.009427 0.432894 0.091931
0.010000 0.432910 0.075150
0.012139 0.432907 0.058538
0.013640 0.432896 0.042135
0.013828 0.432865 -0.006572
0.013911 0.432868 -0.022938
0.014046 0.432865 -0.089457
0.013357 0.432864 -0.106754
0.011220 0.432871 -0.122726
0.008660 0.432855 -0.138306
0.006921 0.432856 -0.155458
0.005244 0.432854 -0.172268
0.003147 0.432850 -0.187514
0.000813 0.432865 -0.199383
0.002616 0.449329 0.154789
0.005861 0.449323 0.140163
0.008677 0.449302 0.124879
0.009679 0.449291 0.108562
0.008905 0.449305 0.091744
0.009132 0.449325 0.074765
0.011001 0.449325 0.058267
0.012112 0.449318 0.042016
0.012424 0.449344 0.025708
0.012261 0.449322 0.009563
0.011560 0.449292 -0.006605
0.011494 0.449293 -0.022988
0.011961 0.449305 -0.039506
0.012043 0.449301 -0.055914
0.011786 0.449294 -0.072313
0.011572 0.449295 -0.089422
0.010936 0.449295 -0.106769
0.009434 0.449295 -0.122775
0.007682 0.449271 -0.138346
0.006182 0.449268 -0.155491
0.004377 0.449265 -0.172354
0.002084 0.449251 -0.187595
0.000230 0.449256 -0.197340
0.001895 0.465725 0.154945
0.004881 0.465726 0.140370
0.007817 0.465705 0.124914
0.009204 0.465695 0.108570
0.008762 0.465699 0.091819
0.008812 0.465708 0.074937
0.010163 0.465710 0.058430
0.011062 0.465713 0.042172
0.011304 0.465739 0.025912
0.011000 0.465721 0.009717
0.010083 0.465695 -0.006563
0.009926 0.465695 -0.022976
0.010544 0.465705 -0.039471
0.010784 0.465701 -0.055921
0.010662 0.465694 -0.072419
0.010456 0.465696 -0.089593
0.009819 0.465698 -0.106898
0.008421 0.465696 -0.122835
0.006742 0.465676 -0.138347
0.005253 0.465672 -0.155436
0.003479 0.465676 -0.172237
0.001475 0.465663 -0.187502
0.000053 0.465669 -0.196630
0.003680 0.482118 0.140635
0.006596 0.482108 0.124953
0.008339 0.482101 0.108578
0.008354 0.482095 0.091987
0.008460 0.482096 0.075312
0.009481 0.482099 0.058787
0.010302 0.482107 0.042435
0.010578 0.482130 0.026150
0.010138 0.482117 0.009850
0.008973 0.482099 -0.006554
0.008691 0.482102 -0.022993
0.009388 0.482110 -0.039440
0.009745 0.482106 -0.055947
0.009717 0.482100 -0.072632
0.009500 0.482103 -0.090002
0.008920 0.482106 -0.107312
0.007524 0.482101 -0.122984
0.005689 0.482084 -0.138251
0.004184 0.482082 -0.155265
0.002549 0.482088 -0.172050
0.000887 0.482082 -0.187393
-0.000109 0.482095 -0.196017
0.002804 0.498534 0.140307
0.005423 0.498515 0.124863
0.006965 0.498499 0.108554
0.007014 0.498488 0.091961
0.007302 0.498490 0.075361
0.008563 0.498499 0.058968
0.009511 0.498509 0.042578
0.009695 0.498529 0.026051
0.009102 0.498523 0.009606
0.007941 0.498512 -0.006765
0.007542 0.498520 -0.023205
0.007899 0.498524 -0.039682
0.008205 0.498521 -0.056162
0.008321 0.498519 -0.072862
0.008129 0.498528 -0.090488
0.007546 0.498539 -0.107965
0.006299 0.498515 -0.123225
0.004690 0.498483 -0.138051
0.003299 0.498485 -0.155031
0.001645 0.498483 -0.172009
0.001832 0.514942 0.140037
0.004249 0.514914 0.124781
0.005638 0.514895 0.108525
0.005658 0.514884 0.091924
0.006065 0.514883 0.075366
0.007595 0.514898 0.059065
0.008659 0.514913 0.042662
0.008720 0.514935 0.025973
0.008014 0.514922 0.009444
0.006947 0.514916 -0.006868
0.006552 0.514923 -0.023312
0.006663 0.514923 -0.039848
0.006859 0.514923 -0.056292
0.007022 0.514929 -0.072937
0.006870 0.514942 -0.090717
0.006289 0.514951 -0.108321
0.005109 0.514914 -0.123359
0.003635 0.514877 -0.137917
0.002286 0.514882 -0.154857
0.002970 0.531303 0.124855
0.004693 0.531297 0.108533
0.004918 0.531291 0.091988
0.005332 0.531293 0.075489
0.006892 0.531306 0.059154
0.007908 0.531322 0.042751
0.007704 0.531335 0.026190
0.006903 0.531319 0.009734
0.005870 0.531307 -0.006619
0.005421 0.531312 -0.023080
0.005478 0.531310 -0.039622
0.005518 0.531311 -0.056098
0.005531 0.531318 -0.072766
0.005581 0.531325 -0.090567
0.005347 0.531324 -0.108204
0.004036 0.531307 -0.123320
0.002220 0.531285 -0.137926
0.001805 0.547700 0.124905
0.003666 0.547701 0.108533
0.004022 0.547699 0.092015
0.004479 0.547705 0.075542
0.006095 0.547725 0.059194
0.007104 0.547741 0.042807
0.006611 0.547748 0.026361
0.005702 0.547728 0.009960
0.004810 0.547709 -0.006460
0.004409 0.547707 -0.022942
0.004477 0.547710 -0.039479
0.004378 0.547712 -0.055979
0.004219 0.547717 -0.072649
0.004390 0.547724 -0.090390
0.004370 0.547716 -0.108000
0.002969 0.547709 -0.123271
0.002541 0.564117 0.108481
0.002712 0.564110 0.091882
0.003217 0.564121 0.075388
0.004933 0.564157 0.059150
0.005938 0.564186 0.042810
0.005295 0.564203 0.026340
0.004382 0.564179 0.009890
0.003805 0.564149 -0.006575
0.003600 0.564152 -0.023105
0.003654 0.564168 -0.039689
0.003448 0.564176 -0.056159
0.003133 0.564183 -0.072728
0.003160 0.564208 -0.090366
0.003034 0.564208 -0.107941
0.001820 0.564161 -0.123337
0.000315 0.564104 -0.135761
0.001456 0.580529 0.108457
0.001379 0.580517 0.091792
0.001891 0.580531 0.075278
0.003799 0.580576 0.059111
0.004862 0.580623 0.042800
0.004199 0.580659 0.026295
0.003266 0.580635 0.009796
0.002671 0.580592 -0.006721
0.002440 0.580599 -0.023284
0.002445 0.580618 -0.039861
0.002179 0.580628 -0.056362
0.001773 0.580639 -0.072997
0.001589 0.580674 -0.090582
0.001362 0.580682 -0.108041
0.000522 0.596924 0.108496
0.002812 0.596975 0.059129
0.004096 0.597028 0.042790
0.003441 0.597078 0.026286
0.002484 0.597064 0.009799
0.001661 0.597024 -0.006741
0.001317 0.597022 -0.023266
0.001454 0.597019 -0.039741
0.001324 0.597017 -0.056348
0.001023 0.597034 -0.073315
0.000754 0.597056 -0.090937
0.000381 0.597044 -0.108177
0.000002 0.597013 -0.118789
0.002528 0.613403 0.042748
0.001917 0.613437 0.026203
0.025017 -0.839370 0.106316
0.025013 -0.839458 0.090174
0.024998 -0.839978 0.073788
0.024987 -0.842259 0.056904
0.024908 -0.844239 0.040133
0.024770 -0.844405 0.023379
0.024710 -0.844019 0.008011
0.024731 -0.844184 -0.006817
0.024734 -0.843644 -0.022798
0.024712 -0.842639 -0.039307
0.024712 -0.841825 -0.055854
0.024730 -0.841129 -0.072482
0.024739 -0.840558 -0.089300
0.024741 -0.840287 -0.106222
0.024744 -0.840257 -0.123022
0.024762 -0.840026 -0.140048
0.024807 -0.839151 -0.157286
0.024845 -0.823519 0.255957
0.024930 -0.825478 0.238482
0.024980 -0.825578 0.221033
0.024997 -0.825159 0.204072
0.025017 -0.826181 0.187198
0.025029 -0.828111 0.170538
0.025014 -0.828977 0.154468
0.024989 -0.830687 0.138814
0.024449 -0.821053 -0.199317
0.024468 -0.384081 -0.218484
0.024469 -0.367781 -0.222794
0.024353 -0.350800 -0.226662
0.018846 -0.344763 -0.228985
0.024347 -0.335204 -0.230427
0.029715 -0.341007 -0.228054
0.022819 -0.316815 -0.239724
0.016291 -0.310085 -0.244933
0.022904 -0.304503 -0.251586
0.027205 -0.309665 -0.244561
0.024683 -0.284458 -0.305514
0.024530 -0.280109 -0.317548
0.024464 -0.275724 -0.324337
0.024437 -0.267963 -0.328549
0.024376 -0.254486 -0.331096
0.024293 -0.239241 -0.331670
0.024275 -0.223061 -0.332838
0.024303 -0.206540 -0.334019
0.024322 -0.190127 -0.333913
0.024330 -0.173719 -0.333187
0.024335 -0.157190 -0.332810
0.024344 -0.140728 -0.332457
0.024351 -0.124466 -0.331818
0.024333 -0.108225 -0.330581
0.024289 -0.091894 -0.328824
0.021202 -0.042754 -0.318451
0.029664 -0.042717 -0.308907
0.018652 -0.026275 -0.315514
0.024396 0.039529 -0.240484
0.024397 0.055854 -0.238860
0.024414 0.072076 -0.237687
0.022238 0.104934 -0.234949
0.030631 0.104859 -0.229742
0.023315 0.121140 0.255678
0.024600 0.121155 0.239229
0.025553 0.121180 0.222535
0.026637 0.121210 0.205367
0.019501 0.121313 -0.233436
0.027772 0.121260 -0.227927
0.020221 0.137555 0.239391
0.021577 0.137573 0.222813
0.022399 0.137591 0.205600
0.023261 0.137610 0.187845
0.025440 0.137605 0.170677
0.019374 0.153987 0.205931
0.019850 0.153998 0.188029
0.021488 0.153996 0.170665
0.026686 0.153989 0.155292
0.024461 0.154045 -0.222412
0.023135 0.170402 0.155440
0.023111 0.186851 0.140707
0.025106 0.186881 0.124734
0.026117 0.186900 0.108365
0.026640 0.186878 0.091779
0.020244 0.186919 -0.216945
0.020127 0.203314 0.124721
0.020741 0.203333 0.108357
0.020525 0.203323 0.091764
0.021239 0.203303 0.075129
0.024126 0.203272 0.058624
