-0.472024 0.701110 -0.393124
-0.467705 0.711606 -0.386540
-0.461448 0.704476 -0.395687
-0.467814 0.715490 -0.324964
-0.477038 0.720802 -0.314549
-0.467880 0.721848 -0.316683
-0.474291 0.719172 -0.377748
-0.468716 0.727544 -0.373404
-0.463709 0.721679 -0.379293
-0.468170 0.731059 -0.303992
-0.476773 0.736618 -0.297475
-0.473598 0.736607 -0.297410
-0.462886 0.736037 -0.296358
-0.468255 0.741084 -0.290146
-0.466750 0.760395 -0.268185
-0.468269 0.750433 -0.277627
-0.468238 0.739397 -0.363727
-0.468373 0.747663 -0.356369
-0.475984 0.768760 -0.246095
-0.472352 0.777346 -0.242519
-0.468489 0.765314 -0.340790
-0.468400 0.757055 -0.347816
-0.480077 0.786949 -0.230223
-0.466857 0.789823 -0.236530
-0.468457 0.774208 -0.332313
-0.468492 0.782409 -0.323842
-0.468223 0.798770 -0.227226
-0.481943 0.804991 -0.217042
-0.468203 0.807622 -0.219916
-0.468429 0.797529 -0.305744
-0.468420 0.789327 -0.315217
-0.467981 0.826606 -0.207139
-0.468170 0.815787 -0.213324
-0.468374 0.813393 -0.288377
-0.468384 0.805196 -0.297241
-0.467790 0.837474 -0.200603
-0.478281 0.835327 -0.199163
-0.468366 0.820824 -0.280155
-0.468337 0.829019 -0.271640
-0.467450 0.859566 -0.193316
-0.467607 0.845715 -0.197139
-0.475814 0.850913 -0.243938
-0.469535 0.845922 -0.251801
-0.464784 0.852238 -0.245618
-0.469170 0.859472 -0.236095
-0.468318 0.836593 -0.263336
-0.467398 0.875909 -0.190559
-0.473506 0.866608 -0.227004
-0.468022 0.874441 -0.221827
-0.462572 0.868140 -0.228332
-0.467488 0.893309 -0.194942
-0.467668 0.894208 -0.204669
-0.461989 0.901115 -0.198216
-0.461949 0.901066 -0.199637
-0.468167 0.885607 -0.212720
-0.451217 -0.877023 -0.217636
-0.445607 -0.885851 -0.214181
-0.445472 -0.885963 -0.209454
-0.451046 -0.877441 -0.207001
-0.451131 -0.862081 -0.205450
-0.451238 -0.846004 -0.210039
-0.452584 -0.829755 -0.213660
-0.458984 -0.821029 -0.214779
-0.458071 -0.818312 -0.260014
-0.447165 -0.821843 -0.263478
-0.452210 -0.827603 -0.255167
-0.450915 -0.811292 -0.269434
-0.452421 -0.813799 -0.221883
-0.456624 -0.803632 -0.227318
-0.450086 -0.795581 -0.281828
-0.443672 -0.804131 -0.278384
-0.454571 -0.800772 -0.275482
-0.451377 -0.797873 -0.232864
-0.462631 -0.792734 -0.230661
-0.452595 -0.780900 -0.242579
-0.458796 -0.771960 -0.245548
-0.452663 -0.765674 -0.253248
-0.453014 -0.749170 -0.262254
-0.459576 -0.739763 -0.263088
-0.451006 -0.729727 -0.335908
-0.447022 -0.741111 -0.329860
-0.452111 -0.746546 -0.322767
-0.457989 -0.737111 -0.326542
-0.464488 -0.728789 -0.266741
-0.453099 -0.733287 -0.269376
-0.451465 -0.718693 -0.278081
-0.450238 -0.712952 -0.349745
-0.443965 -0.722306 -0.345334
-0.454883 -0.718285 -0.342282
-0.462731 -0.707861 -0.281262
-0.451393 -0.710354 -0.282666
-0.451416 -0.701277 -0.290819
-0.451493 -0.693140 -0.299689
-0.462038 -0.692175 -0.298628
-0.451571 -0.685669 -0.307673
-0.461835 -0.676675 -0.314749
-0.451651 -0.677597 -0.315552
-0.465048 -0.666003 -0.318413
-0.451696 -0.665927 -0.323545
-0.458774 -0.671857 -0.375933
-0.447797 -0.675951 -0.379673
-0.452589 -0.681203 -0.372661
-0.452442 -0.665070 -0.385724
-0.451696 -0.657118 -0.329306
-0.456942 -0.654306 -0.392277
-0.446059 -0.658221 -0.395408
-0.450554 -0.647342 -0.402105
-0.463143 -0.646249 -0.332490
-0.451675 -0.648957 -0.334724
-0.451633 -0.636971 -0.343040
-0.450382 -0.631740 -0.414781
-0.444147 -0.640380 -0.411388
-0.454959 -0.637085 -0.408583
-0.461074 -0.626468 -0.347548
-0.451562 -0.628810 -0.349354
-0.451470 -0.618622 -0.357541
-0.459758 -0.608635 -0.362780
-0.451395 -0.610400 -0.364074
-0.451351 -0.600062 -0.371267
-0.451339 -0.590070 -0.378078
-0.451154 -0.581687 -0.452271
-0.447268 -0.592386 -0.445800
-0.452236 -0.598285 -0.439432
-0.458179 -0.589290 -0.443651
-0.451324 -0.581755 -0.384165
-0.463313 -0.578578 -0.382216
-0.451590 -0.566739 -0.392446
-0.450436 -0.565894 -0.464183
-0.444200 -0.574146 -0.461255
-0.455093 -0.571160 -0.458374
-0.457239 -0.557828 -0.394676
-0.462220 -0.546959 -0.398092
-0.451681 -0.551862 -0.400757
-0.451441 -0.539113 -0.409272
-0.461918 -0.527777 -0.413345
-0.451355 -0.530753 -0.414991
-0.451803 -0.517111 -0.423985
-0.450576 -0.516537 -0.497468
-0.444581 -0.525674 -0.494167
-0.450646 -0.532195 -0.486668
-0.455426 -0.521946 -0.491394
-0.457556 -0.509083 -0.427962
-0.451869 -0.502967 -0.434194
-0.464050 -0.498338 -0.431670
-0.451432 -0.490859 -0.443029
-0.459421 -0.492688 -0.508740
-0.448468 -0.496341 -0.511227
-0.452932 -0.501227 -0.506270
-0.453008 -0.486153 -0.514841
-0.460880 -0.479085 -0.445946
-0.451421 -0.482636 -0.448507
-0.451128 -0.468248 -0.456906
-0.456362 -0.458684 -0.460005
-0.462961 -0.447816 -0.463710
-0.451034 -0.452815 -0.465929
-0.451246 -0.440281 -0.474564
-0.450550 -0.434740 -0.545089
-0.444356 -0.443606 -0.543276
-0.450405 -0.449753 -0.536446
-0.455296 -0.439668 -0.540265
-0.451349 -0.432335 -0.481044
-0.461461 -0.429712 -0.478950
-0.451364 -0.419740 -0.487597
-0.465039 -0.419640 -0.481232
-0.452184 -0.404188 -0.492531
-0.456916 -0.408266 -0.557167
-0.446060 -0.412668 -0.559415
-0.451519 -0.418525 -0.553463
-0.451430 -0.402258 -0.562463
-0.458130 -0.393748 -0.493752
-0.452092 -0.387419 -0.499488
-0.451194 -0.373192 -0.507787
-0.458612 -0.376120 -0.574913
-0.447685 -0.379627 -0.576603
-0.452428 -0.385061 -0.571689
-0.452524 -0.369865 -0.578873
-0.460367 -0.362574 -0.511016
-0.451277 -0.365075 -0.512224
-0.451355 -0.353092 -0.518596
-0.453060 -0.337219 -0.525430
-0.450206 -0.333579 -0.591428
-0.443599 -0.343623 -0.590662
-0.450055 -0.350341 -0.586083
-0.454595 -0.338130 -0.588532
-0.459654 -0.327626 -0.526884
-0.453112 -0.321368 -0.533516
-0.451452 -0.310252 -0.541874
-0.451429 -0.302357 -0.547300
-0.451432 -0.288141 -0.554174
-0.451991 -0.272424 -0.558390
-0.457867 -0.255932 -0.559334
-0.458098 -0.239670 -0.559218
-0.455090 -0.223192 -0.557398
-0.464968 -0.206635 -0.547007
-0.451838 -0.206608 -0.555274
-0.449315 -0.191618 -0.555452
-0.463736 -0.190243 -0.546571
-0.451184 -0.173866 -0.553304
-0.463254 -0.173905 -0.546490
-0.451231 -0.157365 -0.550940
-0.462322 -0.157383 -0.545412
-0.462221 -0.140956 -0.544931
-0.451241 -0.140952 -0.549921
-0.451332 -0.124700 -0.552371
-0.463912 -0.124712 -0.546333
-0.451338 -0.108343 -0.554225
-0.464932 -0.108347 -0.547380
-0.464313 -0.091624 -0.546689
-0.451167 -0.091658 -0.553056
-0.453270 -0.091603 -0.620802
-0.444013 -0.102697 -0.622914
-0.450362 -0.108224 -0.619997
-0.445126 -0.091654 -0.623733
-0.451095 -0.075138 -0.552915
-0.464290 -0.075094 -0.546587
-0.454806 -0.075084 -0.621581
-0.446658 -0.075135 -0.624453
-0.449689 -0.057506 -0.556285
-0.465630 -0.058956 -0.547947
-0.455656 -0.059012 -0.621182
-0.447510 -0.059047 -0.624148
-0.466301 -0.042543 -0.548674
-0.449709 -0.043400 -0.557375
-0.448611 -0.042683 -0.624333
-0.456758 -0.042654 -0.621475
-0.466499 -0.025636 -0.548813
-0.451110 -0.025677 -0.556730
-0.449784 -0.025782 -0.625479
-0.457922 -0.025738 -0.622722
-0.451666 -0.010210 -0.558197
-0.458690 -0.014240 -0.623428
-0.452633 -0.009083 -0.625711
-0.457633 0.001093 -0.559083
-0.460836 0.011858 -0.560682
-0.451872 0.006671 -0.563234
-0.461982 0.023670 -0.561809
-0.451238 0.023773 -0.567425
-0.463388 0.041233 -0.563565
-0.450954 0.041339 -0.570617
-0.450788 0.054252 -0.574407
-0.459073 0.065501 -0.576214
-0.450806 0.061994 -0.577548
-0.450851 0.073355 -0.581806
-0.461481 0.073523 -0.577776
-0.464488 0.089108 -0.579470
-0.451162 0.088917 -0.584635
-0.451579 0.104905 -0.582206
-0.464679 0.104915 -0.578619
-0.453275 0.122714 -0.578328
-0.462804 0.118268 -0.577139
-0.459807 0.129222 -0.576046
-0.453214 0.137663 -0.573557
-0.452685 0.155516 -0.564733
-0.464820 0.150955 -0.562337
-0.459884 0.145584 -0.622420
-0.453446 0.139101 -0.625126
-0.456788 0.154029 -0.621982
-0.448621 0.154009 -0.624052
-0.458870 0.162004 -0.559582
-0.455783 0.170571 -0.558654
-0.444902 0.164683 -0.623759
-0.450839 0.170304 -0.620946
-0.452798 0.186953 -0.557892
-0.450199 0.202117 -0.556539
-0.463297 0.216785 -0.545966
-0.452464 0.221378 -0.548435
-0.458652 0.227949 -0.543159
-0.457016 0.236405 -0.542577
-0.455758 0.252638 -0.542155
-0.458791 0.242770 -0.607341
-0.452579 0.236917 -0.610295
-0.456239 0.252520 -0.605742
-0.448100 0.252503 -0.608551
-0.451457 0.268855 -0.540652
-0.445112 0.264589 -0.607292
-0.450972 0.269629 -0.604283
-0.451070 0.285761 -0.534753
-0.463407 0.285704 -0.529562
-0.460678 0.298055 -0.527668
-0.452138 0.302918 -0.529688
-0.456681 0.318233 -0.525870
-0.458423 0.308685 -0.526613
-0.451270 0.333961 -0.522799
-0.450912 0.317162 -0.592554
-0.455963 0.321937 -0.588893
-0.445089 0.328549 -0.590811
-0.450951 0.334246 -0.587406
-0.462003 0.346367 -0.512242
-0.451131 0.351622 -0.514245
-0.456473 0.357509 -0.509355
-0.451177 0.368026 -0.507871
-0.451377 0.383774 -0.503321
-0.464588 0.383756 -0.497145
-0.451939 0.367701 -0.578225
-0.457767 0.373268 -0.573842
-0.452093 0.384623 -0.571357
-0.446970 0.379742 -0.575808
-0.461680 0.394015 -0.495309
-0.449730 0.399795 -0.496858
-0.454050 0.405045 -0.492037
-0.449535 0.415121 -0.488199
-0.460498 0.427543 -0.478274
-0.451822 0.433025 -0.480455
-0.451135 0.415686 -0.561621
-0.456373 0.420580 -0.557192
-0.451182 0.432976 -0.553968
-0.445522 0.427513 -0.560018
-0.452026 0.450540 -0.475207
-0.457814 0.438345 -0.476881
-0.464650 0.461976 -0.463736
-0.452216 0.466819 -0.467302
-0.452130 0.449707 -0.545537
-0.457968 0.455423 -0.540205
-0.447018 0.462694 -0.543225
-0.452015 0.467239 -0.539234
-0.458197 0.472999 -0.460544
-0.452085 0.483732 -0.458799
-0.451305 0.498677 -0.452953
-0.462489 0.498621 -0.446772
-0.452712 0.483568 -0.532175
-0.459086 0.489949 -0.525852
-0.455485 0.498614 -0.522787
-0.447356 0.498602 -0.527410
-0.460500 0.507650 -0.445086
-0.449869 0.513930 -0.446719
-0.443817 0.507191 -0.524817
-0.451725 0.515072 -0.516357
-0.454292 0.518633 -0.442551
-0.464993 0.527382 -0.431600
-0.450496 0.530910 -0.436683
-0.459686 0.522955 -0.508219
-0.448032 0.531456 -0.511503
-0.456245 0.531429 -0.506532
-0.451767 0.549410 -0.425759
-0.457707 0.538412 -0.427389
-0.450343 0.547145 -0.503129
-0.444143 0.541228 -0.510039
-0.451299 0.564376 -0.420774
-0.463512 0.564231 -0.413992
-0.460729 0.574427 -0.412424
-0.451744 0.580333 -0.415538
-0.455574 0.567094 -0.489008
-0.450586 0.562702 -0.495189
-0.444547 0.573928 -0.493084
-0.452054 0.581247 -0.483899
-0.451490 0.598710 -0.409387
-0.457544 0.585466 -0.410655
-0.459612 0.588565 -0.475624
-0.455483 0.597130 -0.473812
-0.447170 0.597139 -0.478730
-0.451143 0.614173 -0.401501
-0.463467 0.608832 -0.398038
-0.450120 0.612774 -0.468077
-0.443078 0.605590 -0.476924
-0.451045 0.630670 -0.391447
-0.463854 0.630329 -0.382796
-0.456803 0.619902 -0.394238
-0.457191 0.620076 -0.459338
-0.446150 0.624553 -0.462528
-0.451360 0.630036 -0.456077
-0.450274 0.645814 -0.383204
-0.459964 0.640121 -0.380033
-0.450447 0.661917 -0.374075
-0.464238 0.662987 -0.366421
-0.455382 0.650796 -0.377512
-0.451013 0.642204 -0.447739
-0.451093 0.650431 -0.441083
-0.460691 0.672222 -0.363889
-0.451181 0.674292 -0.365816
-0.450618 0.662590 -0.432265
-0.455723 0.668232 -0.425995
-0.451043 0.678648 -0.419350
-0.445131 0.671599 -0.428191
-0.451317 0.682543 -0.359337
-0.463160 0.690279 -0.349018
-0.451434 0.692050 -0.351107
-0.457203 0.686075 -0.410344
-0.451856 0.694650 -0.406177
-0.446615 0.688692 -0.412166
-0.451578 0.700390 -0.343965
-0.451654 0.708469 -0.335720
-0.451790 0.716783 -0.325093
-0.451798 0.721936 -0.316683
-0.451747 0.707169 -0.397162
-0.451904 0.715445 -0.390245
-0.451923 0.743474 -0.287376
-0.451953 0.735613 -0.295614
-0.452072 0.733260 -0.374990
-0.451940 0.725012 -0.381523
-0.451926 0.760938 -0.271595
-0.451972 0.751697 -0.279263
-0.452042 0.741928 -0.366288
-0.452081 0.750148 -0.357368
-0.460279 0.769289 -0.263808
-0.451899 0.769739 -0.264341
-0.452016 0.757706 -0.349110
-0.452024 0.765915 -0.340354
-0.451799 0.777935 -0.255776
-0.460439 0.785956 -0.246459
-0.463447 0.775778 -0.253427
-0.451701 0.786323 -0.246997
-0.451900 0.782054 -0.323772
-0.451949 0.773844 -0.332242
-0.450837 0.809848 -0.222147
-0.457345 0.801805 -0.229123
-0.451836 0.789488 -0.315252
-0.451804 0.797705 -0.306634
-0.450370 0.825072 -0.211240
-0.455269 0.817363 -0.214320
-0.451782 0.806806 -0.298084
-0.451805 0.814986 -0.291074
-0.449706 0.843193 -0.202002
-0.451797 0.823494 -0.282828
-0.451773 0.831676 -0.274695
-0.453991 0.848906 -0.198132
-0.449392 0.857864 -0.196447
-0.451704 0.847159 -0.256492
-0.451752 0.838982 -0.266403
-0.451000 0.875923 -0.192976
-0.451699 0.853984 -0.247842
-0.451709 0.862125 -0.238262
-0.451138 0.892276 -0.194260
-0.451710 0.869690 -0.229835
-0.451690 0.877804 -0.223024
-0.451255 0.902316 -0.197568
-0.451609 0.896348 -0.207731
-0.451719 0.888195 -0.214709
-0.451420 0.902143 -0.201314
-0.434953 -0.890333 -0.205373
-0.434926 -0.878683 -0.201358
-0.429312 -0.888582 -0.198662
-0.429383 -0.884900 -0.198660
-0.434813 -0.862514 -0.206599
-0.435565 -0.862013 -0.232505
-0.430242 -0.870571 -0.228769
-0.435395 -0.876222 -0.223814
-0.441097 -0.867595 -0.227094
-0.435184 -0.846032 -0.212413
-0.440913 -0.835661 -0.214191
-0.435401 -0.830132 -0.219398
-0.448107 -0.824731 -0.216491
-0.435070 -0.817881 -0.226225
-0.445749 -0.806329 -0.229351
-0.435084 -0.809869 -0.231252
-0.434699 -0.796189 -0.239985
-0.439854 -0.786480 -0.243925
-0.440151 -0.785687 -0.293640
-0.429316 -0.788619 -0.296134
-0.434924 -0.794814 -0.288874
-0.434799 -0.778635 -0.303312
-0.434050 -0.779638 -0.253073
-0.447925 -0.775481 -0.248208
-0.439728 -0.764211 -0.260936
-0.434148 -0.761743 -0.319547
-0.429432 -0.771574 -0.312808
-0.440211 -0.768634 -0.310710
-0.442830 -0.755310 -0.263519
-0.438824 -0.751573 -0.325994
-0.428005 -0.754755 -0.328922
-0.434181 -0.746311 -0.331905
-0.436564 -0.749158 -0.268947
-0.448587 -0.744596 -0.265516
-0.435767 -0.731897 -0.276660
-0.441573 -0.721531 -0.279466
-0.434867 -0.714694 -0.287713
-0.438969 -0.703144 -0.293310
-0.436169 -0.697487 -0.369873
-0.432115 -0.707264 -0.363445
-0.436565 -0.713074 -0.356418
-0.442872 -0.704620 -0.361812
-0.434222 -0.698035 -0.301084
-0.435154 -0.686169 -0.309630
-0.435034 -0.680873 -0.382913
-0.429392 -0.690215 -0.378871
-0.440246 -0.686526 -0.375887
-0.435174 -0.678045 -0.315225
-0.435989 -0.664596 -0.324607
-0.442003 -0.657403 -0.329430
-0.435437 -0.649560 -0.337418
-0.439732 -0.639256 -0.344672
-0.434043 -0.632219 -0.353080
-0.439148 -0.621694 -0.359899
-0.439380 -0.621676 -0.425738
-0.428553 -0.624049 -0.427279
-0.434579 -0.630407 -0.421276
-0.434460 -0.615730 -0.430981
-0.434286 -0.616304 -0.367050
-0.436624 -0.601470 -0.376651
-0.443040 -0.591547 -0.379081
-0.435885 -0.583883 -0.387674
-0.439433 -0.571748 -0.393508
-0.446319 -0.561212 -0.396892
-0.434523 -0.566646 -0.399095
-0.436010 -0.551309 -0.408119
-0.441997 -0.541727 -0.411224
-0.435059 -0.534350 -0.419711
-0.438912 -0.521928 -0.425473
-0.434170 -0.516925 -0.431817
-0.446685 -0.511088 -0.429460
-0.436596 -0.502202 -0.441301
-0.439884 -0.506576 -0.508359
-0.429163 -0.509029 -0.509993
-0.434815 -0.515345 -0.503614
-0.434840 -0.500867 -0.513008
-0.442979 -0.493542 -0.444611
-0.435899 -0.486028 -0.453518
-0.439597 -0.473529 -0.459539
-0.436572 -0.468978 -0.530982
-0.432096 -0.478531 -0.527111
-0.436616 -0.484245 -0.522231
-0.442947 -0.475965 -0.525512
-0.434488 -0.468058 -0.465157
-0.445502 -0.462269 -0.462190
-0.435368 -0.452605 -0.473679
-0.440999 -0.442637 -0.476561
-0.435387 -0.436618 -0.483027
-0.436108 -0.419388 -0.491651
-0.438947 -0.423527 -0.555909
-0.428048 -0.427183 -0.558492
-0.434154 -0.433519 -0.551994
-0.434192 -0.418059 -0.560723
-0.442257 -0.410689 -0.493837
-0.447337 -0.399359 -0.495751
-0.436099 -0.404069 -0.498069
-0.434568 -0.385368 -0.506587
-0.434593 -0.385114 -0.577308
-0.428831 -0.394594 -0.575071
-0.434577 -0.400851 -0.569480
-0.439494 -0.390640 -0.573499
-0.439655 -0.376133 -0.509509
-0.434539 -0.370399 -0.513574
-0.434767 -0.352127 -0.522687
-0.440124 -0.343688 -0.526286
-0.448686 -0.332330 -0.528913
-0.434900 -0.337353 -0.530600
-0.436137 -0.319675 -0.539978
-0.442147 -0.311584 -0.542984
-0.436110 -0.305461 -0.547038
-0.435119 -0.288046 -0.554454
-0.442837 -0.294658 -0.606501
-0.431992 -0.298558 -0.607501
-0.436616 -0.303496 -0.604418
-0.436578 -0.288388 -0.609948
-0.435048 -0.276690 -0.558690
-0.435015 -0.268568 -0.561121
-0.446902 -0.267304 -0.560618
-0.434936 -0.255717 -0.564507
-0.449654 -0.255960 -0.561832
-0.449906 -0.239732 -0.562800
-0.434799 -0.239609 -0.567497
-0.439290 -0.239575 -0.622428
-0.428544 -0.249462 -0.623619
-0.434518 -0.254968 -0.620832
-0.431114 -0.239458 -0.624583
-0.434612 -0.223168 -0.567640
-0.446948 -0.223231 -0.561955
-0.433177 -0.223159 -0.625834
-0.441375 -0.223194 -0.623273
-0.434480 -0.206628 -0.565627
-0.443662 -0.206620 -0.560366
-0.433749 -0.206613 -0.626263
-0.441919 -0.206580 -0.623342
-0.442659 -0.197961 -0.559785
-0.434883 -0.191637 -0.562190
-0.433555 -0.190221 -0.625504
-0.441738 -0.190201 -0.622641
-0.435111 -0.173225 -0.558363
-0.440671 -0.187119 -0.559169
-0.441080 -0.173873 -0.621744
-0.432888 -0.173843 -0.624421
-0.434871 -0.157325 -0.556730
-0.441239 -0.157299 -0.621833
-0.433096 -0.157243 -0.624184
-0.434965 -0.140871 -0.556446
-0.433897 -0.140773 -0.624361
-0.442004 -0.140859 -0.622286
-0.435036 -0.124661 -0.557212
-0.442530 -0.124668 -0.622249
-0.434424 -0.124621 -0.624371
-0.435054 -0.108355 -0.557916
-0.442917 -0.113655 -0.622268
-0.436695 -0.108232 -0.624364
-0.433936 -0.092158 -0.558109
-0.436707 -0.075199 -0.557829
-0.439077 -0.061965 -0.558727
-0.443257 -0.051168 -0.559773
-0.434200 -0.057529 -0.560346
-0.443254 -0.049524 -0.559774
-0.435581 -0.043380 -0.560339
-0.440327 -0.025704 -0.559402
-0.441398 -0.038407 -0.559570
-0.441021 -0.016246 -0.559451
-0.435409 -0.010128 -0.562542
-0.446667 -0.005580 -0.561253
-0.435006 0.007227 -0.568787
-0.434858 0.024211 -0.572833
-0.435571 0.040305 -0.575145
-0.441527 0.050709 -0.575953
-0.428208 0.057882 -0.639804
-0.427473 0.048450 -0.639124
-0.433794 0.042172 -0.635665
-0.436351 0.057806 -0.636764
-0.435423 0.056754 -0.579264
-0.434448 0.073385 -0.584792
-0.437361 0.072987 -0.638018
-0.429235 0.073033 -0.640607
-0.434771 0.088916 -0.586537
-0.429592 0.088625 -0.640177
-0.437696 0.088639 -0.637918
-0.435195 0.104916 -0.583323
-0.429503 0.104786 -0.639075
-0.437640 0.104842 -0.637111
-0.435346 0.121210 -0.580083
-0.434929 0.119982 -0.634543
-0.428989 0.113726 -0.638580
-0.435304 0.134706 -0.577957
-0.448888 0.132205 -0.577308
-0.435147 0.154061 -0.570251
-0.435247 0.142938 -0.574670
-0.435015 0.170562 -0.565137
-0.447633 0.170561 -0.561247
-0.444614 0.186933 -0.560190
-0.435004 0.186954 -0.561601
-0.441338 0.175652 -0.622654
-0.435754 0.170307 -0.624443
-0.435717 0.187876 -0.621271
-0.430594 0.183063 -0.623439
-0.444018 0.195819 -0.559936
-0.435006 0.195872 -0.559943
-0.434980 0.219892 -0.553417
-0.435004 0.204104 -0.557798
-0.434948 0.236398 -0.549311
-0.448889 0.236382 -0.545315
-0.447599 0.252625 -0.544605
-0.434969 0.252690 -0.546488
-0.434937 0.264553 -0.544295
-0.446175 0.263227 -0.544094
-0.434905 0.272833 -0.542014
-0.434812 0.285772 -0.538444
-0.436508 0.269666 -0.609145
-0.442745 0.275593 -0.606764
-0.432229 0.285550 -0.608479
-0.440304 0.285574 -0.605817
-0.434807 0.302202 -0.534539
-0.434784 0.301862 -0.603337
-0.429131 0.296360 -0.607615
-0.434950 0.318295 -0.531868
-0.448510 0.318221 -0.528612
-0.435006 0.330318 -0.528820
-0.445839 0.328016 -0.527766
-0.435022 0.338587 -0.524631
-0.435005 0.351188 -0.518804
-0.440641 0.339549 -0.589799
-0.435273 0.334266 -0.592201
-0.435279 0.352035 -0.588546
-0.429920 0.347165 -0.591134
-0.445677 0.362951 -0.511542
-0.435371 0.368035 -0.512928
-0.441028 0.373687 -0.509875
-0.435409 0.384034 -0.508362
-0.435013 0.400278 -0.501619
-0.442244 0.390679 -0.573396
-0.436220 0.384678 -0.577579
-0.431009 0.400199 -0.575397
-0.439071 0.400173 -0.571908
-0.443098 0.408536 -0.494140
-0.434964 0.411498 -0.495555
-0.428089 0.409828 -0.574468
-0.434123 0.415847 -0.569516
-0.434938 0.419742 -0.491195
-0.434972 0.433159 -0.486829
-0.436326 0.450626 -0.481970
-0.446980 0.445848 -0.479131
-0.435220 0.433002 -0.561873
-0.440640 0.438377 -0.556455
-0.435281 0.449558 -0.553612
-0.429904 0.444207 -0.558826
-0.438767 0.465877 -0.474978
-0.442627 0.456785 -0.477198
-0.447305 0.479181 -0.463645
-0.434887 0.482294 -0.469263
-0.436681 0.467268 -0.546438
-0.442960 0.473716 -0.542103
-0.431679 0.482280 -0.543269
-0.439622 0.482281 -0.539674
-0.442630 0.490178 -0.461048
-0.436446 0.500283 -0.459347
-0.434161 0.497583 -0.534642
-0.428066 0.491392 -0.541180
-0.435078 0.515245 -0.452753
-0.433611 0.530408 -0.446528
-0.443325 0.523367 -0.444711
-0.439676 0.518216 -0.522042
-0.434674 0.513723 -0.526875
-0.428684 0.526914 -0.525562
-0.434438 0.532135 -0.520109
-0.438154 0.534734 -0.441668
-0.446652 0.544946 -0.430771
-0.434803 0.548764 -0.436730
-0.442599 0.555966 -0.428219
-0.440036 0.564638 -0.426816
-0.435036 0.547463 -0.513640
-0.440647 0.552249 -0.507364
-0.434985 0.565012 -0.504467
-0.429581 0.560068 -0.511376
-0.434058 0.581397 -0.424636
-0.435877 0.598805 -0.417826
-0.446302 0.594101 -0.413816
-0.438931 0.584950 -0.490241
-0.433950 0.580046 -0.496250
-0.427748 0.590481 -0.493959
-0.433803 0.596411 -0.487084
-0.442362 0.605216 -0.411857
-0.435872 0.614529 -0.409223
-0.434156 0.630388 -0.399964
-0.445766 0.625394 -0.397600
-0.434595 0.608787 -0.479401
-0.434615 0.616970 -0.473597
-0.434336 0.645208 -0.390618
-0.439401 0.636196 -0.394680
-0.434113 0.629826 -0.465189
-0.439240 0.635431 -0.459015
-0.434957 0.646224 -0.452832
-0.428562 0.639200 -0.461447
-0.444663 0.655848 -0.380487
-0.434858 0.657082 -0.381809
-0.441638 0.653533 -0.443497
-0.435953 0.662877 -0.439685
-0.431030 0.657521 -0.445950
-0.435018 0.665309 -0.375085
-0.435157 0.674675 -0.366692
-0.435322 0.682963 -0.357570
-0.435377 0.690069 -0.349278
-0.435493 0.682863 -0.422658
-0.435330 0.674579 -0.430399
-0.435522 0.698324 -0.340952
-0.435528 0.706074 -0.332640
-0.435524 0.692315 -0.414316
-0.435663 0.700577 -0.407955
-0.435572 0.714296 -0.324049
-0.435502 0.722623 -0.315598
-0.434697 0.712478 -0.398394
-0.439425 0.718494 -0.392322
-0.428619 0.720194 -0.393133
-0.434676 0.726331 -0.385660
-0.442536 0.735687 -0.295555
-0.437253 0.745594 -0.288219
-0.435706 0.735908 -0.375839
-0.442943 0.752566 -0.280092
-0.436629 0.759886 -0.274582
-0.435633 0.742592 -0.367464
-0.435634 0.750800 -0.357404
-0.435394 0.770684 -0.265072
-0.435570 0.758367 -0.349338
-0.435555 0.766557 -0.341091
-0.435224 0.788224 -0.248760
-0.435308 0.778896 -0.257525
-0.435444 0.783768 -0.325824
-0.435494 0.775591 -0.333043
-0.435118 0.804257 -0.232260
-0.446330 0.802334 -0.229939
-0.451802 0.795916 -0.236371
-0.435166 0.796438 -0.240594
-0.435379 0.799722 -0.308355
-0.435409 0.791530 -0.317267
-0.435108 0.820772 -0.216729
-0.444323 0.818651 -0.215070
-0.435119 0.812424 -0.224218
-0.435371 0.816668 -0.292416
-0.435362 0.808491 -0.299901
-0.435021 0.828958 -0.212345
-0.434823 0.843071 -0.206092
-0.435335 0.833667 -0.276632
-0.435355 0.825497 -0.284237
-0.434699 0.854374 -0.200652
-0.443109 0.851438 -0.198921
-0.435228 0.849682 -0.259565
-0.435290 0.841527 -0.268387
-0.434592 0.862567 -0.197676
-0.434650 0.875874 -0.195562
-0.435226 0.856402 -0.250943
-0.435235 0.864538 -0.240777
-0.434735 0.892261 -0.195393
-0.435222 0.872213 -0.232311
-0.435220 0.880320 -0.225196
-0.434806 0.903166 -0.197456
-0.438317 0.898643 -0.209836
-0.433912 0.892829 -0.215925
-0.433553 0.902444 -0.205740
-0.427470 0.900512 -0.211761
-0.420427 -0.894762 -0.203728
-0.416569 -0.906005 -0.206041
-0.414479 -0.906059 -0.198172
-0.414563 -0.899517 -0.198172
-0.418080 -0.892622 -0.219841
-0.414607 -0.903475 -0.213721
-0.425240 -0.888894 -0.198667
-0.425260 -0.885198 -0.198664
-0.417140 -0.876472 -0.230340
-0.410638 -0.885048 -0.227898
-0.421499 -0.881057 -0.225717
-0.419099 -0.879375 -0.202532
-0.418435 -0.862759 -0.208798
-0.418518 -0.851132 -0.213378
-0.421035 -0.846371 -0.254133
-0.415574 -0.856476 -0.247629
-0.420075 -0.861681 -0.239924
-0.426499 -0.852715 -0.243804
-0.418589 -0.842988 -0.217534
-0.430095 -0.840540 -0.216331
-0.418602 -0.829803 -0.224141
-0.426467 -0.835846 -0.260698
-0.415456 -0.839840 -0.264429
-0.420108 -0.829058 -0.270453
-0.418602 -0.820039 -0.228461
-0.424697 -0.817983 -0.276479
-0.413681 -0.822143 -0.280255
-0.419059 -0.812328 -0.284111
-0.418627 -0.812028 -0.233345
-0.418658 -0.799642 -0.241666
-0.418690 -0.791475 -0.247137
-0.429003 -0.790043 -0.246031
-0.418721 -0.781935 -0.256218
-0.418749 -0.773633 -0.264804
-0.428215 -0.772712 -0.263912
-0.418750 -0.764153 -0.269596
-0.431660 -0.764138 -0.265992
-0.418754 -0.747958 -0.275186
-0.418747 -0.737275 -0.278724
-0.424528 -0.736158 -0.343073
-0.413571 -0.740425 -0.346259
-0.418957 -0.745947 -0.339129
-0.417822 -0.729191 -0.352177
-0.418752 -0.729101 -0.283564
-0.430735 -0.726530 -0.282274
-0.418731 -0.717118 -0.291665
-0.422029 -0.718476 -0.357991
-0.411062 -0.722154 -0.361429
-0.417483 -0.713167 -0.365550
-0.428183 -0.707832 -0.297471
-0.418729 -0.708835 -0.298952
-0.418733 -0.698600 -0.305609
-0.418729 -0.687462 -0.311550
-0.418724 -0.679352 -0.315543
-0.418758 -0.666738 -0.323821
-0.419918 -0.664639 -0.402471
-0.415851 -0.676047 -0.396434
-0.420321 -0.681034 -0.390524
-0.426769 -0.671946 -0.393900
-0.418799 -0.658469 -0.330604
-0.431060 -0.658195 -0.330390
-0.418821 -0.650037 -0.338713
-0.424026 -0.653441 -0.408468
-0.413005 -0.657210 -0.411649
-0.418726 -0.647774 -0.415968
-0.418843 -0.641703 -0.346740
-0.428875 -0.641593 -0.346309
-0.418446 -0.631502 -0.356073
-0.428333 -0.625174 -0.362849
-0.423664 -0.625193 -0.362867
-0.418780 -0.616513 -0.370812
-0.412691 -0.624401 -0.361906
-0.424854 -0.607949 -0.378732
-0.423908 -0.604413 -0.441191
-0.413008 -0.609078 -0.444487
-0.418636 -0.614677 -0.437484
-0.418678 -0.598774 -0.448985
-0.419193 -0.601504 -0.382919
-0.432270 -0.596841 -0.381823
-0.418818 -0.586740 -0.391970
-0.418812 -0.578436 -0.397943
-0.428707 -0.576198 -0.396088
-0.418795 -0.567000 -0.404576
-0.418770 -0.556915 -0.410264
-0.426530 -0.557070 -0.476064
-0.415564 -0.560559 -0.478555
-0.420188 -0.565729 -0.472512
-0.419293 -0.549828 -0.484311
-0.418757 -0.548800 -0.416298
-0.431130 -0.546106 -0.414029
-0.418767 -0.537338 -0.424486
-0.423016 -0.537977 -0.490162
-0.412057 -0.542518 -0.493584
-0.418112 -0.532640 -0.497184
-0.418777 -0.528975 -0.429935
-0.428164 -0.526935 -0.428673
-0.418400 -0.516534 -0.438851
-0.423636 -0.507779 -0.443584
-0.418372 -0.502059 -0.449567
-0.432148 -0.497191 -0.447550
-0.418713 -0.489505 -0.458444
-0.418695 -0.483898 -0.529576
-0.413102 -0.493916 -0.526869
-0.418720 -0.499556 -0.519889
-0.424069 -0.489297 -0.523768
-0.418693 -0.481287 -0.464516
-0.428788 -0.478494 -0.462274
-0.418967 -0.468040 -0.473155
-0.424656 -0.458320 -0.476643
-0.419854 -0.451808 -0.547335
-0.415007 -0.461915 -0.543682
-0.419838 -0.467378 -0.538407
-0.426027 -0.457888 -0.541370
-0.430252 -0.447517 -0.479398
-0.418948 -0.452544 -0.481516
-0.418164 -0.435034 -0.489727
-0.423326 -0.424617 -0.492536
-0.431419 -0.413655 -0.495280
-0.418166 -0.419272 -0.497173
-0.417955 -0.401778 -0.505477
-0.417720 -0.400783 -0.576015
-0.411372 -0.410671 -0.574852
-0.417632 -0.416983 -0.568081
-0.422380 -0.405719 -0.571922
-0.423009 -0.390281 -0.508785
-0.417943 -0.385447 -0.513046
-0.428939 -0.379398 -0.511067
-0.417136 -0.368710 -0.520834
-0.421640 -0.357270 -0.524177
-0.419043 -0.353036 -0.592815
-0.413654 -0.363118 -0.590943
-0.419010 -0.368526 -0.587323
-0.424590 -0.358953 -0.589513
-0.429248 -0.345799 -0.527313
-0.417167 -0.352509 -0.528709
-0.418718 -0.336533 -0.535902
-0.418773 -0.325648 -0.541919
-0.418759 -0.317770 -0.545480
-0.431336 -0.314387 -0.544227
-0.418794 -0.304135 -0.550689
-0.418994 -0.303477 -0.608419
-0.413462 -0.313558 -0.607316
-0.418993 -0.318903 -0.603391
-0.424513 -0.309113 -0.605315
-0.418887 -0.287999 -0.556815
-0.424394 -0.277483 -0.558893
-0.418784 -0.271781 -0.562029
-0.418571 -0.255472 -0.567229
-0.422859 -0.259571 -0.622348
-0.412002 -0.263031 -0.623160
-0.418048 -0.269301 -0.619827
-0.418012 -0.254613 -0.624126
-0.416959 -0.238044 -0.572690
-0.419527 -0.223100 -0.573651
-0.419927 -0.206649 -0.573270
-0.417096 -0.191029 -0.571281
-0.429869 -0.178295 -0.560642
-0.419463 -0.173250 -0.564362
-0.426130 -0.157291 -0.559396
-0.425854 -0.167289 -0.559314
-0.426688 -0.140804 -0.559648
-0.426211 -0.124632 -0.559375
-0.426058 -0.108363 -0.559281
-0.426511 -0.098072 -0.559516
-0.427874 -0.086893 -0.560130
-0.420084 -0.092193 -0.562964
-0.418654 -0.075239 -0.564158
-0.428677 -0.075218 -0.560353
-0.418607 -0.058980 -0.564814
-0.418590 -0.042530 -0.565008
-0.418590 -0.025659 -0.564863
-0.432290 -0.025680 -0.560485
-0.418599 -0.008892 -0.568013
-0.419095 0.006814 -0.573536
-0.411802 0.007641 -0.638795
-0.411102 -0.001829 -0.638808
-0.417595 -0.008044 -0.636071
-0.420073 0.007498 -0.635765
-0.425053 0.024575 -0.575428
-0.422417 0.024501 -0.636603
-0.414135 0.024661 -0.639468
-0.426248 0.033885 -0.576060
-0.419129 0.042439 -0.640512
-0.425069 0.037021 -0.637911
-0.419651 0.040588 -0.579281
-0.430700 0.045253 -0.576917
-0.418000 0.058064 -0.584165
-0.418077 0.073258 -0.588258
-0.418401 0.088855 -0.588819
-0.418801 0.104925 -0.585409
-0.418927 0.121222 -0.582339
-0.419673 0.138502 -0.579137
-0.419355 0.116239 -0.639295
-0.419333 0.124432 -0.635951
-0.425695 0.144587 -0.575613
-0.419571 0.155006 -0.574365
-0.418707 0.170560 -0.570125
-0.418668 0.186949 -0.565622
-0.418608 0.201870 -0.561886
-0.420160 0.187875 -0.624845
-0.426386 0.193954 -0.622355
-0.424188 0.203317 -0.621587
-0.415982 0.203271 -0.623846
-0.420680 0.219890 -0.557231
-0.424075 0.206382 -0.558514
-0.418747 0.221458 -0.621123
-0.413077 0.216982 -0.623281
-0.417002 0.234777 -0.555487
-0.418596 0.252726 -0.550357
-0.419212 0.268986 -0.546232
-0.425167 0.274404 -0.542638
-0.422443 0.285784 -0.541469
-0.417657 0.302048 -0.540101
-0.418582 0.318329 -0.536661
-0.418401 0.301838 -0.608867
-0.423651 0.307126 -0.605238
-0.418455 0.317702 -0.602618
-0.412698 0.311895 -0.607340
-0.418952 0.335154 -0.530967
-0.418986 0.351431 -0.523712
-0.424696 0.340992 -0.525932
-0.418697 0.367611 -0.518269
-0.420247 0.352061 -0.593322
-0.426604 0.358206 -0.590152
-0.422749 0.367515 -0.588327
-0.414483 0.367497 -0.591507
-0.430271 0.378757 -0.511384
-0.419308 0.384106 -0.513736
-0.410896 0.375890 -0.590389
-0.417398 0.382359 -0.585246
-0.425223 0.389682 -0.509717
-0.419282 0.400413 -0.507032
-0.419266 0.417506 -0.498710
-0.422481 0.433199 -0.491924
-0.425216 0.423440 -0.493147
-0.418766 0.415872 -0.576355
-0.424156 0.420792 -0.572624
-0.418750 0.432974 -0.569869
-0.413131 0.427431 -0.575273
-0.417797 0.449557 -0.490513
-0.418693 0.466002 -0.485171
-0.430714 0.465928 -0.479231
-0.419260 0.449604 -0.561722
-0.424970 0.455169 -0.556139
-0.413273 0.465891 -0.558820
-0.421486 0.465900 -0.554141
-0.417883 0.481018 -0.479894
-0.427138 0.474423 -0.477519
-0.417357 0.480797 -0.551094
-0.410807 0.474256 -0.557644
-0.422869 0.485460 -0.474884
-0.432022 0.495857 -0.463965
-0.419260 0.499803 -0.469858
-0.424137 0.515468 -0.458719
-0.426791 0.506831 -0.460788
-0.423351 0.502385 -0.538129
-0.418248 0.497710 -0.543561
-0.418115 0.515337 -0.535970
-0.412188 0.509856 -0.542007
-0.417836 0.533787 -0.456290
-0.418294 0.547859 -0.449879
-0.427071 0.541575 -0.445231
-0.425637 0.538216 -0.524382
-0.419530 0.532395 -0.529635
-0.419304 0.549586 -0.522759
-0.414503 0.544937 -0.528088
-0.420882 0.565187 -0.439932
-0.431678 0.565001 -0.431635
-0.423918 0.552532 -0.442708
-0.417864 0.580830 -0.436345
-0.428156 0.576359 -0.429404
-0.423914 0.570929 -0.508269
-0.418363 0.565135 -0.514579
-0.418321 0.580528 -0.504849
-0.412974 0.574828 -0.511228
-0.425247 0.587193 -0.427690
-0.422734 0.597474 -0.426095
-0.417960 0.613439 -0.420129
-0.431337 0.609546 -0.415132
-0.420976 0.601328 -0.491138
-0.416629 0.596307 -0.495809
-0.417094 0.612758 -0.484727
-0.410270 0.605220 -0.493350
-0.424263 0.620296 -0.411058
-0.418741 0.629390 -0.407040
-0.424177 0.620609 -0.476089
-0.418762 0.628933 -0.471763
-0.413518 0.622866 -0.477874
-0.428707 0.638977 -0.396319
-0.418477 0.641317 -0.398284
-0.418641 0.649565 -0.391865
-0.418743 0.658251 -0.383507
-0.418827 0.649346 -0.456222
-0.418643 0.641039 -0.462682
-0.418974 0.674025 -0.366331
-0.418914 0.666507 -0.374815
-0.419151 0.668888 -0.441672
-0.418958 0.660602 -0.447366
-0.419105 0.689132 -0.347902
-0.419101 0.682272 -0.356145
-0.419183 0.677988 -0.432972
-0.419292 0.686229 -0.424863
-0.419141 0.706234 -0.331824
-0.419185 0.697357 -0.340061
-0.419274 0.695195 -0.416630
-0.419338 0.703387 -0.409197
-0.419117 0.714453 -0.324728
-0.419028 0.723315 -0.316335
-0.419001 0.731548 -0.307716
-0.431577 0.738596 -0.299341
-0.436464 0.731547 -0.304940
-0.418926 0.738554 -0.299382
-0.426204 0.736127 -0.375750
-0.420102 0.730164 -0.383412
-0.415134 0.737142 -0.377100
-0.419189 0.744207 -0.368085
-0.419216 0.720585 -0.393626
-0.422809 0.753711 -0.281124
-0.431938 0.753691 -0.281060
-0.417962 0.747846 -0.287226
-0.411766 0.752608 -0.280229
-0.417938 0.759905 -0.274470
-0.423217 0.751253 -0.357979
-0.412203 0.753331 -0.360353
-0.417948 0.760481 -0.351259
-0.418848 0.770572 -0.264967
-0.423673 0.767616 -0.342272
-0.412669 0.769921 -0.344479
-0.419059 0.777492 -0.335397
-0.418725 0.789224 -0.249765
-0.418803 0.778780 -0.258477
-0.425437 0.785045 -0.327103
-0.414426 0.786454 -0.328543
-0.419443 0.793798 -0.319264
-0.418680 0.797425 -0.242366
-0.418634 0.805922 -0.234048
-0.424451 0.801119 -0.309572
-0.413446 0.802855 -0.311430
-0.419434 0.810200 -0.302504
-0.418619 0.814093 -0.226503
-0.418596 0.823809 -0.218877
-0.425406 0.817515 -0.293061
-0.420491 0.827275 -0.286305
-0.414408 0.819985 -0.295426
-0.418539 0.831990 -0.213732
-0.418402 0.843072 -0.209485
-0.426577 0.834525 -0.277398
-0.415551 0.836658 -0.279557
-0.421141 0.843896 -0.270221
-0.418045 0.860216 -0.202252
-0.426711 0.851090 -0.261129
-0.415728 0.852556 -0.263115
-0.419916 0.859480 -0.253121
-0.418025 0.875224 -0.197907
-0.423361 0.866242 -0.198550
-0.424078 0.866334 -0.242747
-0.413169 0.868297 -0.245066
-0.417712 0.875386 -0.235230
-0.418350 0.892261 -0.196855
-0.422255 0.882375 -0.226705
-0.417573 0.890624 -0.221508
-0.411361 0.884176 -0.227902
-0.418369 0.903702 -0.197795
-0.418627 0.904877 -0.205687
-0.418817 0.901787 -0.212670
-0.402796 -0.915063 -0.206863
-0.397925 -0.922039 -0.203020
-0.398048 -0.922582 -0.197427
-0.402978 -0.911597 -0.197528
-0.401848 -0.900272 -0.198257
-0.401950 -0.892013 -0.201540
-0.401991 -0.878865 -0.206430
-0.402132 -0.862443 -0.212045
-0.402072 -0.860985 -0.252288
-0.396328 -0.870701 -0.245450
-0.402019 -0.876524 -0.237498
-0.407279 -0.867385 -0.242079
-0.407773 -0.853178 -0.214229
-0.401225 -0.843698 -0.269659
-0.396715 -0.854382 -0.262886
-0.407736 -0.850921 -0.259174
-0.402256 -0.847224 -0.218822
-0.401351 -0.828654 -0.226831
-0.405686 -0.832973 -0.276106
-0.394652 -0.836408 -0.279580
-0.401003 -0.827674 -0.283135
-0.406402 -0.819961 -0.229033
-0.400391 -0.812891 -0.236998
-0.405274 -0.802168 -0.243470
-0.404135 -0.796821 -0.304479
-0.399250 -0.808156 -0.298372
-0.403750 -0.812817 -0.292593
-0.410328 -0.803707 -0.294948
-0.400766 -0.796997 -0.249321
-0.402163 -0.784417 -0.259182
-0.402750 -0.779028 -0.320781
-0.397938 -0.789908 -0.313924
-0.408984 -0.786061 -0.310809
-0.402142 -0.776099 -0.267568
-0.401919 -0.764390 -0.275684
-0.402146 -0.762982 -0.334413
-0.396483 -0.771977 -0.330258
-0.407566 -0.768656 -0.327371
-0.407679 -0.748040 -0.278534
-0.409910 -0.738854 -0.279757
-0.405225 -0.732735 -0.288338
-0.407491 -0.719573 -0.293709
-0.401911 -0.714973 -0.305472
-0.407389 -0.698713 -0.309929
-0.401446 -0.697067 -0.386021
-0.396605 -0.706008 -0.379172
-0.402239 -0.712370 -0.372539
-0.407676 -0.704598 -0.377686
-0.409561 -0.688820 -0.312141
-0.401431 -0.681515 -0.398190
-0.395224 -0.689569 -0.394997
-0.406249 -0.687122 -0.392850
-0.402487 -0.684114 -0.322326
-0.406437 -0.669242 -0.325957
-0.401501 -0.664647 -0.333983
-0.402251 -0.653467 -0.342253
-0.402208 -0.645118 -0.349822
-0.403541 -0.634008 -0.358585
-0.410609 -0.639117 -0.427256
-0.399431 -0.640139 -0.428419
-0.403965 -0.646465 -0.422740
-0.403975 -0.632948 -0.432316
-0.410044 -0.624444 -0.361949
-0.403654 -0.621113 -0.371927
-0.413952 -0.608756 -0.379165
-0.402353 -0.612321 -0.381751
-0.402205 -0.600106 -0.389954
-0.407612 -0.589561 -0.393556
-0.403780 -0.583670 -0.466050
-0.399277 -0.592538 -0.461504
-0.403903 -0.598424 -0.455661
-0.410405 -0.590090 -0.460317
-0.401144 -0.583043 -0.403713
-0.406434 -0.567175 -0.409311
-0.409804 -0.558382 -0.411181
-0.403622 -0.552847 -0.421488
-0.408460 -0.540215 -0.426519
-0.401547 -0.533647 -0.435956
-0.405691 -0.521394 -0.441110
-0.402978 -0.517407 -0.515062
-0.397909 -0.527162 -0.511135
-0.403076 -0.532987 -0.504655
-0.409067 -0.523500 -0.508997
-0.400908 -0.516652 -0.448845
-0.412628 -0.510320 -0.445530
-0.402997 -0.502825 -0.457568
-0.409196 -0.492180 -0.460175
-0.402854 -0.486701 -0.470579
-0.407511 -0.473559 -0.475463
-0.407515 -0.473350 -0.540664
-0.396501 -0.477917 -0.542980
-0.402143 -0.483627 -0.537007
-0.402075 -0.467713 -0.545646
-0.402005 -0.468278 -0.482785
-0.413638 -0.462261 -0.478900
-0.401522 -0.452721 -0.489957
-0.406776 -0.440130 -0.492030
-0.409717 -0.442226 -0.558359
-0.398525 -0.444947 -0.560254
-0.403347 -0.450543 -0.554991
-0.403421 -0.436236 -0.563258
-0.412373 -0.429339 -0.494963
-0.401587 -0.435299 -0.498421
-0.401552 -0.419836 -0.505672
-0.406665 -0.406919 -0.508060
-0.401457 -0.401912 -0.514004
-0.411967 -0.395591 -0.511226
-0.401490 -0.386160 -0.521481
-0.406795 -0.373261 -0.524388
-0.401603 -0.368955 -0.530578
-0.410671 -0.362572 -0.527041
-0.400840 -0.353366 -0.537756
-0.406596 -0.336814 -0.540982
-0.410232 -0.327987 -0.543234
-0.407525 -0.324232 -0.605867
-0.396287 -0.328477 -0.608321
-0.402077 -0.334813 -0.603422
-0.402100 -0.318859 -0.608797
-0.403622 -0.321625 -0.548119
-0.402972 -0.304697 -0.556639
-0.409071 -0.293443 -0.558892
-0.403048 -0.287753 -0.562972
-0.413502 -0.282559 -0.560499
-0.402268 -0.271383 -0.566956
-0.401537 -0.254440 -0.572485
-0.406489 -0.242450 -0.574989
-0.401440 -0.237982 -0.577421
-0.410483 -0.231697 -0.576236
-0.402031 -0.223093 -0.579543
-0.411390 -0.223133 -0.576613
-0.401908 -0.206708 -0.580592
-0.411798 -0.206703 -0.576879
-0.402240 -0.191057 -0.579228
-0.410942 -0.196965 -0.576582
-0.408067 -0.186042 -0.574888
-0.405691 -0.173923 -0.573087
-0.401132 -0.157195 -0.571819
-0.417852 -0.157340 -0.563296
-0.401963 -0.140882 -0.569311
-0.418446 -0.140860 -0.562753
-0.417996 -0.124656 -0.563055
-0.400878 -0.123870 -0.571573
-0.417848 -0.108364 -0.563491
-0.402915 -0.108322 -0.571738
-0.400600 -0.092844 -0.572035
-0.402009 -0.075206 -0.570953
-0.394833 -0.075264 -0.640248
-0.394433 -0.084466 -0.640371
-0.401037 -0.090706 -0.636562
-0.403200 -0.075241 -0.636874
-0.401544 -0.060258 -0.572994
-0.395167 -0.059121 -0.639563
-0.403458 -0.059044 -0.636293
-0.404657 -0.042553 -0.572511
-0.404402 -0.042627 -0.636551
-0.396110 -0.042700 -0.639550
-0.403849 -0.025622 -0.572336
-0.406329 -0.025789 -0.637941
-0.397932 -0.025760 -0.640464
-0.406044 -0.008767 -0.573871
-0.402687 -0.007908 -0.640621
-0.408513 -0.012872 -0.638645
-0.409237 0.000923 -0.575575
-0.402959 0.007129 -0.580508
-0.413864 0.011930 -0.577535
-0.416790 0.024745 -0.578532
-0.401807 0.024973 -0.584485
-0.401555 0.042037 -0.586565
-0.402119 0.056796 -0.590222
-0.408397 0.073000 -0.591843
-0.408092 0.088754 -0.591819
-0.402565 0.106061 -0.590436
-0.402490 0.121241 -0.587827
-0.402339 0.137640 -0.584749
-0.402374 0.121706 -0.640316
-0.407489 0.127503 -0.637524
-0.402207 0.137481 -0.636313
-0.396415 0.131893 -0.639176
-0.414656 0.150142 -0.577237
-0.403136 0.155094 -0.579453
-0.409347 0.161181 -0.575785
-0.406054 0.170610 -0.574468
-0.403124 0.186985 -0.572453
-0.400808 0.202412 -0.571084
-0.412424 0.219894 -0.560564
-0.402049 0.219987 -0.565721
-0.401907 0.234910 -0.562072
-0.410395 0.228248 -0.559727
-0.410755 0.228066 -0.622904
-0.404055 0.221485 -0.625228
-0.400353 0.236348 -0.625066
-0.408801 0.236309 -0.622428
-0.404987 0.252757 -0.556712
-0.407504 0.239187 -0.558280
-0.405472 0.252624 -0.621250
-0.397131 0.252581 -0.624144
-0.401065 0.269144 -0.555353
-0.401371 0.268476 -0.620295
-0.395212 0.262575 -0.623389
-0.414180 0.285803 -0.544825
-0.401845 0.285914 -0.550351
-0.402787 0.302156 -0.546591
-0.411559 0.296597 -0.543867
-0.406348 0.318340 -0.541630
-0.409021 0.307309 -0.542591
-0.401290 0.334078 -0.539182
-0.402092 0.317649 -0.608718
-0.407449 0.322740 -0.604929
-0.402094 0.334788 -0.603614
-0.396438 0.329347 -0.607487
-0.413662 0.346057 -0.528045
-0.402513 0.351557 -0.531261
-0.405674 0.367655 -0.524221
-0.408495 0.357162 -0.525919
-0.401110 0.383701 -0.522466
-0.402195 0.400443 -0.515354
-0.414220 0.394965 -0.512095
-0.401365 0.382325 -0.591576
-0.406252 0.386790 -0.588237
-0.401317 0.399442 -0.586526
-0.395170 0.393343 -0.590538
-0.407878 0.405977 -0.508973
-0.402079 0.417631 -0.507017
-0.401980 0.433222 -0.502714
-0.414218 0.433186 -0.495915
-0.411719 0.444080 -0.494637
-0.403206 0.449541 -0.498856
-0.401999 0.432973 -0.576876
-0.407421 0.438339 -0.572857
-0.396365 0.443451 -0.575016
-0.402112 0.449161 -0.570047
-0.409463 0.455015 -0.493314
-0.406432 0.466066 -0.491641
-0.401042 0.482320 -0.489156
-0.402439 0.498859 -0.482747
-0.411791 0.492715 -0.478452
-0.405932 0.485393 -0.555545
-0.401122 0.480998 -0.559680
-0.400990 0.498249 -0.553086
-0.394669 0.492315 -0.559133
-0.408408 0.503856 -0.475851
-0.415781 0.515634 -0.465152
-0.405845 0.515915 -0.473458
-0.402309 0.534646 -0.470089
-0.412084 0.529153 -0.462843
-0.402631 0.515564 -0.545821
-0.408610 0.520988 -0.540180
-0.404859 0.532120 -0.538709
-0.396517 0.532127 -0.543900
-0.407529 0.549023 -0.459083
-0.409614 0.540497 -0.461069
-0.401271 0.548033 -0.533776
-0.393656 0.540503 -0.542612
-0.403805 0.564893 -0.455777
-0.412674 0.565038 -0.447489
-0.408902 0.555676 -0.525481
-0.402757 0.564760 -0.522612
-0.397923 0.559450 -0.528350
-0.410544 0.574521 -0.445653
-0.400636 0.579133 -0.452165
-0.402125 0.597568 -0.440527
-0.414644 0.597279 -0.432106
-0.407562 0.585200 -0.443139
-0.400624 0.580289 -0.513469
-0.405270 0.585618 -0.507830
-0.400777 0.595576 -0.503393
-0.394590 0.589209 -0.510311
-0.411789 0.606639 -0.429579
-0.402006 0.609658 -0.432504
-0.402143 0.617924 -0.425168
-0.413605 0.623546 -0.413998
-0.402209 0.625220 -0.416957
-0.402169 0.606885 -0.494870
-0.402302 0.615130 -0.487976
-0.402348 0.633495 -0.407562
-0.402406 0.642785 -0.399248
-0.402384 0.625702 -0.479334
-0.402532 0.634022 -0.473282
-0.402534 0.651078 -0.392675
-0.402521 0.659045 -0.384327
-0.402696 0.652133 -0.457705
-0.402568 0.643827 -0.464918
-0.402626 0.667316 -0.375253
-0.402592 0.675045 -0.366887
-0.403150 0.663995 -0.447887
-0.408917 0.670506 -0.442376
-0.404069 0.678976 -0.434371
-0.398019 0.670974 -0.442682
-0.402627 0.683278 -0.357751
-0.402566 0.690571 -0.349544
-0.410171 0.687004 -0.425503
-0.404780 0.695618 -0.418385
-0.399139 0.687865 -0.426447
-0.402566 0.698809 -0.341572
-0.402477 0.707423 -0.333398
-0.410466 0.703361 -0.409261
-0.399344 0.704972 -0.411243
-0.403949 0.710970 -0.404122
-0.402339 0.721884 -0.315661
-0.402418 0.715662 -0.323872
-0.406219 0.737081 -0.297593
-0.401333 0.731273 -0.303975
-0.395077 0.736288 -0.296796
-0.401324 0.743214 -0.290212
-0.402508 0.729455 -0.386528
-0.402548 0.721253 -0.394912
-0.402333 0.752619 -0.280343
-0.402326 0.761014 -0.273121
-0.402504 0.745815 -0.370424
-0.402466 0.737616 -0.378121
-0.402304 0.770402 -0.265107
-0.402519 0.762774 -0.354276
-0.402514 0.754585 -0.361873
-0.402257 0.778606 -0.258395
-0.402185 0.788915 -0.249880
-0.402447 0.779329 -0.337624
-0.402492 0.771142 -0.346112
-0.402137 0.797109 -0.242498
-0.402106 0.807010 -0.234125
-0.402379 0.795509 -0.321417
-0.402397 0.787322 -0.329571
-0.402090 0.815163 -0.228390
-0.401785 0.827588 -0.219809
-0.402356 0.804439 -0.312759
-0.402346 0.812630 -0.306399
-0.401585 0.841874 -0.211921
-0.407011 0.833635 -0.214478
-0.402317 0.830722 -0.290566
-0.402335 0.822531 -0.297901
-0.401839 0.859500 -0.204709
-0.402260 0.847180 -0.273997
-0.402301 0.839001 -0.282416
-0.412466 0.869472 -0.199376
-0.400445 0.875214 -0.199916
-0.402254 0.854301 -0.265728
-0.402298 0.862480 -0.255604
-0.400359 0.890575 -0.197924
-0.404933 0.880398 -0.198486
-0.402356 0.869619 -0.246673
-0.402366 0.877765 -0.236965
-0.401928 0.905817 -0.197931
-0.402389 0.884918 -0.228591
-0.402381 0.893045 -0.222666
-0.402181 0.909481 -0.205701
-0.402376 0.904332 -0.214495
-0.387217 -0.926329 -0.206422
-0.381138 -0.936205 -0.201065
-0.381196 -0.936505 -0.196845
-0.386224 -0.927554 -0.195838
-0.384907 -0.909864 -0.196942
-0.387271 -0.911613 -0.216979
-0.382649 -0.920742 -0.212917
-0.393404 -0.917800 -0.211397
-0.390116 -0.902625 -0.198708
-0.385075 -0.896316 -0.201758
-0.385683 -0.879107 -0.208221
-0.385689 -0.866032 -0.212696
-0.385686 -0.858030 -0.216602
-0.396854 -0.856858 -0.215979
-0.385651 -0.846517 -0.222026
-0.385635 -0.832158 -0.227944
-0.395403 -0.822344 -0.230947
-0.385623 -0.823972 -0.232342
-0.385680 -0.813814 -0.240153
-0.386087 -0.812676 -0.301286
-0.380764 -0.820822 -0.296736
-0.386062 -0.826961 -0.289984
-0.391692 -0.818680 -0.295000
-0.385704 -0.805743 -0.246296
-0.394307 -0.805687 -0.245970
-0.385704 -0.797346 -0.252143
-0.385686 -0.785954 -0.260945
-0.385636 -0.777671 -0.269088
-0.385656 -0.767650 -0.277416
-0.385653 -0.759521 -0.283055
-0.396255 -0.759069 -0.282883
-0.398515 -0.746818 -0.288312
-0.386761 -0.746828 -0.291389
-0.393546 -0.754080 -0.345184
-0.382510 -0.757835 -0.348082
-0.387118 -0.763018 -0.341819
-0.386244 -0.746662 -0.353481
-0.392962 -0.740632 -0.297056
-0.394323 -0.740619 -0.297036
-0.386803 -0.732244 -0.301142
-0.396123 -0.731721 -0.300098
-0.381965 -0.738045 -0.295515
-0.385030 -0.729883 -0.366026
-0.378921 -0.739065 -0.361943
-0.389927 -0.735457 -0.358850
-0.385782 -0.719932 -0.310279
-0.385745 -0.711634 -0.319581
-0.396275 -0.710299 -0.317648
-0.399135 -0.698660 -0.320607
-0.387219 -0.698996 -0.328136
-0.393705 -0.690199 -0.329701
-0.395451 -0.679393 -0.331115
-0.387335 -0.683847 -0.333980
-0.387137 -0.666333 -0.342686
-0.385896 -0.664945 -0.415227
-0.380366 -0.674087 -0.411001
-0.385866 -0.680166 -0.404764
-0.391321 -0.670898 -0.408531
-0.393392 -0.657282 -0.345979
-0.387042 -0.650839 -0.352944
-0.385704 -0.640014 -0.361362
-0.385794 -0.631969 -0.370254
-0.398947 -0.629419 -0.367392
-0.385881 -0.624277 -0.378372
-0.393567 -0.622846 -0.442930
-0.382601 -0.628065 -0.447039
-0.387167 -0.632699 -0.440382
-0.386980 -0.616244 -0.451670
-0.385937 -0.616156 -0.384721
-0.385940 -0.605244 -0.392856
-0.385848 -0.598543 -0.464348
-0.380370 -0.609547 -0.460755
-0.391220 -0.603990 -0.456729
-0.396537 -0.594523 -0.398090
-0.385843 -0.596933 -0.399514
-0.385748 -0.586008 -0.407892
-0.394657 -0.576547 -0.412862
-0.385691 -0.577723 -0.413710
-0.385375 -0.566103 -0.422591
-0.398121 -0.567279 -0.416014
-0.393297 -0.573274 -0.476659
-0.382489 -0.578728 -0.480343
-0.387098 -0.583510 -0.473665
-0.387433 -0.567113 -0.485993
-0.390634 -0.558221 -0.427383
-0.392424 -0.556654 -0.491408
-0.381512 -0.560793 -0.495319
-0.386255 -0.550010 -0.500850
-0.397455 -0.547308 -0.430754
-0.385487 -0.552135 -0.432375
-0.385819 -0.537356 -0.441300
-0.390901 -0.538693 -0.506625
-0.380056 -0.543317 -0.510264
-0.385617 -0.532985 -0.513712
-0.394561 -0.527041 -0.445666
-0.385716 -0.528946 -0.446815
-0.385535 -0.516492 -0.456073
-0.390840 -0.509111 -0.460896
-0.385843 -0.500372 -0.534083
-0.382216 -0.512291 -0.528726
-0.386914 -0.517281 -0.522988
-0.393048 -0.507568 -0.525960
-0.398091 -0.498467 -0.465733
-0.385610 -0.502967 -0.467148
-0.385819 -0.492127 -0.476494
-0.389469 -0.488845 -0.539402
-0.378582 -0.493089 -0.542401
-0.384804 -0.483731 -0.544623
-0.396519 -0.481263 -0.480082
-0.385813 -0.483929 -0.481907
-0.385692 -0.468780 -0.489456
-0.385566 -0.458754 -0.493362
-0.390404 -0.455797 -0.556975
-0.379636 -0.460994 -0.560087
-0.385385 -0.467096 -0.553272
-0.385338 -0.450614 -0.562631
-0.385584 -0.450602 -0.497676
-0.395620 -0.447789 -0.496021
-0.384229 -0.434480 -0.506104
-0.388746 -0.425629 -0.509371
-0.386415 -0.419450 -0.577560
-0.381277 -0.429579 -0.575512
-0.386339 -0.434976 -0.570509
-0.392172 -0.425531 -0.573284
-0.384258 -0.419937 -0.513010
-0.395637 -0.414568 -0.511953
-0.385555 -0.402873 -0.520319
