-0.340797 0.783743 0.407873
-0.335693 0.788509 0.401877
-0.329705 0.786131 0.412227
-0.337008 0.783101 -0.435388
-0.342776 0.784617 -0.424671
-0.331697 0.787044 -0.431380
-0.336944 0.790251 -0.418959
-0.335924 0.797240 0.384606
-0.341242 0.800659 0.375605
-0.336043 0.805221 0.370361
-0.330073 0.802622 0.378982
-0.343960 0.801508 -0.390990
-0.337663 0.798925 -0.401432
-0.337736 0.806032 -0.385053
-0.332911 0.803702 -0.395822
-0.335174 0.813471 0.352718
-0.339787 0.816364 0.340235
-0.335133 0.819538 0.334998
-0.328709 0.818532 0.346038
-0.343484 0.817601 -0.341951
-0.337349 0.815646 -0.353767
-0.332344 0.820095 -0.348890
-0.337461 0.822500 -0.335970
-0.336582 0.811121 -0.368932
-0.336498 0.824358 0.319807
-0.336025 0.831161 0.303867
-0.341213 0.833496 0.292897
-0.336052 0.836580 0.287336
-0.330127 0.835304 0.298306
-0.336079 0.832215 -0.304471
-0.341266 0.833361 -0.290740
-0.336089 0.837028 -0.285862
-0.330147 0.835405 -0.300596
-0.336706 0.828299 -0.318940
-0.336585 0.840937 0.270298
-0.336572 0.847652 0.253839
-0.342116 0.850478 0.245892
-0.336647 0.853718 0.240156
-0.331061 0.851698 0.248631
-0.340378 0.849488 -0.236865
-0.343883 0.850793 -0.227245
-0.332030 0.852254 -0.237464
-0.337625 0.854106 -0.221417
-0.335318 0.847119 -0.251730
-0.328825 0.851358 -0.245897
-0.336692 0.841653 -0.269082
-0.336690 0.858129 0.222620
-0.336601 0.860924 0.205163
-0.336595 0.863488 0.189349
-0.337704 0.866250 0.175030
-0.343918 0.867301 0.165115
-0.337710 0.870600 0.158418
-0.332880 0.868621 0.170358
-0.343253 0.866684 -0.141339
-0.339485 0.865837 -0.154508
-0.337265 0.870000 -0.136540
-0.331128 0.868798 -0.154819
-0.334848 0.864665 -0.170070
-0.328156 0.867596 -0.163900
-0.336577 0.861256 -0.187568
-0.336639 0.858352 -0.203428
-0.336707 0.875128 0.140411
-0.336719 0.877751 0.124582
-0.336703 0.879355 0.108435
-0.336636 0.879909 0.091293
-0.336607 0.880575 0.074546
-0.335393 0.881867 0.058758
-0.338155 0.881779 0.042627
-0.329028 0.884207 0.053505
-0.329853 0.884422 0.042576
-0.338888 0.882339 0.025543
-0.330540 0.884554 0.024852
-0.338677 0.882182 0.009276
-0.330339 0.884528 0.008655
-0.337934 0.881210 -0.006370
-0.329637 0.884428 -0.006372
-0.335360 0.881321 -0.023573
-0.328995 0.884249 -0.018452
-0.336565 0.879223 -0.040292
-0.336575 0.877963 -0.056849
-0.336645 0.877312 -0.072328
-0.336602 0.875587 -0.089039
-0.336512 0.873544 -0.106034
-0.336543 0.871812 -0.121858
-0.322616 -0.881606 0.174103
-0.314464 -0.884833 0.174123
-0.312875 -0.884292 0.183844
-0.318995 -0.880408 0.188994
-0.315342 -0.885325 0.157457
-0.323450 -0.881295 0.157264
-0.315312 -0.885466 0.140950
-0.323379 -0.880722 0.140669
-0.316326 -0.885591 0.124846
-0.324422 -0.881695 0.124761
-0.325303 -0.882569 0.108566
-0.317186 -0.885778 0.108566
-0.316920 -0.886056 0.091608
-0.324953 -0.882000 0.091061
-0.316636 -0.886165 0.074967
-0.324618 -0.881750 0.074200
-0.325179 -0.882510 0.058873
-0.317107 -0.886024 0.059086
-0.325433 -0.882782 0.042749
-0.317336 -0.886016 0.042806
-0.326086 -0.883069 0.029247
-0.320368 -0.885879 0.024239
-0.325332 -0.882592 0.005639
-0.315069 -0.885266 -0.006213
-0.319887 -0.885722 0.010031
-0.323144 -0.881746 -0.006250
-0.321294 -0.880878 -0.022723
-0.313222 -0.884525 -0.022689
-0.312125 -0.884153 -0.032747
-0.318417 -0.880538 -0.039359
-0.319836 -0.869938 0.238296
-0.324986 -0.865464 0.242803
-0.319730 -0.862656 0.254695
-0.314133 -0.868638 0.249926
-0.325823 -0.866385 -0.122117
-0.317791 -0.870438 -0.121582
-0.320733 -0.870727 -0.105192
-0.326725 -0.866836 -0.111011
-0.316180 -0.869427 -0.137493
-0.324286 -0.865828 -0.137501
-0.321999 -0.864166 -0.154444
-0.313939 -0.868549 -0.154111
-0.312498 -0.868019 -0.167234
-0.318618 -0.863540 -0.172569
-0.324215 -0.848967 0.287730
-0.316183 -0.853095 0.287935
-0.313142 -0.851769 0.298138
-0.319114 -0.845601 0.303913
-0.327108 -0.850679 0.276975
-0.321082 -0.855259 0.271163
-0.326860 -0.850291 -0.227534
-0.317540 -0.854902 -0.237142
-0.320810 -0.855979 -0.220874
-0.325642 -0.849384 -0.237553
-0.324014 -0.848633 -0.252697
-0.315897 -0.853426 -0.252681
-0.319534 -0.847926 -0.270528
-0.313860 -0.852162 -0.266063
-0.319430 -0.837739 0.319376
-0.324342 -0.832165 0.323495
-0.319391 -0.830146 0.336414
-0.313716 -0.835632 0.330697
-0.327390 -0.834523 -0.309350
-0.315707 -0.836460 -0.319001
-0.321042 -0.838553 -0.304084
-0.323885 -0.833319 -0.318920
-0.312178 -0.834970 -0.327544
-0.318508 -0.830752 -0.333885
-0.327873 -0.818234 0.362411
-0.321488 -0.823213 0.355721
-0.317052 -0.820625 0.367323
-0.321415 -0.816307 0.371563
-0.323103 -0.816052 -0.371795
-0.312225 -0.818608 -0.376771
-0.318452 -0.819863 -0.367767
-0.318582 -0.812453 -0.382816
-0.327588 -0.801852 0.392366
-0.321311 -0.807505 0.386737
-0.316890 -0.803610 0.397666
-0.321247 -0.800062 0.402843
-0.323751 -0.800021 -0.405474
-0.312832 -0.802487 -0.410368
-0.318967 -0.804303 -0.400072
-0.318861 -0.796805 -0.416947
-0.319864 -0.787472 0.431540
-0.319833 -0.782998 0.438672
-0.319759 -0.781826 -0.449340
-0.314200 -0.786411 -0.443656
-0.319677 -0.788645 -0.434324
-0.325115 -0.784551 -0.439271
-0.327501 -0.769001 0.457583
-0.321250 -0.774809 0.451679
-0.316864 -0.771116 0.463478
-0.321242 -0.766762 0.468661
-0.326302 -0.768234 -0.474380
-0.315434 -0.770704 -0.478397
-0.320478 -0.773509 -0.467683
-0.320416 -0.765085 -0.483964
-0.325517 -0.751491 0.491728
-0.320028 -0.757643 0.485840
-0.314739 -0.753865 0.494820
-0.320667 -0.744808 0.500828
-0.326551 -0.735625 0.506493
-0.320656 -0.732082 0.515780
-0.315908 -0.738165 0.510659
-0.320031 -0.731545 -0.531856
-0.314741 -0.737603 -0.525667
-0.320087 -0.742181 -0.516161
-0.325708 -0.735438 -0.522044
-0.319147 -0.722917 0.532879
-0.324090 -0.718531 0.538789
-0.313282 -0.720372 0.543162
-0.320217 -0.711762 0.550633
-0.327147 -0.703194 0.558056
-0.321504 -0.696453 0.566224
-0.316378 -0.705015 0.560374
-0.320994 -0.695962 -0.582069
-0.314825 -0.704694 -0.575348
-0.320068 -0.708580 -0.566145
-0.325790 -0.702432 -0.571451
-0.326582 -0.686176 0.571842
-0.320698 -0.683187 0.582218
-0.315930 -0.689736 0.577034
-0.327129 -0.686656 -0.588926
-0.316175 -0.689447 -0.592671
-0.320901 -0.682145 -0.598270
-0.324239 -0.669191 0.605603
-0.319265 -0.674161 0.599531
-0.313408 -0.671156 0.609117
-0.318421 -0.661896 0.615731
-0.323360 -0.652009 0.622224
-0.312658 -0.654612 0.624457
-0.317988 -0.645176 0.630151
-0.323268 -0.634438 0.635657
-0.318438 -0.628355 0.645988
-0.312702 -0.638395 0.639287
-0.318135 -0.628672 -0.663360
-0.313056 -0.638507 -0.656870
-0.319050 -0.642281 -0.647546
-0.324001 -0.635445 -0.653145
-0.324243 -0.619546 0.652662
-0.313600 -0.622299 0.657061
-0.320136 -0.613116 0.664904
-0.323196 -0.618934 -0.670241
-0.312300 -0.621906 -0.672782
-0.318597 -0.613392 -0.677003
-0.326765 -0.604622 0.673105
-0.316011 -0.606685 0.675267
-0.321065 -0.597304 0.681364
-0.326057 -0.587872 0.687114
-0.320391 -0.580795 0.695894
-0.315455 -0.590024 0.689639
-0.325325 -0.570241 0.702310
-0.314786 -0.573764 0.705560
-0.319369 -0.563494 0.712282
-0.324047 -0.553325 0.719183
-0.313402 -0.556767 0.723027
-0.318231 -0.546560 0.729760
-0.328028 -0.556243 -0.722028
-0.317010 -0.560727 -0.724815
-0.321516 -0.565506 -0.719105
-0.321124 -0.548991 -0.731222
-0.323113 -0.537021 0.736635
-0.312382 -0.539792 0.739790
-0.318634 -0.531466 0.743551
-0.325258 -0.538634 -0.737562
-0.314337 -0.541866 -0.739936
-0.319672 -0.531783 -0.746544
-0.319941 -0.519291 0.751344
-0.319794 -0.515918 -0.759756
-0.314128 -0.525029 -0.755757
-0.325047 -0.521611 -0.752621
-0.319205 -0.497606 0.764478
-0.319926 -0.511057 0.756638
-0.324028 -0.487247 0.767520
-0.313429 -0.491514 0.770841
-0.319172 -0.481902 0.774669
-0.320454 -0.483302 -0.778910
-0.316078 -0.496520 -0.773359
-0.321023 -0.500898 -0.768132
-0.327102 -0.490040 -0.769324
-0.319871 -0.470916 0.784345
-0.324790 -0.472150 -0.784661
-0.313837 -0.476619 -0.788699
-0.318685 -0.465513 -0.794807
-0.320901 -0.450085 0.801190
-0.319868 -0.462702 0.792509
-0.318942 -0.449086 -0.806307
-0.312640 -0.458919 -0.804281
-0.323573 -0.453705 -0.800841
-0.327015 -0.438662 0.804267
-0.316211 -0.445095 0.806101
-0.320941 -0.433062 0.808351
-0.320983 -0.416737 0.815674
-0.318713 -0.416752 -0.821913
-0.312208 -0.426223 -0.819848
-0.318689 -0.432584 -0.813675
-0.323109 -0.421469 -0.816515
-0.327008 -0.407792 0.818234
-0.320971 -0.400666 0.827348
-0.316326 -0.411452 0.821247
-0.325657 -0.388869 0.833733
-0.320074 -0.383506 0.838708
-0.314946 -0.393560 0.836599
-0.326784 -0.391185 -0.835295
-0.315895 -0.395842 -0.838454
-0.320950 -0.401408 -0.831265
-0.320913 -0.385483 -0.840932
-0.319815 -0.367281 0.844549
-0.319845 -0.355116 0.850784
-0.320023 -0.352554 -0.856398
-0.314376 -0.363571 -0.853606
-0.320040 -0.368948 -0.848195
-0.325334 -0.358052 -0.850535
-0.321108 -0.334845 0.866201
-0.319840 -0.346877 0.857540
-0.327321 -0.325152 0.870099
-0.321134 -0.319061 0.874664
-0.316581 -0.329671 0.872493
-0.326186 -0.324252 -0.868253
-0.315307 -0.330851 -0.871291
-0.320578 -0.336246 -0.865108
-0.320578 -0.319239 -0.872708
-0.319419 -0.301937 0.881035
-0.324450 -0.290149 0.882906
-0.319368 -0.284949 0.888320
-0.313693 -0.296665 0.886866
-0.318740 -0.267863 0.895474
-0.321522 -0.271861 -0.890284
-0.317075 -0.283151 -0.887441
-0.321717 -0.288082 -0.882659
-0.327901 -0.278194 -0.884971
-0.322481 -0.252563 0.898500
-0.314403 -0.252567 0.902595
-0.312642 -0.261658 0.901199
-0.325244 -0.239293 0.900685
-0.319892 -0.234761 0.904722
-0.318729 -0.218363 0.913140
-0.325236 -0.226662 -0.899949
-0.314391 -0.233650 -0.902163
-0.320057 -0.238801 -0.898633
-0.319960 -0.221393 -0.903892
-0.323271 -0.206712 0.917612
-0.312472 -0.211925 0.920335
-0.318600 -0.202016 0.921407
-0.319820 -0.186952 0.923682
-0.319890 -0.170733 0.926057
-0.319745 -0.154305 0.929491
-0.319465 -0.138808 0.932468
-0.321277 -0.140390 -0.920660
-0.316685 -0.153595 -0.919477
-0.321399 -0.158179 -0.916462
-0.327433 -0.146203 -0.917962
-0.324092 -0.121886 0.932844
-0.313963 -0.133956 0.934621
-0.315945 -0.121772 0.935216
-0.325889 -0.110046 0.933244
-0.320128 -0.104943 0.935785
-0.319589 -0.089174 0.938399
-0.319516 -0.072733 0.940390
-0.319603 -0.056622 0.941347
-0.319604 -0.040446 0.942506
-0.319488 -0.024096 0.944293
-0.319479 -0.007869 0.944921
-0.319017 -0.008627 -0.931364
-0.312890 -0.018841 -0.934064
-0.319017 -0.024793 -0.930868
-0.312895 -0.013706 -0.934061
-0.319587 0.008244 0.944096
-0.319569 0.024554 0.943611
-0.319448 0.041059 0.943418
-0.319463 0.057348 0.942657
-0.319560 0.073484 0.941441
-0.319521 0.089899 0.939831
-0.319428 0.106414 0.938054
-0.320126 0.122679 0.935740
-0.326026 0.127875 0.932877
-0.323283 0.138683 0.931712
-0.315128 0.138954 0.934643
-0.321526 0.122704 -0.921465
-0.327898 0.128504 -0.917908
-0.325852 0.138007 -0.916836
-0.317708 0.138141 -0.919841
-0.318599 0.154957 0.930185
-0.312561 0.149341 0.933768
-0.314379 0.154630 -0.918696
-0.322473 0.154520 -0.915549
-0.319485 0.171757 0.926413
-0.318863 0.169978 -0.914204
-0.312636 0.163878 -0.918180
-0.319634 0.187910 0.923482
-0.319212 0.202761 0.920695
-0.324279 0.207283 0.917154
-0.319106 0.220569 0.914834
-0.313387 0.215165 0.919352
-0.326340 0.208400 -0.900585
-0.320686 0.203257 -0.904209
-0.315351 0.220184 -0.903080
-0.323416 0.220131 -0.899768
-0.319573 0.236854 0.909090
-0.327029 0.230628 0.014795
-0.327685 0.230625 0.014168
-0.327681 0.230631 0.014790
-0.327032 0.230624 0.014173
-0.327682 0.232217 0.014172
-0.327034 0.232231 0.014175
-0.327032 0.232234 0.014798
-0.313110 0.229509 -0.902264
-0.319152 0.235542 -0.897456
-0.318529 0.251971 0.903422
-0.323207 0.256777 0.897901
-0.318651 0.268406 0.895524
-0.312492 0.262149 0.901870
-0.320619 0.253256 -0.889309
-0.326343 0.258997 -0.884438
-0.315487 0.264972 -0.886716
-0.320671 0.269891 -0.883196
-0.319655 0.285712 0.889421
-0.319585 0.297611 0.885689
-0.319650 0.305800 0.881397
-0.319841 0.318301 0.875694
-0.319385 0.301714 -0.873547
-0.324334 0.307068 -0.868105
-0.319563 0.317196 -0.864303
-0.313625 0.311106 -0.870102
-0.319939 0.329674 0.871110
-0.319792 0.337879 0.865822
-0.319567 0.351037 0.858308
-0.320502 0.334855 -0.856342
-0.325959 0.340599 -0.852378
-0.320304 0.351124 -0.850589
-0.315139 0.345694 -0.854594
-0.319479 0.361584 0.853162
-0.327606 0.359778 0.703595
-0.327660 0.359777 0.703444
-0.327659 0.359778 0.703595
-0.327607 0.359777 0.703444
-0.327660 0.359890 0.703444
-0.327607 0.359890 0.703444
-0.327606 0.359890 0.703596
-0.326122 0.356519 0.017150
-0.328825 0.356483 0.012446
-0.328795 0.356512 0.017130
-0.326146 0.356474 0.012475
-0.328825 0.365600 0.012469
-0.326165 0.365675 0.012490
-0.326145 0.365699 0.017171
-0.319629 0.369778 0.847656
-0.318313 0.383527 0.838717
-0.320062 0.365056 -0.842414
-0.320191 0.373229 -0.834970
-0.322738 0.388840 0.832221
-0.318308 0.398668 0.828779
-0.312024 0.392113 0.835733
-0.321480 0.385116 -0.825708
-0.327752 0.391539 -0.819300
-0.321399 0.401134 -0.818408
-0.316854 0.396289 -0.821309
-0.318148 0.415674 0.820486
-0.327273 0.410303 -0.050876
-0.327590 0.410303 -0.051327
-0.327587 0.410308 -0.050878
-0.327275 0.410302 -0.051327
-0.328131 0.418769 -0.052447
-0.326710 0.418773 -0.052447
-0.326703 0.418772 -0.048960
-0.322423 0.420530 0.815394
-0.318356 0.431827 0.809845
-0.311842 0.424835 0.818620
-0.327269 0.426012 0.014719
-0.327551 0.426014 0.014162
-0.327548 0.426020 0.014716
-0.327269 0.426012 0.014166
-0.327551 0.427268 0.014168
-0.327272 0.427275 0.014171
-0.327271 0.427271 0.014724
-0.328209 0.429543 -0.052692
-0.326639 0.429575 -0.052691
-0.326632 0.429574 -0.048495
-0.324931 0.438783 0.801742
-0.319812 0.448421 0.797467
-0.314279 0.442385 0.804174
-0.320099 0.436671 -0.801265
-0.319975 0.428480 -0.807183
-0.319991 0.460911 0.789117
-0.320656 0.450098 -0.792311
-0.326399 0.456102 -0.786351
-0.320538 0.465721 -0.783601
-0.315519 0.460214 -0.788827
-0.319829 0.469138 0.782971
-0.320103 0.482292 0.774137
-0.325605 0.487911 0.767409
-0.320253 0.498309 0.764003
-0.315128 0.492703 0.771106
-0.318436 0.481394 -0.774703
-0.322733 0.486390 -0.768907
-0.318403 0.497477 -0.762095
-0.312096 0.490418 -0.771588
-0.320060 0.510438 0.756207
-0.324791 0.504546 -0.752646
-0.314034 0.507901 -0.755339
-0.319740 0.513992 -0.748690
-0.320084 0.518632 0.751001
-0.319577 0.531297 0.743210
-0.324489 0.536776 0.736244
-0.320072 0.547544 0.729712
-0.313886 0.540688 0.739765
-0.322800 0.534757 -0.735433
-0.318558 0.530086 -0.740368
-0.312030 0.539589 -0.738714
-0.318211 0.546239 -0.729371
-0.326224 0.554400 0.719277
-0.320817 0.564257 0.712807
-0.315737 0.558021 0.723614
-0.324404 0.552902 -0.719999
-0.319507 0.563688 -0.712893
-0.313713 0.557000 -0.723011
-0.325923 0.570476 0.702373
-0.320435 0.580470 0.698495
-0.315342 0.574978 0.706230
-0.325377 0.570369 -0.702864
-0.314515 0.573976 -0.706225
-0.321038 0.581052 -0.697104
-0.320076 0.591580 0.690147
-0.327537 0.588110 -0.687814
-0.316683 0.592864 -0.691251
-0.321224 0.597798 -0.685031
-0.319998 0.599775 0.683644
-0.320005 0.608364 0.676103
-0.327166 0.604875 0.015699
-0.327866 0.604895 0.013551
-0.327859 0.604893 0.015684
-0.327172 0.604889 0.013565
-0.328205 0.615530 0.012791
-0.326862 0.615535 0.012806
-0.326854 0.615520 0.016673
-0.326918 0.603923 -0.048474
-0.328187 0.603926 -0.052705
-0.328180 0.603950 -0.048483
-0.326920 0.603918 -0.052699
-0.328664 0.615345 -0.053555
-0.326453 0.615347 -0.053571
-0.326452 0.615370 -0.046792
-0.320044 0.616573 0.667554
-0.320086 0.624520 0.658880
-0.326989 0.627366 0.013304
-0.328084 0.627343 0.013284
-0.326981 0.627352 0.016316
-0.326748 0.627922 -0.052714
-0.328428 0.627902 -0.052703
-0.326745 0.627944 -0.047914
-0.327675 0.621532 -0.297035
-0.327932 0.621531 -0.297407
-0.327932 0.621536 -0.297032
-0.327675 0.621537 -0.297411
-0.327686 0.623373 -0.297405
-0.327943 0.623370 -0.297400
-0.327686 0.623374 -0.297028
-0.319988 0.617560 -0.668852
-0.319951 0.609346 -0.676904
-0.321401 0.633648 0.646504
-0.327560 0.637755 0.637796
-0.321438 0.645935 0.633719
-0.316954 0.640326 0.640864
-0.320044 0.625719 -0.660266
-0.320141 0.633912 -0.651935
-0.320202 0.656235 0.625474
-0.327228 0.654665 0.015553
-0.327817 0.654687 0.013977
-0.327810 0.654685 0.015536
-0.327235 0.654673 0.013990
-0.328326 0.664794 0.012536
-0.326771 0.664801 0.012557
-0.326757 0.664786 0.016993
-0.327169 0.654105 -0.049506
-0.328012 0.654114 -0.051749
-0.328007 0.654129 -0.049509
-0.327172 0.654103 -0.051755
-0.328501 0.664712 -0.053218
-0.326663 0.664714 -0.053238
-0.326662 0.664742 -0.047044
-0.327357 0.652513 -0.296474
-0.328495 0.652504 -0.297948
-0.328490 0.652515 -0.296435
-0.327362 0.652515 -0.297991
-0.328818 0.663231 -0.299490
-0.326643 0.663234 -0.299554
-0.326634 0.663269 -0.295250
-0.320202 0.642632 -0.643399
-0.320127 0.650842 -0.635249
-0.320199 0.664429 0.617460
-0.320225 0.671742 0.609840
-0.328150 0.681027 0.012904
-0.326928 0.681032 0.012919
-0.326920 0.681019 0.016402
-0.328198 0.680976 -0.052722
-0.326969 0.680978 -0.052737
-0.326969 0.680996 -0.048152
-0.328516 0.679498 -0.299136
-0.326891 0.679491 -0.299183
-0.326888 0.679519 -0.295518
-0.319977 0.667365 -0.619549
-0.320038 0.659156 -0.627209
-0.320206 0.677490 0.599193
-0.320154 0.684653 0.585268
-0.320170 0.689380 0.576657
-0.327442 0.689859 0.014392
-0.327583 0.689857 0.014390
-0.327441 0.689858 0.014688
-0.327573 0.689422 -0.051140
-0.327606 0.689422 -0.051140
-0.327573 0.689422 -0.051035
-0.327689 0.688429 -0.297496
-0.328089 0.688428 -0.297483
-0.327689 0.688430 -0.296835
-0.321234 0.683160 -0.598514
-0.327529 0.686706 -0.589027
-0.320730 0.695544 -0.581843
-0.316661 0.689480 -0.593015
-0.319949 0.674312 -0.611640
-0.318998 0.698274 0.564060
-0.323657 0.702690 0.556957
-0.319071 0.707861 0.551099
-0.312803 0.703645 0.558204
-0.324778 0.701591 -0.570497
-0.318488 0.710598 -0.564270
-0.313909 0.704620 -0.574785
-0.320221 0.717041 0.536743
-0.320132 0.721996 0.527618
-0.323020 0.716551 -0.553231
-0.312256 0.720189 -0.557508
-0.318568 0.723050 -0.548349
-0.319342 0.730344 0.514835
-0.324196 0.734534 0.504814
-0.319417 0.739221 0.500520
-0.313497 0.736793 0.509116
-0.327435 0.735129 0.014817
-0.327656 0.735143 0.014457
-0.327655 0.735143 0.014813
-0.327436 0.735136 0.014459
-0.327663 0.738799 0.014458
-0.327444 0.738800 0.014460
-0.327443 0.738800 0.014818
-0.321423 0.732529 -0.533266
-0.327863 0.736001 -0.522934
-0.316936 0.739280 -0.527965
-0.321099 0.744984 -0.516129
-0.319981 0.748015 0.484376
-0.325192 0.751461 0.474051
-0.319897 0.756588 0.467676
-0.314435 0.753617 0.478300
-0.325196 0.750660 -0.503967
-0.319874 0.756809 -0.499467
-0.314335 0.754038 -0.509367
-0.320951 0.765582 0.450315
-0.326905 0.768623 0.440967
-0.319672 0.777299 0.434647
-0.316218 0.771198 0.445431
-0.326689 0.768254 -0.475253
-0.320784 0.765332 -0.484925
-0.315855 0.771120 -0.479599
-0.319604 0.776823 -0.466916
-0.323149 0.783376 0.423447
-0.318688 0.787788 0.418419
-0.312369 0.785672 0.427887
-0.324206 0.783033 -0.450264
-0.327799 0.785253 -0.441289
-0.321416 0.790997 -0.435644
-0.316038 0.787776 -0.450394
-0.312459 0.785813 -0.459037
-0.318983 0.796086 0.400867
-0.323598 0.799523 0.388883
-0.318990 0.804366 0.384806
-0.312915 0.802411 0.394586
-0.320618 0.798534 -0.419365
-0.326455 0.800849 -0.407718
-0.315592 0.803951 -0.414081
-0.320734 0.807207 -0.401459
-0.320129 0.811405 0.370333
-0.320224 0.816915 0.358671
-0.320200 0.820127 0.350133
-0.327187 0.817707 -0.361111
-0.325269 0.816583 -0.369520
-0.317114 0.821120 -0.369290
-0.321099 0.823792 -0.354182
-0.320059 0.814822 -0.385226
-0.314469 0.819569 -0.380596
-0.320147 0.824520 0.336381
-0.319811 0.830857 0.319614
-0.325021 0.833298 0.308542
-0.319958 0.837462 0.303911
-0.314300 0.835683 0.314750
-0.325835 0.833305 -0.319299
-0.327885 0.834544 -0.310826
-0.321471 0.838836 -0.305053
-0.317624 0.837719 -0.319387
-0.320058 0.831112 -0.336225
-0.314500 0.836156 -0.331020
-0.320324 0.842236 0.287803
-0.319348 0.847158 0.270197
-0.324098 0.849035 0.257919
-0.319439 0.853585 0.254226
-0.313410 0.851764 0.265106
-0.323610 0.848261 -0.269110
-0.326529 0.849975 -0.256229
-0.315449 0.853100 -0.269238
-0.320714 0.854425 -0.251841
-0.319060 0.845536 -0.286098
-0.312931 0.851680 -0.279205
-0.320392 0.859236 0.239570
-0.319015 0.863995 0.221780
-0.322296 0.864692 0.204971
-0.314289 0.868443 0.205732
-0.312739 0.867778 0.215723
-0.325362 0.866265 0.189213
-0.317311 0.869131 0.189648
-0.327546 0.867336 0.181293
-0.321378 0.870236 0.175059
-0.326541 0.866466 -0.175106
-0.324855 0.865641 -0.187914
-0.316833 0.869820 -0.187594
-0.320787 0.870331 -0.170074
-0.322245 0.864488 -0.203520
-0.314158 0.868428 -0.203633
-0.318680 0.862602 -0.219375
-0.312322 0.867670 -0.212376
-0.320119 0.857649 -0.237572
-0.320273 0.875293 0.157038
-0.319261 0.880440 0.139972
-0.322719 0.881891 0.124566
-0.313180 0.884392 0.134527
-0.314627 0.884682 0.124602
-0.324238 0.882900 0.108455
-0.316142 0.884969 0.108400
-0.324965 0.882788 0.090956
-0.316900 0.885651 0.091376
-0.326223 0.883052 0.074007
-0.318163 0.886333 0.074630
-0.327661 0.883715 0.063656
-0.321470 0.886189 0.058720
-0.326246 0.882448 -0.040752
-0.327981 0.883850 -0.029687
-0.321682 0.886070 -0.023569
-0.318209 0.886676 -0.040158
-0.324563 0.881788 -0.057336
-0.316526 0.886035 -0.056716
-0.322704 0.882202 -0.072458
-0.314622 0.884802 -0.072450
-0.318895 0.881687 -0.089584
-0.312629 0.884106 -0.084116
-0.320143 0.879172 -0.106134
-0.320159 0.877331 -0.121906
-0.320234 0.875470 -0.137597
-0.320196 0.872941 -0.154537
-0.320265 0.887385 0.042599
-0.320190 0.888057 0.025387
-0.320159 0.887933 0.009138
-0.320254 0.887018 -0.006380
-0.305880 -0.880621 0.222803
-0.297823 -0.884730 0.222847
-0.296388 -0.884215 0.231789
-0.302672 -0.878529 0.238178
-0.300176 -0.885515 0.206382
-0.308199 -0.882119 0.205963
-0.310254 -0.883221 0.194105
-0.304486 -0.886104 0.189591
-0.310545 -0.883629 -0.043985
-0.299990 -0.885233 -0.055696
-0.304585 -0.885800 -0.038626
-0.308051 -0.882685 -0.055898
-0.297235 -0.884566 -0.068661
-0.302988 -0.881765 -0.073352
-0.304002 -0.871013 0.255416
-0.309334 -0.865926 0.260112
-0.298619 -0.868724 0.268124
-0.303967 -0.864249 0.272538
-0.311620 -0.867536 -0.178272
-0.302519 -0.870536 -0.187047
-0.305232 -0.870961 -0.171770
-0.310601 -0.867123 -0.187107
-0.308237 -0.866151 -0.203493
-0.300115 -0.869327 -0.203631
-0.297582 -0.868398 -0.216406
-0.303208 -0.865155 -0.221204
-0.308390 -0.849092 0.308751
-0.303383 -0.853931 0.303894
-0.297674 -0.851994 0.314433
-0.303393 -0.845709 0.320079
-0.308467 -0.849989 -0.286225
-0.300289 -0.852629 -0.286004
-0.305072 -0.854217 -0.271007
-0.311574 -0.851170 -0.277270
-0.296568 -0.851549 -0.295563
-0.302555 -0.847295 -0.302088
-0.304233 -0.837848 0.337157
-0.309770 -0.833611 0.342725
-0.304109 -0.831623 0.354503
-0.298977 -0.835998 0.349239
-0.308627 -0.833493 -0.338809
-0.297726 -0.835501 -0.346931
-0.303255 -0.836292 -0.334336
-0.303289 -0.831633 -0.352183
-0.304934 -0.823379 0.371560
-0.311058 -0.817938 0.377482
-0.300304 -0.819896 0.380974
-0.304895 -0.814648 0.385999
-0.304429 -0.805712 0.403352
-0.310250 -0.801409 0.409739
-0.304336 -0.798831 0.419169
-0.299455 -0.803062 0.413493
-0.302241 -0.795976 -0.432467
-0.296056 -0.802238 -0.425629
-0.302258 -0.804047 -0.416242
-0.306902 -0.799882 -0.421274
-0.310712 -0.785032 0.442061
-0.304668 -0.790200 0.436546
-0.304728 -0.782091 0.451285
-0.300017 -0.787049 0.446242
-0.310622 -0.768599 0.475836
-0.304664 -0.773356 0.469251
-0.299802 -0.770503 0.479088
-0.304583 -0.764755 0.484800
-0.304397 -0.761054 -0.500139
-0.297597 -0.769850 -0.492420
-0.303203 -0.772562 -0.483219
-0.308472 -0.767582 -0.488988
-0.303801 -0.748959 0.505039
-0.303726 -0.755877 0.497381
-0.304823 -0.748863 -0.516111
-0.300258 -0.754500 -0.511042
-0.311257 -0.752655 -0.507263
-0.303797 -0.734842 0.523028
-0.303828 -0.740727 0.514827
-0.303341 -0.727901 -0.548698
-0.296342 -0.736837 -0.540795
-0.302417 -0.739380 -0.531764
-0.307207 -0.734096 -0.536933
-0.303639 -0.715242 0.552703
-0.303604 -0.721619 0.544733
-0.304270 -0.715219 -0.565374
-0.299453 -0.721687 -0.559270
-0.310351 -0.719387 -0.556473
-0.303756 -0.707050 0.563695
-0.303854 -0.701270 0.571423
-0.306428 -0.700410 -0.586733
-0.295493 -0.703682 -0.591053
-0.301903 -0.705784 -0.581908
-0.301901 -0.694446 -0.597184
-0.303369 -0.692184 0.583007
-0.308396 -0.685707 0.588900
-0.303229 -0.681075 0.598326
-0.297614 -0.687744 0.591854
-0.302420 -0.678132 -0.613992
-0.297396 -0.688450 -0.607345
-0.308278 -0.684775 -0.603753
-0.303743 -0.664458 0.618060
-0.303669 -0.672414 0.610163
-0.307469 -0.668596 -0.620404
-0.296544 -0.671502 -0.623590
-0.302652 -0.661844 -0.631194
-0.303904 -0.648614 0.633932
-0.303831 -0.656250 0.626185
-0.308803 -0.653351 -0.638406
-0.297822 -0.655127 -0.641664
-0.303320 -0.649146 -0.647270
-0.303935 -0.640417 0.642451
-0.303851 -0.632716 0.650832
-0.303682 -0.617163 0.668229
-0.303778 -0.624466 0.659698
-0.303821 -0.600352 0.684876
-0.303712 -0.608931 0.677204
-0.304471 -0.597400 -0.697362
-0.299062 -0.607321 -0.690184
-0.304136 -0.613045 -0.683384
-0.310045 -0.604402 -0.687779
-0.303906 -0.592160 0.692617
-0.303950 -0.584251 0.700563
-0.304625 -0.581020 -0.714367
-0.298891 -0.590422 -0.707522
-0.309880 -0.587883 -0.704252
-0.303887 -0.567541 0.717433
-0.303950 -0.576050 0.708899
-0.310341 -0.571512 -0.721390
-0.299366 -0.574182 -0.723748
-0.304341 -0.565381 -0.727890
-0.303830 -0.550387 0.733628
-0.303870 -0.559279 0.725184
-0.304517 -0.530812 0.749469
-0.303848 -0.542169 0.741137
-0.310312 -0.522069 0.753423
-0.299572 -0.525007 0.756239
-0.303338 -0.514642 0.762144
-0.307123 -0.502547 0.768049
-0.302583 -0.497695 0.773387
-0.296379 -0.507228 0.771422
-0.303976 -0.499606 -0.779332
-0.300729 -0.510719 -0.774181
-0.305243 -0.515939 -0.767666
-0.311759 -0.507235 -0.770940
-0.305133 -0.482471 0.783150
-0.307254 -0.487568 -0.784618
-0.296259 -0.492061 -0.788027
-0.302545 -0.482495 -0.791012
-0.311391 -0.473596 0.787490
-0.300549 -0.477192 0.790006
-0.305385 -0.466564 0.796491
-0.310228 -0.456021 0.803084
-0.299390 -0.459531 0.805148
-0.304364 -0.450065 0.808329
-0.303270 -0.432403 0.816564
-0.303246 -0.432620 -0.822100
-0.297287 -0.443793 -0.821057
-0.303165 -0.449658 -0.814452
-0.308267 -0.436940 -0.817772
-0.308370 -0.422398 0.818745
-0.303269 -0.416762 0.824413
-0.297576 -0.426573 0.821480
-0.303700 -0.404510 0.832600
-0.303119 -0.401345 -0.841071
-0.297215 -0.410800 -0.837337
-0.303203 -0.416977 -0.830064
-0.308148 -0.406876 -0.834094
-0.303628 -0.396298 0.839318
-0.302583 -0.382673 0.847411
-0.307845 -0.367275 0.851432
-0.299645 -0.367277 0.854887
-0.296474 -0.376487 0.853151
-0.304392 -0.368932 -0.856262
-0.299161 -0.381436 -0.854311
-0.304324 -0.386091 -0.849567
-0.310147 -0.374253 -0.851516
-0.310907 -0.358416 0.853635
-0.304339 -0.351139 0.861789
-0.308654 -0.340572 0.868143
-0.302348 -0.333654 0.876449
-0.297805 -0.343863 0.870686
-0.303872 -0.336270 -0.873740
-0.298448 -0.346686 -0.870228
-0.303952 -0.352423 -0.864038
-0.309344 -0.341953 -0.867472
-0.306950 -0.318190 0.882177
-0.298861 -0.318264 0.886181
-0.296111 -0.326797 0.884754
-0.310312 -0.307634 0.884315
-0.304453 -0.301998 0.888800
-0.307735 -0.303573 -0.883101
-0.296753 -0.314034 -0.885925
-0.302883 -0.319535 -0.881427
-0.299530 -0.303560 -0.886938
-0.302261 -0.283806 0.896115
-0.304766 -0.288083 -0.890059
-0.310791 -0.294252 -0.884553
-0.306603 -0.272624 0.898872
-0.302148 -0.267848 0.902918
-0.295824 -0.277313 0.901524
-0.303629 -0.252541 0.906958
-0.308784 -0.254506 -0.900363
-0.297966 -0.264624 -0.902665
-0.303644 -0.270334 -0.898227
-0.300617 -0.254525 -0.903516
-0.303677 -0.236141 0.910932
-0.310998 -0.244469 -0.901030
-0.304947 -0.238802 -0.904493
-0.303627 -0.223224 0.916340
-0.303522 -0.203218 0.924413
-0.303560 -0.214942 0.920886
-0.303548 -0.186914 0.927426
-0.298511 -0.189080 -0.918621
-0.296604 -0.198245 -0.917929
-0.302815 -0.204371 -0.914572
-0.306673 -0.189132 -0.915830
-0.303592 -0.170626 0.929815
-0.310181 -0.173036 -0.916913
-0.301998 -0.172915 -0.919927
-0.304756 -0.155657 0.932684
-0.312161 -0.164839 -0.917727
-0.305587 -0.157990 -0.921712
-0.310884 -0.144797 0.933762
-0.304661 -0.138721 0.936589
-0.300111 -0.151117 0.935252
-0.303462 -0.121581 0.939192
-0.303476 -0.105334 0.941261
-0.303460 -0.088872 0.943913
-0.302208 -0.071926 0.946785
-0.306175 -0.074270 -0.931939
-0.296882 -0.084004 -0.933915
-0.302965 -0.090094 -0.931193
-0.298068 -0.074136 -0.934273
-0.305433 -0.056295 0.947127
-0.295995 -0.066049 0.949835
-0.297320 -0.056163 0.950256
-0.298955 -0.057846 -0.934668
-0.307114 -0.058005 -0.931935
-0.307250 -0.040100 0.947775
-0.299139 -0.039940 0.950761
-0.300192 -0.041524 -0.935034
-0.308354 -0.041674 -0.932257
-0.309097 -0.023801 0.948664
-0.301061 -0.023629 0.950910
-0.310277 -0.029750 -0.933040
-0.304536 -0.024573 -0.935585
-0.309928 -0.007567 0.949011
-0.301898 -0.007356 0.951036
-0.309342 0.008635 0.948562
-0.301227 0.008884 0.951271
-0.305325 -0.008394 -0.935816
-0.311597 -0.002814 -0.933499
-0.302451 0.007627 -0.935712
-0.310623 0.007413 -0.933065
-0.308731 0.024968 0.948281
-0.300625 0.025223 0.951095
-0.302658 0.024022 -0.935803
-0.310823 0.023809 -0.933140
-0.307529 0.041437 0.948144
-0.299504 0.041666 0.950558
-0.311911 0.040264 -0.933644
-0.303829 0.040442 -0.936130
-0.306148 0.057809 0.947611
-0.298098 0.058064 0.950269
-0.302392 0.056850 -0.935667
-0.310492 0.056659 -0.933141
-0.305345 0.074092 0.946884
-0.297223 0.074405 0.950189
-0.299357 0.073236 -0.934671
-0.307527 0.073018 -0.932112
-0.302418 0.090844 0.946414
-0.296331 0.085790 0.949980
-0.305626 0.089462 -0.931427
-0.297484 0.089681 -0.934094
-0.303405 0.106924 0.943089
-0.302865 0.105320 -0.930877
-0.296670 0.099586 -0.933780
-0.303392 0.123217 0.940344
-0.303357 0.139476 0.937974
-0.303638 0.155455 0.935382
-0.309204 0.160523 0.932426
-0.303679 0.173263 0.931336
-0.298470 0.168688 0.934493
-0.303411 0.188382 0.927812
-0.303791 0.170325 -0.919348
-0.309011 0.174917 -0.916687
-0.303731 0.187747 -0.914859
-0.298184 0.182559 -0.918287
-0.303415 0.204549 0.924185
-0.303705 0.220913 0.920687
-0.309295 0.226251 0.917656
-0.303773 0.237500 0.915702
-0.298529 0.232591 0.919429
-0.303577 0.253166 0.909323
-0.304049 0.233410 -0.903696
-0.304052 0.241459 -0.900328
-0.302652 0.268322 0.903349
-0.307424 0.273035 0.899387
-0.302627 0.284856 0.896923
-0.296599 0.278839 0.901758
-0.311029 0.275964 -0.885357
-0.304962 0.269940 -0.888948
-0.308489 0.285534 -0.884268
-0.300417 0.285570 -0.887139
-0.304674 0.303261 0.888847
-0.297626 0.294871 -0.886230
-0.303389 0.300896 -0.880092
-0.310831 0.309500 0.883819
-0.304772 0.319031 0.882039
-0.300091 0.314081 0.886267
-0.303967 0.335448 0.873199
-0.303955 0.314211 -0.871717
-0.303952 0.322396 -0.867080
-0.309544 0.341435 0.867454
-0.303894 0.350893 0.864403
-0.298742 0.345272 0.869343
-0.303557 0.365397 0.855961
-0.304041 0.351129 -0.856191
-0.309451 0.356730 -0.852582
-0.304946 0.367771 -0.845419
-0.298723 0.360368 -0.854321
-0.303617 0.373519 0.850327
-0.303700 0.383742 0.843153
-0.311239 0.375162 -0.836653
-0.305087 0.383125 -0.832701
-0.300389 0.377274 -0.838501
-0.303744 0.394385 0.836611
-0.303711 0.402595 0.832551
-0.303663 0.416538 0.825122
-0.311052 0.407296 -0.820342
-0.304996 0.401128 -0.823724
-0.304957 0.416827 -0.818220
-0.300283 0.411503 -0.821856
-0.303663 0.426167 0.819849
-0.303716 0.434357 0.813658
-0.303812 0.445254 0.805670
-0.304084 0.433763 -0.808980
-0.309616 0.439765 -0.803105
-0.304068 0.448692 -0.799426
-0.298764 0.442806 -0.804882
-0.303850 0.453447 0.799796
-0.304245 0.466449 0.791291
-0.309863 0.472451 0.785428
-0.304253 0.481559 0.781939
-0.299144 0.475736 0.787549
-0.303474 0.465728 -0.790804
-0.308569 0.471209 -0.786417
-0.303435 0.481166 -0.781939
-0.297779 0.475015 -0.788649
-0.303892 0.495504 0.773608
-0.303947 0.503707 0.768058
-0.304313 0.515848 0.759595
-0.303896 0.500481 -0.765982
-0.303857 0.492291 -0.773438
-0.309949 0.521962 0.753451
-0.304337 0.530868 0.750185
-0.299162 0.525129 0.755672
-0.303927 0.510767 -0.757530
-0.303916 0.518980 -0.751845
-0.303990 0.542773 0.741718
-0.304004 0.550963 0.733948
-0.304050 0.559623 0.725600
-0.303838 0.549870 -0.733129
-0.303851 0.541663 -0.739838
-0.304084 0.567840 0.716718
-0.304093 0.576876 0.708413
-0.303826 0.559320 -0.724891
-0.303839 0.567532 -0.717249
-0.304074 0.585075 0.701733
-0.302574 0.597335 0.692759
-0.302368 0.579886 -0.708452
-0.306811 0.584933 -0.702474
-0.303096 0.596411 -0.696706
-0.295934 0.588967 -0.705854
-0.306950 0.603091 0.686979
-0.302560 0.609994 0.681413
-0.296211 0.605145 0.689110
-0.303471 0.605663 -0.394555
-0.311960 0.605802 -0.393144
-0.311956 0.605803 -0.392784
-0.303458 0.605679 -0.392712
-0.311961 0.606784 -0.393163
-0.303474 0.608311 -0.394591
-0.310212 0.603835 -0.687595
-0.305056 0.613957 -0.680744
-0.299420 0.607022 -0.690661
-0.303998 0.619359 0.670163
-0.304046 0.626345 0.661780
-0.310702 0.620852 -0.671580
-0.305102 0.630329 -0.664505
-0.299890 0.623530 -0.673689
-0.304089 0.634550 0.651864
-0.304095 0.642204 0.643675
-0.310361 0.637106 -0.654944
-0.305282 0.646927 -0.648528
-0.299461 0.640025 -0.657731
-0.304067 0.650400 0.635450
-0.304030 0.658310 0.627575
-0.311103 0.653803 -0.638664
-0.305893 0.664096 -0.632392
-0.300197 0.657598 -0.642223
-0.304004 0.666494 0.619432
-0.303983 0.673162 0.611453
-0.311584 0.670555 -0.622369
-0.304371 0.679157 -0.614673
-0.300730 0.672860 -0.625920
-0.304011 0.680382 0.599000
-0.304029 0.686130 0.588786
-0.304026 0.691118 0.580468
-0.307998 0.685413 -0.603985
-0.303058 0.691692 -0.598424
-0.297186 0.687780 -0.606839
-0.304008 0.699317 0.566920
-0.303995 0.704365 0.559056
-0.303758 0.700549 -0.586306
-0.303982 0.711239 0.550007
-0.303957 0.718594 0.540070
-0.303946 0.724294 0.531650
-0.303756 0.707491 -0.578168
-0.303737 0.715692 -0.568665
-0.303930 0.732491 0.519823
-0.303925 0.737868 0.511680
-0.309943 0.735219 -0.539326
-0.304223 0.730949 -0.548454
-0.303345 0.744087 -0.532110
-0.299119 0.737920 -0.542530
-0.303739 0.722242 -0.560180
-0.303954 0.743771 0.500971
-0.303967 0.750438 0.489134
-0.303964 0.755401 0.480894
-0.307606 0.750219 -0.520576
-0.302814 0.756280 -0.515758
-0.296705 0.753348 -0.525380
-0.303301 0.763830 0.466843
-0.308287 0.767679 0.456699
-0.303290 0.773552 0.451468
-0.297440 0.769856 0.460715
-0.309842 0.768069 -0.490150
-0.304159 0.765116 -0.500039
-0.298970 0.770575 -0.494482
-0.304166 0.774098 -0.484097
-0.303896 0.782317 0.438467
-0.303910 0.787310 0.430690
-0.303797 0.782458 -0.470749
-0.303895 0.793610 0.419269
-0.303859 0.800058 0.407341
-0.303819 0.803919 0.398841
-0.310775 0.801354 -0.425123
-0.307423 0.799438 -0.434328
-0.304722 0.806943 -0.418708
-0.299266 0.803456 -0.434165
-0.302481 0.795631 -0.449402
-0.296156 0.802204 -0.443122
-0.303790 0.787907 -0.462559
-0.303839 0.809728 0.386067
-0.305518 0.816420 0.370963
-0.312064 0.818317 0.362440
-0.305588 0.823057 0.355590
-0.301156 0.820046 0.366002
-0.304836 0.815445 -0.401829
-0.311013 0.817903 -0.391319
-0.304803 0.822385 -0.385809
-0.300037 0.820225 -0.397127
-0.303367 0.831155 0.336353
-0.308367 0.833548 0.325406
-0.303423 0.837690 0.320587
-0.297510 0.835339 0.330681
-0.310772 0.834157 -0.342537
-0.304666 0.832269 -0.353365
-0.299838 0.837182 -0.348355
-0.303171 0.842152 -0.335142
-0.303717 0.827526 -0.368792
-0.303056 0.845720 0.303539
-0.307471 0.848636 0.288089
-0.299350 0.852633 0.288163
-0.296924 0.851566 0.297382
-0.310368 0.850228 0.276505
-0.304616 0.854187 0.271422
-0.308290 0.849309 -0.291102
-0.305604 0.847588 -0.303515
-0.297400 0.852073 -0.303061
-0.303228 0.853981 -0.285569
-0.304281 0.845937 -0.319543
-0.296042 0.851502 -0.319711
-0.295515 0.851231 -0.328190
-0.304140 0.859852 0.255519
-0.304757 0.865455 0.240555
-0.310544 0.866874 0.227091
-0.304724 0.869629 0.221976
-0.299708 0.868812 0.235771
-0.306518 0.864776 -0.237175
-0.309250 0.866147 -0.223871
-0.303878 0.869662 -0.219043
-0.298357 0.868723 -0.237030
-0.302779 0.864134 -0.254754
-0.296584 0.867995 -0.250379
-0.303865 0.859699 -0.269698
-0.304079 0.871752 0.206234
-0.304001 0.872396 0.189982
-0.303967 0.873888 0.173819
-0.304356 0.880186 0.156743
-0.310070 0.883236 0.145384
-0.304388 0.886451 0.140376
-0.299163 0.885206 0.150978
-0.310694 0.883429 -0.105317
-0.311905 0.883918 -0.095247
-0.305488 0.885847 -0.089296
-0.302574 0.886099 -0.105108
-0.307194 0.882179 -0.121484
-0.299072 0.885128 -0.121446
-0.302700 0.881021 -0.137087
-0.296409 0.884146 -0.131220
-0.304025 0.878547 -0.154270
-0.304017 0.877029 -0.170863
-0.304020 0.874824 -0.187350
-0.303998 0.872319 -0.203849
-0.304027 0.887990 0.124531
-0.304035 0.887947 0.108231
-0.304022 0.889588 0.091749
-0.303994 0.891156 0.075273
-0.303967 0.891293 0.058922
-0.303969 0.891762 0.042611
-0.303980 0.893255 0.026277
-0.303985 0.893120 0.009913
-0.304001 0.891244 -0.006510
-0.304007 0.890789 -0.022975
-0.303994 0.891290 -0.039559
-0.303990 0.890057 -0.056080
-0.303995 0.887564 -0.072412
-0.287620 -0.885090 0.235467
-0.287646 -0.882416 0.243607
-0.295160 -0.883922 -0.079672
-0.285576 -0.885939 -0.088443
-0.288691 -0.886672 -0.073252
-0.293886 -0.883522 -0.088497
-0.291432 -0.882907 -0.104871
-0.283068 -0.885079 -0.105065
-0.280454 -0.884379 -0.121467
-0.288785 -0.881900 -0.121305
-0.279071 -0.884076 -0.130032
-0.285643 -0.881076 -0.136349
-0.288389 -0.870218 0.272911
-0.294414 -0.867170 0.279184
-0.283311 -0.868460 0.283635
-0.288327 -0.865535 0.288818
-0.294706 -0.867436 -0.227297
-0.283081 -0.868722 -0.236968
-0.288326 -0.870421 -0.221300
-0.291395 -0.866414 -0.236675
-0.279633 -0.867813 -0.246489
-0.285917 -0.864383 -0.252436
-0.287582 -0.849014 0.325178
-0.287607 -0.853255 0.317298
-0.290596 -0.849698 -0.306777
-0.279614 -0.851408 -0.311810
-0.285838 -0.852432 -0.301879
-0.285821 -0.846847 -0.318212
-0.287067 -0.837202 0.354603
-0.292232 -0.833934 0.360255
-0.281209 -0.835229 0.363607
-0.286968 -0.830308 0.369344
-0.291770 -0.834154 -0.357705
-0.280785 -0.835048 -0.361312
-0.286548 -0.836691 -0.352356
-0.286550 -0.831019 -0.367297
-0.286244 -0.821123 0.385894
-0.291009 -0.816412 0.391375
-0.286156 -0.812988 0.401096
-0.279903 -0.818627 0.394037
-0.292559 -0.817314 -0.392405
-0.281634 -0.819138 -0.396136
-0.287033 -0.821990 -0.386039
-0.287068 -0.815316 -0.401585
-0.286630 -0.804669 0.419405
-0.291705 -0.800568 0.424664
-0.280677 -0.802553 0.429174
-0.286640 -0.797236 0.434763
-0.286746 -0.788620 0.451451
-0.291910 -0.783824 0.457086
-0.280735 -0.786202 0.460445
-0.286677 -0.780562 0.467196
-0.294811 -0.785510 -0.459147
-0.283866 -0.786772 -0.462473
-0.288378 -0.789945 -0.452441
-0.288427 -0.783802 -0.467571
-0.290492 -0.766776 0.490054
-0.285896 -0.771869 0.484833
-0.279437 -0.769339 0.493659
-0.286141 -0.760272 0.500476
-0.292934 -0.751346 0.507854
-0.281753 -0.753779 0.509750
-0.288529 -0.744766 0.517763
-0.290155 -0.750630 -0.522373
-0.279214 -0.752952 -0.525425
-0.285556 -0.755897 -0.516996
-0.285624 -0.746064 -0.531494
-0.295310 -0.736192 0.525576
-0.288686 -0.733119 0.534324
-0.284132 -0.738215 0.528532
-0.287199 -0.724218 0.548385
-0.287215 -0.718062 0.556437
-0.288589 -0.709367 0.567868
-0.295072 -0.703381 0.574225
-0.283847 -0.704853 0.575906
-0.288599 -0.698900 0.582031
-0.287231 -0.683783 0.603238
-0.287338 -0.689666 0.594636
-0.287299 -0.668182 0.621230
-0.287230 -0.675534 0.613327
-0.287479 -0.652258 0.637224
-0.287407 -0.659957 0.629359
-0.286649 -0.643208 0.648470
-0.291649 -0.635665 0.654475
-0.280435 -0.638573 0.657432
-0.286518 -0.629365 0.664585
-0.292527 -0.619618 0.671389
-0.281473 -0.623125 0.675434
-0.286553 -0.612765 0.681234
-0.291740 -0.602930 0.687486
-0.286011 -0.596077 0.696394
-0.280579 -0.605925 0.689893
-0.291495 -0.586807 0.703432
-0.280221 -0.589216 0.704684
-0.286295 -0.580032 0.712667
-0.292325 -0.570562 0.720161
-0.281112 -0.573287 0.722638
-0.286356 -0.563633 0.729726
-0.291569 -0.553755 0.736508
-0.280442 -0.556763 0.739586
-0.286549 -0.548048 0.742969
-0.294849 -0.556130 -0.737912
-0.283744 -0.557597 -0.739421
-0.288414 -0.563574 -0.734658
-0.288435 -0.549664 -0.744367
-0.287410 -0.535635 0.751231
-0.287430 -0.527438 0.757738
-0.287396 -0.517294 0.765759
-0.287401 -0.509085 0.772330
-0.286284 -0.497348 0.781181
-0.291101 -0.488172 0.785614
-0.279941 -0.490987 0.788389
-0.286193 -0.482433 0.791991
-0.287213 -0.470284 0.800873
-0.287203 -0.462062 0.807178
-0.286406 -0.448194 0.814936
-0.291502 -0.437544 0.818760
-0.286427 -0.432368 0.821825
-0.280267 -0.441952 0.819337
-0.286621 -0.415260 0.830763
-0.291807 -0.407068 0.835300
-0.280559 -0.408946 0.836004
-0.285349 -0.399493 0.843675
-0.290079 -0.387472 0.850670
-0.285520 -0.382631 0.854506
-0.278948 -0.391946 0.853610
-0.287770 -0.386106 -0.855481
-0.282507 -0.393836 -0.853500
-0.287797 -0.400148 -0.847454
-0.293545 -0.392131 -0.852075
-0.287063 -0.367267 0.858318
-0.287079 -0.353777 0.865043
-0.287184 -0.336300 0.879306
-0.287136 -0.345557 0.872026
-0.287237 -0.328174 0.885330
-0.287238 -0.318198 0.888303
-0.291029 -0.324822 -0.884540
-0.279980 -0.328048 -0.885626
-0.286298 -0.334581 -0.880231
-0.286311 -0.319594 -0.886539
-0.287250 -0.301730 0.892706
-0.287216 -0.286676 0.898171
-0.287153 -0.268896 0.906807
-0.287199 -0.278462 0.902041
-0.287142 -0.252489 0.912536
-0.287098 -0.235902 0.916794
-0.292600 -0.226596 0.918118
-0.287038 -0.220513 0.922299
-0.281468 -0.230305 0.920175
-0.287075 -0.203226 0.928206
-0.292297 -0.209324 -0.916767
-0.281284 -0.215339 -0.918581
-0.287127 -0.221311 -0.914742
-0.287062 -0.204545 -0.919427
-0.285705 -0.185751 0.931675
-0.291351 -0.170576 0.932700
-0.279249 -0.179566 0.933809
-0.282997 -0.170646 0.934666
-0.295077 -0.162085 0.933447
-0.288524 -0.155664 0.936953
-0.287034 -0.137828 0.941525
-0.287029 -0.121583 0.943958
-0.281387 -0.123749 -0.934611
-0.280322 -0.134319 -0.934383
-0.286519 -0.139715 -0.931339
-0.289630 -0.123549 -0.931789
-0.285902 -0.104465 0.946958
-0.291728 -0.107203 -0.932454
-0.283484 -0.107402 -0.935179
-0.290779 -0.088807 0.948271
-0.282388 -0.088946 0.950527
-0.279596 -0.098541 0.949817
-0.294158 -0.095133 -0.933102
-0.288202 -0.090151 -0.936086
-0.293904 -0.076945 0.949185
-0.287772 -0.071946 0.951222
-0.286982 -0.056332 0.952643
-0.286976 -0.040105 0.953627
-0.287004 -0.023695 0.954299
-0.286995 -0.007389 0.954574
-0.286937 0.008788 0.954614
-0.286928 0.025103 0.954451
-0.286959 0.041541 0.954027
-0.286944 0.057851 0.953466
-0.286899 0.074096 0.952786
-0.287902 0.090796 0.951440
-0.294205 0.096730 0.949107
-0.291602 0.107079 0.947745
-0.283150 0.106772 0.950868
-0.286301 0.123234 0.946140
-0.280222 0.117619 0.950136
-0.288394 0.105278 -0.935910
-0.294475 0.110500 -0.932957
-0.283356 0.118929 -0.935242
-0.288386 0.123570 -0.932041
-0.286922 0.139529 0.942403
-0.286936 0.155918 0.939608
-0.288208 0.173337 0.936386
-0.294669 0.179632 0.933216
-0.291915 0.188542 0.931991
-0.283554 0.188294 0.935035
-0.286340 0.204116 0.929937
-0.280364 0.198141 0.934001
-0.293269 0.193306 -0.916881
-0.287730 0.187716 -0.920027
-0.287692 0.204426 -0.915781
-0.282310 0.199144 -0.918619
-0.286969 0.221021 0.925571
-0.287574 0.237638 0.921430
-0.293598 0.243233 0.917492
-0.287716 0.253622 0.915345
-0.282469 0.248475 0.919961
-0.295874 0.244813 -0.901655
-0.289228 0.238317 -0.906232
-0.289228 0.253096 -0.899556
-0.284797 0.247794 -0.903307
-0.287166 0.269458 0.908187
-0.285472 0.284866 0.902346
-0.289970 0.289774 0.899412
-0.285485 0.300480 0.895807
-0.278696 0.293942 0.900520
-0.287521 0.319077 0.887963
-0.287583 0.305193 -0.882497
-0.287585 0.297083 -0.887592
-0.293308 0.324979 0.884579
-0.287526 0.334584 0.880605
-0.282184 0.329061 0.885701
-0.294040 0.325384 -0.868854
-0.288178 0.319212 -0.873863
-0.288151 0.334904 -0.866997
-0.283137 0.329649 -0.870275
-0.286130 0.350874 0.871228
-0.291087 0.356269 0.866528
-0.287623 0.367654 0.860201
-0.279805 0.359819 0.868572
-0.295344 0.375424 0.851561
-0.288815 0.384204 0.848529
-0.284244 0.379042 0.854243
-0.287505 0.362902 -0.856259
-0.287510 0.371087 -0.849267
-0.287461 0.400352 0.839287
-0.290324 0.388214 -0.834520
-0.285922 0.383114 -0.840203
-0.285927 0.398481 -0.831622
-0.279382 0.391918 -0.836763
-0.293199 0.405969 0.834513
-0.287403 0.416670 0.831296
-0.281905 0.411296 0.836177
-0.286109 0.432360 0.822369
-0.293296 0.422497 -0.819751
-0.287657 0.416820 -0.824062
-0.287626 0.432127 -0.815692
-0.282175 0.426112 -0.821759
-0.291003 0.437437 0.816306
-0.287138 0.449032 0.810553
-0.279826 0.441774 0.819141
-0.294389 0.456252 0.801784
-0.288250 0.466053 0.798868
-0.283259 0.460840 0.805268
-0.286111 0.448687 -0.806251
-0.290682 0.453757 -0.801583
-0.286077 0.464321 -0.798165
-0.279736 0.457912 -0.804026
-0.286430 0.481549 0.789976
-0.291444 0.486672 0.784072
-0.287523 0.498491 0.778507
-0.280212 0.491163 0.787368
-0.287375 0.477882 -0.790553
-0.287371 0.486111 -0.784962
-0.294743 0.505783 0.770305
-0.288546 0.515152 0.766330
-0.283605 0.509867 0.772356
-0.287487 0.504185 -0.769215
-0.287436 0.495993 -0.776714
-0.286076 0.530865 0.756852
-0.287997 0.515787 -0.760538
-0.293829 0.521856 -0.753894
-0.287946 0.531388 -0.751061
-0.282819 0.525938 -0.756234
-0.290708 0.536053 0.752179
-0.285064 0.546612 0.745067
-0.279451 0.539604 0.753603
-0.290608 0.553563 0.735816
-0.286138 0.560829 0.730222
-0.279476 0.555932 0.738598
-0.286120 0.547761 -0.741818
-0.290805 0.553241 -0.735720
-0.279714 0.556205 -0.738609
-0.285812 0.563262 -0.729095
-0.287729 0.570200 0.719310
-0.287487 0.580916 0.710363
-0.291843 0.570308 -0.719876
-0.286784 0.579482 -0.715160
-0.280888 0.573315 -0.722161
-0.292868 0.586665 0.703714
-0.287423 0.596215 0.698692
-0.281748 0.590293 0.705328
-0.287584 0.606479 0.690422
-0.287004 0.604371 -0.396186
-0.286992 0.604391 -0.391791
-0.286421 0.613879 -0.396113
-0.287383 0.598966 -0.700856
-0.287401 0.590744 -0.706731
-0.288340 0.615703 0.680154
-0.294363 0.620907 0.671876
-0.287828 0.629661 0.664703
-0.283335 0.623100 0.674865
-0.287386 0.609194 -0.692493
-0.287407 0.617402 -0.684385
-0.292304 0.636196 0.653965
-0.286629 0.645515 0.646991
-0.281254 0.638831 0.657170
-0.287419 0.626384 -0.676136
-0.287419 0.634581 -0.668733
-0.291983 0.652180 0.637627
-0.286913 0.660048 0.631556
-0.280908 0.655128 0.639443
-0.287099 0.653813 -0.396284
-0.298983 0.653935 -0.396096
-0.298967 0.653949 -0.393817
-0.287096 0.653820 -0.394040
-0.287132 0.663099 -0.399483
-0.300769 0.663153 -0.398196
-0.287367 0.651130 -0.653160
-0.287389 0.642934 -0.660713
-0.287573 0.669051 0.621785
-0.287574 0.674810 0.613768
-0.287137 0.679413 -0.399717
-0.299469 0.679492 -0.398600
-0.287136 0.659989 -0.452443
-0.300267 0.664498 -0.452144
-0.298243 0.667079 -0.439628
-0.287175 0.666579 -0.440413
-0.287147 0.664465 -0.463926
-0.299093 0.666354 -0.463334
-0.287154 0.676225 -0.463893
-0.299093 0.674574 -0.463292
-0.287315 0.668351 -0.637075
-0.287330 0.660151 -0.645023
-0.288937 0.683717 0.598474
-0.295347 0.686939 0.590266
-0.288936 0.692959 0.583539
-0.284281 0.688634 0.592458
-0.297247 0.689385 -0.396618
-0.287111 0.689700 -0.396510
-0.287346 0.675051 -0.628673
-0.287389 0.683249 -0.617613
-0.287595 0.701483 0.570284
-0.287592 0.706787 0.562627
-0.293639 0.702687 -0.589504
-0.287869 0.698388 -0.598126
-0.286891 0.711888 -0.581985
-0.282709 0.705105 -0.592543
-0.287401 0.689543 -0.609401
-0.288692 0.715767 0.550103
-0.294880 0.719581 0.541467
-0.287241 0.727949 0.533609
-0.283936 0.721510 0.544976
-0.291077 0.718660 -0.572350
-0.280148 0.720193 -0.574317
-0.286325 0.724649 -0.566200
-0.290563 0.734373 0.522899
-0.286066 0.739356 0.517103
-0.279548 0.736412 0.525248
-0.287394 0.733839 -0.553940
-0.288025 0.748688 0.500495
-0.293858 0.751974 0.491690
-0.288061 0.758248 0.485679
-0.282848 0.754224 0.495148
-0.287397 0.748540 -0.535993
-0.287398 0.740335 -0.545765
-0.287565 0.766709 0.472560
-0.287536 0.771914 0.463986
-0.287031 0.763530 -0.515969
-0.292268 0.767700 -0.505872
-0.287054 0.772607 -0.500316
-0.281347 0.769938 -0.510035
-0.287376 0.755026 -0.528061
-0.287668 0.780679 0.450705
-0.293283 0.784672 0.442095
-0.287685 0.789884 0.436280
-0.282255 0.786524 0.444848
-0.293790 0.784947 -0.474160
-0.287958 0.781606 -0.483156
-0.287921 0.790642 -0.468345
-0.282838 0.786615 -0.477607
-0.289001 0.799086 0.419488
-0.295463 0.801875 0.410833
-0.288940 0.806358 0.404153
-0.284462 0.803346 0.414176
-0.287350 0.799311 -0.454035
-0.287619 0.814991 0.385433
-0.293288 0.817723 0.376576
