-0.160406 -0.173832 0.780552
-0.152155 -0.184137 0.780239
-0.160233 -0.173954 0.763912
-0.151985 -0.183868 0.763572
-0.151853 -0.183778 0.747679
-0.160095 -0.173684 0.747830
-0.151884 -0.183853 0.731602
-0.160121 -0.173631 0.731661
-0.160210 -0.173848 0.715184
-0.151989 -0.183953 0.715073
-0.160088 -0.173757 0.698837
-0.151892 -0.183952 0.698743
-0.151590 -0.183809 0.682615
-0.159769 -0.173280 0.682624
-0.151657 -0.183906 0.666233
-0.159837 -0.173320 0.666249
-0.160160 -0.173859 0.649713
-0.151984 -0.184099 0.649628
-0.160174 -0.174008 0.633095
-0.152002 -0.184063 0.633005
-0.151694 -0.183904 0.616052
-0.159870 -0.173630 0.616118
-0.151174 -0.183399 0.598064
-0.159364 -0.173163 0.598103
-0.150546 -0.182567 0.580415
-0.158761 -0.172810 0.580379
-0.150173 -0.181792 0.564624
-0.158446 -0.172634 0.564724
-0.150535 -0.181835 0.550480
-0.158729 -0.172988 0.550566
-0.159604 -0.173966 0.534832
-0.151420 -0.182537 0.534921
-0.152258 -0.183166 0.518061
-0.160429 -0.174892 0.517889
-0.152475 -0.183369 0.501612
-0.160648 -0.175171 0.501395
-0.160194 -0.174797 0.485035
-0.151993 -0.182983 0.485204
-0.150898 -0.181876 0.467822
-0.159128 -0.173945 0.467895
-0.158567 -0.173465 0.450813
-0.150341 -0.181296 0.450577
-0.151061 -0.182095 0.434282
-0.159300 -0.173923 0.434371
-0.151435 -0.182583 0.417941
-0.159667 -0.174096 0.417903
-0.159281 -0.173544 0.400849
-0.151051 -0.182280 0.400811
-0.151638 -0.182929 0.384015
-0.159888 -0.174128 0.384264
-0.152800 -0.184294 0.368063
-0.161061 -0.175436 0.368685
-0.160649 -0.175079 0.352708
-0.152412 -0.183893 0.352074
-0.158882 -0.173573 0.336144
-0.150697 -0.181783 0.335937
-0.149309 -0.180431 0.320835
-0.157471 -0.172200 0.320823
-0.157748 -0.169473 0.305298
-0.148356 -0.179895 0.305513
-0.147978 -0.179513 0.288903
-0.157503 -0.169189 0.288094
-0.148285 -0.179539 0.271189
-0.156569 -0.171232 0.271525
-0.157089 -0.171783 0.254658
-0.148824 -0.180023 0.254177
-0.157622 -0.172211 0.238941
-0.149360 -0.180654 0.238731
-0.150139 -0.181118 0.222933
-0.158410 -0.173054 0.223084
-0.151019 -0.181518 0.206703
-0.159295 -0.173995 0.206896
-0.151169 -0.181752 0.190063
-0.159429 -0.174316 0.190020
-0.159347 -0.174394 0.173018
-0.151095 -0.181904 0.173328
-0.159765 -0.174700 0.157063
-0.151510 -0.182053 0.157107
-0.151494 -0.181836 0.141129
-0.159741 -0.174827 0.141295
-0.150206 -0.181135 0.124932
-0.158448 -0.174082 0.124953
-0.157288 -0.173163 0.108517
-0.149027 -0.180426 0.108524
-0.157044 -0.172658 0.091304
-0.148711 -0.179936 0.090532
-0.157247 -0.172494 0.074421
-0.148875 -0.180013 0.073180
-0.149262 -0.180482 0.058293
-0.157573 -0.172784 0.058735
-0.149919 -0.181080 0.042653
-0.158217 -0.173439 0.042694
-0.151259 -0.182060 0.025289
-0.159632 -0.174682 0.026034
-0.151465 -0.182139 0.008679
-0.159830 -0.174801 0.009548
-0.158248 -0.173626 -0.006634
-0.149942 -0.180953 -0.006814
-0.149610 -0.180627 -0.022982
-0.157910 -0.173364 -0.022946
-0.150343 -0.181077 -0.039960
-0.158687 -0.173738 -0.039548
-0.159111 -0.174150 -0.057689
-0.150796 -0.181518 -0.058037
-0.151088 -0.182004 -0.075797
-0.159358 -0.174503 -0.075782
-0.150901 -0.181938 -0.092546
-0.159203 -0.174309 -0.092539
-0.158773 -0.173737 -0.107404
-0.150527 -0.181491 -0.107369
-0.159345 -0.174208 -0.121682
-0.151125 -0.182025 -0.121635
-0.151959 -0.182872 -0.137497
-0.160187 -0.174986 -0.137505
-0.159492 -0.174200 -0.154010
-0.151267 -0.182298 -0.154027
-0.158408 -0.173132 -0.170795
-0.150194 -0.181350 -0.170861
-0.157753 -0.172518 -0.187362
-0.149537 -0.180685 -0.187414
-0.148898 -0.179975 -0.203685
-0.157123 -0.171797 -0.203674
-0.148097 -0.179165 -0.220423
-0.156319 -0.170990 -0.220326
-0.155372 -0.170140 -0.235337
-0.147598 -0.178666 -0.230064
-0.155833 -0.154057 0.943223
-0.152037 -0.167267 0.925304
-0.149036 -0.163902 0.937091
-0.160278 -0.158463 0.925342
-0.162974 -0.161301 0.914457
-0.163416 -0.162111 0.293066
-0.163402 -0.162115 0.299699
-0.162021 -0.160423 -0.253195
-0.153774 -0.168855 -0.253282
-0.163156 -0.161470 -0.240641
-0.152187 -0.167269 -0.269616
-0.160433 -0.158840 -0.269574
-0.150686 -0.165496 -0.286117
-0.158912 -0.157184 -0.286049
-0.156318 -0.154710 -0.304137
-0.149223 -0.163850 -0.299190
-0.159641 -0.140719 0.959904
-0.151432 -0.149822 0.959908
-0.148588 -0.147090 0.968269
-0.154713 -0.136215 0.969451
-0.162641 -0.144348 0.949328
-0.161488 -0.142841 -0.318495
-0.153297 -0.151957 -0.318369
-0.163408 -0.145133 -0.309204
-0.150343 -0.148798 -0.331397
-0.156211 -0.138492 -0.336202
-0.155659 -0.121517 0.972905
-0.158685 -0.121397 -0.352778
-0.150562 -0.133635 -0.353055
-0.162067 -0.126709 -0.340894
-0.147995 -0.130178 -0.362846
-0.150601 -0.121533 -0.366021
-0.155617 -0.105206 0.975930
-0.162134 -0.110608 -0.358421
-0.155970 -0.106094 -0.370528
-0.155644 -0.088878 0.978636
-0.160792 -0.092225 -0.374251
-0.149812 -0.101524 -0.381899
-0.155000 -0.088021 -0.385539
-0.155660 -0.072563 0.980301
-0.151852 -0.073102 -0.398496
-0.149249 -0.083811 -0.396514
-0.160039 -0.073069 -0.388682
-0.155623 -0.056287 0.980592
-0.155577 -0.056120 -0.401120
-0.162597 -0.061405 -0.391326
-0.155612 -0.039939 0.981543
-0.158224 -0.040485 -0.403493
-0.148563 -0.050883 -0.410717
-0.150051 -0.040569 -0.411673
-0.155630 -0.029636 0.982886
-0.151598 -0.024219 -0.412400
-0.159775 -0.024118 -0.404933
-0.155641 -0.021449 0.983728
-0.155513 -0.005855 0.983574
-0.151722 -0.008222 -0.412372
-0.159904 -0.008103 -0.404872
-0.160941 0.000988 0.983112
-0.159803 0.007620 -0.404895
-0.151632 0.007476 -0.412418
-0.155507 0.007241 0.982097
-0.155669 0.024772 0.981517
-0.151339 0.023523 -0.411884
-0.159514 0.023679 -0.404763
-0.155695 0.037831 0.982731
-0.149927 0.039900 -0.410363
-0.158111 0.040059 -0.403658
-0.155094 0.055615 0.983364
-0.155703 0.045888 0.983385
-0.156050 0.056564 -0.400762
-0.148681 0.050039 -0.409333
-0.160208 0.059991 0.982449
-0.155069 0.074129 0.982041
-0.149148 0.069556 0.983087
-0.163437 0.063025 -0.391350
-0.153053 0.072566 -0.397820
-0.161257 0.072668 -0.389189
-0.155745 0.089174 0.980895
-0.150064 0.088873 -0.395636
-0.158632 0.089229 -0.384369
-0.155782 0.105417 0.979760
-0.162809 0.094878 -0.374806
-0.151169 0.104685 -0.385222
-0.159511 0.105497 -0.369990
-0.148490 0.098794 -0.394340
-0.155800 0.121632 0.977081
-0.162410 0.111002 -0.359239
-0.151131 0.120969 -0.369689
-0.159803 0.122062 -0.353155
-0.148567 0.114973 -0.380094
-0.155462 0.137007 0.971507
-0.163034 0.127738 -0.342106
-0.151318 0.137383 -0.351846
-0.159503 0.138095 -0.336163
-0.148789 0.131530 -0.363887
-0.160924 0.142053 0.959119
-0.152679 0.151797 0.959362
-0.149737 0.148528 0.969304
-0.163250 0.144935 0.949438
-0.156581 0.155048 0.944607
-0.164218 0.145961 -0.310441
-0.162881 0.144148 -0.318890
-0.153803 0.155362 -0.319046
-0.159598 0.153577 -0.303907
-0.151000 0.150115 -0.335470
-0.148305 0.146831 -0.345185
-0.160892 0.158759 0.929032
-0.154580 0.169074 0.923642
-0.149930 0.164773 0.939406
-0.160917 0.158341 -0.285892
-0.162848 0.160685 -0.272896
-0.152696 0.167438 -0.286061
-0.155518 0.169964 -0.267922
-0.150255 0.164834 -0.302426
-0.148645 0.163115 -0.313779
-0.157978 0.172105 0.910177
-0.149791 0.180673 0.910012
-0.148305 0.179288 0.918246
-0.160115 0.174216 0.895549
-0.151949 0.182594 0.895478
-0.160921 0.174821 0.879665
-0.152749 0.183395 0.879655
-0.160790 0.174368 0.863280
-0.152588 0.183407 0.863258
-0.160883 0.174456 0.846830
-0.152680 0.183722 0.846753
-0.161210 0.174919 0.830367
-0.153015 0.184267 0.830167
-0.161888 0.175507 0.813962
-0.153677 0.184893 0.813752
-0.162239 0.175831 0.797488
-0.154006 0.185258 0.797329
-0.161967 0.175666 0.780494
-0.153728 0.185067 0.780176
-0.161839 0.175659 0.763647
-0.153609 0.184930 0.763275
-0.162328 0.176195 0.747674
-0.154106 0.185402 0.747488
-0.162535 0.176384 0.731545
-0.154314 0.185573 0.731457
-0.162020 0.175785 0.714789
-0.153809 0.185083 0.714652
-0.161925 0.175666 0.698499
-0.153727 0.184951 0.698368
-0.162497 0.176299 0.682615
-0.154295 0.185301 0.682551
-0.162434 0.176264 0.666100
-0.154230 0.185210 0.666093
-0.161703 0.175548 0.648412
-0.153514 0.184606 0.648598
-0.161714 0.175585 0.631160
-0.153551 0.184694 0.631505
-0.161951 0.175768 0.614872
-0.153794 0.185186 0.615174
-0.161389 0.175147 0.597713
-0.153221 0.184680 0.597810
-0.160766 0.174631 0.580437
-0.152592 0.183765 0.580331
-0.160929 0.175020 0.565152
-0.152793 0.183671 0.564816
-0.161683 0.175960 0.550803
-0.153524 0.184290 0.550592
-0.162372 0.176695 0.534782
-0.154197 0.184833 0.534867
-0.162850 0.177199 0.517939
-0.154687 0.185046 0.518159
-0.163102 0.177526 0.501597
-0.154926 0.184992 0.501805
-0.163009 0.177520 0.485336
-0.154795 0.184465 0.485447
-0.162403 0.177038 0.468210
-0.154164 0.183596 0.468163
-0.162460 0.177084 0.451218
-0.154234 0.183486 0.451050
-0.163438 0.177913 0.439204
-0.157218 0.183671 0.434303
-0.163650 0.178057 0.384527
-0.163699 0.178167 0.396002
-0.157335 0.184417 0.401694
-0.155462 0.185640 0.384467
-0.163980 0.178312 0.373817
-0.157591 0.184910 0.367853
-0.164316 0.178506 0.344822
-0.163870 0.178047 0.336859
-0.155721 0.185791 0.336570
-0.157823 0.184997 0.350057
-0.162544 0.176618 0.321765
-0.154330 0.184823 0.321738
-0.160924 0.174844 0.305538
-0.152674 0.183749 0.305509
-0.160602 0.174497 0.288979
-0.152357 0.183347 0.288964
-0.161276 0.175446 0.271334
-0.153023 0.183507 0.271186
-0.161999 0.176350 0.254697
-0.153756 0.183904 0.254514
-0.162703 0.177077 0.239429
-0.154433 0.184524 0.239357
-0.163051 0.177442 0.222987
-0.154780 0.184761 0.222909
-0.163248 0.177657 0.206227
-0.155002 0.184781 0.206117
-0.163771 0.178247 0.189969
-0.155535 0.184983 0.189921
-0.164158 0.178666 0.181179
-0.157570 0.184007 0.174927
-0.162771 0.177165 0.124343
-0.163651 0.177990 0.137095
-0.154555 0.184297 0.124509
-0.157303 0.183634 0.141667
-0.162216 0.176580 0.108278
-0.153970 0.183957 0.108344
-0.162348 0.176482 0.091145
-0.154053 0.183863 0.090648
-0.162415 0.176509 0.074513
-0.154106 0.183894 0.073640
-0.162390 0.176796 0.058896
-0.154129 0.184191 0.058546
-0.162498 0.176976 0.042617
-0.154242 0.184414 0.042595
-0.162795 0.176999 0.024991
-0.154475 0.184382 0.024667
-0.162970 0.177198 0.008496
-0.154649 0.184146 0.007958
-0.163088 0.177552 -0.006701
-0.154807 0.183884 -0.006947
-0.162764 0.177229 -0.022918
-0.154467 0.183634 -0.023023
-0.162008 0.176193 -0.040167
-0.153673 0.183276 -0.040658
-0.161632 0.175704 -0.058297
-0.153330 0.183289 -0.058678
-0.161412 0.175778 -0.075833
-0.153138 0.183503 -0.075796
-0.161772 0.176228 -0.092619
-0.153552 0.184007 -0.092607
-0.162164 0.176534 -0.107018
-0.153926 0.184354 -0.107201
-0.162482 0.176715 -0.121374
-0.154228 0.184630 -0.121530
-0.162721 0.176908 -0.137493
-0.154481 0.184801 -0.137494
-0.162514 0.176786 -0.153980
-0.154312 0.184291 -0.154000
-0.162020 0.176417 -0.170677
-0.153833 0.183494 -0.170754
-0.160951 0.175290 -0.187150
-0.152745 0.182560 -0.187213
-0.159732 0.173913 -0.203478
-0.151511 0.181587 -0.203489
-0.158934 0.173049 -0.220509
-0.150717 0.180964 -0.220596
-0.158112 0.172281 -0.237407
-0.149896 0.180339 -0.237575
-0.157076 0.171262 -0.253405
-0.148848 0.179491 -0.253513
-0.148180 0.178938 -0.262912
-0.155970 0.186163 0.418721
-0.155981 0.185372 0.156901
-0.139000 -0.186614 0.908694
-0.132133 -0.195702 0.894482
-0.131142 -0.195022 0.901735
-0.140289 -0.188824 0.894638
-0.141979 -0.189920 0.879627
-0.133836 -0.197030 0.879657
-0.135146 -0.198103 0.863353
-0.143294 -0.190669 0.863330
-0.135752 -0.198407 0.846808
-0.143927 -0.191393 0.846805
-0.144097 -0.191922 0.830087
-0.135904 -0.198365 0.830062
-0.144330 -0.192328 0.813564
-0.136144 -0.198592 0.813589
-0.136352 -0.198934 0.797259
-0.144536 -0.192480 0.797130
-0.136399 -0.199170 0.780157
-0.144603 -0.192298 0.780068
-0.144500 -0.192036 0.763356
-0.136293 -0.199108 0.763432
-0.144235 -0.191956 0.747586
-0.136059 -0.198744 0.747724
-0.136075 -0.198668 0.731674
-0.144245 -0.192032 0.731547
-0.144648 -0.192123 0.714875
-0.136457 -0.199091 0.714882
-0.144784 -0.192137 0.698491
-0.136603 -0.199189 0.698463
-0.136320 -0.198794 0.682519
-0.144461 -0.192010 0.682475
-0.136287 -0.198666 0.666130
-0.144426 -0.192112 0.666105
-0.136450 -0.198840 0.649219
-0.144615 -0.192293 0.649339
-0.144535 -0.192264 0.632676
-0.136373 -0.198776 0.632569
-0.136090 -0.198496 0.615987
-0.144238 -0.192107 0.615867
-0.135468 -0.198183 0.598101
-0.143631 -0.191609 0.597989
-0.134653 -0.197889 0.580438
-0.142828 -0.190824 0.580409
-0.133986 -0.197437 0.564385
-0.142220 -0.190079 0.564515
-0.134100 -0.197401 0.550287
-0.142253 -0.190060 0.550394
-0.142840 -0.190738 0.534966
-0.134708 -0.197827 0.535051
-0.135216 -0.198091 0.518374
-0.143341 -0.191376 0.518197
-0.143382 -0.191575 0.501778
-0.135256 -0.198020 0.501951
-0.142952 -0.191180 0.485334
-0.134810 -0.197692 0.485449
-0.133789 -0.197009 0.467846
-0.141931 -0.190070 0.467789
-0.133339 -0.196670 0.450408
-0.141471 -0.189521 0.450396
-0.134150 -0.197024 0.434169
-0.142307 -0.190347 0.434200
-0.142720 -0.190844 0.417913
-0.134549 -0.197178 0.417875
-0.142502 -0.190551 0.400749
-0.134325 -0.197120 0.400659
-0.143285 -0.191204 0.383809
-0.135082 -0.197771 0.383741
-0.144674 -0.192547 0.367559
-0.136465 -0.198835 0.367544
-0.144270 -0.192121 0.351534
-0.136075 -0.198573 0.351487
-0.142279 -0.190018 0.335668
-0.134086 -0.197097 0.335524
-0.132728 -0.196129 0.320613
-0.140867 -0.188648 0.320755
-0.139871 -0.188039 0.305519
-0.131770 -0.195539 0.305551
-0.131074 -0.195090 0.296863
-0.137570 -0.188885 0.290303
-0.139681 -0.189329 0.222620
-0.131540 -0.195363 0.222444
-0.131324 -0.195242 0.234699
-0.137705 -0.190035 0.239338
-0.131653 -0.195405 0.206119
-0.139797 -0.189729 0.206295
-0.131804 -0.195486 0.189943
-0.139943 -0.189949 0.189951
-0.140051 -0.190092 0.173551
-0.131913 -0.195542 0.173679
-0.140038 -0.190246 0.157089
-0.131904 -0.195499 0.157157
-0.131652 -0.195322 0.144069
-0.137986 -0.191002 0.139637
-0.140137 -0.190218 0.024628
-0.132001 -0.195717 0.024497
-0.131286 -0.195294 0.036680
-0.137693 -0.190256 0.042464
-0.132245 -0.195850 0.007798
-0.140374 -0.190300 0.007926
-0.131510 -0.195412 -0.007122
-0.139653 -0.189145 -0.007049
-0.139349 -0.188830 -0.023069
-0.131205 -0.195184 -0.023082
-0.139540 -0.189275 -0.040276
-0.131406 -0.195249 -0.040299
-0.131964 -0.195612 -0.058319
-0.140097 -0.189727 -0.058330
-0.132527 -0.196180 -0.075898
-0.140687 -0.190251 -0.075888
-0.140919 -0.190195 -0.092605
-0.132722 -0.196295 -0.092627
-0.132595 -0.196007 -0.107186
-0.140759 -0.189702 -0.107261
-0.141364 -0.190175 -0.121540
-0.133219 -0.196356 -0.121425
-0.134160 -0.196991 -0.137501
-0.142342 -0.191022 -0.137510
-0.133706 -0.196657 -0.154039
-0.141907 -0.190462 -0.154046
-0.140640 -0.189533 -0.170926
-0.132444 -0.195765 -0.170907
-0.131533 -0.195215 -0.182647
-0.137917 -0.189912 -0.187805
-0.143952 -0.175464 0.925221
-0.135762 -0.182639 0.925225
-0.132422 -0.179767 0.935953
-0.139199 -0.170265 0.942635
-0.146889 -0.178204 0.915650
-0.146671 -0.177962 -0.241021
-0.137245 -0.182656 -0.253596
-0.140440 -0.182750 -0.236295
-0.145427 -0.177043 -0.253442
-0.143477 -0.175457 -0.269751
-0.135298 -0.181457 -0.269878
-0.141253 -0.173696 -0.286221
-0.133074 -0.179960 -0.286244
-0.139493 -0.170264 -0.302657
-0.131710 -0.178957 -0.295515
-0.137928 -0.153198 0.969504
-0.134427 -0.165153 0.959589
-0.131552 -0.162662 0.967472
-0.142626 -0.157998 0.959722
-0.146009 -0.160865 0.949364
-0.147280 -0.161956 -0.309786
-0.136646 -0.166046 -0.318333
-0.144832 -0.160104 -0.318344
-0.140131 -0.154642 -0.336140
-0.133320 -0.163801 -0.329306
-0.139278 -0.137939 0.974234
-0.143325 -0.141772 -0.353034
-0.135157 -0.148987 -0.352864
-0.146927 -0.145292 -0.343049
-0.131694 -0.146297 -0.362518
-0.137258 -0.135737 -0.368304
-0.139189 -0.121653 0.976668
-0.143326 -0.121562 -0.374578
-0.131953 -0.130426 -0.379790
-0.135134 -0.121549 -0.383203
-0.139123 -0.105295 0.978103
-0.146644 -0.112350 -0.378101
-0.140476 -0.107014 -0.388467
-0.139157 -0.088958 0.979931
-0.145272 -0.094533 -0.393038
-0.134321 -0.101669 -0.397873
-0.138489 -0.088017 -0.402621
-0.139171 -0.072629 0.981239
-0.134530 -0.072864 -0.413554
-0.131748 -0.081513 -0.411717
-0.142698 -0.072984 -0.406902
-0.139128 -0.056313 0.980973
-0.139099 -0.055669 -0.417596
-0.146070 -0.061637 -0.408879
-0.139114 -0.039944 0.981152
-0.141107 -0.040581 -0.420011
-0.132117 -0.049690 -0.426866
-0.132946 -0.040555 -0.427646
-0.137815 -0.024514 0.982655
-0.133976 -0.024474 -0.428887
-0.142131 -0.024344 -0.420690
-0.142419 -0.010257 0.983562
-0.142409 -0.019709 0.983593
-0.134527 -0.008618 -0.429358
-0.142683 -0.008407 -0.420559
-0.137830 -0.005889 0.982710
-0.149890 0.000429 0.983106
-0.139150 0.008612 0.980939
-0.134965 0.007130 -0.429147
-0.143115 0.007305 -0.420529
-0.139174 0.024646 0.980734
-0.142792 0.023342 -0.419989
-0.134656 0.023170 -0.428523
-0.138913 0.040532 0.982379
-0.133087 0.039467 -0.426879
-0.141224 0.039667 -0.418530
-0.143186 0.056957 0.983456
-0.144167 0.045797 0.983509
-0.132068 0.049406 -0.425622
-0.139253 0.055180 -0.416701
-0.145019 0.069528 0.983091
-0.146450 0.060917 -0.407659
-0.136202 0.072421 -0.413832
-0.144340 0.072519 -0.405981
-0.139430 0.074142 0.982270
-0.139251 0.089227 0.981406
-0.141303 0.088830 -0.403746
-0.133160 0.088766 -0.411076
-0.139293 0.105491 0.980816
-0.138447 0.103348 -0.400734
-0.131497 0.096985 -0.409847
-0.139299 0.121723 0.980606
-0.145396 0.109687 -0.390636
-0.134545 0.117104 -0.396828
-0.139972 0.121501 -0.386911
-0.139314 0.137956 0.978671
-0.145416 0.125890 -0.375057
-0.134568 0.133202 -0.382814
-0.139542 0.137861 -0.370013
-0.139028 0.154078 0.972054
-0.144542 0.142393 -0.356959
-0.133687 0.148307 -0.364732
-0.138237 0.152986 -0.350715
-0.144917 0.159989 0.959648
-0.133372 0.164230 0.968922
-0.136738 0.167254 0.959622
-0.147390 0.162219 0.951521
-0.140468 0.171362 0.944906
-0.143480 0.158226 -0.335249
-0.147049 0.161586 -0.324533
-0.139530 0.170193 -0.318267
-0.135331 0.165721 -0.335157
-0.131939 0.162797 -0.344553
-0.144438 0.175634 0.929384
-0.138095 0.185326 0.923491
-0.133551 0.180498 0.938279
-0.144538 0.175606 -0.286148
-0.146460 0.177471 -0.273926
-0.140440 0.183537 -0.268998
-0.136349 0.182637 -0.286201
-0.141838 0.172998 -0.302448
-0.133663 0.180388 -0.302433
-0.131999 0.178982 -0.312005
-0.141275 0.188885 0.909799
-0.131776 0.195360 0.917635
-0.133118 0.196333 0.909592
-0.143374 0.190799 0.895290
-0.135186 0.197759 0.895143
-0.144448 0.191590 0.879651
-0.136260 0.198568 0.879643
-0.144625 0.191596 0.863256
-0.136448 0.198871 0.863253
-0.144863 0.191907 0.846679
-0.136682 0.199090 0.846654
-0.145253 0.192465 0.829926
-0.137058 0.199298 0.829817
-0.145864 0.193089 0.813530
-0.137676 0.199699 0.813456
-0.146269 0.193440 0.797226
-0.138088 0.200039 0.797264
-0.146041 0.193251 0.779997
-0.137840 0.199953 0.780076
-0.145883 0.193126 0.763071
-0.137673 0.199783 0.763197
-0.146409 0.193597 0.747373
-0.138225 0.199914 0.747513
-0.146561 0.193756 0.731400
-0.138390 0.199966 0.731520
-0.146009 0.193269 0.714571
-0.137816 0.199799 0.714655
-0.145907 0.193148 0.698263
-0.137717 0.199779 0.698307
-0.146343 0.193488 0.682485
-0.138179 0.199904 0.682511
-0.146229 0.193388 0.666080
-0.138069 0.199824 0.666111
-0.145513 0.192807 0.648780
-0.137340 0.199492 0.648893
-0.145589 0.192920 0.631869
-0.137414 0.199443 0.632067
-0.146156 0.193408 0.615496
-0.137984 0.199659 0.615717
-0.145634 0.192906 0.597914
-0.137469 0.199379 0.598039
-0.144582 0.192016 0.580323
-0.136410 0.198809 0.580297
-0.144423 0.191883 0.564577
-0.136303 0.198705 0.564363
-0.145156 0.192490 0.550357
-0.137031 0.199166 0.550215
-0.145745 0.193007 0.534959
-0.137595 0.199691 0.535018
-0.145926 0.193249 0.518379
-0.137779 0.199761 0.518489
-0.145728 0.193196 0.502004
-0.137571 0.199399 0.502077
-0.144893 0.192649 0.485534
-0.136720 0.198720 0.485557
-0.143697 0.191784 0.468136
-0.135518 0.197926 0.468170
-0.143528 0.191722 0.450903
-0.135371 0.197831 0.450949
-0.145157 0.192982 0.434769
-0.137065 0.198979 0.434794
-0.146394 0.193924 0.418747
-0.138281 0.199998 0.418752
-0.146296 0.193869 0.401845
-0.138156 0.200113 0.401888
-0.146420 0.193899 0.384407
-0.138264 0.200127 0.384453
-0.147350 0.194533 0.367241
-0.139198 0.200601 0.367240
-0.147627 0.194668 0.350736
-0.139487 0.200722 0.350628
-0.146981 0.193995 0.336210
-0.138825 0.200306 0.336101
-0.145912 0.193001 0.321715
-0.137724 0.199667 0.321705
-0.144501 0.191881 0.305535
-0.136329 0.198798 0.305516
-0.143867 0.191445 0.288925
-0.135716 0.198327 0.288927
-0.143870 0.191667 0.271110
-0.135723 0.198175 0.271175
-0.144064 0.192098 0.254353
-0.135947 0.198135 0.254341
-0.144615 0.192679 0.239192
-0.136462 0.198354 0.239093
-0.144906 0.192912 0.222873
-0.136745 0.198508 0.222924
-0.145035 0.192976 0.206181
-0.136894 0.198571 0.206405
-0.145157 0.193183 0.189950
-0.137023 0.198569 0.190076
-0.145421 0.193434 0.173761
-0.137267 0.198671 0.173746
-0.145618 0.193464 0.157031
-0.137470 0.198809 0.157224
-0.145242 0.193078 0.140638
-0.137100 0.198638 0.140946
-0.144536 0.192498 0.124756
-0.136365 0.198301 0.124859
-0.144121 0.192137 0.108407
-0.135931 0.198176 0.108419
-0.144183 0.192054 0.090296
-0.135991 0.198278 0.090388
-0.144323 0.192113 0.073060
-0.136145 0.198358 0.073240
-0.144492 0.192392 0.058355
-0.136332 0.198386 0.058429
-0.144658 0.192589 0.042599
-0.136496 0.198470 0.042601
-0.144779 0.192588 0.024466
-0.136617 0.198555 0.024587
-0.144565 0.192389 0.007594
-0.136422 0.198301 0.007749
-0.143867 0.192098 -0.007161
-0.135716 0.197737 -0.007130
-0.143470 0.191819 -0.023117
-0.135299 0.197510 -0.023097
-0.143431 0.191489 -0.040791
-0.135267 0.197636 -0.040489
-0.143574 0.191549 -0.058777
-0.135428 0.197842 -0.058499
-0.143600 0.191793 -0.075870
-0.135428 0.197996 -0.075839
-0.144026 0.192226 -0.092681
-0.135877 0.198360 -0.092685
-0.144591 0.192579 -0.107421
-0.136416 0.198576 -0.107503
-0.145189 0.192826 -0.121754
-0.136995 0.198784 -0.121782
-0.145577 0.192960 -0.137510
-0.137383 0.198934 -0.137502
-0.144893 0.192458 -0.154015
-0.136705 0.198410 -0.154003
-0.143594 0.191681 -0.170797
-0.135411 0.197508 -0.170790
-0.142264 0.190746 -0.187292
-0.134071 0.196668 -0.187326
-0.141250 0.189760 -0.203585
-0.133045 0.196038 -0.203661
-0.140532 0.189146 -0.220587
-0.132326 0.195584 -0.220557
-0.138225 0.189711 -0.238183
-0.131834 0.195256 -0.233077
-0.139602 0.186844 -0.253605
-0.124829 -0.206330 0.863301
-0.116682 -0.212589 0.863306
-0.115495 -0.211813 0.874094
-0.121743 -0.206119 0.879531
-0.117320 -0.212925 0.846813
-0.125498 -0.206630 0.846792
-0.125328 -0.206588 0.830019
-0.117129 -0.212724 0.830050
-0.125823 -0.206813 0.813589
-0.117630 -0.213057 0.813654
-0.118336 -0.213521 0.797512
-0.126508 -0.207143 0.797382
-0.126779 -0.207375 0.780307
-0.118596 -0.213754 0.780539
-0.126643 -0.207323 0.763602
-0.118458 -0.213677 0.763901
-0.118248 -0.213533 0.748081
-0.126415 -0.206961 0.747878
-0.118204 -0.213509 0.731904
-0.126361 -0.206880 0.731789
-0.126512 -0.207303 0.714907
-0.118334 -0.213592 0.714995
-0.126341 -0.207412 0.698444
-0.118163 -0.213395 0.698524
-0.117683 -0.212973 0.682634
-0.125834 -0.207025 0.682552
-0.117207 -0.212643 0.666241
-0.125348 -0.206893 0.666166
-0.124916 -0.207065 0.649067
-0.116755 -0.212389 0.649030
-0.124602 -0.207015 0.632430
-0.116436 -0.212243 0.632424
-0.115982 -0.212005 0.616497
-0.124129 -0.206728 0.616232
-0.115279 -0.211756 0.598491
-0.123437 -0.206417 0.598298
-0.114677 -0.211672 0.580470
-0.122864 -0.206171 0.580443
-0.123345 -0.205748 0.564273
-0.115153 -0.211875 0.564170
-0.116191 -0.212286 0.550105
-0.124329 -0.205656 0.550189
-0.124618 -0.206051 0.535089
-0.116492 -0.212373 0.535153
-0.116251 -0.212147 0.518633
-0.124380 -0.206323 0.518502
-0.116389 -0.212302 0.502165
-0.124531 -0.206245 0.502053
-0.124602 -0.205908 0.485499
-0.116459 -0.212444 0.485572
-0.115752 -0.212008 0.468165
-0.123867 -0.205222 0.467986
-0.115064 -0.211536 0.450825
-0.123147 -0.204913 0.450576
-0.114900 -0.211417 0.441737
-0.121362 -0.206346 0.435554
-0.125301 -0.207097 0.367799
-0.117138 -0.212809 0.368155
-0.115760 -0.211933 0.379623
-0.121882 -0.206863 0.384388
-0.125496 -0.206851 0.351667
-0.117340 -0.213005 0.351992
-0.115868 -0.212095 0.335094
-0.124068 -0.205358 0.335254
-0.115005 -0.211537 0.325511
-0.121507 -0.205503 0.320847
-0.126511 -0.190855 0.925160
-0.118374 -0.197529 0.925182
-0.115650 -0.195642 0.934989
-0.122276 -0.186033 0.941498
-0.129563 -0.193765 0.912042
-0.123637 -0.198927 0.907644
-0.130626 -0.194652 0.285597
-0.122139 -0.200268 0.270905
-0.124333 -0.199726 0.290308
-0.130206 -0.194309 0.270762
-0.130402 -0.194536 0.253553
-0.122333 -0.199745 0.253655
-0.124462 -0.198594 0.239163
-0.130880 -0.194945 0.244880
-0.131122 -0.195030 0.133457
-0.122188 -0.198667 0.124823
-0.124675 -0.198295 0.139758
-0.130306 -0.194636 0.124815
-0.121215 -0.198465 0.108348
-0.129343 -0.194150 0.108394
-0.129065 -0.194055 0.090462
-0.120967 -0.198327 0.091199
-0.129391 -0.194228 0.073062
-0.121318 -0.198437 0.074241
-0.122034 -0.198798 0.058450
-0.130103 -0.194546 0.058115
-0.124350 -0.198422 0.042347
-0.130618 -0.194848 0.048088
-0.129799 -0.193930 -0.203908
-0.121651 -0.198987 -0.203890
-0.124362 -0.198876 -0.187781
-0.130730 -0.194666 -0.193397
-0.128624 -0.192903 -0.220702
-0.120458 -0.198425 -0.220627
-0.119158 -0.197624 -0.237384
-0.127328 -0.191917 -0.237462
-0.125429 -0.190855 -0.253897
-0.117286 -0.196408 -0.253986
-0.121907 -0.190402 -0.270568
-0.115778 -0.195509 -0.265607
-0.128929 -0.176626 0.948055
-0.123252 -0.173594 0.960148
-0.118060 -0.181394 0.955493
-0.128313 -0.176657 -0.306122
-0.117432 -0.180146 -0.314360
-0.122938 -0.181955 -0.301425
-0.122960 -0.174654 -0.319213
-0.122876 -0.165688 0.968521
-0.122910 -0.154196 0.972819
-0.123130 -0.156980 -0.352291
-0.117710 -0.163871 -0.346230
-0.123106 -0.166986 -0.334992
-0.128562 -0.160479 -0.340769
-0.122918 -0.137973 0.976624
-0.122837 -0.121665 0.977264
-0.122774 -0.105298 0.977228
-0.130315 -0.112488 -0.394796
-0.119451 -0.118399 -0.397954
-0.124177 -0.122926 -0.392025
-0.123255 -0.105430 -0.403297
-0.122792 -0.088936 0.979198
-0.122248 -0.087631 -0.415575
-0.116217 -0.098384 -0.412659
-0.127141 -0.092269 -0.408444
-0.122803 -0.072566 0.980555
-0.122779 -0.056193 0.979191
-0.128903 -0.060372 -0.424510
-0.117943 -0.069758 -0.429991
-0.123277 -0.074247 -0.423003
-0.123324 -0.055496 -0.431701
-0.122768 -0.039827 0.978678
-0.122770 -0.023502 0.980219
-0.118925 -0.024517 -0.446327
-0.117274 -0.036480 -0.444715
-0.122914 -0.041301 -0.437232
-0.127143 -0.024588 -0.437512
-0.122787 -0.007394 0.980594
-0.127836 -0.008830 -0.437947
-0.119606 -0.008861 -0.447217
-0.122819 0.008479 0.979501
-0.119936 0.006937 -0.447040
-0.128152 0.006972 -0.437454
-0.122854 0.024419 0.979760
-0.119765 0.022997 -0.446564
-0.127965 0.023046 -0.436768
-0.122889 0.040517 0.981116
-0.127148 0.039336 -0.435231
-0.118971 0.039251 -0.446064
-0.134998 0.056882 0.982508
-0.122910 0.056705 0.980754
-0.126401 0.055178 -0.432120
-0.117616 0.055645 -0.444355
-0.122921 0.072957 0.979237
-0.130668 0.060384 -0.424014
-0.128720 0.072310 -0.422003
-0.120112 0.071543 -0.433594
-0.116236 0.065536 -0.442644
-0.122946 0.089223 0.978625
-0.123255 0.089695 -0.420327
-0.117793 0.084855 -0.428475
-0.122976 0.105486 0.978768
-0.122978 0.121722 0.979325
-0.127261 0.107861 -0.407122
-0.122423 0.103424 -0.413755
-0.116412 0.114396 -0.411843
-0.123201 0.121194 -0.402505
-0.122978 0.137950 0.979784
-0.129982 0.127945 -0.393814
-0.119193 0.132706 -0.397502
-0.124224 0.138426 -0.387647
-0.123026 0.154221 0.977342
-0.129263 0.144132 -0.376171
-0.118488 0.148518 -0.381182
-0.122950 0.153858 -0.369241
-0.122150 0.170027 0.970572
-0.127452 0.159109 -0.356002
-0.122566 0.166221 -0.350765
-0.116630 0.163532 -0.362143
-0.127407 0.175408 0.959449
-0.119256 0.181873 0.959136
-0.116118 0.179452 0.967576
-0.130454 0.177917 0.950467
-0.123451 0.186786 0.943153
-0.124044 0.174451 -0.336171
-0.129953 0.177267 -0.322788
-0.124068 0.183029 -0.317868
-0.119075 0.181236 -0.331337
-0.127311 0.191383 0.928684
-0.122355 0.197897 0.923950
-0.116464 0.196035 0.936106
-0.131145 0.194795 -0.244083
-0.130119 0.194146 -0.253721
-0.121957 0.199155 -0.253767
-0.124730 0.199509 -0.237984
-0.128025 0.192717 -0.269910
-0.119876 0.197742 -0.270025
-0.125692 0.190828 -0.286157
-0.117534 0.196436 -0.286087
-0.122215 0.189221 -0.302062
-0.115997 0.195537 -0.296378
-0.123139 0.202875 0.909423
-0.122329 0.206911 0.895920
-0.125610 0.206770 0.879643
-0.117423 0.212819 0.879654
-0.116293 0.212136 0.891821
-0.126422 0.207061 0.863256
-0.118263 0.213407 0.863272
-0.126604 0.207283 0.846684
-0.118430 0.213525 0.846709
-0.126544 0.207495 0.829817
-0.118340 0.213439 0.829869
-0.127164 0.207890 0.813476
-0.118987 0.213894 0.813534
-0.127809 0.208225 0.797376
-0.119664 0.214428 0.797467
-0.127702 0.208148 0.780299
-0.119527 0.214486 0.780552
-0.127508 0.207986 0.763520
-0.119318 0.214406 0.763891
-0.127799 0.208109 0.747768
-0.119651 0.214547 0.747992
-0.127884 0.208157 0.731700
-0.119749 0.214537 0.731816
-0.127516 0.207999 0.714828
-0.119340 0.214253 0.714970
-0.127382 0.207986 0.698432
-0.119199 0.214114 0.698544
-0.127786 0.208098 0.682575
-0.119643 0.214400 0.682621
-0.127719 0.208010 0.666187
-0.119583 0.214355 0.666221
-0.127009 0.207693 0.649024
-0.118850 0.213809 0.649103
-0.126819 0.207661 0.632270
-0.118661 0.213676 0.632408
-0.126964 0.207878 0.615996
-0.118813 0.213726 0.616232
-0.126431 0.207605 0.598177
-0.118272 0.213407 0.598326
-0.125565 0.207049 0.580310
-0.117398 0.213031 0.580348
-0.125766 0.206907 0.564252
-0.117635 0.213192 0.564183
-0.126836 0.207396 0.550112
-0.118720 0.213807 0.550071
-0.127452 0.207895 0.535061
-0.119308 0.214160 0.535084
-0.127226 0.207967 0.518562
-0.119085 0.213940 0.518603
-0.126713 0.207600 0.502137
-0.118577 0.213707 0.502157
-0.125997 0.206915 0.485595
-0.117872 0.213376 0.485602
-0.125015 0.206116 0.468292
-0.116904 0.212727 0.468412
-0.124861 0.206052 0.451109
-0.116783 0.212603 0.451324
-0.125909 0.207198 0.434948
-0.117885 0.213214 0.435006
-0.126909 0.208200 0.418810
-0.118864 0.213843 0.418773
-0.127205 0.208316 0.401851
-0.119119 0.214140 0.401805
-0.127403 0.208369 0.384413
-0.119295 0.214240 0.384391
-0.128140 0.208876 0.367247
-0.120029 0.214677 0.367233
-0.128378 0.208949 0.350610
-0.120281 0.214885 0.350528
-0.128008 0.208502 0.336032
-0.119871 0.214631 0.335989
-0.127176 0.207893 0.321668
-0.118994 0.213984 0.321685
-0.125732 0.207016 0.305521
-0.117603 0.212937 0.305530
-0.125409 0.206511 0.288963
-0.117311 0.212786 0.288982
-0.125758 0.206385 0.271344
-0.117682 0.213147 0.271561
-0.125276 0.206398 0.254396
-0.117215 0.212778 0.254555
-0.124585 0.206599 0.238899
-0.116502 0.212218 0.238769
-0.124858 0.206710 0.222932
-0.116773 0.212361 0.222944
-0.125611 0.206771 0.206632
-0.117535 0.212848 0.206823
-0.125107 0.206803 0.190148
-0.117021 0.212546 0.190208
-0.124559 0.206906 0.173661
-0.116462 0.212187 0.173587
-0.125255 0.207011 0.157372
-0.117152 0.212599 0.157431
-0.125614 0.206840 0.141171
-0.117496 0.212820 0.141291
-0.124770 0.206517 0.124874
-0.116634 0.212299 0.124862
-0.124344 0.206373 0.108408
-0.116210 0.212032 0.108375
-0.124877 0.206464 0.091036
-0.116772 0.212398 0.091752
-0.125190 0.206562 0.074163
-0.117107 0.212613 0.075225
-0.124964 0.206605 0.058683
-0.116898 0.212410 0.058963
-0.124991 0.206665 0.042604
-0.116939 0.212390 0.042579
-0.125411 0.206749 0.025214
-0.117371 0.212666 0.025950
-0.125241 0.206533 0.008542
-0.117208 0.212579 0.009472
-0.124361 0.205966 -0.006999
-0.116316 0.212068 -0.006841
-0.124111 0.205704 -0.023070
-0.116063 0.211900 -0.023059
-0.124481 0.205825 -0.039874
-0.116454 0.212111 -0.039322
-0.124284 0.206051 -0.058017
-0.116242 0.212021 -0.057544
-0.123747 0.206238 -0.075836
-0.115673 0.211840 -0.075793
-0.124057 0.206522 -0.092715
-0.115935 0.212036 -0.092727
-0.124706 0.206782 -0.107364
-0.116600 0.212222 -0.107315
-0.125372 0.206993 -0.121682
-0.117234 0.212467 -0.121597
-0.125544 0.207136 -0.137508
-0.117390 0.212562 -0.137484
-0.124771 0.206607 -0.153984
-0.116584 0.212128 -0.153961
-0.122072 0.206731 -0.171452
-0.115744 0.211654 -0.166295
-0.123345 0.204143 -0.187271
-0.123300 0.202651 -0.203674
-0.123274 0.201692 -0.220447
-0.105642 -0.205757 0.924601
-0.101518 -0.212979 0.908876
-0.099616 -0.212066 0.918725
-0.109694 -0.208125 0.908863
-0.112157 -0.209716 0.894274
-0.104006 -0.214156 0.894257
-0.113903 -0.210811 0.884817
-0.107714 -0.214818 0.879511
-0.113864 -0.210773 0.417984
-0.105687 -0.214397 0.418147
-0.108053 -0.214033 0.435782
-0.114448 -0.211125 0.431236
-0.113600 -0.210647 0.400644
-0.105417 -0.214143 0.400716
-0.107804 -0.214546 0.384578
-0.114075 -0.210956 0.390332
-0.112607 -0.210111 0.305472
-0.104434 -0.214197 0.305487
-0.107894 -0.214595 0.320528
-0.114201 -0.210986 0.316595
-0.102667 -0.213430 0.288951
-0.110863 -0.209105 0.288909
-0.101761 -0.213164 0.271173
-0.109943 -0.208544 0.271049
-0.100821 -0.212765 0.254188
-0.108989 -0.208056 0.253893
-0.107825 -0.207655 0.238447
-0.099640 -0.212199 0.238803
-0.098958 -0.211911 0.222603
-0.107163 -0.207744 0.222604
-0.098990 -0.211922 0.205872
-0.107209 -0.207949 0.206263
-0.107335 -0.207685 0.189800
-0.099108 -0.211923 0.189426
-0.107408 -0.207357 0.173437
-0.099181 -0.211901 0.173217
-0.098912 -0.211752 0.157010
-0.107147 -0.207250 0.157235
-0.098714 -0.211652 0.140866
-0.106955 -0.207159 0.141051
-0.105121 -0.207785 0.124045
-0.098641 -0.211626 0.128919
-0.106824 -0.207051 0.058621
-0.098582 -0.211730 0.058566
-0.098495 -0.211738 0.067284
-0.105072 -0.207420 0.073710
-0.099288 -0.212031 0.042220
-0.107518 -0.207386 0.042245
-0.100210 -0.212498 0.025619
-0.108445 -0.207795 0.025769
-0.108975 -0.208125 0.009509
-0.100740 -0.212705 0.009467
-0.109223 -0.208174 -0.006700
-0.101010 -0.212714 -0.006483
-0.108658 -0.208037 -0.022954
-0.100448 -0.212433 -0.022801
-0.099915 -0.212273 -0.039578
-0.108153 -0.207967 -0.039442
-0.109041 -0.208410 -0.057671
-0.100805 -0.212765 -0.057825
-0.102149 -0.213377 -0.075818
-0.110365 -0.209299 -0.075836
-0.110921 -0.209653 -0.092635
-0.102654 -0.213436 -0.092583
-0.102799 -0.213262 -0.107065
-0.111006 -0.209592 -0.107083
-0.112267 -0.210158 -0.121389
-0.104074 -0.213781 -0.121363
-0.105371 -0.214430 -0.137501
-0.113571 -0.210741 -0.137504
-0.104277 -0.214070 -0.154009
-0.112476 -0.209994 -0.154006
-0.110560 -0.208734 -0.170836
-0.102366 -0.213291 -0.170905
-0.109033 -0.207877 -0.187633
-0.100825 -0.212517 -0.187846
-0.107532 -0.207198 -0.204190
-0.099320 -0.211770 -0.204475
-0.098486 -0.211416 -0.213670
-0.104979 -0.207254 -0.219738
-0.111402 -0.192306 0.947066
-0.106178 -0.198194 0.941653
-0.106388 -0.186105 0.959418
-0.100506 -0.196104 0.953272
-0.114062 -0.194455 -0.276286
-0.103873 -0.197550 -0.286452
-0.107796 -0.198470 -0.270567
-0.112073 -0.193246 -0.286375
-0.100981 -0.196209 -0.298899
-0.106549 -0.191234 -0.303506
-0.112308 -0.177277 0.965585
-0.101394 -0.179946 0.967308
-0.106706 -0.171344 0.969507
-0.107590 -0.175368 -0.335950
-0.102677 -0.180914 -0.331069
-0.107557 -0.183861 -0.319460
-0.113623 -0.177848 -0.325226
-0.106532 -0.154242 0.974815
-0.107909 -0.154386 -0.369909
-0.101176 -0.163700 -0.362388
-0.106670 -0.166889 -0.351932
-0.112105 -0.160272 -0.357574
-0.106540 -0.137966 0.977277
-0.109192 -0.139439 -0.388230
-0.103752 -0.148452 -0.381386
-0.114646 -0.145629 -0.377667
-0.106465 -0.121630 0.976046
-0.107139 -0.121873 -0.403239
-0.103742 -0.133213 -0.397622
-0.114643 -0.129260 -0.395093
-0.106403 -0.105258 0.974977
-0.105714 -0.104248 -0.415733
-0.099648 -0.114484 -0.412234
-0.110580 -0.109226 -0.408670
-0.106404 -0.088874 0.977432
-0.106405 -0.072476 0.978912
-0.114810 -0.080564 -0.427703
-0.103885 -0.085442 -0.432631
-0.108255 -0.090070 -0.424989
-0.107898 -0.074584 -0.436798
-0.106396 -0.056068 0.977000
-0.104212 -0.056034 -0.449078
-0.100996 -0.068591 -0.446177
-0.112431 -0.056178 -0.440916
-0.106387 -0.039718 0.976489
-0.107913 -0.041777 -0.452273
-0.114575 -0.046996 -0.442545
-0.106374 -0.023490 0.978836
-0.111588 -0.024436 -0.455071
-0.101257 -0.036560 -0.463364
-0.103347 -0.024333 -0.466556
-0.106395 -0.007472 0.979817
-0.104396 -0.008787 -0.467502
-0.112658 -0.008870 -0.455975
-0.106451 0.008345 0.978980
-0.112853 0.006939 -0.455671
-0.104589 0.007024 -0.466165
-0.106497 0.024227 0.979149
-0.112409 0.022986 -0.455180
-0.104156 0.023026 -0.464991
-0.106535 0.040275 0.980062
-0.111695 0.039216 -0.454755
-0.103450 0.039223 -0.463660
-0.106563 0.056497 0.978718
-0.109570 0.055609 -0.453136
-0.101335 0.055596 -0.461477
-0.106583 0.072847 0.976003
-0.105998 0.070609 -0.449557
-0.099361 0.064703 -0.459902
-0.106607 0.089165 0.975256
-0.112629 0.076518 -0.439347
-0.101674 0.083497 -0.445069
-0.108055 0.089641 -0.434916
-0.106630 0.105435 0.975995
-0.114405 0.095745 -0.425732
-0.103513 0.101022 -0.430507
-0.108150 0.105877 -0.423499
-0.106628 0.121683 0.976986
-0.106622 0.137934 0.978195
-0.105487 0.120405 -0.414638
-0.109980 0.125286 -0.408106
-0.105720 0.136639 -0.402397
-0.099077 0.129659 -0.411543
-0.106654 0.154244 0.978097
-0.112365 0.143611 -0.392534
-0.101477 0.147656 -0.396418
-0.106395 0.153563 -0.385694
-0.106709 0.170569 0.974351
-0.111312 0.159443 -0.373817
-0.106314 0.166429 -0.368305
-0.100419 0.163102 -0.378825
-0.106751 0.182346 0.968944
-0.114300 0.178036 -0.342464
-0.108103 0.175361 -0.352920
-0.103372 0.181454 -0.348110
-0.106929 0.186789 -0.335104
-0.106991 0.190211 0.959423
-0.112621 0.193068 0.947766
-0.107007 0.199443 0.941965
-0.101693 0.196702 0.954540
-0.113509 0.193921 -0.307282
-0.110381 0.192041 -0.318618
-0.102173 0.196718 -0.318717
-0.107608 0.198876 -0.302093
-0.099548 0.195314 -0.327725
-0.106672 0.207073 0.925917
-0.112560 0.209743 0.909272
-0.104375 0.214112 0.909234
-0.101153 0.212660 0.920944
-0.114667 0.211149 0.901141
-0.108291 0.215210 0.895794
-0.113813 0.210641 -0.187278
-0.114858 0.211179 -0.177501
-0.108452 0.214641 -0.171446
-0.105574 0.214283 -0.187502
-0.112172 0.209790 -0.203806
-0.103936 0.213421 -0.204083
-0.111184 0.209298 -0.220426
-0.102956 0.213126 -0.220600
-0.110084 0.208656 -0.237062
-0.101867 0.212727 -0.237054
-0.108120 0.207364 -0.253596
-0.099919 0.211903 -0.253423
-0.105331 0.206564 -0.268483
-0.098804 0.211423 -0.261966
-0.106951 0.202911 -0.286108
-0.107049 0.218078 0.879662
-0.107154 0.219209 0.863276
-0.107075 0.219765 0.846772
-0.106927 0.220139 0.830047
-0.106979 0.221317 0.813690
-0.105487 0.223541 0.797074
-0.107083 0.222683 0.780840
-0.098951 0.227816 0.791316
-0.098871 0.227834 0.780967
-0.107048 0.222611 0.764296
-0.098849 0.227856 0.764500
-0.107295 0.222751 0.748203
-0.099089 0.227885 0.748277
-0.107296 0.222736 0.731919
-0.099081 0.227849 0.731921
-0.105344 0.223447 0.715693
-0.098882 0.227799 0.721747
-0.106922 0.222203 0.698719
-0.105510 0.223617 0.682993
-0.105551 0.223397 0.667449
-0.099036 0.227791 0.677819
-0.099071 0.227790 0.673763
-0.106978 0.221142 0.649281
-0.106916 0.220712 0.632620
-0.106930 0.220769 0.616334
-0.106843 0.219943 0.598347
-0.106662 0.218857 0.580383
-0.106716 0.219075 0.564187
-0.106927 0.220575 0.550077
-0.107018 0.221391 0.535096
-0.107003 0.220892 0.518619
-0.106957 0.220258 0.502175
-0.106905 0.219339 0.485629
-0.106883 0.217837 0.468466
-0.106887 0.217592 0.451408
-0.106950 0.219103 0.435200
-0.106932 0.220450 0.418996
-0.106865 0.220800 0.401883
-0.106836 0.221073 0.384364
-0.105329 0.223490 0.366096
-0.105383 0.223848 0.351177
-0.098911 0.227898 0.359917
-0.098920 0.227892 0.357129
-0.106986 0.222153 0.336061
-0.106999 0.220761 0.321700
-0.107004 0.218507 0.305523
-0.107036 0.218139 0.289006
-0.107062 0.218959 0.271663
-0.106985 0.218216 0.254769
-0.106918 0.216954 0.238975
-0.106967 0.216986 0.222954
-0.107041 0.217684 0.206650
-0.106961 0.217393 0.189932
-0.106867 0.216965 0.173283
-0.106958 0.217395 0.157243
-0.107030 0.217487 0.141230
-0.106945 0.216513 0.124870
-0.106914 0.216145 0.108424
-0.107020 0.216848 0.091868
-0.107069 0.217287 0.075331
-0.106990 0.217038 0.058960
-0.106976 0.217124 0.042539
-0.107068 0.217705 0.025990
-0.107076 0.217492 0.009624
-0.107004 0.216484 -0.006629
-0.107027 0.215993 -0.022914
-0.107122 0.216210 -0.039364
-0.107060 0.216202 -0.057627
-0.106853 0.216068 -0.075848
-0.106806 0.216561 -0.092729
-0.106929 0.216914 -0.107172
-0.107044 0.217153 -0.121482
-0.107066 0.217207 -0.137480
-0.107048 0.216528 -0.153955
-0.092264 -0.224587 0.863296
-0.084011 -0.228658 0.863292
-0.082675 -0.228105 0.872909
-0.088987 -0.223749 0.878793
-0.093387 -0.224925 0.846824
-0.085137 -0.229151 0.846837
-0.093550 -0.224911 0.830179
-0.085320 -0.229240 0.830259
-0.086087 -0.229413 0.813827
-0.094340 -0.225427 0.813771
-0.095351 -0.226068 0.797544
-0.087090 -0.229663 0.797545
-0.095391 -0.226178 0.780899
-0.087166 -0.229784 0.781004
-0.086993 -0.229782 0.764563
-0.095204 -0.226118 0.764422
-0.087131 -0.229664 0.748325
-0.095369 -0.226208 0.748280
-0.095497 -0.226330 0.731949
-0.087248 -0.229563 0.731969
-0.095638 -0.226452 0.715198
-0.087407 -0.229724 0.715298
-0.086598 -0.229520 0.698814
-0.094832 -0.226063 0.698722
-0.084788 -0.228843 0.682653
-0.093072 -0.225047 0.682651
-0.092096 -0.224317 0.666257
-0.083812 -0.228544 0.666272
-0.092152 -0.224211 0.649387
-0.083920 -0.228674 0.649586
-0.083427 -0.228462 0.633124
-0.091646 -0.224057 0.632890
-0.082411 -0.228019 0.616754
-0.090666 -0.223625 0.616684
-0.090379 -0.223501 0.598531
-0.082131 -0.227989 0.598550
-0.082199 -0.228186 0.580506
-0.090401 -0.223739 0.580491
-0.090363 -0.223982 0.564121
-0.082140 -0.228078 0.564137
-0.090934 -0.224388 0.550025
-0.082713 -0.228107 0.550031
-0.091639 -0.224536 0.535150
-0.083409 -0.228341 0.535174
-0.083336 -0.228296 0.518700
-0.091573 -0.224314 0.518670
-0.083183 -0.228240 0.502268
-0.091438 -0.224243 0.502224
-0.082591 -0.228045 0.485747
-0.090863 -0.224071 0.485680
-0.088533 -0.223664 0.469788
-0.081963 -0.227834 0.476836
-0.090000 -0.225157 0.369313
-0.084955 -0.228771 0.352687
-0.084469 -0.228619 0.364919
-0.093125 -0.225529 0.352529
-0.089368 -0.225190 0.333652
-0.083434 -0.228254 0.338651
-0.095020 -0.209508 0.929745
-0.089713 -0.214145 0.924621
-0.084108 -0.212288 0.935411
-0.089834 -0.206221 0.941885
-0.098273 -0.211481 0.118176
-0.089998 -0.214469 0.108469
-0.091737 -0.213757 0.123884
-0.098282 -0.211514 0.108400
-0.089497 -0.214496 0.091052
-0.097851 -0.211299 0.091552
-0.097715 -0.211257 0.078180
-0.091304 -0.214006 0.072842
-0.095657 -0.209895 -0.237436
-0.087433 -0.213454 -0.237471
-0.091120 -0.213477 -0.220224
-0.097332 -0.210806 -0.224696
-0.093245 -0.208555 -0.253504
-0.085020 -0.212586 -0.253262
-0.083164 -0.211891 -0.264446
-0.089267 -0.207667 -0.270048
-0.090189 -0.198179 0.955871
-0.090148 -0.190574 0.963381
-0.097526 -0.194426 -0.309755
-0.085906 -0.196651 -0.319258
-0.091277 -0.198993 -0.304076
-0.094156 -0.192224 -0.319036
-0.089846 -0.186295 -0.335161
-0.082658 -0.195371 -0.327936
-0.090034 -0.170575 0.971972
-0.090074 -0.182476 0.968174
-0.097037 -0.177781 -0.342261
-0.086031 -0.180673 -0.347600
-0.091048 -0.174920 -0.352844
-0.090044 -0.154309 0.976005
-0.089441 -0.153445 -0.384873
-0.082611 -0.162495 -0.377496
-0.088966 -0.165759 -0.368525
-0.093570 -0.159374 -0.373632
-0.090042 -0.138010 0.977440
-0.096252 -0.144130 -0.392564
-0.085326 -0.147482 -0.395556
-0.089748 -0.137246 -0.401990
-0.089961 -0.121627 0.975090
-0.089294 -0.120452 -0.414628
-0.083240 -0.130328 -0.411312
-0.094163 -0.125387 -0.408315
-0.089898 -0.105219 0.973595
-0.089889 -0.088826 0.975985
-0.092271 -0.090117 -0.437606
-0.086891 -0.100792 -0.431489
-0.091514 -0.105761 -0.424207
-0.097859 -0.096318 -0.427529
-0.089882 -0.072424 0.977455
-0.091105 -0.073866 -0.453169
-0.086739 -0.083946 -0.448837
-0.097750 -0.079453 -0.443452
-0.089868 -0.056007 0.975414
-0.086963 -0.054882 -0.468756
-0.084573 -0.068374 -0.463248
-0.096030 -0.055917 -0.457659
-0.089854 -0.039684 0.976047
-0.094363 -0.040987 -0.468938
-0.098105 -0.047089 -0.459831
-0.085329 -0.039231 -0.484209
-0.082518 -0.048788 -0.478357
-0.090132 -0.023183 0.980639
-0.097153 -0.024243 -0.475064
-0.092069 -0.024056 -0.485053
-0.085553 -0.024924 -0.501511
-0.083026 -0.033457 -0.497205
-0.092298 -0.007530 0.981641
-0.083993 -0.007562 0.982901
-0.084793 -0.017605 0.982994
-0.097820 -0.008710 -0.476225
-0.093260 -0.008497 -0.485333
-0.088067 -0.007925 -0.501189
-0.086650 -0.007472 -0.516272
-0.084523 -0.022169 -0.515609
-0.084608 -0.021863 -0.531400
-0.086958 -0.007421 -0.531582
-0.087432 -0.007532 -0.547743
-0.084832 -0.022223 -0.547721
-0.087094 -0.007634 -0.564425
-0.084597 -0.022379 -0.564435
-0.084345 -0.022336 -0.581294
-0.086764 -0.007743 -0.581313
-0.084392 -0.022050 -0.597875
-0.086835 -0.007834 -0.598096
-0.087046 -0.007884 -0.615653
-0.084444 -0.022096 -0.615370
-0.084430 -0.022507 -0.633466
-0.087387 -0.007902 -0.633589
-0.087345 -0.007633 -0.649237
-0.084269 -0.022074 -0.649072
-0.086812 -0.007158 -0.663361
-0.083899 -0.020589 -0.663218
-0.086756 -0.007109 -0.678891
-0.083790 -0.019702 -0.678873
-0.083830 -0.019470 -0.695390
-0.086845 -0.007336 -0.695419
-0.083998 -0.019930 -0.712030
-0.087103 -0.007493 -0.712115
-0.087901 -0.007490 -0.728950
-0.084458 -0.021028 -0.728794
-0.088460 -0.007274 -0.745252
-0.084801 -0.021612 -0.745052
-0.084743 -0.021127 -0.761106
-0.088033 -0.006994 -0.761285
-0.084356 -0.020412 -0.777642
-0.087268 -0.007040 -0.777923
-0.084107 -0.020401 -0.794364
-0.086954 -0.007173 -0.794790
-0.086577 -0.006981 -0.811242
-0.084080 -0.021163 -0.810780
-0.086292 -0.006837 -0.827886
-0.084170 -0.021987 -0.827360
-0.084210 -0.022416 -0.845017
-0.086353 -0.007174 -0.845471
-0.084410 -0.022299 -0.862461
-0.086922 -0.007446 -0.862683
-0.087468 -0.007296 -0.878945
-0.084534 -0.021217 -0.878748
-0.087631 -0.007078 -0.894794
-0.084419 -0.020543 -0.894670
-0.087514 -0.007000 -0.910854
-0.084176 -0.020132 -0.910921
-0.083783 -0.019202 -0.927302
-0.086687 -0.007065 -0.927258
-0.084552 -0.007217 -0.943683
-0.083011 -0.017540 -0.943687
-0.082115 -0.015666 -0.960616
-0.082851 -0.007080 -0.960571
-0.081793 -0.014889 -0.969265
-0.082217 -0.005933 -0.976118
-0.088244 0.006698 0.980414
-0.081583 0.000341 0.982694
-0.097160 0.007108 -0.475350
-0.091186 0.007292 -0.485610
-0.085806 0.007786 -0.501879
-0.084971 0.008320 -0.517026
-0.085539 0.008679 -0.531903
-0.086180 0.008749 -0.547747
-0.085966 0.008479 -0.564269
-0.085864 0.008263 -0.581090
-0.086246 0.008301 -0.598344
-0.086581 0.008213 -0.616076
-0.086824 0.007891 -0.633634
-0.087074 0.008020 -0.649349
-0.087095 0.008598 -0.663473
-0.087676 0.008524 -0.678927
-0.088470 0.007954 -0.695568
-0.088998 0.007805 -0.712478
-0.089646 0.007998 -0.729513
-0.089772 0.008130 -0.746057
-0.089005 0.008235 -0.762218
-0.088400 0.008388 -0.778912
-0.088137 0.008578 -0.795839
-0.087032 0.008769 -0.812276
-0.085884 0.008835 -0.828908
-0.085734 0.008731 -0.846144
-0.086376 0.008565 -0.862923
-0.087346 0.008431 -0.878900
-0.087914 0.008525 -0.894384
-0.087781 0.008839 -0.910541
-0.086480 0.008931 -0.927035
-0.083520 0.009027 -0.944140
-0.082591 0.009084 -0.960091
-0.082896 0.009221 -0.977617
-0.082205 0.009457 -0.986400
-0.081908 0.000084 -0.986344
-0.089963 0.024174 0.978734
-0.096155 0.023063 -0.474231
-0.089123 0.023183 -0.485606
-0.083747 0.023545 -0.502129
-0.082888 0.024007 -0.517493
-0.083379 0.024322 -0.532223
-0.083900 0.024380 -0.547827
-0.083322 0.025538 -0.565146
-0.083265 0.025391 -0.580513
-0.084124 0.024040 -0.598182
-0.084610 0.023941 -0.615997
-0.084818 0.023613 -0.633658
-0.085154 0.023654 -0.649333
-0.085307 0.024112 -0.663404
-0.085823 0.023995 -0.678917
-0.086799 0.023448 -0.695563
-0.087593 0.023324 -0.712479
-0.088199 0.023479 -0.729574
-0.088226 0.023540 -0.746234
-0.087293 0.023561 -0.762487
-0.086583 0.023710 -0.779300
-0.086229 0.023920 -0.796357
-0.085139 0.024114 -0.812647
-0.084054 0.024181 -0.829107
-0.083340 0.025484 -0.846433
-0.083828 0.025350 -0.861695
-0.085398 0.023872 -0.878907
-0.085864 0.023978 -0.894265
-0.085520 0.024302 -0.910493
-0.083664 0.025243 -0.927689
-0.082585 0.020649 -0.939002
-0.082322 0.018651 -0.977511
-0.082086 0.017837 -0.965621
-0.082178 0.018372 -0.986261
-0.090020 0.040196 0.979164
-0.085641 0.038391 -0.485754
-0.094466 0.039219 -0.472634
-0.082415 0.032475 -0.502119
-0.082069 0.031939 -0.517616
-0.082269 0.032482 -0.532364
-0.082455 0.032796 -0.547935
