0.6434108018875122 -0.20502632856369019 -0.06976741552352905
0.6434108018875122 -0.20537911355495453 -0.05426359176635742
0.6434108018875122 -0.20418091118335724 -0.038759708404541016
0.6434108018875122 -0.19814443588256836 0.007751941680908203
0.6434108018875122 -0.20769500732421875 0.02325582504272461
0.6434108018875122 -0.1847567856311798 -0.05426359176635742
0.6434108018875122 -0.19057628512382507 -0.038759708404541016
0.6434108018875122 -0.19313549995422363 0.007751941680908203
0.6434108018875122 -0.18661421537399292 0.02325582504272461
0.6434108018875122 -0.18242552876472473 0.038759708404541016
0.6434108018875122 -0.17036095261573792 -0.06976741552352905
0.6434108018875122 0.04416222125291824 -0.08527129888534546
0.6434108018875122 0.09262573719024658 -0.08527129888534546
0.6434108018875122 0.1429135650396347 -0.06976741552352905
0.6434108018875122 0.17369571328163147 -0.05426359176635742
0.6434108018875122 0.17612013220787048 0.038759708404541016
0.6434108018875122 0.18427911400794983 -0.038759708404541016
0.6434108018875122 0.17954279482364655 0.02325582504272461
0.6434108018875122 0.19943292438983917 -0.10077518224716187
0.6434108018875122 0.20078033208847046 -0.08527129888534546
0.6434108018875122 0.20054951310157776 -0.06976741552352905
0.6434108018875122 0.20119376480579376 -0.05426359176635742
0.6434108018875122 0.19995620846748352 -0.038759708404541016
0.6434108018875122 0.20125225186347961 0.02325582504272461
0.6434108018875122 0.2018333375453949 0.038759708404541016
0.6589146852493286 -0.20932939648628235 0.038759708404541016
0.6589146852493286 -0.20030178129673004 -0.10077518224716187
0.6589146852493286 -0.20505037903785706 -0.08527129888534546
0.6589146852493286 -0.20500749349594116 -0.06976741552352905
0.6589146852493286 -0.20564152300357819 -0.05426359549164772
0.6589146852493286 -0.20550504326820374 -0.038759708404541016
0.6589146852493286 -0.20098215341567993 -0.02325582504272461
0.6589146852493286 -0.20255716145038605 0.007751941680908203
0.6589146852493286 -0.20821823179721832 0.02325582504272461
0.6589146852493286 -0.18322785198688507 -0.05426359176635742
0.6589146852493286 -0.18954794108867645 -0.038759708404541016
0.6589146852493286 -0.19241201877593994 -0.02325582318007946
0.6589146852493286 -0.19201765954494476 0.007751941680908203
0.6589146852493286 -0.1863478124141693 0.02325582504272461
0.6589146852493286 -0.1838490515947342 0.038759708404541016
0.6589146852493286 -0.16794608533382416 -0.06976741552352905
0.6589146852493286 0.04553909972310066 -0.08527129888534546
0.6589146852493286 0.09248998761177063 -0.08527129888534546
0.6589146852493286 0.14084026217460632 -0.06976741552352905
0.6589146852493286 0.1725936383008957 -0.05426359176635742
0.6589146852493286 0.17627498507499695 0.038759708404541016
0.6589146852493286 0.18223315477371216 -0.038759708404541016
0.6589146852493286 0.19271816313266754 -0.02325582504272461
0.6589146852493286 0.17926503717899323 0.02325582504272461
0.6589146852493286 0.20033743977546692 -0.10077518224716187
0.6589146852493286 0.20086050033569336 -0.08527129888534546
0.6589146852493286 0.2005934715270996 -0.06976741552352905
0.6589146852493286 0.20121878385543823 -0.05426359176635742
0.6589146852493286 0.2010781168937683 -0.038759708404541016
0.6589146852493286 0.19498932361602783 -0.02325582504272461
0.6589146852493286 0.20157966017723083 0.02325582504272461
0.6589146852493286 0.20204082131385803 0.038759708404541016
0.674418568611145 -0.2016838788986206 -0.10077518224716187
0.674418568611145 -0.20487822592258453 -0.08527129888534546
0.674418568611145 -0.20496706664562225 -0.06976741552352905
0.674418568611145 -0.20591115951538086 -0.05426359176635742
0.674418568611145 -0.20636287331581116 -0.038759708404541016
0.674418568611145 -0.20445096492767334 -0.02325582690536976
0.674418568611145 -0.20123597979545593 -0.007751941680908203
0.674418568611145 -0.20442704856395721 0.007751941680908203
0.674418568611145 -0.20841006934642792 0.02325582318007946
0.674418568611145 -0.20778706669807434 0.038759708404541016
0.674418568611145 -0.1831711232662201 -0.05426359176635742
0.674418568611145 -0.18929147720336914 -0.038759708404541016
0.674418568611145 -0.1914142221212387 -0.02325582504272461
0.674418568611145 -0.19247035682201385 -0.007751941680908203
0.674418568611145 -0.19128143787384033 0.007751941680908203
0.674418568611145 -0.1863691806793213 0.02325582504272461
0.674418568611145 -0.18631383776664734 0.038759708404541016
0.674418568611145 -0.16951945424079895 -0.06976741552352905
0.674418568611145 -0.09843124449253082 -0.08527129888534546
0.6744186282157898 -0.06926239281892776 -0.08527129888534546
0.674418568611145 0.04027001932263374 -0.08527129888534546
0.674418568611145 0.0976906269788742 -0.08527129888534546
0.674418568611145 0.143381267786026 -0.06976741552352905
0.674418568611145 0.17389144003391266 -0.05426359176635742
0.674418568611145 0.1767672598361969 0.038759708404541016
0.674418568611145 0.18188168108463287 -0.038759708404541016
0.674418568611145 0.19010132551193237 -0.02325582504272461
0.674418568611145 0.17953498661518097 0.02325582504272461
0.674418568611145 0.20088118314743042 -0.10077518224716187
0.674418568611145 0.20069116353988647 -0.08527129888534546
0.674418568611145 0.20050954818725586 -0.06976741552352905
0.674418568611145 0.20121639966964722 -0.05426359176635742
0.674418568611145 0.2014314830303192 -0.038759708404541016
0.6744185090065002 0.19779841601848602 -0.02325582318007946
0.674418568611145 0.20174358785152435 0.02325582504272461
0.674418568611145 0.2013501673936844 0.038759708404541016
0.6899224519729614 -0.20253139734268188 -0.10077518224716187
0.6899224519729614 -0.20474709570407867 -0.08527129888534546
0.6899224519729614 -0.2049955129623413 -0.06976741552352905
0.6899225115776062 -0.2062263786792755 -0.05426359549164772
0.6899224519729614 -0.20705202221870422 -0.038759708404541016
0.6899224519729614 -0.205974280834198 -0.02325582504272461
0.6899224519729614 -0.2032891809940338 -0.00775194214656949
0.6899224519729614 -0.20505870878696442 0.007751941680908203
0.6899224519729614 -0.2086326777935028 0.02325582504272461
0.6899224519729614 -0.20017363131046295 0.038759708404541016
0.6899224519729614 -0.18350723385810852 -0.05426359176635742
0.6899224519729614 -0.18918102979660034 -0.038759708404541016
0.6899224519729614 -0.19112443923950195 -0.02325582504272461
0.6899224519729614 -0.19194597005844116 -0.007751941680908203
0.6899224519729614 -0.1910843700170517 0.007751941680908203
0.6899224519729614 -0.1864062249660492 0.02325582504272461
0.6899224519729614 -0.19164417684078217 0.038759708404541016
0.6899224519729614 -0.17209839820861816 -0.06976741552352905
0.6899224519729614 -0.11012373864650726 -0.08527129888534546
0.6899224519729614 -0.05381155014038086 -0.08527129888534546
0.6899224519729614 0.03326963633298874 -0.08527129888534546
0.6899224519729614 0.10407797992229462 -0.08527129888534546
0.6899224519729614 0.14817926287651062 -0.06976741552352905
0.6899224519729614 0.17504817247390747 -0.05426359176635742
0.6899224519729614 0.18127119541168213 -0.038759708404541016
0.6899224519729614 0.18868494033813477 -0.02325582504272461
0.6899224519729614 0.1933833658695221 -0.007751941680908203
0.6899224519729614 0.19313587248325348 0.007751941680908203
0.6899224519729614 0.17967091500759125 0.02325582504272461
0.6899224519729614 0.17856061458587646 0.038759708404541016
0.6899224519729614 0.2010737806558609 -0.10077518224716187
0.6899224519729614 0.20053447782993317 -0.08527129888534546
0.6899224519729614 0.20051899552345276 -0.06976741552352905
0.6899224519729614 0.20139428973197937 -0.05426359176635742
0.6899224519729614 0.2017553150653839 -0.038759708404541016
0.6899224519729614 0.19938227534294128 -0.02325582504272461
0.6899224519729614 0.19447287917137146 -0.007751941215246916
0.6899224519729614 0.1948346495628357 0.007751941680908203
0.6899224519729614 0.20209744572639465 0.02325582504272461
0.6899224519729614 0.1977931410074234 0.038759708404541016
0.7054263353347778 -0.20317864418029785 -0.10077518224716187
0.7054263353347778 -0.2049211710691452 -0.08527129888534546
0.7054263353347778 -0.20534169673919678 -0.06976741552352905
0.7054263353347778 -0.20672890543937683 -0.05426359176635742
0.7054263353347778 -0.20784896612167358 -0.038759708404541016
0.7054263353347778 -0.20717716217041016 -0.02325582504272461
0.7054263353347778 -0.20439091324806213 -0.007751941680908203
0.7054263353347778 -0.2055768519639969 0.007751941680908203
0.7054263353347778 -0.20912779867649078 0.02325582504272461
0.7054263353347778 -0.1843736171722412 -0.05426359176635742
0.7054263353347778 -0.18920980393886566 -0.038759708404541016
0.7054263353347778 -0.19109965860843658 -0.02325582504272461
0.7054262757301331 -0.1917933225631714 -0.007751941680908203
0.7054263949394226 -0.19113600254058838 0.007751941680908203
0.7054263353347778 -0.1869049370288849 0.02325582504272461
0.7054263353347778 -0.17462830245494843 -0.06976741552352905
0.7054263353347778 -0.12141440063714981 -0.08527129888534546
0.7054263353347778 -0.03740309923887253 -0.08527129888534546
0.7054263353347778 0.024282310158014297 -0.08527129888534546
0.7054263353347778 0.11204713582992554 -0.08527129888534546
0.7054263353347778 0.16145427525043488 -0.06976741552352905
0.7054263353347778 0.1760845184326172 -0.05426359176635742
0.7054263353347778 0.18106421828269958 -0.038759708404541016
0.7054263353347778 0.1882495880126953 -0.02325582504272461
0.7054263353347778 0.19255323708057404 -0.007751941680908203
0.7054263353347778 0.19287747144699097 0.007751941680908203
0.7054263353347778 0.1804872751235962 0.02325582504272461
0.7054263353347778 0.20110636949539185 -0.10077518224716187
0.7054263353347778 0.20047882199287415 -0.08527129888534546
0.7054263353347778 0.20060434937477112 -0.06976741552352905
0.7054263353347778 0.20159181952476501 -0.05426359176635742
0.7054263353347778 0.20199644565582275 -0.038759708404541016
0.7054263353347778 0.20013588666915894 -0.02325582504272461
0.7054263353347778 0.19589000940322876 -0.007751941680908203
0.7054263353347778 0.19532203674316406 0.007751941680908203
0.7054263353347778 0.20229849219322205 0.02325582504272461
0.7209302186965942 -0.2036377489566803 -0.10077518224716187
0.7209302186965942 -0.20517444610595703 -0.08527129888534546
0.7209302186965942 -0.2057124227285385 -0.06976741552352905
0.7209302186965942 -0.2072245329618454 -0.05426359176635742
0.7209302186965942 -0.2085961103439331 -0.03875970467925072
0.7209302186965942 -0.2080700397491455 -0.02325582690536976
0.7209302186965942 -0.20545119047164917 -0.007751941680908203
0.7209302186965942 -0.2063201665878296 0.007751941680908203
0.7209302186965942 -0.20838138461112976 0.02325582504272461
0.7209302186965942 -0.18549707531929016 -0.05426359176635742
0.7209302186965942 -0.18938404321670532 -0.038759708404541016
0.7209302186965942 -0.19113098084926605 -0.02325582504272461
0.7209302186965942 -0.19173641502857208 -0.007751941680908203
0.7209302186965942 -0.19125019013881683 0.00775194214656949
0.7209302186965942 -0.18893079459667206 0.02325582504272461
0.7209302186965942 -0.17634037137031555 -0.06976741552352905
0.7209302186965942 -0.13074328005313873 -0.08527129888534546
0.7209302186965942 -0.08892077207565308 -0.11627906560897827
0.7209302186965942 -0.04308980703353882 -0.11627906560897827
0.7209302186965942 -0.014654440805315971 -0.08527129888534546
0.7209302186965942 0.008117553777992725 -0.08527129888534546
0.7209302186965942 0.12115370482206345 -0.08527129888534546
0.7209302186965942 0.16871459782123566 -0.06976741552352905
0.7209302186965942 0.17702697217464447 -0.05426359176635742
0.7209302186965942 0.18202827870845795 -0.038759708404541016
0.7209302186965942 0.18836969137191772 -0.02325582504272461
0.7209302186965942 0.19237716495990753 -0.007751941680908203
0.7209302186965942 0.19329741597175598 0.007751941680908203
0.7209302186965942 0.18470139801502228 0.02325582504272461
0.7209302186965942 0.20107917487621307 -0.10077518224716187
0.7209302186965942 0.20054656267166138 -0.08527129888534546
0.7209302186965942 0.200764000415802 -0.06976741552352905
0.7209302186965942 0.20173892378807068 -0.05426359176635742
0.7209302186965942 0.20214450359344482 -0.038759708404541016
0.7209302186965942 0.20033881068229675 -0.02325582504272461
0.7209302186965942 0.1962665468454361 -0.007751941680908203
0.7209302186965942 0.19463320076465607 0.007751941680908203
0.7209302186965942 0.20024758577346802 0.02325582504272461
0.7364341020584106 -0.20396703481674194 -0.10077518224716187
0.7364341020584106 -0.20531685650348663 -0.08527129888534546
0.7364341020584106 -0.20588523149490356 -0.06976741552352905
0.7364341020584106 -0.20742979645729065 -0.05426359176635742
0.7364341616630554 -0.20892713963985443 -0.038759708404541016
0.7364340424537659 -0.20841334760189056 -0.02325582504272461
0.7364341020584106 -0.2061540186405182 -0.007751941680908203
0.7364341020584106 -0.20685727894306183 0.007751941680908203
0.7364341020584106 -0.1866740882396698 -0.05426359176635742
0.7364341616630554 -0.18973001837730408 -0.038759708404541016
0.7364341020584106 -0.19118574261665344 -0.02325582504272461
0.7364341020584106 -0.19183066487312317 -0.007751941680908203
0.7364341020584106 -0.19165995717048645 0.007751941680908203
0.7364341020584106 -0.1775033175945282 -0.06976741552352905
0.7364341020584106 -0.1419074684381485 -0.08527129888534546
0.7364341020584106 -0.10318820923566818 -0.11627906560897827
0.7364341020584106 -0.019962379708886147 -0.11627906560897827
0.7364341020584106 0.05902460590004921 -0.11627906560897827
0.7364341020584106 0.08312011510133743 -0.11627906560897827
0.7364341020584106 0.12820854783058167 -0.08527129888534546
0.7364341020584106 0.172035813331604 -0.06976741552352905
0.7364341020584106 0.1779218465089798 -0.05426359176635742
0.7364341020584106 0.18343758583068848 -0.038759708404541016
0.7364341020584106 0.18865755200386047 -0.02325582504272461
0.7364341020584106 0.1924048364162445 -0.007751941680908203
0.7364341020584106 0.20111049711704254 -0.10077518224716187
0.7364341020584106 0.2007245272397995 -0.08527129888534546
0.7364341020584106 0.20102107524871826 -0.06976741552352905
0.7364341020584106 0.20193064212799072 -0.05426359176635742
0.7364341020584106 0.20226386189460754 -0.038759708404541016
0.7364341020584106 0.20033550262451172 -0.02325582504272461
0.7364341020584106 0.1963622272014618 -0.007751941680908203
0.751937985420227 -0.2043568193912506 -0.10077518224716187
0.751937985420227 -0.20533953607082367 -0.08527129888534546
0.751937985420227 -0.20577405393123627 -0.06976741552352905
0.751937985420227 -0.20715464651584625 -0.05426359176635742
0.7519380450248718 -0.20858551561832428 -0.038759708404541016
0.751937985420227 -0.20824943482875824 -0.02325582504272461
0.751937985420227 -0.20641694962978363 -0.007751941680908203
0.751937985420227 -0.20318494737148285 0.007751941680908203
0.751937985420227 -0.18751364946365356 -0.05426359176635742
0.751937985420227 -0.18997450172901154 -0.038759708404541016
0.751937985420227 -0.1912120282649994 -0.02325582504272461
0.751937985420227 -0.19199997186660767 -0.007751941680908203
0.751937985420227 -0.19295001029968262 0.007751941680908203
0.751937985420227 -0.1782723367214203 -0.06976742297410965
0.751937985420227 -0.15506669878959656 -0.08527129888534546
0.751937985420227 -0.11283501237630844 -0.11627906560897827
0.751937985420227 0.006505746394395828 -0.11627906560897827
0.751937985420227 0.03607943281531334 -0.11627906560897827
0.751937985420227 0.0993974581360817 -0.11627906560897827
0.751937985420227 0.1369730830192566 -0.08527129888534546
0.751937985420227 0.17483636736869812 -0.06976741552352905
0.7519379258155823 0.18057873845100403 -0.05426359176635742
0.751937985420227 0.18494129180908203 -0.038759708404541016
0.751937985420227 0.18901260197162628 -0.02325582504272461
0.751937985420227 0.19254715740680695 -0.007751941680908203
0.751937985420227 0.20108284056186676 -0.10077518224716187
0.751937985420227 0.20075833797454834 -0.08527129888534546
0.751937985420227 0.20111696422100067 -0.06976741552352905
0.751937985420227 0.2019995152950287 -0.05426359176635742
0.751937985420227 0.20221960544586182 -0.038759708404541016
0.751937985420227 0.20019182562828064 -0.02325582504272461
0.751937985420227 0.19620484113693237 -0.007751941680908203
0.7674418687820435 -0.20496690273284912 -0.10077518224716187
0.7674418687820435 -0.20548462867736816 -0.08527129888534546
0.7674419283866882 -0.20575039088726044 -0.06976741552352905
0.7674418687820435 -0.20687884092330933 -0.05426359176635742
0.7674419283866882 -0.20828349888324738 -0.038759708404541016
0.7674418687820435 -0.2080971896648407 -0.02325582504272461
0.7674418687820435 -0.20614680647850037 -0.007751941680908203
0.7674418687820435 -0.18112999200820923 -0.06976741552352905
0.7674418687820435 -0.1883438527584076 -0.05426359176635742
0.7674418687820435 -0.1902952492237091 -0.038759708404541016
0.7674418687820435 -0.19138257205486298 -0.02325582690536976
0.7674418687820435 -0.19231882691383362 -0.007751941680908203
0.7674418687820435 -0.1682700514793396 -0.08527129888534546
0.7674418687820435 -0.13131552934646606 -0.11627905815839767
0.7674418687820435 0.11450067162513733 -0.11627906560897827
0.7674418687820435 0.15192168951034546 -0.08527129888534546
0.7674418687820435 0.17734390497207642 -0.06976741552352905
0.7674418687820435 0.18338362872600555 -0.05426359176635742
0.7674418687820435 0.18642297387123108 -0.038759708404541016
0.7674418687820435 0.1895304024219513 -0.02325582504272461
0.7674418687820435 0.1929028332233429 -0.007751941680908203
0.7674418687820435 0.20111465454101562 -0.10077518224716187
0.7674418687820435 0.20084410905838013 -0.08527129888534546
0.7674418687820435 0.20116424560546875 -0.06976741552352905
0.7674418687820435 0.20197777450084686 -0.05426359176635742
0.7674418687820435 0.2020570933818817 -0.038759708404541016
0.7674418687820435 0.19994446635246277 -0.02325582504272461
0.7674418687820435 0.19553226232528687 -0.007751941680908203
0.7829457521438599 -0.20554211735725403 -0.10077518224716187
0.7829457521438599 -0.2056078016757965 -0.08527129888534546
0.7829457521438599 -0.20583663880825043 -0.06976741552352905
0.7829457521438599 -0.20693586766719818 -0.05426359176635742
0.7829457521438599 -0.20847046375274658 -0.03875970467925072
0.7829457521438599 -0.208302840590477 -0.02325582504272461
0.7829457521438599 -0.20317813754081726 -0.007751941680908203
0.7829457521438599 -0.18309012055397034 -0.06976741552352905
0.7829457521438599 -0.18864458799362183 -0.05426359176635742
0.7829457521438599 -0.19027769565582275 -0.038759708404541016
0.7829457521438599 -0.1914270520210266 -0.02325582504272461
0.7829457521438599 -0.19285927712917328 -0.00775194214656949
0.7829457521438599 -0.1735696792602539 -0.08527129888534546
0.7829457521438599 -0.1534838080406189 -0.11627906560897827
0.7829458117485046 0.13298767805099487 -0.11627906560897827
0.7829457521438599 0.1660967469215393 -0.08527129888534546
0.7829457521438599 0.17935220897197723 -0.06976741552352905
0.7829457521438599 0.18439196050167084 -0.05426359176635742
0.7829457521438599 0.18676850199699402 -0.038759708404541016
0.7829457521438599 0.1896245926618576 -0.02325582504272461
0.7829457521438599 0.20108208060264587 -0.10077518224716187
0.7829457521438599 0.2009505033493042 -0.08527129888534546
0.7829457521438599 0.20126351714134216 -0.06976741552352905
0.7829457521438599 0.20199403166770935 -0.05426359176635742
0.7829457521438599 0.20199164748191833 -0.038759708404541016
0.7829457521438599 0.19973285496234894 -0.02325582504272461
0.7984496355056763 -0.2058759331703186 -0.10077518224716187
0.7984496355056763 -0.20564763247966766 -0.08527129888534546
0.7984496355056763 -0.20601660013198853 -0.06976741552352905
0.7984496355056763 -0.2072809785604477 -0.05426359176635742
0.7984496355056763 -0.20893636345863342 -0.038759708404541016
0.798449695110321 -0.20832309126853943 -0.02325582504272461
0.7984496355056763 -0.18310245871543884 -0.06976741552352905
0.7984496355056763 -0.18790605664253235 -0.05426359176635742
0.798449695110321 -0.1897435188293457 -0.038759708404541016
0.798449695110321 -0.19126556813716888 -0.02325582504272461
0.7984496355056763 -0.16833625733852386 -0.11627906560897827
0.7984496355056763 -0.17531853914260864 -0.08527129888534546
0.7984496355056763 0.06926404684782028 -0.10077518224716187
0.7984496355056763 0.07000445574522018 -0.10077518224716187
0.7984496355056763 0.15786495804786682 -0.11627906560897827
0.7984496355056763 0.1719527244567871 -0.08527129888534546
0.7984496355056763 0.1789652705192566 -0.06976741552352905
0.7984496355056763 0.1826973259449005 -0.05426359176635742
0.7984496355056763 0.18527373671531677 -0.038759708404541016
0.7984496355056763 0.18908289074897766 -0.02325582504272461
0.7984496355056763 0.2010166347026825 -0.10077518224716187
0.7984496355056763 0.2009596973657608 -0.08527129888534546
0.7984496355056763 0.20132142305374146 -0.06976741552352905
0.7984496355056763 0.20206502079963684 -0.05426359176635742
0.7984496355056763 0.20211462676525116 -0.038759708404541016
0.7984496355056763 0.19943727552890778 -0.02325582504272461
0.8139535188674927 -0.20020657777786255 -0.11627906560897827
0.8139535188674927 -0.2061634510755539 -0.10077518224716187
0.8139535188674927 -0.205775648355484 -0.08527129888534546
0.8139535188674927 -0.2063429057598114 -0.06976741552352905
0.8139535188674927 -0.20760823786258698 -0.05426359176635742
0.8139534592628479 -0.20926472544670105 -0.038759708404541016
0.8139535188674927 -0.20734411478042603 -0.02325582690536976
0.8139535188674927 -0.18202126026153564 -0.06976741552352905
0.8139535188674927 -0.18647557497024536 -0.05426359176635742
0.8139535188674927 -0.18896739184856415 -0.038759708404541016
0.8139535188674927 -0.19116687774658203 -0.02325582504272461
0.8139535188674927 -0.17615722119808197 -0.08527129888534546
0.8139535188674927 -0.07388343662023544 -0.10077518224716187
0.8139535188674927 -0.05396260693669319 -0.10077518224716187
0.8139535188674927 0.0391249880194664 -0.10077518224716187
0.8139535188674927 0.09220591187477112 -0.10077518224716187
0.8139535188674927 0.17595885694026947 -0.11627906560897827
0.8139535188674927 0.17454569041728973 -0.08527129888534546
0.8139535188674927 0.17791253328323364 -0.06976741552352905
0.8139535188674927 0.1801147758960724 -0.11627907305955887
0.8139535188674927 0.17901243269443512 -0.05426359176635742
0.8139535188674927 0.18277060985565186 -0.038759708404541016
0.8139535188674927 0.1900532990694046 -0.02325582504272461
0.8139535188674927 0.19657698273658752 -0.11627906560897827
0.8139535188674927 0.20091362297534943 -0.10077518224716187
0.8139535188674927 0.200792133808136 -0.08527129888534546
0.8139535188674927 0.20121559500694275 -0.06976741552352905
0.8139535188674927 0.20202785730361938 -0.05426359176635742
0.8139535188674927 0.20219820737838745 -0.038759708404541016
0.8139535188674927 0.19791187345981598 -0.02325582504272461
0.8294574022293091 -0.2035541981458664 -0.11627906560897827
0.8294574022293091 -0.2061571627855301 -0.10077518224716187
0.8294574022293091 -0.20571330189704895 -0.08527129888534546
0.8294574618339539 -0.20632584393024445 -0.06976741552352905
0.8294574618339539 -0.2073010355234146 -0.05426359549164772
0.8294574022293091 -0.20861656963825226 -0.038759708404541016
0.8294574022293091 -0.2020508050918579 -0.02325582504272461
0.8294574022293091 -0.17978252470493317 -0.06976741552352905
0.8294574022293091 -0.18479704856872559 -0.05426359176635742
0.8294574022293091 -0.188078373670578 -0.038759708404541016
0.8294574022293091 -0.1922517716884613 -0.02325582504272461
0.8294574022293091 -0.17630381882190704 -0.08527129888534546
0.8294574022293091 -0.09350746870040894 -0.10077518224716187
0.8294574022293091 -0.033837683498859406 -0.10077518224716187
0.8294574022293091 0.027050837874412537 -0.10077518224716187
0.8294574022293091 0.09990005195140839 -0.10077518224716187
0.8294574022293091 0.17530009150505066 -0.08527129888534546
0.8294574022293091 0.17731592059135437 -0.06976741552352905
0.8294574022293091 0.17773987352848053 -0.05426359176635742
0.8294574618339539 0.1793719083070755 -0.038759708404541016
0.8294574022293091 0.1991758644580841 -0.11627906560897827
0.8294574022293091 0.2006809413433075 -0.10077518224716187
0.8294574022293091 0.2004202902317047 -0.08527129888534546
0.8294574022293091 0.20096468925476074 -0.06976741552352905
0.8294574022293091 0.2018665075302124 -0.05426359176635742
0.8294574022293091 0.20216476917266846 -0.038759708404541016
0.8449612855911255 -0.20503711700439453 -0.11627906560897827
0.8449612855911255 -0.20601892471313477 -0.10077518224716187
0.8449612855911255 -0.20558413863182068 -0.08527129888534546
0.8449612855911255 -0.20605936646461487 -0.06976741552352905
0.8449612855911255 -0.20665225386619568 -0.05426359176635742
0.8449612855911255 -0.20792138576507568 -0.03875970467925072
0.8449612855911255 -0.17917722463607788 -0.06976741552352905
0.8449612855911255 -0.18469737470149994 -0.05426359176635742
0.8449612855911255 -0.18829141557216644 -0.038759708404541016
0.8449612855911255 -0.17654159665107727 -0.08527130633592606
0.8449612855911255 -0.10158731043338776 -0.10077518224716187
0.8449612855911255 -0.018911495804786682 -0.10077518224716187
0.8449612855911255 0.014963792636990547 -0.10077518224716187
0.8449612855911255 0.10464292019605637 -0.10077518224716187
0.8449612855911255 0.1757197082042694 -0.08527129888534546
0.8449612855911255 0.1772969365119934 -0.06976741552352905
0.8449612855911255 0.1776910126209259 -0.05426359176635742
0.8449613451957703 0.18007907271385193 -0.038759708404541016
0.8449612855911255 0.20027199387550354 -0.11627906560897827
0.8449612855911255 0.20040714740753174 -0.10077518224716187
0.8449612855911255 0.20008359849452972 -0.08527129888534546
0.8449612855911255 0.20071402192115784 -0.06976741552352905
0.8449612855911255 0.20176059007644653 -0.05426359176635742
0.8449612855911255 0.20185202360153198 -0.038759708404541016
0.8604651689529419 -0.20598086714744568 -0.11627906560897827
0.8604651689529419 -0.20591366291046143 -0.10077518969774246
0.8604652285575867 -0.20545408129692078 -0.08527129888534546
0.8604651689529419 -0.2057577222585678 -0.06976741552352905
0.8604651689529419 -0.20641972124576569 -0.05426359176635742
0.8604651093482971 -0.20645272731781006 -0.038759708404541016
0.8604651689529419 -0.1814628541469574 -0.06976741552352905
0.8604651689529419 -0.18578076362609863 -0.05426359176635742
0.8604651689529419 -0.18957164883613586 -0.038759708404541016
0.8604651689529419 -0.17713087797164917 -0.08527129888534546
0.8604651689529419 -0.11478646099567413 -0.10077518224716187
0.8604651689529419 0.11241235584020615 -0.10077518224716187
0.8604651689529419 0.1769460141658783 -0.08527129888534546
0.8604651689529419 0.17804190516471863 -0.06976741552352905
0.8604651689529419 0.178170308470726 -0.05426359176635742
0.8604651689529419 0.18712644279003143 -0.038759708404541016
0.8604651689529419 0.20053336024284363 -0.11627906560897827
0.8604651689529419 0.20013660192489624 -0.10077518224716187
0.8604651689529419 0.19976967573165894 -0.08527129888534546
0.8604651689529419 0.2004329264163971 -0.06976741552352905
0.8604651689529419 0.2020101249217987 -0.05426359176635742
0.8604651689529419 0.19922074675559998 -0.038759708404541016
0.8759689331054688 -0.20637910068035126 -0.11627906560897827
0.8759689331054688 -0.20583245158195496 -0.10077518224716187
0.8759689331054688 -0.20528212189674377 -0.08527129888534546
0.8759689927101135 -0.2054988443851471 -0.06976741552352905
0.8759689331054688 -0.20686595141887665 -0.05426359176635742
0.8759689331054688 -0.18299327790737152 -0.06976741552352905
0.8759689331054688 -0.18577465415000916 -0.05426359176635742
0.8759689331054688 -0.17756788432598114 -0.08527130633592606
0.8759689331054688 -0.12807857990264893 -0.10077517479658127
0.8759689331054688 0.12140081822872162 -0.10077518224716187
0.8759689331054688 0.1777997761964798 -0.08527129888534546
0.8759689331054688 0.17927831411361694 -0.06976741552352905
0.8759689331054688 0.1789138913154602 -0.05426359176635742
0.8759689331054688 0.20039090514183044 -0.11627906560897827
0.8759689331054688 0.19993972778320312 -0.10077518224716187
0.8759689331054688 0.1995989978313446 -0.08527129888534546
0.8759689331054688 0.20049670338630676 -0.06976741552352905
0.8759689331054688 0.20249466598033905 -0.05426359176635742
0.8914728164672852 -0.2066459059715271 -0.11627906560897827
0.8914728164672852 -0.20577797293663025 -0.10077518224716187
0.8914728164672852 -0.2051013857126236 -0.08527129888534546
0.8914728164672852 -0.2055242508649826 -0.06976741552352905
0.8914728760719299 -0.2070140391588211 -0.05426359176635742
0.8914728164672852 -0.18452811241149902 -0.06976741552352905
0.8914728164672852 -0.18670235574245453 -0.05426359176635742
0.8914728164672852 -0.16875410079956055 -0.10077518224716187
0.8914728164672852 -0.17821192741394043 -0.08527129888534546
0.8914728164672852 -0.13323906064033508 -0.13178294897079468
0.8914727568626404 0.010769820772111416 -0.13178294897079468
0.8914728164672852 0.0684664249420166 -0.13178294897079468
0.8914728164672852 0.07008977979421616 -0.13178294897079468
0.8914728164672852 0.13310420513153076 -0.10077518969774246
0.8914728164672852 0.18017758429050446 -0.08527129888534546
0.8914728164672852 0.18176203966140747 -0.06976741552352905
0.8914728164672852 0.18304026126861572 -0.05426359176635742
0.8914728164672852 0.2001664638519287 -0.11627906560897827
0.8914728164672852 0.1998022496700287 -0.10077518224716187
0.8914728164672852 0.19957172870635986 -0.08527129888534546
0.8914728164672852 0.2009100466966629 -0.06976741552352905
0.8914728164672852 0.20128940045833588 -0.05426359176635742
0.9069766998291016 -0.20712962746620178 -0.11627906560897827
0.9069766998291016 -0.20600229501724243 -0.10077518224716187
0.9069767594337463 -0.20518894493579865 -0.08527129888534546
0.9069766998291016 -0.2062624841928482 -0.06976741552352905
0.9069766998291016 -0.1947879046201706 -0.05426359176635742
0.9069766998291016 -0.18170706927776337 -0.08527129888534546
0.9069766998291016 -0.18594634532928467 -0.06976741552352905
0.9069766402244568 -0.19357433915138245 -0.05426359176635742
0.9069766998291016 -0.17277497053146362 -0.10077518224716187
0.9069766998291016 -0.1532171070575714 -0.13178294897079468
0.9069766998291016 0.11627378314733505 -0.13178294897079468
0.9069766998291016 0.1727878600358963 -0.10077518224716187
0.9069766998291016 0.1829574853181839 -0.08527129888534546
0.9069766998291016 0.18436843156814575 -0.06976741552352905
0.9069766998291016 0.2001090794801712 -0.11627906560897827
0.9069766998291016 0.19978217780590057 -0.10077518224716187
0.9069766998291016 0.19981086254119873 -0.08527129888534546
0.9069766998291016 0.2013532668352127 -0.06976741552352905
0.922480583190918 -0.1955014169216156 -0.13178294897079468
0.922480583190918 -0.2077600359916687 -0.11627906560897827
0.922480583190918 -0.2063232660293579 -0.10077518224716187
0.922480583190918 -0.20535577833652496 -0.08527129888534546
0.922480583190918 -0.20641660690307617 -0.06976741552352905
0.922480583190918 -0.1910557746887207 -0.13178294897079468
0.922480583190918 -0.1847590208053589 -0.08527129888534546
0.922480583190918 -0.1882595419883728 -0.06976741552352905
0.922480583190918 -0.1748594343662262 -0.10077517479658127
0.922480583190918 -0.15887093544006348 -0.13178294897079468
0.922480583190918 0.13119463622570038 -0.13178294897079468
0.922480583190918 0.1749802529811859 -0.10077518224716187
0.922480583190918 0.1852235198020935 -0.08527129888534546
0.922480583190918 0.18897800147533417 -0.06976741552352905
0.922480583190918 0.2000659704208374 -0.11627906560897827
0.922480583190918 0.19972224533557892 -0.10077518224716187
0.922480583190918 0.2001391351222992 -0.08527129888534546
0.922480583190918 0.19964605569839478 -0.06976741552352905
0.9379844665527344 -0.196800097823143 -0.13178294897079468
0.9379844665527344 -0.20805086195468903 -0.11627906560897827
0.9379844665527344 -0.20611464977264404 -0.10077518224716187
0.9379844665527344 -0.20522361993789673 -0.08527129888534546
0.9379844665527344 -0.19750511646270752 -0.06976741552352905
0.9379844665527344 -0.1892279088497162 -0.13178294897079468
0.9379844665527344 -0.18650011718273163 -0.08527129888534546
0.9379845261573792 -0.19308337569236755 -0.06976741552352905
0.9379844665527344 -0.17608201503753662 -0.10077518224716187
0.9379844665527344 -0.15935447812080383 -0.13178294897079468
0.9379844069480896 0.13596250116825104 -0.13178294897079468
0.9379844665527344 0.17711585760116577 -0.10077518224716187
0.9379844665527344 0.18791626393795013 -0.08527129888534546
0.9379844665527344 0.19983099400997162 -0.11627906560897827
0.9379844665527344 0.19954568147659302 -0.10077518969774246
0.9379844665527344 0.19970184564590454 -0.08527129888534546
0.9534883499145508 -0.20755203068256378 -0.11627907305955887
0.9534883499145508 -0.20559124648571014 -0.10077518224716187
0.9534883499145508 -0.20401796698570251 -0.08527129888534546
0.9534883499145508 -0.18859277665615082 -0.08527129888534546
0.9534883499145508 -0.17746534943580627 -0.10077517479658127
0.9534883499145508 -0.15022289752960205 -0.13178294897079468
0.9534883499145508 -0.07713010907173157 -0.11627906560897827
0.9534883499145508 0.07274052500724792 -0.11627906560897827
0.9534883499145508 0.1274503618478775 -0.13178294897079468
0.9534883499145508 0.18070778250694275 -0.10077518224716187
0.9534883499145508 0.19291701912879944 -0.08527129888534546
0.9534883499145508 0.19920693337917328 -0.11627905815839767
0.9534883499145508 0.199300616979599 -0.10077518224716187
0.9534883499145508 0.19530464708805084 -0.08527129888534546
0.9689921736717224 -0.20723484456539154 -0.11627906560897827
0.9689922332763672 -0.20557674765586853 -0.10077518224716187
0.9689922332763672 -0.19480276107788086 -0.08527129888534546
0.968992292881012 -0.193603053689003 -0.08527129888534546
0.9689922332763672 -0.17807015776634216 -0.10077518224716187
0.9689922332763672 -0.16016218066215515 -0.13178294897079468
0.9689922332763672 -0.11519734561443329 -0.11627907305955887
0.9689922332763672 0.11004126071929932 -0.11627906560897827
0.9689922332763672 0.15046218037605286 -0.13178294897079468
0.9689922332763672 0.18646487593650818 -0.10077518224716187
0.9689922332763672 0.198683500289917 -0.11627906560897827
0.9689922332763672 0.19803455471992493 -0.10077518224716187
0.9844961166381836 -0.209913969039917 -0.11627906560897827
0.9844961762428284 -0.20703938603401184 -0.13178294897079468
0.9844961166381836 -0.2045256495475769 -0.10077518224716187
0.9844961166381836 -0.183185413479805 -0.10077518224716187
0.9844961166381836 -0.11865272372961044 -0.11627906560897827
0.9844961166381836 0.11060773581266403 -0.11627906560897827
0.9844961166381836 0.18962699174880981 -0.10077518224716187
0.9844961166381836 0.20316804945468903 -0.13178294897079468
0.9844961166381836 0.20343032479286194 -0.11627906560897827
0.9844961166381836 0.1972789168357849 -0.10077518224716187
-0.9844961166381836 -0.19379842281341553 -0.13942976295948029
-0.9844961166381836 -0.19379842281341553 -0.09276717156171799
-0.9844961166381836 -0.1782945990562439 -0.13944214582443237
-0.9844961166381836 -0.1782945990562439 -0.1056353896856308
-0.9844961166381836 -0.1627907156944275 -0.13921037316322327
-0.9844961166381836 -0.1627907156944275 -0.11100144684314728
-0.9844961166381836 -0.14728683233261108 -0.139262855052948
-0.9844961166381836 -0.14728683233261108 -0.11410758644342422
-0.9844961166381836 -0.13178294897079468 -0.13946381211280823
-0.9844961166381836 -0.13178294897079468 -0.1152057871222496
-0.9844961166381836 -0.11627906560897827 -0.13951025903224945
-0.9844961166381836 -0.11627906560897827 -0.11778825521469116
-0.9844961166381836 -0.10077518224716187 -0.13949094712734222
-0.9844961166381836 -0.10077518224716187 -0.11987625807523727
-0.9844961166381836 -0.08527129888534546 -0.1394803673028946
-0.9844961166381836 -0.08527129888534546 -0.12114113569259644
-0.9844961166381836 -0.06976741552352905 -0.13942427933216095
-0.9844961166381836 -0.06976741552352905 -0.12184052169322968
-0.9844961166381836 -0.05426359176635742 -0.13941937685012817
-0.9844961166381836 -0.05426359176635742 -0.12213883548974991
-0.9844961166381836 -0.038759708404541016 -0.13946577906608582
-0.9844961166381836 -0.038759708404541016 -0.1222170889377594
-0.9844961166381836 -0.02325582504272461 -0.13952691853046417
-0.9844961166381836 -0.02325582504272461 -0.12206798791885376
-0.9844961166381836 -0.007751941680908203 -0.13953562080860138
-0.9844961166381836 -0.007751941680908203 -0.12160007655620575
-0.9844961166381836 0.007751941680908203 -0.13956043124198914
-0.9844961166381836 0.007751941680908203 -0.12134598940610886
-0.9844961166381836 0.02325582504272461 -0.13955789804458618
-0.9844961166381836 0.02325582504272461 -0.1212473064661026
-0.9844961166381836 0.038759708404541016 -0.13949322700500488
-0.9844961166381836 0.038759708404541016 -0.12127701938152313
-0.9844961166381836 0.05426359176635742 -0.13944458961486816
-0.9844961166381836 0.05426359176635742 -0.12122532725334167
-0.9844961166381836 0.06976747512817383 -0.13942301273345947
-0.9844961166381836 0.06976747512817383 -0.1211313009262085
-0.9844961166381836 0.08527135848999023 -0.1394355744123459
-0.9844961166381836 0.08527135848999023 -0.12054125964641571
-0.9844961166381836 0.10077524185180664 -0.13947086036205292
-0.9844961166381836 0.10077524185180664 -0.11891292780637741
-0.9844961166381836 0.11627912521362305 -0.13948291540145874
-0.9844961166381836 0.11627912521362305 -0.11535140872001648
-0.9844961166381836 0.1317828893661499 -0.13950318098068237
-0.9844961166381836 0.1317828893661499 -0.11250697076320648
-0.9844961166381836 0.1472867727279663 -0.1394219696521759
-0.9844961166381836 0.1472867727279663 -0.11138457804918289
-0.9844961166381836 0.16279065608978271 -0.13936351239681244
-0.9844961166381836 0.16279065608978271 -0.11004218459129333
-0.9844961166381836 0.17829453945159912 -0.13931503891944885
-0.9844961166381836 0.17829453945159912 -0.10727673768997192
-0.9844961166381836 0.19379842281341553 -0.13878650963306427
-0.9844961166381836 0.19379842281341553 -0.09597695618867874
-0.9689922332763672 -0.19379842281341553 -0.12658849358558655
-0.9689922332763672 -0.19379842281341553 -0.08583306521177292
-0.9689922332763672 -0.1782945990562439 -0.12505586445331573
-0.9689922332763672 -0.1782945990562439 -0.10263845324516296
-0.9689922332763672 -0.1627907156944275 -0.1318243443965912
-0.9689922332763672 -0.1627907156944275 -0.11609514057636261
-0.9689922332763672 -0.14728683233261108 -0.13254579901695251
-0.9689922332763672 -0.14728683233261108 -0.12006616592407227
-0.9689922332763672 -0.13178294897079468 -0.13299521803855896
-0.9689922332763672 -0.13178294897079468 -0.11997509002685547
-0.9689922332763672 -0.11627906560897827 -0.13338427245616913
-0.9689922332763672 -0.11627906560897827 -0.12236730754375458
-0.9689922332763672 -0.10077518224716187 -0.1336214691400528
-0.9689922332763672 -0.10077518224716187 -0.12412983179092407
-0.9689922332763672 -0.08527129888534546 -0.1337163746356964
-0.9689922332763672 -0.08527129888534546 -0.12540583312511444
-0.9689922332763672 -0.06976741552352905 -0.13368026912212372
-0.9689922332763672 -0.06976741552352905 -0.12643426656723022
-0.9689922332763672 -0.05426359176635742 -0.13362526893615723
-0.9689922332763672 -0.05426359176635742 -0.12698568403720856
-0.9689922332763672 -0.038759708404541016 -0.1335832178592682
-0.9689922332763672 -0.038759708404541016 -0.12715236842632294
-0.9689922332763672 -0.02325582504272461 -0.1335078477859497
-0.9689922332763672 -0.02325582504272461 -0.1272488832473755
-0.9689922332763672 -0.007751941680908203 -0.1333804577589035
-0.9689922332763672 -0.007751941680908203 -0.12721110880374908
-0.9689922332763672 0.007751941680908203 -0.13323155045509338
-0.9689922332763672 0.007751941680908203 -0.12746548652648926
-0.9689922332763672 0.02325582504272461 -0.13312852382659912
-0.9689922332763672 0.02325582504272461 -0.1276848167181015
-0.9689922332763672 0.038759708404541016 -0.13316799700260162
-0.968992292881012 0.038759708404541016 -0.12748004496097565
-0.9689922332763672 0.05426359176635742 -0.13327457010746002
-0.9689922332763672 0.05426359176635742 -0.12702327966690063
-0.9689922332763672 0.06976747512817383 -0.1334095001220703
-0.9689922332763672 0.06976747512817383 -0.1262204349040985
-0.9689922332763672 0.08527135848999023 -0.13348045945167542
-0.9689922332763672 0.08527135848999023 -0.12492110580205917
-0.9689922332763672 0.10077524185180664 -0.13347962498664856
-0.9689922332763672 0.10077524185180664 -0.12255354225635529
-0.9689922332763672 0.11627912521362305 -0.13324476778507233
-0.9689922332763672 0.11627912521362305 -0.11795313656330109
-0.9689922332763672 0.1317828893661499 -0.13278475403785706
-0.968992292881012 0.1317828893661499 -0.11589334905147552
-0.9689922332763672 0.1472867727279663 -0.13234782218933105
-0.9689922332763672 0.1472867727279663 -0.11568528413772583
-0.9689922332763672 0.16279065608978271 -0.1279948204755783
-0.9689921736717224 0.16279065608978271 -0.11525770276784897
-0.9689922332763672 0.17829453945159912 -0.12132580578327179
-0.968992292881012 0.17829453945159912 -0.10978047549724579
-0.9689922332763672 0.19379842281341553 -0.12377472221851349
-0.9689922332763672 0.19379842281341553 -0.0937693789601326
-0.9534883499145508 -0.19379842281341553 -0.12883523106575012
-0.9534883499145508 -0.19379842281341553 -0.08115341514348984
-0.9534883499145508 -0.1782945990562439 -0.12182608246803284
-0.953488290309906 -0.1782945990562439 -0.10031943768262863
-0.9534883499145508 -0.14728683233261108 -0.13214512169361115
-0.9534883499145508 -0.14728684723377228 -0.11578270047903061
-0.9534883499145508 -0.13178294897079468 -0.13291354477405548
-0.9534883499145508 -0.13178294897079468 -0.11556965857744217
-0.9534883499145508 -0.11627906560897827 -0.13356487452983856
-0.9534883499145508 -0.11627906560897827 -0.11588095128536224
-0.9534883499145508 -0.10077518224716187 -0.1339332014322281
-0.9534883499145508 -0.10077518224716187 -0.11624757200479507
-0.9534883499145508 -0.08527129888534546 -0.13415510952472687
-0.9534883499145508 -0.08527129888534546 -0.11837993562221527
-0.9534883499145508 -0.06976741552352905 -0.13420355319976807
-0.9534883499145508 -0.06976741552352905 -0.12034378200769424
-0.9534883499145508 -0.05426359176635742 -0.13414506614208221
-0.9534883499145508 -0.05426359176635742 -0.12153634428977966
-0.9534883499145508 -0.038759708404541016 -0.13401740789413452
-0.9534883499145508 -0.038759708404541016 -0.1220388263463974
-0.9534883499145508 -0.02325582504272461 -0.13389639556407928
-0.9534883499145508 -0.02325582504272461 -0.12220948934555054
-0.9534883499145508 -0.007751941680908203 -0.133731409907341
-0.9534883499145508 -0.007751941680908203 -0.12206239998340607
-0.9534883499145508 0.007751941680908203 -0.13356854021549225
-0.9534883499145508 0.007751941680908203 -0.1224122941493988
-0.9534883499145508 0.02325582504272461 -0.13343766331672668
-0.9534883499145508 0.02325582504272461 -0.12256473302841187
-0.9534883499145508 0.038759708404541016 -0.13350632786750793
-0.9534883499145508 0.038759708404541016 -0.12197193503379822
-0.9534883499145508 0.05426359176635742 -0.13365629315376282
-0.9534883499145508 0.05426359176635742 -0.12098706513643265
-0.9534883499145508 0.06976747512817383 -0.13374681770801544
-0.9534883499145508 0.06976747512817383 -0.11962753534317017
-0.9534883499145508 0.08527135848999023 -0.13367022573947906
-0.9534883499145508 0.08527135848999023 -0.11689914017915726
-0.9534883499145508 0.10077524185180664 -0.13347086310386658
-0.9534883499145508 0.10077523440122604 -0.11592418700456619
-0.9534883499145508 0.11627912521362305 -0.1330592930316925
-0.9534884095191956 0.11627913266420364 -0.11545547842979431
-0.9534883499145508 0.1317828893661499 -0.13231594860553741
-0.9534883499145508 0.1317828893661499 -0.11514436453580856
-0.9534883499145508 0.1472867727279663 -0.12880197167396545
-0.9534883499145508 0.1472867876291275 -0.11513272672891617
-0.9534883499145508 0.16279065608978271 -0.12151172757148743
-0.9534883499145508 0.16279065608978271 -0.11507715284824371
-0.9534883499145508 0.17829453945159912 -0.11951084434986115
-0.9534883499145508 0.17829453945159912 -0.10469086468219757
-0.9534883499145508 0.19379842281341553 -0.12570035457611084
-0.9534883499145508 0.19379842281341553 -0.08404147624969482
-0.9379844665527344 -0.19379842281341553 -0.13204152882099152
-0.9379844069480896 -0.19379840791225433 -0.06950736790895462
-0.9379844665527344 -0.1782945990562439 -0.12468378245830536
-0.9379844665527344 -0.1782945990562439 -0.09812375903129578
-0.9379844665527344 -0.1627907156944275 -0.12564781308174133
-0.9379844665527344 -0.1627907156944275 -0.11430510878562927
-0.9379844665527344 -0.14728683233261108 -0.1324262171983719
-0.9379844665527344 -0.1472868174314499 -0.11395887285470963
-0.9379844665527344 -0.13178294897079468 -0.1332576870918274
-0.9379844665527344 -0.13178294897079468 -0.11404437571763992
-0.9379844665527344 -0.11627906560897827 -0.13392899930477142
-0.9379844665527344 -0.11627906560897827 -0.1145305261015892
-0.9379844665527344 -0.10077518224716187 -0.13427917659282684
-0.9379844665527344 -0.10077518224716187 -0.11492320895195007
-0.9379844665527344 -0.08527129888534546 -0.1344992071390152
-0.9379844665527344 -0.08527129888534546 -0.11517219990491867
-0.9379844665527344 -0.06976741552352905 -0.13456633687019348
-0.9379844665527344 -0.06976741552352905 -0.11540847271680832
-0.9379844665527344 -0.05426359176635742 -0.13451522588729858
-0.9379844665527344 -0.05426358804106712 -0.1155480146408081
-0.9379844665527344 -0.038759708404541016 -0.13439758121967316
-0.9379844665527344 -0.038759708404541016 -0.11555976420640945
-0.9379844665527344 -0.02325582504272461 -0.13428334891796112
-0.9379844665527344 -0.02325582504272461 -0.11551512777805328
-0.9379844665527344 -0.007751941680908203 -0.13411739468574524
-0.9379844665527344 -0.007751941680908203 -0.11535903066396713
-0.9379844665527344 0.007751941680908203 -0.13397333025932312
-0.9379844665527344 0.007751941680908203 -0.1154041513800621
-0.9379844665527344 0.02325582504272461 -0.13383032381534576
-0.9379844665527344 0.02325582318007946 -0.11548713594675064
-0.9379844665527344 0.038759708404541016 -0.1339016556739807
-0.9379844665527344 0.038759708404541016 -0.11550925672054291
-0.9379844665527344 0.05426359176635742 -0.1340346336364746
-0.9379844665527344 0.05426359176635742 -0.11549368500709534
-0.9379844665527344 0.06976747512817383 -0.13407769799232483
-0.9379844665527344 0.06976747512817383 -0.11537787318229675
-0.9379844665527344 0.08527135848999023 -0.13391417264938354
-0.9379844665527344 0.08527135848999023 -0.11508992314338684
-0.9379844665527344 0.10077524185180664 -0.13363465666770935
-0.9379844665527344 0.10077524185180664 -0.11466965824365616
-0.9379844665527344 0.11627912521362305 -0.13319815695285797
-0.9379844665527344 0.11627911776304245 -0.11403626948595047
-0.9379844665527344 0.1317828893661499 -0.13244812190532684
-0.9379844665527344 0.1317828893661499 -0.1134723499417305
-0.9379844665527344 0.1472867727279663 -0.13061349093914032
-0.9379844665527344 0.1472867727279663 -0.11339275538921356
-0.9379844665527344 0.16279065608978271 -0.12494249641895294
-0.9379845261573792 0.16279065608978271 -0.11262727528810501
-0.9379844665527344 0.17829453945159912 -0.1221066266298294
-0.9379844665527344 0.17829453945159912 -0.09983933717012405
-0.9379844665527344 0.19379842281341553 -0.12789931893348694
-0.9379844665527344 0.19379842281341553 -0.07685164362192154
-0.9224806427955627 -0.19379842281341553 -0.13206039369106293
-0.922480583190918 -0.19379842281341553 -0.06543219834566116
-0.9224806427955627 -0.1782945990562439 -0.12444698810577393
-0.922480583190918 -0.1782945990562439 -0.09462578594684601
-0.9224806427955627 -0.1627907156944275 -0.12671223282814026
-0.922480583190918 -0.1627907156944275 -0.11214339733123779
