0.47214674949645996 -0.7829457521438599 -0.20930230617523193
0.4719541370868683 -0.7829457521438599 -0.19379842281341553
0.47190922498703003 -0.7829457521438599 -0.1782945990562439
0.4715241491794586 -0.7829457521438599 -0.1627907156944275
0.471072793006897 -0.7829457521438599 -0.14728683233261108
0.47085994482040405 -0.7829457521438599 -0.13178294897079468
0.4708016514778137 -0.7829457521438599 -0.11627906560897827
0.47131940722465515 -0.7829457521438599 -0.10077518224716187
0.466273695230484 -0.7829457521438599 -0.02325582504272461
0.4718490540981293 -0.7674418687820435 -0.5038759708404541
0.4715525805950165 -0.7674418687820435 -0.4883720874786377
0.47173643112182617 -0.7674418687820435 -0.4728682041168213
0.4715377688407898 -0.7674418687820435 -0.4573643207550049
0.4716917872428894 -0.7674418687820435 -0.4418604373931885
0.47182828187942505 -0.7674418687820435 -0.42635661363601685
0.47169220447540283 -0.7674418687820435 -0.41085273027420044
0.47179073095321655 -0.7674418687820435 -0.39534884691238403
0.47207123041152954 -0.7674418687820435 -0.3798449635505676
0.4728434979915619 -0.7674418687820435 -0.3643410801887512
0.4725964367389679 -0.7674418687820435 -0.28682172298431396
0.47251665592193604 -0.7674418687820435 -0.27131783962249756
0.47257673740386963 -0.7674418687820435 -0.25581395626068115
0.47258812189102173 -0.7674418687820435 -0.24031007289886475
0.472491592168808 -0.7674418687820435 -0.22480618953704834
0.4722976088523865 -0.7674418687820435 -0.20930230617523193
0.47203463315963745 -0.7674418687820435 -0.19379842281341553
0.47193312644958496 -0.7674418687820435 -0.1782945990562439
0.47154271602630615 -0.7674418687820435 -0.1627907156944275
0.47109660506248474 -0.7674418687820435 -0.14728683233261108
0.4708581864833832 -0.7674418687820435 -0.13178294897079468
0.47084692120552063 -0.7674418687820435 -0.11627906560897827
0.47149530053138733 -0.7674418687820435 -0.10077518224716187
0.46787968277931213 -0.7674418687820435 -0.02325582504272461
0.47166967391967773 -0.751937985420227 -0.5038759708404541
0.4711790084838867 -0.751937985420227 -0.4883720874786377
0.4712001085281372 -0.751937985420227 -0.4728682041168213
0.47098326683044434 -0.751937985420227 -0.4573643207550049
0.47118496894836426 -0.751937985420227 -0.4418604373931885
0.47137176990509033 -0.751937985420227 -0.42635661363601685
0.47132858633995056 -0.751937985420227 -0.41085273027420044
0.4714869260787964 -0.751937985420227 -0.39534884691238403
0.47176361083984375 -0.751937985420227 -0.3798449635505676
0.4724774658679962 -0.751937985420227 -0.3643410801887512
0.47271332144737244 -0.751937985420227 -0.30232560634613037
0.4723842144012451 -0.751937985420227 -0.28682172298431396
0.4722466766834259 -0.751937985420227 -0.27131783962249756
0.47220379114151 -0.751937985420227 -0.25581395626068115
0.4721817672252655 -0.751937985420227 -0.24031007289886475
0.47206252813339233 -0.751937985420227 -0.22480618953704834
0.47189170122146606 -0.751937985420227 -0.20930230617523193
0.47162652015686035 -0.751937985420227 -0.19379842281341553
0.47143226861953735 -0.751937985420227 -0.1782945990562439
0.471038281917572 -0.751937985420227 -0.1627907156944275
0.4706071615219116 -0.751937985420227 -0.14728683233261108
0.47042199969291687 -0.751937985420227 -0.13178294897079468
0.4706854224205017 -0.751937985420227 -0.11627906560897827
0.4717359244823456 -0.751937985420227 -0.10077518224716187
0.4700969457626343 -0.751937985420227 -0.02325582504272461
0.4712646007537842 -0.7364341020584106 -0.5038759708404541
0.470527708530426 -0.7364341020584106 -0.4883720874786377
0.470275342464447 -0.7364341020584106 -0.4728682041168213
0.46997761726379395 -0.7364341020584106 -0.4573643207550049
0.470170259475708 -0.7364341020584106 -0.4418604373931885
0.4703560173511505 -0.7364341020584106 -0.42635661363601685
0.4704187214374542 -0.7364341020584106 -0.41085273027420044
0.4707254469394684 -0.7364341020584106 -0.39534884691238403
0.4710911512374878 -0.7364341020584106 -0.3798449635505676
0.47169581055641174 -0.7364341020584106 -0.3643410801887512
0.4727482795715332 -0.7364341020584106 -0.3488371968269348
0.47255468368530273 -0.7364341020584106 -0.317829430103302
0.47169649600982666 -0.7364341020584106 -0.30232560634613037
0.4712792634963989 -0.7364341020584106 -0.28682172298431396
0.4711052477359772 -0.7364341020584106 -0.27131783962249756
0.4709632992744446 -0.7364341020584106 -0.25581395626068115
0.47094160318374634 -0.7364341020584106 -0.24031007289886475
0.47084295749664307 -0.7364341020584106 -0.22480618953704834
0.47087177634239197 -0.7364341020584106 -0.20930230617523193
0.47087833285331726 -0.7364341020584106 -0.19379842281341553
0.4707862138748169 -0.7364341020584106 -0.1782945990562439
0.4705117642879486 -0.7364341020584106 -0.1627907156944275
0.4701352119445801 -0.7364341020584106 -0.14728683233261108
0.4699837863445282 -0.7364341020584106 -0.13178294897079468
0.4706735610961914 -0.7364341020584106 -0.11627906560897827
0.472228467464447 -0.7364341020584106 -0.10077518224716187
0.47181612253189087 -0.7364341020584106 -0.02325582504272461
0.47136926651000977 -0.7209302186965942 -0.5038759708404541
0.4705733358860016 -0.7209302186965942 -0.4883720874786377
0.4702712595462799 -0.7209302186965942 -0.4728682041168213
0.46992790699005127 -0.7209302186965942 -0.4573643207550049
0.4700871706008911 -0.7209302186965942 -0.4418604373931885
0.4701942503452301 -0.7209302186965942 -0.42635661363601685
0.47022494673728943 -0.7209302186965942 -0.41085273027420044
0.47049522399902344 -0.7209302186965942 -0.39534884691238403
0.4708010256290436 -0.7209302186965942 -0.3798449635505676
0.47117558121681213 -0.7209302186965942 -0.3643410801887512
0.4720071256160736 -0.7209302186965942 -0.3488371968269348
0.4721294343471527 -0.7209302186965942 -0.3333333134651184
0.4717060923576355 -0.7209302186965942 -0.317829430103302
0.4708450734615326 -0.7209302186965942 -0.30232560634613037
0.4704989492893219 -0.7209302186965942 -0.28682172298431396
0.470402330160141 -0.7209302186965942 -0.27131783962249756
0.47029852867126465 -0.7209302186965942 -0.25581395626068115
0.4703928828239441 -0.7209302186965942 -0.24031007289886475
0.4703410863876343 -0.7209302186965942 -0.22480618953704834
0.4705095589160919 -0.7209302186965942 -0.20930230617523193
0.47069936990737915 -0.7209302186965942 -0.19379842281341553
0.4707314670085907 -0.7209302186965942 -0.1782945990562439
0.4704902768135071 -0.7209302186965942 -0.1627907156944275
0.4699169397354126 -0.7209302186965942 -0.14728683233261108
0.46970757842063904 -0.7209302186965942 -0.13178294897079468
0.47084206342697144 -0.7209302186965942 -0.11627906560897827
0.4721449315547943 -0.7209302186965942 -0.02325582504272461
0.4577912986278534 -0.7054263353347778 -0.317829430103302
0.4601632356643677 -0.7054262757301331 -0.30232560634613037
0.46029582619667053 -0.7054263353347778 -0.20930230617523193
0.46958011388778687 -0.7054263353347778 -0.19379842281341553
0.4717582166194916 -0.7054263353347778 -0.1782945990562439
0.47219741344451904 -0.7054263353347778 -0.1627907156944275
0.4711134731769562 -0.7054263353347778 -0.14728683233261108
0.4703032970428467 -0.7054263353347778 -0.13178294897079468
0.47133833169937134 -0.7054263353347778 -0.11627906560897827
0.4726307988166809 -0.7054263353347778 -0.05426359176635742
0.472174733877182 -0.7054263353347778 -0.02325582504272461
0.4671432077884674 -0.6899224519729614 -0.13178294897079468
0.471309095621109 -0.6899224519729614 -0.11627906560897827
0.4727608859539032 -0.6899224519729614 -0.10077518224716187
0.47190776467323303 -0.6899224519729614 -0.05426359176635742
0.472434937953949 -0.6899224519729614 -0.02325582504272461
0.4675060510635376 -0.674418568611145 -0.10077518224716187
0.4716014564037323 -0.674418568611145 -0.05426359176635742
0.46628451347351074 -0.6589146852493286 -0.08527129888534546
0.4723256230354309 -0.6589146852493286 -0.05426359176635742
0.4575771689414978 -0.643410861492157 0.17829453945159912
0.45834583044052124 -0.643410861492157 0.19379842281341553
0.45781105756759644 -0.643410861492157 0.20930230617523193
0.4691123962402344 -0.6279069781303406 -0.06976741552352905
0.46408194303512573 -0.6279069781303406 -0.007751941680908203
0.4591578245162964 -0.6279069781303406 0.19379842281341553
0.45890626311302185 -0.6279069185256958 0.20930229127407074
0.4619002938270569 -0.612403154373169 -0.06976741552352905
0.4716695249080658 -0.6124030947685242 -0.038759708404541016
0.4712202548980713 -0.6124030947685242 -0.007751941680908203
0.46061909198760986 -0.6124030947685242 0.007751941680908203
0.4578843116760254 -0.6124030947685242 0.20930230617523193
0.4580577611923218 -0.6124030947685242 0.22480617463588715
0.4707803726196289 -0.5968992114067078 -0.038759708404541016
0.4715529680252075 -0.5968992114067078 -0.02325582504272461
0.4726203680038452 -0.5968992114067078 -0.007751941680908203
0.45874878764152527 -0.596899151802063 0.02325582504272461
0.45743733644485474 -0.5968992114067078 0.08527135848999023
0.458561509847641 -0.5968992114067078 0.22480617463588715
0.4580104351043701 -0.5968992710113525 0.24031008780002594
0.47017621994018555 -0.5813953876495361 -0.038759708404541016
0.47075995802879333 -0.5813953876495361 -0.02325582504272461
0.4725549817085266 -0.5813953876495361 -0.007751941680908203
0.47053441405296326 -0.5813953876495361 0.02325582504272461
0.45772993564605713 -0.5813953876495361 0.038759708404541016
0.4590053856372833 -0.5813953876495361 0.05426359176635742
0.45958027243614197 -0.5813953876495361 0.06976747512817383
0.45872026681900024 -0.5813953876495361 0.08527135848999023
0.4592221677303314 -0.5813953876495361 0.22480618953704834
0.4594952464103699 -0.5813953876495361 0.24031007289886475
0.4698445796966553 -0.5658915042877197 -0.038759708404541016
0.4703557789325714 -0.5658915042877197 -0.02325582504272461
0.47231292724609375 -0.5658915042877197 -0.007751941680908203
0.45905831456184387 -0.5658915042877197 0.22480618953704834
0.45974645018577576 -0.5658915042877197 0.24031007289886475
0.4577120542526245 -0.5658915042877197 0.25581395626068115
0.4722207188606262 -0.5503876209259033 -0.05426359176635742
0.46987783908843994 -0.5503876209259033 -0.038759708404541016
0.4701738953590393 -0.5503876209259033 -0.02325582504272461
0.47210222482681274 -0.5503876209259033 -0.007751941680908203
0.4583626091480255 -0.5503876209259033 0.24031005799770355
0.45744064450263977 -0.5503876209259033 0.25581395626068115
0.46976423263549805 -0.5348837375640869 -0.05426359176635742
0.47027456760406494 -0.5348837375640869 -0.038759708404541016
0.47023314237594604 -0.5348837375640869 -0.02325582504272461
0.4719679355621338 -0.5348837375640869 -0.007751941680908203
0.47040337324142456 -0.5348837375640869 0.02325582504272461
0.4660109877586365 -0.5193798542022705 -0.05426359176635742
0.47099167108535767 -0.5193798542022705 -0.038759708404541016
0.4705585241317749 -0.5193798542022705 -0.02325582504272461
0.47192659974098206 -0.5193798542022705 -0.007751941680908203
0.46604642271995544 -0.5193798542022705 0.02325582504272461
0.4607149362564087 -0.5038759708404541 -0.05426359176635742
0.4715806543827057 -0.5038759708404541 -0.038759708404541016
0.47068721055984497 -0.5038759708404541 -0.02325582504272461
0.47180286049842834 -0.5038759708404541 -0.007751941680908203
0.46393319964408875 -0.5038759708404541 0.02325582504272461
0.4722399115562439 -0.4883720874786377 -0.038759708404541016
0.4709852933883667 -0.4883720874786377 -0.02325582504272461
0.47184211015701294 -0.4883720874786377 -0.007751941680908203
0.4665430188179016 -0.4883720874786377 0.02325582504272461
0.47259077429771423 -0.4728682041168213 -0.038759708404541016
0.47109994292259216 -0.4728682041168213 -0.02325582504272461
0.4719117283821106 -0.4728682041168213 -0.007751941680908203
0.4700927138328552 -0.4728682041168213 0.02325582504272461
0.4723556339740753 -0.4573643207550049 -0.038759708404541016
0.4709993004798889 -0.4573643207550049 -0.02325582504272461
0.47211912274360657 -0.4573643207550049 -0.007751941680908203
0.45834118127822876 -0.4573643207550049 0.24031007289886475
0.47144776582717896 -0.4418604373931885 -0.038759708404541016
0.47076135873794556 -0.4418604373931885 -0.02325582504272461
0.4724031388759613 -0.4418604373931885 -0.007751941680908203
0.45886528491973877 -0.44186046719551086 0.17829453945159912
0.4587266147136688 -0.44186046719551086 0.22480618953704834
0.46003949642181396 -0.4418604373931885 0.24031007289886475
0.458817720413208 -0.4418604373931885 0.25581395626068115
0.47041481733322144 -0.42635661363601685 -0.038759708404541016
0.47047024965286255 -0.42635661363601685 -0.02325582504272461
0.4725753962993622 -0.42635661363601685 -0.007751941680908203
0.4592161774635315 -0.42635661363601685 0.038759708404541016
0.45796069502830505 -0.42635661363601685 0.16279065608978271
0.46152859926223755 -0.42635661363601685 0.17829453945159912
0.4624612033367157 -0.42635661363601685 0.19379842281341553
0.46064358949661255 -0.42635661363601685 0.20930230617523193
0.46132558584213257 -0.42635661363601685 0.22480618953704834
0.4608825445175171 -0.42635661363601685 0.24031007289886475
0.4597127139568329 -0.42635661363601685 0.25581395626068115
0.4701789915561676 -0.41085273027420044 -0.038759708404541016
0.47039520740509033 -0.41085273027420044 -0.02325582504272461
0.47276633977890015 -0.41085273027420044 -0.007751941680908203
0.46281009912490845 -0.41085273027420044 0.038759708404541016
0.45910218358039856 -0.41085273027420044 0.17829455435276031
0.46249884366989136 -0.4108527600765228 0.19379842281341553
0.4620596170425415 -0.41085273027420044 0.20930230617523193
0.46201127767562866 -0.41085273027420044 0.22480618953704834
0.46129992604255676 -0.41085273027420044 0.24031008780002594
0.46003103256225586 -0.41085273027420044 0.25581395626068115
0.4705978333950043 -0.39534884691238403 -0.038759708404541016
0.47042739391326904 -0.39534884691238403 -0.02325582504272461
0.4599919617176056 -0.39534884691238403 0.22480618953704834
0.4611944854259491 -0.39534884691238403 0.24031007289886475
0.45988398790359497 -0.39534881711006165 0.25581395626068115
0.4716748595237732 -0.3798449635505676 -0.038759708404541016
0.47043636441230774 -0.3798449635505676 -0.02325582504272461
0.46044790744781494 -0.3798449635505676 0.24031007289886475
0.4599134922027588 -0.3798449635505676 0.25581395626068115
0.47045233845710754 -0.3643410801887512 -0.02325582504272461
0.47264164686203003 -0.3643410801887512 -0.007751941680908203
0.4649732708930969 -0.3643410801887512 0.02325582504272461
0.4603132903575897 -0.3643410801887512 0.24031007289886475
0.45963627099990845 -0.3643410801887512 0.25581395626068115
0.4708889126777649 -0.3488371968269348 -0.02325582504272461
0.4726753830909729 -0.3488371968269348 -0.007751941680908203
0.4597967267036438 -0.3488371968269348 0.24031007289886475
0.4593936502933502 -0.3488371968269348 0.25581395626068115
0.4713478684425354 -0.3333333134651184 -0.02325582504272461
0.47248661518096924 -0.3333333134651184 -0.007751941680908203
0.4578815996646881 -0.3333333134651184 0.24031007289886475
0.45833712816238403 -0.3333333134651184 0.25581395626068115
0.4718491733074188 -0.317829430103302 -0.038759708404541016
0.47194603085517883 -0.317829430103302 -0.02325582504272461
0.4723559617996216 -0.317829430103302 -0.007751941680908203
0.4577081501483917 -0.317829430103302 0.22480617463588715
0.4584994912147522 -0.3178294003009796 0.24031007289886475
0.4679991602897644 -0.30232560634613037 -0.038759708404541016
0.47240588068962097 -0.30232560634613037 -0.02325582504272461
0.4722749590873718 -0.30232560634613037 -0.007751941680908203
0.46069180965423584 -0.30232560634613037 0.05426359176635742
0.45778414607048035 -0.30232560634613037 0.06976746767759323
0.45933541655540466 -0.30232560634613037 0.19379840791225433
0.45958998799324036 -0.30232560634613037 0.20930229127407074
0.4598483145236969 -0.302325576543808 0.22480618953704834
0.45896637439727783 -0.30232560634613037 0.24031007289886475
0.4644945561885834 -0.28682172298431396 -0.038759708404541016
0.4727801978588104 -0.28682172298431396 -0.02325582504272461
0.4722455143928528 -0.28682172298431396 -0.007751941680908203
0.4625352919101715 -0.28682172298431396 0.05426359176635742
0.46016356348991394 -0.28682172298431396 0.06976747512817383
0.45795726776123047 -0.28682172298431396 0.08527135848999023
0.45758256316185 -0.28682172298431396 0.10077524185180664
0.45787250995635986 -0.28682172298431396 0.11627912521362305
0.4587634801864624 -0.28682172298431396 0.1317828893661499
0.45846885442733765 -0.28682172298431396 0.1472867727279663
0.4629574120044708 -0.27131783962249756 -0.038759708404541016
0.47243621945381165 -0.27131783962249756 -0.007751941680908203
0.4719506800174713 -0.27131783962249756 0.007751941680908203
0.46115702390670776 -0.27131783962249756 0.05426359176635742
0.4598466455936432 -0.27131783962249756 0.06976747512817383
0.45863837003707886 -0.27131783962249756 0.08527135848999023
0.4584088623523712 -0.27131783962249756 0.10077523440122604
0.45908400416374207 -0.27131783962249756 0.11627913266420364
0.46028661727905273 -0.27131783962249756 0.1317828893661499
0.4597950577735901 -0.27131783962249756 0.1472867727279663
0.4628776013851166 -0.25581395626068115 -0.038759708404541016
0.4728149175643921 -0.25581395626068115 -0.02325582504272461
0.4723554849624634 -0.25581395626068115 -0.007751941680908203
0.4692007005214691 -0.25581395626068115 0.007751941680908203
0.458356112241745 -0.25581395626068115 0.05426359176635742
0.4581822454929352 -0.25581395626068115 0.06976748257875443
0.45811501145362854 -0.25581395626068115 0.11627912521362305
0.45965123176574707 -0.25581395626068115 0.1317828893661499
0.4636344909667969 -0.24031008780002594 -0.038759708404541016
0.47233331203460693 -0.24031007289886475 -0.02325582504272461
0.47219759225845337 -0.24031007289886475 -0.007751941680908203
0.4684157073497772 -0.24031007289886475 0.007751941680908203
0.4573913812637329 -0.24031005799770355 0.27131780982017517
0.45790576934814453 -0.24031007289886475 0.28682172298431396
0.4575772285461426 -0.24031007289886475 0.30232560634613037
0.46266376972198486 -0.22480617463588715 -0.038759708404541016
0.47211185097694397 -0.22480618953704834 -0.02325582504272461
0.4721526503562927 -0.22480618953704834 -0.007751941680908203
0.46872347593307495 -0.22480618953704834 0.007751941680908203
0.45786523818969727 -0.22480620443820953 0.30232560634613037
0.4574485719203949 -0.22480618953704834 0.3178294897079468
0.46069473028182983 -0.20930230617523193 -0.038759708404541016
0.47218650579452515 -0.20930230617523193 -0.02325582504272461
0.47210246324539185 -0.20930230617523193 -0.007751941680908203
0.47103315591812134 -0.20930230617523193 0.007751941680908203
0.4577842652797699 -0.20930232107639313 0.16279065608978271
0.4624634385108948 -0.20930230617523193 0.17829453945159912
0.4582763612270355 -0.20930230617523193 0.19379840791225433
0.45809444785118103 -0.20930232107639313 0.30232560634613037
0.45799124240875244 -0.20930230617523193 0.31782951951026917
0.4574420154094696 -0.20930232107639313 0.33333340287208557
0.45748427510261536 -0.20930230617523193 0.3488372564315796
0.4725032150745392 -0.19379842281341553 -0.02325582504272461
0.4719257652759552 -0.19379842281341553 -0.007751941680908203
0.4664071798324585 -0.19379842281341553 0.16279065608978271
0.467327356338501 -0.19379842281341553 0.17829453945159912
0.4649962782859802 -0.19379842281341553 0.19379842281341553
0.4603523910045624 -0.19379842281341553 0.20930230617523193
0.45776402950286865 -0.19379842281341553 0.25581395626068115
0.45833510160446167 -0.19379840791225433 0.27131783962249756
0.45870739221572876 -0.19379842281341553 0.28682172298431396
0.4589524269104004 -0.19379843771457672 0.30232560634613037
0.4584890604019165 -0.19379842281341553 0.3178294897079468
0.4579043984413147 -0.19379843771457672 0.3333333730697632
0.47281014919281006 -0.1782945990562439 -0.02325582504272461
0.4716777801513672 -0.1782945990562439 -0.007751941680908203
0.4604761302471161 -0.1782945990562439 0.1472867727279663
0.47037577629089355 -0.1782945990562439 0.16279065608978271
0.4693215489387512 -0.1782945990562439 0.17829453945159912
0.4681747853755951 -0.1782945990562439 0.19379842281341553
0.4649801254272461 -0.1782945990562439 0.20930230617523193
0.45758914947509766 -0.1782945841550827 0.22480618953704834
0.45886749029159546 -0.1782945990562439 0.25581395626068115
0.457500159740448 -0.1782945990562439 0.27131783962249756
0.457722544670105 -0.1782945990562439 0.3178294897079468
0.47174933552742004 -0.1627907156944275 -0.007751941680908203
0.4590854048728943 -0.16279073059558868 0.05426359176635742
0.47146058082580566 -0.1627907156944275 0.16279065608978271
0.47083228826522827 -0.1627907156944275 0.17829453945159912
0.46988537907600403 -0.1627907156944275 0.19379842281341553
0.4647836685180664 -0.1627907156944275 0.20930230617523193
0.45758959650993347 -0.1627907156944275 0.25581395626068115
0.47192493081092834 -0.14728683233261108 -0.007751941680908203
0.46872279047966003 -0.14728683233261108 0.05426359176635742
0.45753931999206543 -0.14728683233261108 0.06976747512817383
0.4654366374015808 -0.14728683233261108 0.11627912521362305
0.4653584957122803 -0.14728683233261108 0.1317828893661499
0.4607178270816803 -0.14728683233261108 0.1472867727279663
0.4605337977409363 -0.14728683233261108 0.16279065608978271
0.46565890312194824 -0.14728683233261108 0.17829453945159912
0.4616832435131073 -0.14728683233261108 0.19379842281341553
0.47217217087745667 -0.13178294897079468 -0.007751941680908203
0.46255022287368774 -0.13178294897079468 0.038759708404541016
0.4603269398212433 -0.13178294897079468 0.06976747512817383
0.4670594036579132 -0.13178294897079468 0.11627912521362305
0.4709226191043854 -0.13178294897079468 0.1317828893661499
0.4708332419395447 -0.13178294897079468 0.1472867727279663
0.4650357961654663 -0.13178294897079468 0.16279065608978271
0.4724394679069519 -0.11627906560897827 -0.007751941680908203
0.4645756185054779 -0.11627906560897827 0.038759708404541016
0.4598383903503418 -0.11627906560897827 0.06976747512817383
0.45799520611763 -0.11627906560897827 0.11627912521362305
0.46475762128829956 -0.11627906560897827 0.1317828893661499
0.46334511041641235 -0.11627906560897827 0.1472867727279663
0.4582218825817108 -0.11627905815839767 0.25581395626068115
0.46216100454330444 -0.10077518224716187 0.038759708404541016
0.4596685767173767 -0.10077518969774246 0.25581395626068115
0.4576262831687927 -0.10077518224716187 0.27131783962249756
0.4604502022266388 -0.08527129888534546 0.24031007289886475
0.4607622027397156 -0.08527129888534546 0.25581395626068115
0.4580177366733551 -0.08527129143476486 0.27131783962249756
0.4696589708328247 -0.06976741552352905 0.05426359176635742
0.4623858630657196 -0.06976741552352905 0.24031007289886475
0.46118250489234924 -0.06976741552352905 0.25581395626068115
0.4583228826522827 -0.06976741552352905 0.27131783962249756
0.4667946994304657 -0.05426359176635742 0.05426359176635742
0.4629688262939453 -0.05426359176635742 0.24031007289886475
0.4612441956996918 -0.05426359176635742 0.25581395626068115
0.4584907293319702 -0.05426359176635742 0.27131783962249756
0.4659755825996399 -0.038759708404541016 0.05426359176635742
0.46316105127334595 -0.038759708404541016 0.24031007289886475
0.4611581861972809 -0.038759708404541016 0.25581395626068115
0.4585176706314087 -0.038759712129831314 0.27131783962249756
0.4727931618690491 -0.02325582504272461 -0.007751941680908203
0.46630603075027466 -0.02325582504272461 0.05426359176635742
0.46333685517311096 -0.02325582504272461 0.24031007289886475
0.461201012134552 -0.02325582504272461 0.25581395626068115
0.45852863788604736 -0.02325582504272461 0.27131786942481995
0.4728667140007019 -0.007751941680908203 -0.007751941680908203
0.46728721261024475 -0.007751941680908203 0.05426359176635742
0.46320027112960815 -0.007751941680908203 0.24031007289886475
0.46124306321144104 -0.007751941680908203 0.25581395626068115
0.4584665596485138 -0.007751941680908203 0.27131783962249756
0.4727681875228882 0.007751941680908203 -0.007751941680908203
0.46885451674461365 0.007751941680908203 0.05426359176635742
0.4631724953651428 0.007751941680908203 0.24031007289886475
0.46136006712913513 0.007751941680908203 0.25581395626068115
0.45839864015579224 0.007751941680908203 0.27131783962249756
0.4727715849876404 0.02325582504272461 -0.007751941680908203
0.4713241755962372 0.02325582504272461 0.05426359176635742
0.46314480900764465 0.02325582504272461 0.24031007289886475
0.46129992604255676 0.02325582504272461 0.25581395626068115
0.4582150876522064 0.02325582504272461 0.27131783962249756
0.472645103931427 0.038759708404541016 -0.007751941680908203
0.46272212266921997 0.038759708404541016 0.24031007289886475
0.4609748125076294 0.038759708404541016 0.25581395626068115
0.4575934410095215 0.038759708404541016 0.27131783962249756
0.47268855571746826 0.05426359176635742 -0.007751941680908203
0.4580094814300537 0.05426359176635742 0.06976747512817383
0.4617278575897217 0.05426359176635742 0.24031007289886475
0.4605388641357422 0.05426359176635742 0.25581395626068115
0.4725809693336487 0.06976747512817383 -0.007751941680908203
0.45870810747146606 0.06976747512817383 0.06976747512817383
0.45990249514579773 0.06976747512817383 0.24031007289886475
0.4601195454597473 0.06976747512817383 0.25581395626068115
0.4727891981601715 0.08527135848999023 -0.007751941680908203
0.4603857398033142 0.08527135848999023 0.06976747512817383
0.45796629786491394 0.08527135848999023 0.24031007289886475
0.45964276790618896 0.08527136594057083 0.25581395626068115
0.4727262556552887 0.10077524185180664 -0.007751941680908203
0.47238340973854065 0.10077524185180664 0.007751941680908203
0.45817142724990845 0.10077524185180664 0.038759708404541016
0.46214330196380615 0.10077524185180664 0.06976747512817383
0.4590734839439392 0.10077524185180664 0.25581395626068115
0.4728260040283203 0.11627912521362305 -0.007751941680908203
0.4719473421573639 0.11627912521362305 0.007751941680908203
0.45922085642814636 0.11627912521362305 0.06976747512817383
0.4576205015182495 0.11627911776304245 0.25581392645835876
0.4725803732872009 0.1317828893661499 -0.007751941680908203
0.46983665227890015 0.1317828893661499 0.05426359176635742
0.4670557975769043 0.1317828893661499 0.16279065608978271
0.47113895416259766 0.1317828893661499 0.17829453945159912
0.460028737783432 0.1317828893661499 0.19379842281341553
0.47226762771606445 0.1472867727279663 -0.007751941680908203
0.459303081035614 0.1472867727279663 0.05426359176635742
0.45972275733947754 0.1472867727279663 0.1472867727279663
0.47213611006736755 0.1472867727279663 0.16279065608978271
0.46387842297554016 0.1472867727279663 0.19379842281341553
0.4618414044380188 0.1472867727279663 0.20930230617523193
0.45956507325172424 0.1472867727279663 0.22480618953704834
0.45915430784225464 0.16279065608978271 -0.038759712129831314
0.47200071811676025 0.16279065608978271 -0.007751941680908203
0.4686407744884491 0.16279065608978271 0.16279065608978271
0.47099828720092773 0.16279065608978271 0.17829453945159912
0.46474888920783997 0.16279065608978271 0.19379842281341553
0.46426957845687866 0.16279065608978271 0.20930230617523193
0.46191057562828064 0.16279065608978271 0.22480618953704834
0.45820897817611694 0.16279065608978271 0.24031007289886475
0.4611722230911255 0.17829453945159912 -0.038759708404541016
0.4727450907230377 0.17829453945159912 -0.02325582504272461
0.47171223163604736 0.17829453945159912 -0.007751941680908203
0.46127310395240784 0.17829453945159912 0.1472867727279663
0.4708542227745056 0.17829453945159912 0.16279065608978271
0.46960026025772095 0.17829453945159912 0.19379842281341553
0.4645264148712158 0.17829453945159912 0.20930230617523193
0.46171820163726807 0.17829453945159912 0.22480618953704834
0.4584972560405731 0.17829455435276031 0.3178294897079468
0.45803603529930115 0.17829453945159912 0.3333333730697632
0.462425172328949 0.19379842281341553 -0.038759708404541016
0.47224491834640503 0.19379842281341553 -0.02325582504272461
0.471452534198761 0.19379842281341553 -0.007751941680908203
0.46320411562919617 0.19379842281341553 0.1472867727279663
0.4705439805984497 0.19379842281341553 0.16279065608978271
0.4698447585105896 0.19379842281341553 0.19379842281341553
0.4623256325721741 0.19379842281341553 0.20930230617523193
0.45907264947891235 0.19379843771457672 0.22480618953704834
0.4584278166294098 0.19379842281341553 0.3178294897079468
0.45792293548583984 0.19379842281341553 0.3333333730697632
0.46455907821655273 0.20930230617523193 -0.038759708404541016
0.4717324376106262 0.20930230617523193 -0.02325582504272461
0.4711877107620239 0.20930230617523193 -0.007751941680908203
0.46622908115386963 0.20930230617523193 0.02325582504272461
0.45985597372055054 0.20930230617523193 0.1472867727279663
0.4677768349647522 0.20930230617523193 0.16279065608978271
0.4706023931503296 0.20930230617523193 0.17829453945159912
0.46537837386131287 0.20930230617523193 0.19379842281341553
0.4579332172870636 0.20930230617523193 0.20930230617523193
0.46552085876464844 0.22480618953704834 -0.038759708404541016
0.4714772403240204 0.22480618953704834 -0.02325582504272461
0.4710114598274231 0.22480618953704834 -0.007751941680908203
0.46816152334213257 0.22480618953704834 0.02325582504272461
0.4605238735675812 0.22480618953704834 0.16279065608978271
0.4622192978858948 0.22480618953704834 0.17829453945159912
0.46607667207717896 0.24031007289886475 -0.038759708404541016
0.471493124961853 0.24031007289886475 -0.02325582504272461
0.47104498744010925 0.24031007289886475 -0.007751941680908203
0.46626824140548706 0.24031007289886475 0.02325582504272461
0.4601827561855316 0.24031007289886475 0.05426359176635742
0.46725618839263916 0.25581395626068115 -0.038759708404541016
0.4716600179672241 0.25581395626068115 -0.02325582504272461
0.47121939063072205 0.25581395626068115 -0.007751941680908203
0.4610224664211273 0.25581395626068115 0.02325582504272461
0.459403395652771 0.25581395626068115 0.038759708404541016
0.46505165100097656 0.25581395626068115 0.05426359176635742
0.46904534101486206 0.27131783962249756 -0.038759708404541016
0.47185081243515015 0.27131783962249756 -0.02325582504272461
0.4714715778827667 0.27131783962249756 -0.007751941680908203
0.4590877890586853 0.27131783962249756 0.02325582504272461
0.46362391114234924 0.27131783962249756 0.038759708404541016
0.47141778469085693 0.27131783962249756 0.05426359176635742
0.4574908912181854 0.27131780982017517 0.22480618953704834
0.4590814709663391 0.27131783962249756 0.24031007289886475
0.4707210659980774 0.28682172298431396 -0.038759708404541016
0.47181767225265503 0.28682172298431396 -0.02325582504272461
0.4716302752494812 0.28682172298431396 -0.007751941680908203
0.45973968505859375 0.28682172298431396 0.02325582504272461
0.46508800983428955 0.28682172298431396 0.038759708404541016
0.4582100510597229 0.28682175278663635 0.06976747512817383
0.45766589045524597 0.28682172298431396 0.22480620443820953
0.4598091244697571 0.28682172298431396 0.24031007289886475
0.47177302837371826 0.30232560634613037 -0.02325582504272461
0.4718567728996277 0.30232560634613037 -0.007751941680908203
0.4619188904762268 0.30232560634613037 0.038759708404541016
0.46907854080200195 0.30232560634613037 0.05426359176635742
0.4581545293331146 0.30232560634613037 0.1317828893661499
0.45921194553375244 0.30232560634613037 0.1472867727279663
0.4591403007507324 0.30232560634613037 0.24031007289886475
0.47124984860420227 0.3178294897079468 -0.02325582504272461
0.47176510095596313 0.3178294897079468 -0.007751941680908203
0.4593122899532318 0.3178294897079468 0.02325582504272461
0.4602864384651184 0.3178294897079468 0.038759708404541016
0.4647054672241211 0.3178294897079468 0.05426359176635742
0.459621787071228 0.3178294897079468 0.1472867727279663
0.46222829818725586 0.3178294897079468 0.16279065608978271
0.46186283230781555 0.3178294897079468 0.17829453945159912
0.45856741070747375 0.3178294897079468 0.24031008780002594
0.4706840515136719 0.3333333730697632 -0.02325582504272461
0.47164955735206604 0.3333333730697632 -0.007751941680908203
0.46542343497276306 0.3333333730697632 0.02325582504272461
0.4609355926513672 0.3333333730697632 0.038759708404541016
0.4626615047454834 0.3333333730697632 0.05426359176635742
0.4578123390674591 0.33333340287208557 0.1472867727279663
0.4615834951400757 0.3333333730697632 0.16279065608978271
0.4637966752052307 0.3333333730697632 0.17829453945159912
0.4634973704814911 0.3333333730697632 0.19379842281341553
0.45877763628959656 0.3333333432674408 0.24031005799770355
0.4702175557613373 0.3488372564315796 -0.02325582504272461
0.4715518057346344 0.3488372564315796 -0.007751941680908203
0.46856507658958435 0.3488372564315796 0.02325582504272461
0.4593752920627594 0.3488372564315796 0.038759708404541016
0.4607052206993103 0.3488372564315796 0.05426359176635742
0.45875173807144165 0.348837286233902 0.16279065608978271
0.4622099995613098 0.3488372564315796 0.17829453945159912
0.46221524477005005 0.3488372564315796 0.19379840791225433
0.4591788947582245 0.3488372266292572 0.24031007289886475
0.4700191617012024 0.364341139793396 -0.02325582504272461
0.47160205245018005 0.364341139793396 -0.007751941680908203
0.46864333748817444 0.364341139793396 0.02325582504272461
0.45819252729415894 0.364341139793396 0.05426358804106712
0.459059476852417 0.364341139793396 0.24031007289886475
0.4727964401245117 0.37984490394592285 -0.038759708404541016
0.4701440632343292 0.37984490394592285 -0.02325582504272461
0.47179147601127625 0.37984490394592285 -0.007751941680908203
0.46598348021507263 0.37984490394592285 0.02325582504272461
0.45748597383499146 0.37984490394592285 0.22480618953704834
0.45904093980789185 0.37984487414360046 0.24031007289886475
0.4723944067955017 0.39534878730773926 -0.038759708404541016
0.4702082574367523 0.39534878730773926 -0.02325582504272461
0.4720174968242645 0.39534878730773926 -0.007751941680908203
0.46021029353141785 0.39534878730773926 0.02325582504272461
0.4588811993598938 0.39534878730773926 0.22480618953704834
0.4600054621696472 0.39534878730773926 0.24031007289886475
0.47218573093414307 0.41085267066955566 -0.038759708404541016
0.47049275040626526 0.41085267066955566 -0.02325582504272461
0.4723046123981476 0.41085267066955566 -0.007751941680908203
0.47237393260002136 0.41085267066955566 0.007751941680908203
0.4595078229904175 0.41085267066955566 0.22480618953704834
0.4609566032886505 0.41085267066955566 0.24031007289886475
0.4716917872428894 0.42635655403137207 -0.038759708404541016
0.4706170856952667 0.42635655403137207 -0.02325582504272461
0.4722917973995209 0.42635655403137207 -0.007751941680908203
0.46817484498023987 0.42635655403137207 0.007751941680908203
0.4599299430847168 0.42635655403137207 0.24031007289886475
0.45856571197509766 0.4418604373931885 -0.05426359176635742
0.47136619687080383 0.4418604373931885 -0.038759708404541016
0.47074589133262634 0.4418604373931885 -0.02325582504272461
0.47182807326316833 0.4418604373931885 -0.007751941680908203
0.4628261923789978 0.4418604373931885 0.007751941680908203
0.46121424436569214 0.4573643207550049 -0.05426359176635742
0.47120457887649536 0.4573643207550049 -0.038759708404541016
0.4709360599517822 0.4573643207550049 -0.02325582504272461
0.4710482060909271 0.4573643207550049 -0.007751941680908203
0.46350550651550293 0.4728682041168213 -0.05426359176635742
0.47111520171165466 0.4728682041168213 -0.038759708404541016
0.4712021052837372 0.4728682041168213 -0.02325582504272461
0.47042936086654663 0.4728682041168213 -0.007751941680908203
0.4658063054084778 0.4883720874786377 -0.05426359176635742
0.47097504138946533 0.4883720874786377 -0.038759708404541016
0.47136032581329346 0.4883720874786377 -0.02325582504272461
0.46987754106521606 0.4883720874786377 -0.007751941680908203
0.4677019417285919 0.5038759708404541 -0.05426359176635742
0.4708428680896759 0.5038759708404541 -0.038759708404541016
0.4714103937149048 0.5038759708404541 -0.02325582504272461
0.4694809913635254 0.5038759708404541 -0.007751941680908203
0.46924352645874023 0.5193798542022705 -0.05426359176635742
0.47071340680122375 0.5193798542022705 -0.038759708404541016
0.4713149666786194 0.5193798542022705 -0.02325582504272461
0.46969878673553467 0.5193798542022705 -0.007751941680908203
0.47054702043533325 0.5348837375640869 -0.05426359176635742
0.4706432521343231 0.5348837375640869 -0.038759708404541016
0.4712214469909668 0.5348837375640869 -0.02325582504272461
0.47014158964157104 0.5348837375640869 -0.007751941680908203
0.45845627784729004 0.5348837375640869 0.007751941680908203
0.4717308282852173 0.5503876209259033 -0.05426359176635742
0.4708397388458252 0.5503876209259033 -0.038759708404541016
0.4714742600917816 0.5503876209259033 -0.02325582504272461
0.4706580638885498 0.5503876209259033 -0.007751941680908203
0.46171998977661133 0.5503876209259033 0.007751941680908203
0.4707290530204773 0.5658915042877197 -0.038759708404541016
0.471652626991272 0.5658915042877197 -0.02325582504272461
0.47163811326026917 0.5658915042877197 -0.007751941680908203
0.4658735394477844 0.5658915042877197 0.007751941680908203
0.4579324722290039 0.5658915638923645 0.24031008780002594
0.4594525694847107 0.5658915042877197 0.25581395626068115
0.46047136187553406 0.5658915042877197 0.27131783962249756
0.4574750065803528 0.5658915042877197 0.28682172298431396
0.4706494212150574 0.5813953876495361 -0.038759708404541016
0.47180527448654175 0.5813953876495361 -0.02325582504272461
0.47182589769363403 0.5813953876495361 -0.007751941680908203
0.4670867323875427 0.5813953876495361 0.007751941680908203
0.4588305950164795 0.5813953876495361 0.02325582504272461
0.45908546447753906 0.5813953876495361 0.038759708404541016
0.4582028388977051 0.5813953876495361 0.05426359549164772
0.4587700664997101 0.5813953876495361 0.17829453945159912
0.4596310257911682 0.5813953876495361 0.19379842281341553
0.46030181646347046 0.5813953876495361 0.20930230617523193
0.46175646781921387 0.5813953876495361 0.22480618953704834
0.46236562728881836 0.5813953876495361 0.24031007289886475
0.46134620904922485 0.5813953876495361 0.25581395626068115
0.4603172540664673 0.5813953876495361 0.27131783962249756
0.4715507924556732 0.5968992710113525 -0.038759708404541016
0.47248417139053345 0.5968992710113525 -0.02325582504272461
0.47016236186027527 0.5968992710113525 -0.007751941680908203
0.45891183614730835 0.5968992710113525 0.007751941680908203
0.4573955833911896 0.5968992710113525 0.16279065608978271
0.45937320590019226 0.5968992114067078 0.17829453945159912
0.46056413650512695 0.5968992710113525 0.19379842281341553
0.4622538685798645 0.5968992710113525 0.20930230617523193
0.4640871286392212 0.5968992710113525 0.22480618953704834
0.4642139673233032 0.5968992710113525 0.24031007289886475
0.46167194843292236 0.5968992710113525 0.25581395626068115
0.4583997130393982 0.5968992710113525 0.27131783962249756
0.4727323055267334 0.612403154373169 -0.038759708404541016
0.46503984928131104 0.612403154373169 -0.007751941680908203
0.4579336941242218 0.612403154373169 0.17829453945159912
0.4593556225299835 0.612403154373169 0.19379842281341553
0.4618411660194397 0.612403154373169 0.20930230617523193
0.4640527367591858 0.612403154373169 0.22480618953704834
0.4639135003089905 0.612403154373169 0.24031007289886475
0.45991045236587524 0.6124030947685242 0.25581395626068115
0.4606224596500397 0.6279069185256958 -0.007751941680908203
0.46035072207450867 0.6279069185256958 0.22480618953704834
0.45986443758010864 0.6279069185256958 0.24031007289886475
0.4727584719657898 0.6434108018875122 -0.05426359176635742
0.4582479000091553 0.6434108018875122 -0.007751941680908203
0.45879510045051575 0.6589146852493286 -0.007751941680908203
0.46871671080589294 0.674418568611145 -0.06976741552352905
0.47214990854263306 0.674418568611145 -0.038759708404541016
0.47248485684394836 0.674418568611145 -0.02325582504272461
0.4614015817642212 0.674418568611145 -0.00775194214656949
0.4592955410480499 0.6899224519729614 -0.11627906560897827
0.46682143211364746 0.6899224519729614 -0.10077518224716187
0.46968236565589905 0.6899224519729614 -0.08527129888534546
0.4718957841396332 0.6899224519729614 -0.05426359176635742
0.4712744355201721 0.6899224519729614 -0.038759708404541016
0.4722323715686798 0.6899224519729614 -0.02325582504272461
0.46260207891464233 0.6899224519729614 -0.007751941680908203
0.46641862392425537 0.7054263353347778 -0.5193798542022705
0.47278842329978943 0.7054263353347778 -0.5038759708404541
0.472772479057312 0.7054263353347778 -0.3488371968269348
0.47203895449638367 0.7054263353347778 -0.3333333134651184
0.47177761793136597 0.7054263353347778 -0.317829430103302
0.4715118706226349 0.7054263353347778 -0.30232560634613037
0.4717038571834564 0.7054263353347778 -0.28682172298431396
0.4718204438686371 0.7054263353347778 -0.27131783962249756
0.4724813997745514 0.7054263353347778 -0.25581395626068115
0.472014456987381 0.7054263353347778 -0.13178294897079468
0.471316397190094 0.7054263353347778 -0.11627906560897827
0.4715502858161926 0.7054263353347778 -0.10077518224716187
0.4723360538482666 0.7054263353347778 -0.08527129888534546
0.47199416160583496 0.7054263353347778 -0.06976741552352905
0.47054508328437805 0.7054263353347778 -0.05426359176635742
0.4709169864654541 0.7054263353347778 -0.038759708404541016
0.4647090435028076 0.7054263353347778 -0.007751941680908203
0.47152185440063477 0.7209302186965942 -0.5038759708404541
0.4707513153553009 0.7209302186965942 -0.4883720874786377
0.47038060426712036 0.7209302186965942 -0.4728682041168213
0.47002094984054565 0.7209302186965942 -0.4573643207550049
0.470074862241745 0.7209302186965942 -0.4418604373931885
0.4701588451862335 0.7209302186965942 -0.42635661363601685
0.47021159529685974 0.7209302186965942 -0.41085273027420044
0.470348060131073 0.7209302186965942 -0.39534884691238403
0.47017624974250793 0.7209302186965942 -0.3798449635505676
0.4697806239128113 0.7209302186965942 -0.3643410801887512
0.469911128282547 0.7209302186965942 -0.3488371968269348
0.4699445962905884 0.7209302186965942 -0.3333333134651184
0.4696624279022217 0.7209302186965942 -0.317829430103302
0.4690633714199066 0.7209302186965942 -0.30232560634613037
0.46874314546585083 0.7209302186965942 -0.28682172298431396
0.4684816002845764 0.7209302186965942 -0.27131783962249756
0.4685392677783966 0.7209302186965942 -0.25581395626068115
0.46878430247306824 0.7209302186965942 -0.24031007289886475
0.46894317865371704 0.7209302186965942 -0.22480618953704834
0.4691852033138275 0.7209302186965942 -0.20930230617523193
0.46923160552978516 0.7209302186965942 -0.19379842281341553
0.46927228569984436 0.7209302186965942 -0.1782945990562439
0.46948227286338806 0.7209302186965942 -0.1627907156944275
0.4696882963180542 0.7209302186965942 -0.14728683233261108
0.4692738354206085 0.7209302186965942 -0.13178294897079468
0.46973684430122375 0.7209302186965942 -0.11627906560897827
0.4706457257270813 0.7209302186965942 -0.10077518224716187
0.47148314118385315 0.7209302186965942 -0.08527129888534546
0.4709804654121399 0.7209302186965942 -0.06976741552352905
0.4695396423339844 0.7209302186965942 -0.05426359176635742
0.47039422392845154 0.7209302186965942 -0.038759708404541016
0.46448272466659546 0.7209302186965942 -0.007751941680908203
0.47085070610046387 0.7364341020584106 -0.5038759708404541
0.4701318144798279 0.7364341020584106 -0.4883720874786377
0.4698370695114136 0.7364341020584106 -0.4728682041168213
0.46946436166763306 0.7364341020584106 -0.4573643207550049
0.46957868337631226 0.7364341020584106 -0.4418604373931885
0.46971702575683594 0.7364341020584106 -0.42635661363601685
0.4697631001472473 0.7364341020584106 -0.41085273027420044
0.470045268535614 0.7364341020584106 -0.39534884691238403
0.4701557457447052 0.7364341020584106 -0.3798449635505676
0.47018253803253174 0.7364341020584106 -0.3643410801887512
0.470663845539093 0.7364341020584106 -0.3488371968269348
0.47082215547561646 0.7364341020584106 -0.3333333134651184
0.4705049991607666 0.7364341020584106 -0.317829430103302
0.4699362516403198 0.7364341020584106 -0.30232560634613037
0.4696803092956543 0.7364341020584106 -0.28682172298431396
0.4694960117340088 0.7364341020584106 -0.27131783962249756
0.4695959687232971 0.7364341020584106 -0.25581395626068115
0.4699300229549408 0.7364341020584106 -0.24031007289886475
0.47022315859794617 0.7364341020584106 -0.22480618953704834
0.47052785754203796 0.7364341020584106 -0.20930230617523193
0.4706627130508423 0.7364341020584106 -0.19379842281341553
0.4708026647567749 0.7364341020584106 -0.1782945990562439
0.4709692597389221 0.7364341020584106 -0.1627907156944275
0.47095608711242676 0.7364341020584106 -0.14728683233261108
0.4703555107116699 0.7364341020584106 -0.13178294897079468
0.470551997423172 0.7364341020584106 -0.11627906560897827
0.4712579548358917 0.7364341020584106 -0.10077518224716187
0.47205084562301636 0.7364341020584106 -0.08527129888534546
0.4712650775909424 0.7364341020584106 -0.06976741552352905
0.4697757363319397 0.7364341020584106 -0.05426359176635742
0.4706978499889374 0.7364341020584106 -0.038759708404541016
0.4611937701702118 0.7364341020584106 -0.00775194214656949
0.470827579498291 0.751937985420227 -0.5038759708404541
0.4703059196472168 0.751937985420227 -0.4883720874786377
0.4702444076538086 0.751937985420227 -0.4728682041168213
0.4699322581291199 0.751937985420227 -0.4573643207550049
0.47005486488342285 0.751937985420227 -0.4418604373931885
0.47020214796066284 0.751937985420227 -0.42635661363601685
0.47016966342926025 0.751937985420227 -0.41085273027420044
0.470385879278183 0.751937985420227 -0.39534884691238403
0.4705943465232849 0.751937985420227 -0.3798449635505676
0.47095969319343567 0.751937985420227 -0.3643410801887512
0.4716956913471222 0.751937985420227 -0.3488371968269348
0.47190821170806885 0.751937985420227 -0.3333333134651184
0.4715839624404907 0.751937985420227 -0.317829430103302
0.4711189270019531 0.751937985420227 -0.30232560634613037
0.4710255563259125 0.751937985420227 -0.28682172298431396
0.47101837396621704 0.751937985420227 -0.27131783962249756
0.471230149269104 0.751937985420227 -0.25581395626068115
0.47161999344825745 0.751937985420227 -0.24031007289886475
0.4719870686531067 0.751937985420227 -0.22480618953704834
0.4723038375377655 0.751937985420227 -0.20930230617523193
0.4724709987640381 0.751937985420227 -0.19379842281341553
0.47263747453689575 0.751937985420227 -0.1782945990562439
0.47259724140167236 0.751937985420227 -0.1627907156944275
0.47230738401412964 0.751937985420227 -0.14728683233261108
0.4715518653392792 0.751937985420227 -0.13178294897079468
0.4712669849395752 0.751937985420227 -0.11627906560897827
0.47161999344825745 0.751937985420227 -0.10077518224716187
0.4725707173347473 0.751937985420227 -0.08527129888534546
0.47133922576904297 0.751937985420227 -0.06976741552352905
0.4696730673313141 0.751937985420227 -0.05426359176635742
0.4702698290348053 0.751937985420227 -0.038759708404541016
0.46047908067703247 0.751937985420227 -0.007751941680908203
0.4710599482059479 0.7674418687820435 -0.5038759708404541
0.470795214176178 0.7674418687820435 -0.4883720874786377
0.47096532583236694 0.7674418687820435 -0.4728682041168213
0.4706772565841675 0.7674418687820435 -0.4573643207550049
0.47074198722839355 0.7674418687820435 -0.4418604373931885
0.47083237767219543 0.7674418687820435 -0.42635661363601685
0.4707188010215759 0.7674418687820435 -0.41085273027420044
0.4708738327026367 0.7674418687820435 -0.39534884691238403
0.47111600637435913 0.7674418687820435 -0.3798449635505676
0.4716482162475586 0.7674418687820435 -0.3643410801887512
0.47252893447875977 0.7674418687820435 -0.3488371968269348
0.4727559983730316 0.7674418687820435 -0.3333333134651184
0.4723806381225586 0.7674418687820435 -0.317829430103302
0.4718741774559021 0.7674418687820435 -0.30232560634613037
0.4717826247215271 0.7674418687820435 -0.28682172298431396
0.47180870175361633 0.7674418687820435 -0.27131783962249756
0.47203266620635986 0.7674418687820435 -0.25581395626068115
