-0.4573643207550049 0.11627912521362305 0.10337487608194351
-0.4573643207550049 0.1317828893661499 0.08413656800985336
-0.4573643207550049 0.1317828893661499 0.11673255264759064
-0.4418604373931885 -0.13178294897079468 0.07972349226474762
-0.4418604373931885 -0.13178294897079468 0.14765778183937073
-0.4418604373931885 -0.11627906560897827 -0.07135864347219467
-0.4418604373931885 -0.11627906560897827 -0.056603558361530304
-0.4418604373931885 -0.10077518224716187 -0.07144737988710403
-0.4418604373931885 -0.10077518224716187 -0.054056569933891296
-0.4418604373931885 -0.08527129888534546 -0.07167953997850418
-0.4418604373931885 -0.08527129888534546 -0.053216394037008286
-0.4418604373931885 -0.06976741552352905 -0.07199379056692123
-0.44186046719551086 -0.06976741552352905 -0.05252472311258316
-0.4418604373931885 -0.05426359176635742 -0.07230959832668304
-0.4418604373931885 -0.05426359549164772 -0.051539190113544464
-0.4418604373931885 -0.038759708404541016 -0.07260238379240036
-0.4418604373931885 -0.038759708404541016 -0.05041748285293579
-0.4418604373931885 -0.02325582504272461 -0.07283143699169159
-0.4418604373931885 -0.02325582504272461 -0.04932337999343872
-0.4418604373931885 -0.007751941680908203 -0.0730108767747879
-0.4418604373931885 -0.007751941680908203 -0.04887574911117554
-0.4418604373931885 0.007751941680908203 -0.07310501486063004
-0.4418604373931885 0.007751941680908203 -0.04963104426860809
-0.4418604373931885 0.02325582504272461 -0.07305831462144852
-0.4418604075908661 0.02325582504272461 -0.050652191042900085
-0.4418604373931885 0.038759708404541016 -0.07291650772094727
-0.4418604373931885 0.038759708404541016 -0.0515509732067585
-0.4418604373931885 0.05426359176635742 -0.07267485558986664
-0.4418604075908661 0.05426359176635742 -0.052532296627759933
-0.4418604373931885 0.06976747512817383 -0.07237688452005386
-0.4418604373931885 0.06976747512817383 -0.05331852659583092
-0.4418604373931885 0.08527135848999023 -0.07206331938505173
-0.4418604373931885 0.08527135848999023 -0.05380699783563614
-0.4418604373931885 0.10077524185180664 -0.07162798941135406
-0.4418604373931885 0.10077524185180664 -0.054817795753479004
-0.4418604373931885 0.11627912521362305 -0.07138673961162567
-0.4418604373931885 0.11627912521362305 -0.05452459305524826
-0.4418604373931885 0.11627912521362305 0.08035236597061157
-0.4418604373931885 0.11627912521362305 0.11400467157363892
-0.42635661363601685 -0.13178294897079468 0.08003933727741241
-0.42635661363601685 -0.13178294897079468 0.14756719768047333
-0.42635661363601685 -0.11627906560897827 -0.07124936580657959
-0.42635664343833923 -0.11627906560897827 -0.05234450474381447
-0.42635661363601685 -0.10077518224716187 -0.07128700613975525
-0.42635661363601685 -0.10077518224716187 -0.05128166824579239
-0.42635661363601685 -0.08527129888534546 -0.07145769149065018
-0.42635661363601685 -0.08527129888534546 -0.04999931529164314
-0.42635661363601685 -0.06976741552352905 -0.07171449065208435
-0.42635661363601685 -0.06976741552352905 -0.04909057170152664
-0.42635661363601685 -0.05426359176635742 -0.0719771757721901
-0.42635661363601685 -0.05426359176635742 -0.04781756550073624
-0.42635661363601685 -0.038759708404541016 -0.07223053276538849
-0.42635661363601685 -0.038759708404541016 -0.04624100774526596
-0.42635661363601685 -0.02325582504272461 -0.07243986427783966
-0.42635661363601685 -0.02325582504272461 -0.044735781848430634
-0.42635661363601685 -0.007751941680908203 -0.0726124569773674
-0.42635661363601685 -0.007751941680908203 -0.04422229528427124
-0.42635661363601685 0.007751941680908203 -0.07271044701337814
-0.42635661363601685 0.007751941680908203 -0.04548816382884979
-0.42635661363601685 0.02325582504272461 -0.07267992198467255
-0.42635661363601685 0.02325582504272461 -0.047087058424949646
-0.42635661363601685 0.038759708404541016 -0.07256173342466354
-0.42635661363601685 0.038759708404541016 -0.04838046059012413
-0.42635661363601685 0.05426359176635742 -0.07235974818468094
-0.42635664343833923 0.05426359176635742 -0.0497799776494503
-0.42635661363601685 0.06976747512817383 -0.07211250066757202
-0.42635661363601685 0.06976747512817383 -0.050791122019290924
-0.42635661363601685 0.08527135848999023 -0.0718441903591156
-0.42635661363601685 0.08527135848999023 -0.05134427547454834
-0.42635661363601685 0.10077524185180664 -0.07146842777729034
-0.42635661363601685 0.10077524185180664 -0.05220478028059006
-0.42635661363601685 0.11627912521362305 -0.07128948718309402
-0.42635661363601685 0.11627911776304245 -0.05210930109024048
-0.42635661363601685 0.11627912521362305 0.07842619717121124
-0.42635661363601685 0.11627912521362305 0.1312839239835739
-0.42635661363601685 0.1317828893661499 0.12359622120857239
-0.42635661363601685 0.1317828893661499 0.13336482644081116
-0.41085273027420044 -0.13178294897079468 0.08080726861953735
-0.41085273027420044 -0.13178294897079468 0.14167310297489166
-0.41085273027420044 -0.11627906560897827 -0.07110974192619324
-0.41085273027420044 -0.11627906560897827 -0.046923600137233734
-0.41085273027420044 -0.10077518224716187 -0.07106992602348328
-0.41085273027420044 -0.10077518224716187 -0.044985152781009674
-0.41085273027420044 -0.08527129888534546 -0.07116243988275528
-0.41085273027420044 -0.08527129888534546 -0.04302361607551575
-0.41085273027420044 -0.06976741552352905 -0.07134231925010681
-0.41085273027420044 -0.06976741552352905 -0.04209652915596962
-0.41085273027420044 -0.05426359176635742 -0.07153590768575668
-0.41085273027420044 -0.05426359176635742 -0.04074224457144737
-0.41085273027420044 -0.038759708404541016 -0.07175403088331223
-0.41085273027420044 -0.038759708404541016 -0.038917094469070435
-0.41085273027420044 -0.02325582504272461 -0.07194378226995468
-0.41085273027420044 -0.02325582504272461 -0.03857619687914848
-0.41085273027420044 -0.007751941680908203 -0.0721101462841034
-0.41085273027420044 -0.007751941680908203 -0.03856165334582329
-0.41085273027420044 0.007751941680908203 -0.07220954447984695
-0.41085273027420044 0.007751941680908203 -0.03920559585094452
-0.41085273027420044 0.02325582504272461 -0.07219017297029495
-0.41085273027420044 0.02325582504272461 -0.04143586754798889
-0.41085273027420044 0.038759708404541016 -0.07209807634353638
-0.41085273027420044 0.038759708404541016 -0.043023329228162766
-0.41085273027420044 0.05426359176635742 -0.07193934172391891
-0.41085273027420044 0.05426359176635742 -0.04476176202297211
-0.41085273027420044 0.06976747512817383 -0.07175157219171524
-0.41085273027420044 0.06976747512817383 -0.0459643192589283
-0.41085273027420044 0.08527135848999023 -0.07154294848442078
-0.41085273027420044 0.08527135848999023 -0.0465211421251297
-0.41085273027420044 0.10077524185180664 -0.071254201233387
-0.41085273027420044 0.10077524185180664 -0.047714680433273315
-0.41085273027420044 0.11627912521362305 -0.07116299122571945
-0.41085273027420044 0.11627912521362305 -0.04760124161839485
-0.41085273027420044 0.11627912521362305 0.07736121863126755
-0.41085273027420044 0.11627912521362305 0.13627441227436066
-0.41085273027420044 0.1317828893661499 0.12211588025093079
-0.41085273027420044 0.1317828893661499 0.1333029419183731
-0.39534884691238403 -0.13178294897079468 0.08102424442768097
-0.39534884691238403 -0.13178294897079468 0.13866674900054932
-0.39534884691238403 -0.11627906560897827 -0.0709000676870346
-0.39534884691238403 -0.11627906560897827 -0.038396067917346954
-0.39534884691238403 -0.10077518224716187 -0.07078927010297775
-0.39534884691238403 -0.10077518224716187 -0.03812985122203827
-0.39534884691238403 -0.08527129888534546 -0.0708312913775444
-0.39534884691238403 -0.08527129888534546 -0.03782697394490242
-0.39534884691238403 -0.06976741552352905 -0.0709548145532608
-0.39534884691238403 -0.06976741552352905 -0.037800371646881104
-0.39534884691238403 -0.05426359176635742 -0.07109291851520538
-0.39534884691238403 -0.05426359176635742 -0.03770383074879646
-0.39534884691238403 -0.038759708404541016 -0.07127726078033447
-0.39534881711006165 -0.038759708404541016 -0.03753446415066719
-0.39534884691238403 -0.02325582504272461 -0.07144759595394135
-0.39534884691238403 -0.02325582318007946 -0.03742249682545662
-0.39534884691238403 -0.007751941680908203 -0.07161304354667664
-0.3953488767147064 -0.00775194214656949 -0.03748771548271179
-0.39534884691238403 0.007751941680908203 -0.07171443104743958
-0.39534884691238403 0.007751941680908203 -0.03780832886695862
-0.39534884691238403 0.02325582504272461 -0.0717027336359024
-0.39534884691238403 0.02325582504272461 -0.03813899680972099
-0.39534884691238403 0.038759708404541016 -0.07161897420883179
-0.39534884691238403 0.038759708404541016 -0.03836548700928688
-0.39534884691238403 0.05426359176635742 -0.07148896902799606
-0.39534884691238403 0.05426359176635742 -0.038634415715932846
-0.39534884691238403 0.06976747512817383 -0.07134339213371277
-0.39534884691238403 0.06976747512817383 -0.03909512609243393
-0.39534884691238403 0.08527135848999023 -0.07118693739175797
-0.39534884691238403 0.08527135848999023 -0.039211519062519073
-0.39534884691238403 0.10077524185180664 -0.07097377628087997
-0.39534884691238403 0.10077524185180664 -0.039737481623888016
-0.39534884691238403 0.11627912521362305 -0.07097145169973373
-0.39534884691238403 0.11627912521362305 -0.038593415170907974
-0.39534884691238403 0.11627912521362305 0.07784431427717209
-0.39534884691238403 0.11627912521362305 0.13647812604904175
-0.39534884691238403 0.1317828893661499 0.12460127472877502
-0.39534884691238403 0.1317829042673111 0.1322607547044754
-0.3798449635505676 -0.13178294897079468 0.08120898902416229
-0.3798449635505676 -0.13178294897079468 0.13534194231033325
-0.3798449635505676 -0.11627906560897827 -0.07068240642547607
-0.3798449635505676 -0.11627906560897827 -0.036091409623622894
-0.3798449635505676 -0.10077518224716187 -0.07052677124738693
-0.3798449635505676 -0.10077518224716187 -0.03567388653755188
-0.3798449635505676 -0.08527129888534546 -0.07054110616445541
-0.3798449635505676 -0.08527129888534546 -0.035224638879299164
-0.3798449635505676 -0.06976741552352905 -0.07063986361026764
-0.3798449635505676 -0.06976741552352905 -0.03525198996067047
-0.3798449635505676 -0.05426359176635742 -0.07075420767068863
-0.3798449635505676 -0.05426359176635742 -0.03528148680925369
-0.3798449635505676 -0.038759708404541016 -0.07092749327421188
-0.3798449635505676 -0.038759708404541016 -0.03519459068775177
-0.3798449635505676 -0.02325582504272461 -0.07109017670154572
-0.37984499335289 -0.02325582504272461 -0.035184960812330246
-0.3798449635505676 -0.007751941680908203 -0.07125276327133179
-0.3798449635505676 -0.007751941680908203 -0.0353744737803936
-0.3798449635505676 0.007751941680908203 -0.07134901732206345
-0.3798449635505676 0.007751941680908203 -0.03590084984898567
-0.3798449635505676 0.02325582504272461 -0.07133746892213821
-0.3798449635505676 0.02325582504272461 -0.036294084042310715
-0.3798449635505676 0.038759708404541016 -0.0712512657046318
-0.37984493374824524 0.038759708404541016 -0.03651582449674606
-0.3798449635505676 0.05426359176635742 -0.07113444805145264
-0.3798449635505676 0.05426359176635742 -0.03675786405801773
-0.3798449635505676 0.06976747512817383 -0.07101143896579742
-0.37984499335289 0.06976747512817383 -0.03686857596039772
-0.3798449635505676 0.08527135848999023 -0.07088766992092133
-0.37984499335289 0.08527135848999023 -0.036821745336055756
-0.3798449635505676 0.10077524185180664 -0.07072141021490097
-0.37984499335289 0.10077524185180664 -0.03678194805979729
-0.3798449635505676 0.11627912521362305 -0.07076533138751984
-0.3798449635505676 0.11627913266420364 -0.03639376536011696
-0.3798449635505676 0.11627912521362305 0.07723408937454224
-0.3798449635505676 0.11627912521362305 0.13539984822273254
-0.3643410801887512 -0.13178294897079468 0.08216185867786407
-0.3643410801887512 -0.13178294897079468 0.1336781084537506
-0.3643410801887512 -0.11627906560897827 -0.07054480910301208
-0.3643410801887512 -0.11627906560897827 -0.0318540595471859
-0.3643410801887512 -0.11627906560897827 0.11022250354290009
-0.3643410801887512 -0.11627906560897827 0.1190706342458725
-0.3643410801887512 -0.10077518224716187 -0.0703570544719696
-0.3643410801887512 -0.10077518224716187 -0.030393263325095177
-0.3643410801887512 -0.08527129888534546 -0.07037080079317093
-0.3643410801887512 -0.08527129888534546 -0.02937370166182518
-0.3643410801887512 -0.06976741552352905 -0.07047814130783081
-0.3643410801887512 -0.06976741552352905 -0.029653405770659447
-0.3643410801887512 -0.05426359176635742 -0.07059816271066666
-0.3643410801887512 -0.05426359176635742 -0.03015204519033432
-0.3643410801887512 -0.038759708404541016 -0.07077883183956146
-0.3643410801887512 -0.038759708404541016 -0.030300907790660858
-0.3643410801887512 -0.02325582504272461 -0.07093581557273865
-0.3643410801887512 -0.02325582504272461 -0.030581984668970108
-0.3643410801887512 -0.007751941680908203 -0.07108922302722931
-0.3643410801887512 -0.007751941680908203 -0.03106895461678505
-0.3643410801887512 0.007751941680908203 -0.07117384672164917
-0.3643410801887512 0.007751941680908203 -0.03213643282651901
-0.3643410801887512 0.02325582504272461 -0.071151964366436
-0.3643410801887512 0.02325582504272461 -0.032756634056568146
-0.3643410801887512 0.038759708404541016 -0.07106460630893707
-0.3643410801887512 0.038759708404541016 -0.03306210786104202
-0.3643410801887512 0.05426359176635742 -0.07095073163509369
-0.3643410801887512 0.05426359176635742 -0.03333171829581261
-0.3643410801887512 0.06976747512817383 -0.0708354040980339
-0.3643410801887512 0.06976747512817383 -0.03341560438275337
-0.3643410801887512 0.08527135848999023 -0.07072261720895767
-0.3643410801887512 0.08527135848999023 -0.033259253948926926
-0.3643410801887512 0.10077524185180664 -0.0705718994140625
-0.3643410801887512 0.10077524185180664 -0.033068105578422546
-0.3643410801887512 0.11627912521362305 -0.07062840461730957
-0.3643410801887512 0.11627912521362305 -0.03277233988046646
-0.3643410801887512 0.11627912521362305 0.07625746726989746
-0.3643410801887512 0.11627912521362305 0.13440054655075073
-0.3488371968269348 -0.13178294897079468 0.0832158550620079
-0.3488371968269348 -0.13178294897079468 0.13253849744796753
-0.3488371968269348 -0.11627906560897827 -0.07045021653175354
-0.3488371968269348 -0.11627906560897827 -0.02295861765742302
-0.3488371968269348 -0.11627906560897827 0.10927838087081909
-0.3488371670246124 -0.11627906560897827 0.11752801388502121
-0.3488371968269348 -0.10077518224716187 -0.07023687660694122
-0.3488371968269348 -0.10077518224716187 -0.022508159279823303
-0.3488371968269348 -0.08527129888534546 -0.07026288658380508
-0.3488371968269348 -0.08527129888534546 -0.02232723869383335
-0.3488371968269348 -0.06976741552352905 -0.0703875720500946
-0.3488371968269348 -0.06976741552352905 -0.02257269248366356
-0.3488371968269348 -0.05426359176635742 -0.07051979005336761
-0.3488371968269348 -0.05426359176635742 -0.022863926365971565
-0.3488371968269348 -0.038759708404541016 -0.07069620490074158
-0.3488372266292572 -0.038759708404541016 -0.023013150319457054
-0.3488371968269348 -0.02325582504272461 -0.070852130651474
-0.3488371968269348 -0.02325582504272461 -0.02317311428487301
-0.3488371968269348 -0.007751941680908203 -0.07099764794111252
-0.3488371968269348 -0.007751941680908203 -0.02393339015543461
-0.3488371968269348 0.007751941680908203 -0.07107365131378174
-0.3488371968269348 0.007751941680908203 -0.02607523463666439
-0.3488371968269348 0.02325582504272461 -0.07104842364788055
-0.3488371968269348 0.02325582504272461 -0.02705191820859909
-0.3488371968269348 0.038759708404541016 -0.07095471024513245
-0.3488371968269348 0.038759708404541016 -0.027359772473573685
-0.3488371968269348 0.05426359176635742 -0.07084020972251892
-0.3488371968269348 0.05426359176635742 -0.027400417253375053
-0.3488371968269348 0.06976747512817383 -0.07072784006595612
-0.3488371968269348 0.06976747512817383 -0.027006495743989944
-0.3488371968269348 0.08527135848999023 -0.07062449306249619
-0.3488371968269348 0.08527135848999023 -0.025956761091947556
-0.3488371968269348 0.10077524185180664 -0.07048387825489044
-0.3488371968269348 0.10077524185180664 -0.02452796697616577
-0.3488371968269348 0.11627912521362305 -0.07056902348995209
-0.3488371968269348 0.11627912521362305 -0.0232832171022892
-0.3488371968269348 0.11627912521362305 0.07621558755636215
-0.3488371968269348 0.11627912521362305 0.13350605964660645
-0.3333333134651184 -0.13178294897079468 0.08364483714103699
-0.3333333134651184 -0.13178294897079468 0.12394790351390839
-0.3333333134651184 -0.11627906560897827 -0.07041941583156586
-0.3333333134651184 -0.11627906560897827 -0.020245203748345375
-0.3333333134651184 -0.11627906560897827 0.08366437256336212
-0.3333333134651184 -0.11627906560897827 0.09888304024934769
-0.3333333134651184 -0.10077518224716187 -0.0701809749007225
-0.3333333134651184 -0.10077518224716187 -0.0199557077139616
-0.3333333134651184 -0.08527129888534546 -0.0702211782336235
-0.3333333134651184 -0.08527129888534546 -0.01999175176024437
-0.3333333134651184 -0.06976741552352905 -0.07037340104579926
-0.333333283662796 -0.06976741552352905 -0.020488200709223747
-0.3333333134651184 -0.05426359176635742 -0.07052850723266602
-0.3333333134651184 -0.05426359176635742 -0.020940549671649933
-0.3333333134651184 -0.038759708404541016 -0.0707184374332428
-0.3333333134651184 -0.038759708404541016 -0.021105824038386345
-0.3333333134651184 -0.02325582504272461 -0.07087334990501404
-0.3333333134651184 -0.02325582504272461 -0.021243782714009285
-0.3333333134651184 -0.007751941680908203 -0.07100743055343628
-0.3333333432674408 -0.00775194214656949 -0.0214333888143301
-0.3333333134651184 0.007751941680908203 -0.0710761547088623
-0.3333333134651184 0.007751941680908203 -0.021925562992691994
-0.3333333134651184 0.02325582504272461 -0.07104155421257019
-0.3333333134651184 0.02325582504272461 -0.02212453819811344
-0.3333333134651184 0.038759708404541016 -0.0709456205368042
-0.3333333134651184 0.038759708404541016 -0.022152651101350784
-0.3333333134651184 0.05426359176635742 -0.07082532346248627
-0.3333333134651184 0.05426359549164772 -0.022055519744753838
-0.3333333134651184 0.06976747512817383 -0.07071228325366974
-0.3333333134651184 0.06976747512817383 -0.0218272153288126
-0.3333333134651184 0.08527135848999023 -0.0706108883023262
-0.3333333134651184 0.08527135848999023 -0.021477917209267616
-0.3333333134651184 0.10077524185180664 -0.0704650804400444
-0.3333333134651184 0.10077524185180664 -0.020998336374759674
-0.3333333134651184 0.11627912521362305 -0.0705689787864685
-0.333333283662796 0.11627912521362305 -0.020476745441555977
-0.3333333134651184 0.11627912521362305 0.07601934671401978
-0.3333333134651184 0.11627913266420364 0.13228748738765717
-0.317829430103302 -0.13178294897079468 0.08394188433885574
-0.317829430103302 -0.13178294897079468 0.11930105090141296
-0.317829430103302 -0.11627906560897827 -0.07027958333492279
-0.317829430103302 -0.11627906560897827 -0.016454676166176796
-0.317829430103302 -0.11627906560897827 0.0760149359703064
-0.317829430103302 -0.11627906560897827 0.10390319675207138
-0.317829430103302 -0.10077518224716187 -0.07003084570169449
-0.317829430103302 -0.10077518224716187 -0.015573164448142052
-0.317829430103302 -0.08527129888534546 -0.07010044902563095
-0.317829430103302 -0.08527129888534546 -0.015840834006667137
-0.317829430103302 -0.06976741552352905 -0.07029112428426743
-0.317829430103302 -0.06976741552352905 -0.01709279604256153
-0.317829430103302 -0.05426359176635742 -0.07047328352928162
-0.317829430103302 -0.05426359176635742 -0.01806241273880005
-0.317829430103302 -0.038759708404541016 -0.070683054625988
-0.317829430103302 -0.038759708404541016 -0.018371490761637688
-0.317829430103302 -0.02325582504272461 -0.07084126770496368
-0.317829430103302 -0.02325582504272461 -0.018552619963884354
-0.317829430103302 -0.007751941680908203 -0.0709616094827652
-0.317829430103302 -0.007751941680908203 -0.01874200999736786
-0.317829430103302 0.007751941680908203 -0.07102463394403458
-0.317829430103302 0.007751941680908203 -0.019420109689235687
-0.317829430103302 0.02325582504272461 -0.0709831714630127
-0.317829430103302 0.02325582504272461 -0.019687963649630547
-0.317829430103302 0.038759708404541016 -0.07088383287191391
-0.317829430103302 0.038759708404541016 -0.01974310167133808
-0.317829430103302 0.05426359176635742 -0.07075528800487518
-0.317829430103302 0.05426359176635742 -0.01955738477408886
-0.317829430103302 0.06976747512817383 -0.07064003497362137
-0.317829430103302 0.06976747512817383 -0.019136305898427963
-0.317829430103302 0.08527135848999023 -0.07053359597921371
-0.317829430103302 0.08527135848999023 -0.01849677972495556
-0.317829430103302 0.10077524185180664 -0.07036257535219193
-0.317829430103302 0.10077524185180664 -0.017541008070111275
-0.317829430103302 0.11627912521362305 -0.07045481353998184
-0.317829430103302 0.11627912521362305 -0.0170274805277586
-0.317829430103302 0.11627912521362305 0.07192180305719376
-0.317829430103302 0.11627912521362305 0.12229986488819122
-0.30232560634613037 -0.13178294897079468 0.0834217444062233
-0.30232560634613037 -0.13178294897079468 0.11656539887189865
-0.30232560634613037 -0.11627906560897827 -0.07018022239208221
-0.30232560634613037 -0.11627906560897827 -0.008383532986044884
-0.30232560634613037 -0.11627906560897827 0.06945692747831345
-0.30232560634613037 -0.11627906560897827 0.09932404011487961
-0.30232560634613037 -0.10077518224716187 -0.06995508819818497
-0.30232560634613037 -0.10077518224716187 -0.007575692608952522
-0.30232560634613037 -0.08527129888534546 -0.07007510960102081
-0.30232560634613037 -0.08527129888534546 -0.007716836873441935
-0.30232560634613037 -0.06976741552352905 -0.07030395418405533
-0.30232560634613037 -0.06976741552352905 -0.011389205232262611
-0.30232560634613037 -0.05426359176635742 -0.07050875574350357
-0.30232560634613037 -0.05426359176635742 -0.01400382537394762
-0.30232560634613037 -0.038759708404541016 -0.07072038948535919
-0.30232560634613037 -0.038759708404541016 -0.014877786859869957
-0.30232560634613037 -0.02325582504272461 -0.07087865471839905
-0.30232560634613037 -0.02325582504272461 -0.015183810144662857
-0.30232560634613037 -0.007751941680908203 -0.07098843902349472
-0.30232560634613037 -0.007751941680908203 -0.015333122573792934
-0.30232560634613037 0.007751941680908203 -0.07104749977588654
-0.30232560634613037 0.007751941680908203 -0.016400882974267006
-0.30232560634613037 0.02325582504272461 -0.07100359350442886
-0.30232560634613037 0.02325582504272461 -0.01675879769027233
-0.30232560634613037 0.038759708404541016 -0.07089339196681976
-0.30232560634613037 0.038759708404541016 -0.016783643513917923
-0.30232560634613037 0.05426359176635742 -0.07075255364179611
-0.30232560634613037 0.05426359176635742 -0.016261892393231392
-0.30232560634613037 0.06976747512817383 -0.07062619924545288
-0.30232560634613037 0.06976747512817383 -0.015240510925650597
-0.30232560634613037 0.08527135848999023 -0.07051023840904236
-0.30232560634613037 0.08527135848999023 -0.013616866432130337
-0.30232560634613037 0.10077524185180664 -0.07030628621578217
-0.30232560634613037 0.10077524185180664 -0.011176422238349915
-0.30232560634613037 0.11627912521362305 -0.07039449363946915
-0.30232560634613037 0.11627912521362305 -0.009390877559781075
-0.30232560634613037 0.11627912521362305 0.06945997476577759
-0.30232560634613037 0.11627911776304245 0.11743953078985214
-0.28682172298431396 -0.13178294897079468 0.08237991482019424
-0.28682172298431396 -0.13178294897079468 0.10210766643285751
-0.28682172298431396 -0.11627906560897827 -0.07014667242765427
-0.28682172298431396 -0.11627906560897827 -0.00544646754860878
-0.28682172298431396 -0.11627906560897827 0.06873485445976257
-0.28682172298431396 -0.11627906560897827 0.09713484346866608
-0.28682172298431396 -0.10077518224716187 -0.06994707882404327
-0.28682172298431396 -0.10077518224716187 -0.005670028738677502
-0.28682172298431396 -0.08527129888534546 -0.07010336965322495
-0.28682172298431396 -0.08527129888534546 -0.0061284881085157394
-0.28682172298431396 -0.06976741552352905 -0.07036939263343811
-0.28682172298431396 -0.06976742297410965 -0.006877458654344082
-0.28682172298431396 -0.05426359176635742 -0.07060188800096512
-0.2868216931819916 -0.05426359176635742 -0.007527675945311785
-0.28682172298431396 -0.038759708404541016 -0.07082435488700867
-0.28682172298431396 -0.038759708404541016 -0.008103358559310436
-0.28682172298431396 -0.02325582504272461 -0.07098506391048431
-0.28682172298431396 -0.02325582504272461 -0.00892486609518528
-0.28682172298431396 -0.007751941680908203 -0.07108349353075027
-0.28682172298431396 -0.007751941680908203 -0.009218801744282246
-0.28682172298431396 0.007751941680908203 -0.07113762199878693
-0.28682172298431396 0.007751941680908203 -0.011203955858945847
-0.28682172298431396 0.02325582504272461 -0.07108912616968155
-0.28682172298431396 0.02325582504272461 -0.01164484303444624
-0.28682172298431396 0.038759708404541016 -0.07096973061561584
-0.28682172298431396 0.038759708404541016 -0.011451264843344688
-0.28682172298431396 0.05426359176635742 -0.07081117480993271
-0.28682172298431396 0.05426359176635742 -0.009989434853196144
-0.28682172298431396 0.06976747512817383 -0.07066474854946136
-0.28682172298431396 0.06976747512817383 -0.0076813725754618645
-0.28682172298431396 0.08527135848999023 -0.07052517682313919
-0.28682172298431396 0.08527135848999023 -0.007103592157363892
-0.28682172298431396 0.10077524185180664 -0.07028990983963013
-0.28682172298431396 0.10077524185180664 -0.006375858094543219
-0.28682172298431396 0.11627912521362305 -0.07037050276994705
-0.28682172298431396 0.11627912521362305 -0.00568848242983222
-0.28682172298431396 0.11627912521362305 0.06864675879478455
-0.28682172298431396 0.11627912521362305 0.10650560259819031
-0.27131783962249756 -0.13178294897079468 0.0805235430598259
-0.27131783962249756 -0.13178294897079468 0.10098574310541153
-0.27131783962249756 -0.11627906560897827 -0.07006046921014786
-0.27131783962249756 -0.11627906560897827 -0.003288671839982271
-0.27131783962249756 -0.11627906560897827 0.06797511130571365
-0.27131783962249756 -0.11627906560897827 0.09711945056915283
-0.27131783962249756 -0.10077518224716187 -0.06987893581390381
-0.27131783962249756 -0.10077518224716187 -0.004084782674908638
-0.27131783962249756 -0.08527129888534546 -0.07007613033056259
-0.27131783962249756 -0.08527129888534546 -0.004878130741417408
-0.27131783962249756 -0.06976741552352905 -0.0703931674361229
-0.27131783962249756 -0.06976741552352905 -0.005792689509689808
-0.27131783962249756 -0.05426359176635742 -0.07067081332206726
-0.27131783962249756 -0.05426359549164772 -0.0064592910930514336
-0.27131783962249756 -0.038759708404541016 -0.0709187462925911
-0.27131783962249756 -0.038759708404541016 -0.0066703911870718
-0.27131783962249756 -0.02325582504272461 -0.07108689099550247
-0.27131783962249756 -0.02325582504272461 -0.0067029837518930435
-0.27131783962249756 -0.007751941680908203 -0.07117064297199249
-0.27131783962249756 -0.007751941680908203 -0.006687316112220287
-0.27131783962249756 0.007751941680908203 -0.07121514528989792
-0.27131783962249756 0.007751941680908203 -0.007056460715830326
-0.27131783962249756 0.02325582504272461 -0.07115749269723892
-0.27131783962249756 0.02325582504272461 -0.007137809880077839
-0.27131783962249756 0.038759708404541016 -0.07102908194065094
-0.27131783962249756 0.038759708404541016 -0.007087987847626209
-0.27131783962249756 0.05426359176635742 -0.07085307687520981
-0.27131783962249756 0.05426359176635742 -0.006783530116081238
-0.27131783962249756 0.06976747512817383 -0.07068032771348953
-0.27131783962249756 0.06976747512817383 -0.006289900280535221
-0.27131783962249756 0.08527135848999023 -0.0705053061246872
-0.27131783962249756 0.08527135848999023 -0.00562660675495863
-0.27131783962249756 0.10077524185180664 -0.07022394239902496
-0.27131783962249756 0.10077524185180664 -0.004759971983730793
-0.27131783962249756 0.11627912521362305 -0.0702701136469841
-0.27131783962249756 0.11627913266420364 -0.0035149012692272663
-0.27131783962249756 0.11627912521362305 0.06781037151813507
-0.27131783962249756 0.11627912521362305 0.10277248173952103
-0.25581395626068115 -0.13178294897079468 0.07911334931850433
-0.25581395626068115 -0.13178294897079468 0.0979122519493103
-0.25581395626068115 -0.11627906560897827 -0.06998806446790695
-0.25581395626068115 -0.11627906560897827 -0.0009499671868979931
-0.25581395626068115 -0.11627906560897827 0.06698641180992126
-0.25581395626068115 -0.11627906560897827 0.09703385829925537
-0.25581395626068115 -0.10077518224716187 -0.06982459872961044
-0.25581395626068115 -0.10077518224716187 -0.002031525131314993
-0.25581395626068115 -0.08527129888534546 -0.07004930824041367
-0.25581395626068115 -0.08527129888534546 -0.00356326368637383
-0.25581395626068115 -0.06976741552352905 -0.07040787488222122
-0.25581395626068115 -0.06976741552352905 -0.004837472923099995
-0.25581395626068115 -0.05426359176635742 -0.07072622328996658
-0.25581395626068115 -0.05426359176635742 -0.005634905770421028
-0.25581395626068115 -0.038759708404541016 -0.0709967166185379
-0.25581395626068115 -0.038759708404541016 -0.005819158162921667
-0.25581395626068115 -0.02325582504272461 -0.07116415351629257
-0.25581395626068115 -0.02325582504272461 -0.005736511200666428
-0.25581395626068115 -0.007751941680908203 -0.07123112678527832
-0.25581395626068115 -0.007751941680908203 -0.005612419918179512
-0.25581395626068115 0.007751941680908203 -0.07126210629940033
-0.25581395626068115 0.00775194214656949 -0.005973521154373884
-0.25581395626068115 0.02325582504272461 -0.07119043916463852
-0.25581395626068115 0.02325582504272461 -0.0060811592265963554
-0.25581395626068115 0.038759708404541016 -0.07105977833271027
-0.25581395626068115 0.03875970467925072 -0.006072970572859049
-0.25581395626068115 0.05426359176635742 -0.0708746686577797
-0.25581395626068115 0.05426359176635742 -0.005782240070402622
-0.25581395626068115 0.06976747512817383 -0.07068673521280289
-0.25581395626068115 0.06976747512817383 -0.0052145738154649734
-0.25581395626068115 0.08527135848999023 -0.07049033045768738
-0.25581395626068115 0.08527136594057083 -0.004314348567277193
-0.25581395626068115 0.10077524185180664 -0.07017702609300613
-0.25581395626068115 0.10077524185180664 -0.002988269319757819
-0.25581395626068115 0.11627912521362305 -0.0702127143740654
-0.25581395626068115 0.11627912521362305 -0.001407325966283679
-0.25581395626068115 0.11627912521362305 0.0668967142701149
-0.25581395626068115 0.11627912521362305 0.10183513909578323
-0.24031007289886475 -0.13178294897079468 0.07926308363676071
-0.24031007289886475 -0.13178294897079468 0.08918104320764542
-0.24031007289886475 -0.11627906560897827 -0.06994080543518066
-0.24031007289886475 -0.11627906560897827 0.002549731871113181
-0.24031007289886475 -0.11627906560897827 0.06588421016931534
-0.24031007289886475 -0.11627906560897827 0.09490585327148438
-0.24031007289886475 -0.10077518224716187 -0.06979573518037796
-0.24031007289886475 -0.10077518224716187 0.0010000187903642654
-0.24031007289886475 -0.08527129888534546 -0.07004010677337646
-0.24031007289886475 -0.08527129888534546 -0.0017889437731355429
-0.24031007289886475 -0.06976741552352905 -0.07042261958122253
-0.24031007289886475 -0.06976741552352905 -0.0037988973781466484
-0.24031007289886475 -0.05426359176635742 -0.07076624035835266
-0.24031007289886475 -0.05426359176635742 -0.004841675516217947
-0.24031007289886475 -0.038759708404541016 -0.07104303687810898
-0.24031007289886475 -0.038759708404541016 -0.0050106532871723175
-0.24031007289886475 -0.02325582504272461 -0.07120995968580246
-0.24031007289886475 -0.02325582318007946 -0.004808888770639896
-0.24031007289886475 -0.007751941680908203 -0.07126495242118835
-0.24031008780002594 -0.007751941680908203 -0.00454474613070488
-0.24031007289886475 0.007751941680908203 -0.0712827742099762
-0.24031007289886475 0.00775194214656949 -0.004933228250592947
-0.24031007289886475 0.02325582504272461 -0.07119813561439514
-0.24031007289886475 0.02325582504272461 -0.005085955373942852
-0.24031007289886475 0.038759708404541016 -0.07105753570795059
-0.24031007289886475 0.038759708404541016 -0.005128158256411552
-0.24031007289886475 0.05426359176635742 -0.07086745649576187
-0.24031007289886475 0.05426359176635742 -0.0048140124417841434
-0.24031007289886475 0.06976747512817383 -0.07067419588565826
-0.24031007289886475 0.06976747512817383 -0.004077242687344551
-0.24031007289886475 0.08527135848999023 -0.07047625631093979
-0.24031007289886475 0.08527135848999023 -0.002684962470084429
-0.24031007289886475 0.10077524185180664 -0.07015816867351532
-0.24031007289886475 0.10077524185180664 -0.0003703925758600235
-0.24031007289886475 0.11627912521362305 -0.0702139362692833
-0.24031007289886475 0.11627912521362305 0.0023691682144999504
-0.24031007289886475 0.11627912521362305 0.06574226170778275
-0.24031005799770355 0.11627912521362305 0.10116620361804962
-0.22480618953704834 -0.13178294897079468 0.07762593775987625
-0.22480618953704834 -0.13178294897079468 0.08712992817163467
-0.22480618953704834 -0.11627906560897827 -0.069838747382164
-0.22480617463588715 -0.11627906560897827 0.007982605136930943
-0.22480618953704834 -0.11627906560897827 0.0648605152964592
-0.22480618953704834 -0.11627906560897827 0.09195155650377274
-0.22480618953704834 -0.10077518224716187 -0.06927204877138138
-0.22480618953704834 -0.10077518224716187 0.006497378461062908
-0.22480618953704834 -0.08527129888534546 -0.0699884444475174
-0.22480618953704834 -0.08527129888534546 0.0011323585640639067
-0.22480618953704834 -0.06976741552352905 -0.07038385421037674
-0.22480618953704834 -0.06976741552352905 -0.0024132609833031893
-0.22480618953704834 -0.05426359176635742 -0.07073967158794403
-0.22480618953704834 -0.05426358804106712 -0.0038720769807696342
-0.22480618953704834 -0.038759708404541016 -0.07101548463106155
-0.22480618953704834 -0.038759708404541016 -0.004038568586111069
-0.22480618953704834 -0.02325582504272461 -0.0711740031838417
-0.22480618953704834 -0.02325582504272461 -0.003683733753859997
-0.22480618953704834 -0.007751941680908203 -0.07121198624372482
-0.22480618953704834 -0.007751941680908203 -0.003226839704439044
-0.22480618953704834 0.007751941680908203 -0.07121129333972931
-0.22480618953704834 0.007751941680908203 -0.0037013397086411715
-0.22480618953704834 0.02325582504272461 -0.07110904157161713
-0.22480618953704834 0.02325582504272461 -0.003913577646017075
-0.22480618953704834 0.038759708404541016 -0.07096200436353683
-0.22480618953704834 0.038759708404541016 -0.0040580518543720245
-0.22480618953704834 0.05426359176635742 -0.07077924907207489
-0.22480618953704834 0.05426359176635742 -0.003675229614600539
-0.22480618953704834 0.06976747512817383 -0.0705953910946846
-0.22480618953704834 0.06976747512817383 -0.0026075926143676043
-0.22480618953704834 0.08527135848999023 -0.07040635496377945
-0.22480618953704834 0.08527135848999023 -0.00020486628636717796
-0.22480618953704834 0.10077524185180664 -0.07008635997772217
-0.22480618953704834 0.10077524185180664 0.004243538714945316
-0.22480618953704834 0.11627912521362305 -0.07013823837041855
-0.22480618953704834 0.11627912521362305 0.008072377182543278
-0.22480618953704834 0.11627912521362305 0.06421136111021042
-0.22480618953704834 0.11627912521362305 0.09593839943408966
-0.20930230617523193 -0.13178294897079468 0.07773235440254211
-0.20930229127407074 -0.13178294897079468 0.08640345185995102
-0.20930230617523193 -0.11627906560897827 -0.0697423592209816
-0.20930230617523193 -0.11627906560897827 0.009087573736906052
-0.20930230617523193 -0.11627906560897827 0.0639331117272377
-0.20930230617523193 -0.11627906560897827 0.08971554040908813
-0.20930230617523193 -0.10077518224716187 -0.06861180067062378
-0.20930230617523193 -0.10077518969774246 0.008449862711131573
-0.20930230617523193 -0.08527129888534546 -0.0699324831366539
-0.20930230617523193 -0.08527129888534546 0.005650924518704414
-0.20930230617523193 -0.06976741552352905 -0.07033334672451019
-0.20930230617523193 -0.06976741552352905 -0.0007475255988538265
-0.20930230617523193 -0.05426359176635742 -0.07069683074951172
-0.20930230617523193 -0.05426359176635742 -0.002889322116971016
-0.20930230617523193 -0.038759708404541016 -0.07097846269607544
-0.20930230617523193 -0.038759708404541016 -0.0030816122889518738
-0.20930230617523193 -0.02325582504272461 -0.07113103568553925
-0.20930230617523193 -0.02325582504272461 -0.0025831861421465874
-0.20930230617523193 -0.007751941680908203 -0.07116259634494781
-0.20930230617523193 -0.007751941680908203 -0.0019458516035228968
-0.20930230617523193 0.007751941680908203 -0.07114726305007935
-0.20930230617523193 0.007751941680908203 -0.0025234920904040337
-0.20930230617523193 0.02325582504272461 -0.07102407515048981
-0.20930230617523193 0.02325582504272461 -0.002814029110595584
-0.20930230617523193 0.038759708404541016 -0.07086853682994843
-0.20930230617523193 0.038759708404541016 -0.0030580449383705854
-0.20930230617523193 0.05426359176635742 -0.07068394869565964
-0.20930230617523193 0.05426359176635742 -0.00255023711360991
-0.20930230617523193 0.06976747512817383 -0.07050344347953796
-0.20930230617523193 0.06976747512817383 -0.0009505529887974262
-0.20930230617523193 0.08527135848999023 -0.07032563537359238
-0.20930230617523193 0.08527135848999023 0.0032408677507191896
-0.20930230617523193 0.10077524185180664 -0.07001321762800217
-0.20930230617523193 0.10077524185180664 0.008247749879956245
-0.20930230617523193 0.11627912521362305 -0.07008805871009827
-0.20930230617523193 0.11627912521362305 0.00921045895665884
-0.20930230617523193 0.11627912521362305 0.062407538294792175
-0.20930230617523193 0.11627912521362305 0.09122534096240997
-0.19379842281341553 -0.13178294897079468 0.07848585397005081
-0.19379842281341553 -0.13178294897079468 0.08588021248579025
-0.19379842281341553 -0.11627906560897827 -0.06983822584152222
-0.19379842281341553 -0.11627906560897827 0.010404988192021847
-0.19379842281341553 -0.11627906560897827 0.06304533779621124
-0.19379842281341553 -0.11627906560897827 0.0881582647562027
-0.19379842281341553 -0.10077518224716187 -0.06932777911424637
-0.19379842281341553 -0.10077518224716187 0.00932344514876604
-0.19379842281341553 -0.08527129888534546 -0.06999950855970383
-0.19379842281341553 -0.08527129888534546 0.00815811101347208
-0.19379842281341553 -0.06976741552352905 -0.07040785998106003
-0.19379842281341553 -0.06976741552352905 0.001203496940433979
-0.19379842281341553 -0.05426359176635742 -0.07078644633293152
-0.19379842281341553 -0.05426359176635742 -0.0019460564944893122
-0.19379842281341553 -0.038759708404541016 -0.07107273489236832
-0.19379842281341553 -0.038759708404541016 -0.0022384077310562134
-0.19379842281341553 -0.02325582504272461 -0.07122354954481125
-0.19379842281341553 -0.02325582504272461 -0.001537594711408019
-0.19379842281341553 -0.007751941680908203 -0.07125341147184372
-0.19379842281341553 -0.007751941680908203 -0.0006316027138382196
-0.19379842281341553 0.007751941680908203 -0.07122664153575897
-0.19379842281341553 0.007751941680908203 -0.0013169555459171534
-0.19379842281341553 0.02325582504272461 -0.07108655571937561
-0.19379842281341553 0.02325582504272461 -0.0017206680495291948
-0.19379842281341553 0.038759708404541016 -0.07091191411018372
-0.19379842281341553 0.038759708404541016 -0.0020748127717524767
-0.19379842281341553 0.05426359176635742 -0.07071325182914734
-0.19379842281341553 0.05426359176635742 -0.0013876871671527624
-0.19379842281341553 0.06976747512817383 -0.07052037119865417
-0.19379842281341553 0.06976747512817383 0.0009745361749082804
-0.19379842281341553 0.08527135848999023 -0.07034420222043991
-0.19379842281341553 0.08527135848999023 0.007816397584974766
-0.19379842281341553 0.10077524185180664 -0.07004005461931229
-0.19379842281341553 0.10077524185180664 0.009324096143245697
-0.19379842281341553 0.11627912521362305 -0.07015924155712128
-0.19379842281341553 0.11627912521362305 0.010616021230816841
-0.19379842281341553 0.11627912521362305 0.06009410321712494
-0.19379842281341553 0.11627912521362305 0.08898460119962692
-0.1782945990562439 -0.13178294897079468 0.07872998714447021
-0.1782945990562439 -0.13178293406963348 0.08562818914651871
-0.1782945990562439 -0.11627906560897827 -0.06992176920175552
-0.1782945990562439 -0.11627906560897827 0.013076664879918098
-0.1782945990562439 -0.11627906560897827 0.0605623796582222
-0.1782945990562439 -0.11627906560897827 0.08741197735071182
-0.1782945990562439 -0.10077518224716187 -0.0697893351316452
-0.1782945990562439 -0.10077518224716187 0.010754203423857689
-0.1782945990562439 -0.08527129888534546 -0.07005523145198822
-0.1782945990562439 -0.08527129888534546 0.008901229128241539
-0.1782945990562439 -0.06976741552352905 -0.07047946751117706
-0.1782945990562439 -0.06976741552352905 0.005300154909491539
-0.1782945990562439 -0.05426359176635742 -0.07088015973567963
-0.1782945990562439 -0.05426359176635742 1.3810582458972931e-05
-0.1782945990562439 -0.038759708404541016 -0.07117671519517899
-0.1782945990562439 -0.038759708404541016 -0.00045800674706697464
-0.1782945990562439 -0.02325582504272461 -0.07132864743471146
-0.1782945990562439 -0.02325582504272461 0.0004804534837603569
-0.1782945990562439 -0.007751941680908203 -0.07135146111249924
-0.1782945990562439 -0.007751941680908203 0.0016284855082631111
-0.1782945990562439 0.007751941680908203 -0.07131330668926239
-0.1782945990562439 0.007751941680908203 0.000769544392824173
-0.1782945990562439 0.02325582504272461 -0.07116315513849258
-0.1782945990562439 0.02325582504272461 0.00024524983018636703
-0.1782945990562439 0.038759708404541016 -0.07097867876291275
-0.1782945990562439 0.038759708404541016 -8.30839853733778e-05
-0.1782945990562439 0.05426359176635742 -0.07077021896839142
-0.1782945990562439 0.05426359176635742 0.0010685380548238754
-0.1782945990562439 0.06976747512817383 -0.07056570798158646
-0.1782945990562439 0.06976747512817383 0.005085761658847332
-0.1782945990562439 0.08527135848999023 -0.07038192451000214
-0.1782946139574051 0.08527135848999023 0.008684576489031315
-0.1782945990562439 0.10077524185180664 -0.07007677853107452
-0.1782945990562439 0.10077524185180664 0.010938593186438084
-0.1782945990562439 0.11627912521362305 -0.07021255791187286
-0.1782945990562439 0.11627912521362305 0.013480044901371002
-0.1782945990562439 0.11627912521362305 0.05426240712404251
-0.1782945990562439 0.11627912521362305 0.08808144181966782
-0.1627907156944275 -0.13178294897079468 0.07880277931690216
-0.1627907156944275 -0.13178294897079468 0.08554311096668243
-0.1627907156944275 -0.11627906560897827 -0.07006730884313583
-0.1627907156944275 -0.11627906560897827 0.020440543070435524
-0.1627907156944275 -0.11627906560897827 0.05463608726859093
-0.1627907156944275 -0.11627906560897827 0.08724179863929749
-0.1627907156944275 -0.10077518224716187 -0.06988830119371414
-0.1627907156944275 -0.10077518224716187 0.013662060722708702
-0.1627907156944275 -0.08527129888534546 -0.07013580203056335
-0.1627907156944275 -0.08527129888534546 0.009908652864396572
-0.1627907156944275 -0.06976741552352905 -0.0705680251121521
-0.1627907156944275 -0.06976740807294846 0.00808279775083065
-0.1627907156944275 -0.05426359176635742 -0.07099033892154694
-0.1627907156944275 -0.05426359176635742 0.0024042297154664993
-0.1627907156944275 -0.038759708404541016 -0.07129602134227753
-0.1627907156944275 -0.038759708404541016 0.001400776207447052
-0.1627907156944275 -0.02325582504272461 -0.07145136594772339
-0.1627907156944275 -0.02325582504272461 0.002367369132116437
-0.1627907156944275 -0.007751941680908203 -0.07146835327148438
-0.1627907156944275 -0.007751941680908203 0.0035819157492369413
-0.1627907156944275 0.007751941680908203 -0.07142257690429688
-0.1627907156944275 0.007751941680908203 0.002598383231088519
-0.1627907156944275 0.02325582504272461 -0.07127033174037933
-0.1627907156944275 0.02325582504272461 0.0020242182072252035
-0.1627907156944275 0.038759708404541016 -0.07108191400766373
-0.1627907156944275 0.038759708404541016 0.0018270525615662336
-0.1627907156944275 0.05426359176635742 -0.07087162882089615
-0.1627907156944275 0.05426359176635742 0.0037159298080950975
-0.1627907156944275 0.06976747512817383 -0.07066355645656586
-0.1627907156944275 0.06976747512817383 0.008020466193556786
-0.1627907156944275 0.08527135848999023 -0.07047836482524872
-0.1627907156944275 0.08527135848999023 0.009782166220247746
-0.1627907156944275 0.10077524185180664 -0.07017890363931656
-0.1627907156944275 0.10077524185180664 0.01395831722766161
-0.1627907156944275 0.11627912521362305 -0.07034798711538315
-0.1627907156944275 0.11627912521362305 0.021324295550584793
-0.1627907156944275 0.11627912521362305 0.05074143782258034
-0.1627907156944275 0.11627913266420364 0.08776514232158661
-0.14728683233261108 -0.13178294897079468 0.07767284661531448
-0.14728684723377228 -0.13178296387195587 0.08553554117679596
-0.14728683233261108 -0.11627906560897827 -0.07014909386634827
-0.14728683233261108 -0.11627906560897827 0.034809038043022156
-0.14728683233261108 -0.11627906560897827 0.04543936997652054
-0.14728683233261108 -0.11627906560897827 0.08708403259515762
-0.14728683233261108 -0.10077518224716187 -0.0699172168970108
-0.14728683233261108 -0.10077518224716187 0.020631829276680946
-0.14728683233261108 -0.08527129888534546 -0.07013833522796631
-0.14728683233261108 -0.08527129888534546 0.011429956182837486
-0.14728683233261108 -0.06976741552352905 -0.07056207954883575
-0.14728683233261108 -0.06976741552352905 0.008622584864497185
-0.14728683233261108 -0.05426359176635742 -0.07099268585443497
-0.14728683233261108 -0.05426359176635742 0.004372624680399895
-0.14728683233261108 -0.038759708404541016 -0.07129897177219391
-0.14728683233261108 -0.038759708404541016 0.0026879191864281893
-0.14728683233261108 -0.02325582504272461 -0.07145503908395767
-0.14728683233261108 -0.02325582504272461 0.0036876024678349495
-0.14728683233261108 -0.007751941680908203 -0.0714724138379097
-0.14728683233261108 -0.007751941680908203 0.005017249844968319
-0.14728683233261108 0.007751941680908203 -0.0714268833398819
-0.14728683233261108 0.007751941680908203 0.003937842324376106
-0.14728683233261108 0.02325582504272461 -0.0712801069021225
-0.14728683233261108 0.02325582504272461 0.003327443264424801
-0.14728683233261108 0.038759708404541016 -0.07109148055315018
-0.14728683233261108 0.038759708404541016 0.0034064643550664186
-0.14728683233261108 0.05426359176635742 -0.0708829015493393
-0.14728683233261108 0.05426359176635742 0.006304058246314526
-0.14728683233261108 0.06976747512817383 -0.07067770510911942
-0.14728683233261108 0.06976747512817383 0.008639255538582802
-0.14728683233261108 0.08527135848999023 -0.07050101459026337
-0.14728683233261108 0.08527135848999023 0.011524135246872902
-0.14728683233261108 0.10077524185180664 -0.07021566480398178
-0.14728683233261108 0.10077524185180664 0.021259987726807594
-0.14728683233261108 0.11627912521362305 -0.07043689489364624
-0.14728683233261108 0.11627912521362305 0.037893153727054596
-0.14728683233261108 0.11627913266420364 0.03973514959216118
-0.14728683233261108 0.11627912521362305 0.08756814897060394
-0.13178294897079468 -0.13178294897079468 0.07435198128223419
-0.13178294897079468 -0.13178294897079468 0.08564212173223495
-0.13178294897079468 -0.11627906560897827 -0.07019437104463577
-0.13178294897079468 -0.11627906560897827 0.08722471445798874
-0.13178294897079468 -0.10077518224716187 -0.06991178542375565
-0.13178294897079468 -0.10077518224716187 0.026867054402828217
-0.13178294897079468 -0.08527129888534546 -0.07011380791664124
-0.13178294897079468 -0.08527129888534546 0.013895210810005665
-0.13178294897079468 -0.06976741552352905 -0.0705304890871048
-0.13178294897079468 -0.06976741552352905 0.009526140987873077
-0.13178294897079468 -0.05426359176635742 -0.07096217572689056
