-0.3798449635505676 -0.02325582504272461 0.0994487777352333
-0.3798449635505676 -0.02325582504272461 0.152096688747406
-0.3798449635505676 -0.02325582504272461 0.23963309824466705
-0.3798449635505676 -0.02325582504272461 0.26662033796310425
-0.3798449635505676 -0.007751941680908203 0.0999605655670166
-0.3798449635505676 -0.007751941680908203 0.1594727635383606
-0.3798449635505676 -0.007751941680908203 0.23951220512390137
-0.3798449635505676 -0.007751941680908203 0.27563005685806274
-0.3798449635505676 0.007751941680908203 0.09998129308223724
-0.3798449635505676 0.007751941680908203 0.1613898128271103
-0.3798449635505676 0.007751941680908203 0.23921257257461548
-0.3798449635505676 0.007751941680908203 0.27593573927879333
-0.3798449635505676 0.02325582504272461 0.09947175532579422
-0.3798449635505676 0.02325582504272461 0.15805506706237793
-0.3798449635505676 0.02325582504272461 0.2391710877418518
-0.3798449635505676 0.02325582504272461 0.2717447578907013
-0.3643410801887512 -0.02325582504272461 0.1034066379070282
-0.3643410801887512 -0.02325582504272461 0.19135989248752594
-0.3643410801887512 -0.02325582504272461 0.2261921763420105
-0.3643410801887512 -0.02325582504272461 0.28964662551879883
-0.3643410801887512 -0.007751941680908203 0.10926149785518646
-0.3643410801887512 -0.007751941680908203 0.1925988793373108
-0.3643410801887512 -0.007751941680908203 0.22425232827663422
-0.3643410801887512 -0.007751941680908203 0.29078686237335205
-0.3643410801887512 0.007751941680908203 0.10956355929374695
-0.36434105038642883 0.007751941680908203 0.19446443021297455
-0.3643410801887512 0.007751941680908203 0.22384244203567505
-0.3643410801887512 0.007751941680908203 0.29073062539100647
-0.3643410801887512 0.02325582504272461 0.10469254851341248
-0.3643410801887512 0.02325582318007946 0.19763948023319244
-0.3643410801887512 0.02325582504272461 0.22293029725551605
-0.3643410801887512 0.02325582504272461 0.2897588610649109
-0.3488371968269348 -0.02325582504272461 0.11260073632001877
-0.3488371968269348 -0.02325582504272461 0.28844788670539856
-0.3488371968269348 -0.007751941680908203 0.11376667022705078
-0.3488371968269348 -0.007751941680908203 0.2522694170475006
-0.3488371968269348 -0.007751941680908203 0.26044782996177673
-0.3488371968269348 -0.007751941680908203 0.28935766220092773
-0.3488371968269348 0.007751941680908203 0.11374980956315994
-0.3488371968269348 0.007751941680908203 0.25034093856811523
-0.3488371968269348 0.007751941680908203 0.2656119167804718
-0.3488371968269348 0.007751941680908203 0.2891300320625305
-0.3488371968269348 0.02325582504272461 0.11223792284727097
-0.3488371670246124 0.02325582504272461 0.2881886661052704
-0.3333333134651184 -0.02325582504272461 0.12126682698726654
-0.3333333134651184 -0.02325582504272461 0.2207963913679123
-0.3333333134651184 -0.007751941680908203 0.12374461442232132
-0.3333333134651184 -0.007751941680908203 0.2274479866027832
-0.3333333134651184 0.007751941680908203 0.12362544238567352
-0.3333333134651184 0.007751941680908203 0.22474893927574158
-0.3333333134651184 0.02325582504272461 0.1210852563381195
-0.3333333134651184 0.02325582504272461 0.22083669900894165
-0.317829430103302 -0.02325582504272461 0.17238767445087433
-0.317829430103302 -0.02325582504272461 0.20933759212493896
-0.317829430103302 -0.007751941680908203 0.1677493453025818
-0.317829430103302 -0.007751941680908203 0.2101055085659027
-0.317829430103302 0.007751941215246916 0.16448262333869934
-0.317829430103302 0.00775194214656949 0.21008159220218658
-0.317829430103302 0.02325582504272461 0.1687118113040924
-0.317829430103302 0.02325582504272461 0.2093721628189087
-0.30232560634613037 -0.02325582504272461 0.17559762299060822
-0.30232560634613037 -0.02325582504272461 0.2099969983100891
-0.30232560634613037 -0.007751941680908203 0.1748378723859787
-0.30232560634613037 -0.007751941680908203 0.21022137999534607
-0.30232560634613037 0.007751941680908203 0.1745397448539734
-0.30232563614845276 0.007751941680908203 0.21021565794944763
-0.30232560634613037 0.02325582504272461 0.17525455355644226
-0.30232560634613037 0.02325582504272461 0.20998111367225647
-0.28682172298431396 -0.02325582504272461 0.17202860116958618
-0.28682172298431396 -0.02325582504272461 0.21013708412647247
-0.28682172298431396 -0.007751941680908203 0.1706034541130066
-0.28682172298431396 -0.007751941680908203 0.2099650800228119
-0.28682172298431396 0.007751941680908203 0.17036649584770203
-0.28682172298431396 0.007751941680908203 0.20992934703826904
-0.28682172298431396 0.02325582504272461 0.17184226214885712
-0.28682172298431396 0.02325582504272461 0.21000799536705017
-0.27131783962249756 -0.02325582504272461 0.16543260216712952
-0.27131780982017517 -0.02325582504272461 0.21001605689525604
-0.27131783962249756 -0.007751941680908203 0.16318479180335999
-0.27131783962249756 -0.007751941680908203 0.20963893830776215
-0.27131783962249756 0.007751941680908203 0.1630609631538391
-0.27131783962249756 0.007751941680908203 0.20956778526306152
-0.27131783962249756 0.02325582504272461 0.16527259349822998
-0.27131783962249756 0.02325582504272461 0.20977066457271576
-0.25581395626068115 -0.02325582504272461 0.1627620905637741
-0.25581395626068115 -0.02325582318007946 0.2100057452917099
-0.25581395626068115 -0.007751941680908203 0.1626397967338562
-0.25581395626068115 -0.007751941680908203 0.20954929292201996
-0.25581395626068115 0.007751941680908203 0.16263219714164734
-0.25581395626068115 0.007751941680908203 0.20945926010608673
-0.25581395626068115 0.02325582504272461 0.16272211074829102
-0.25581395626068115 0.02325582318007946 0.20970755815505981
-0.24031007289886475 -0.02325582504272461 0.16486090421676636
-0.24031007289886475 -0.02325582504272461 0.21019695699214935
-0.24031008780002594 -0.007751941680908203 0.1635717749595642
-0.24031005799770355 -0.007751941680908203 0.20972570776939392
-0.24031007289886475 0.007751941680908203 0.16361117362976074
-0.24031007289886475 0.007751941680908203 0.20963187515735626
-0.24031007289886475 0.02325582504272461 0.1642894297838211
-0.24031007289886475 0.02325582504272461 0.2099178582429886
-0.22480618953704834 -0.02325582504272461 0.16929768025875092
-0.22480618953704834 -0.02325582504272461 0.2104591578245163
-0.22480618953704834 -0.00775194214656949 0.16867157816886902
-0.22480618953704834 -0.007751941215246916 0.20999068021774292
-0.22480618953704834 0.007751941680908203 0.16873642802238464
-0.22480617463588715 0.007751941680908203 0.20990262925624847
-0.22480618953704834 0.02325582504272461 0.1689387857913971
-0.22480617463588715 0.02325582504272461 0.21021834015846252
-0.20930230617523193 -0.02325582504272461 0.1728585958480835
-0.20930230617523193 -0.02325582504272461 0.21057990193367004
-0.20930230617523193 -0.007751941680908203 0.17267635464668274
-0.20930230617523193 -0.007751941680908203 0.21008196473121643
-0.20930230617523193 0.007751941680908203 0.17273254692554474
-0.20930230617523193 0.007751941680908203 0.21000602841377258
-0.20930230617523193 0.02325582504272461 0.1727278232574463
-0.20930230617523193 0.02325582504272461 0.21036769449710846
-0.19379842281341553 -0.02325582504272461 0.17461097240447998
-0.19379842281341553 -0.02325582504272461 0.2104293704032898
-0.19379842281341553 -0.007751941680908203 0.17447176575660706
-0.19379842281341553 -0.007751941680908203 0.20993056893348694
-0.19379842281341553 0.007751941680908203 0.17447640001773834
-0.19379842281341553 0.00775194214656949 0.20986485481262207
-0.19379842281341553 0.02325582504272461 0.17445425689220428
-0.19379843771457672 0.02325582690536976 0.210246279835701
-0.1782945990562439 -0.02325582504272461 0.17535363137722015
-0.1782945990562439 -0.02325582504272461 0.21015971899032593
-0.1782945990562439 -0.007751941680908203 0.17526495456695557
-0.1782945990562439 -0.007751941680908203 0.20969907939434052
-0.1782945990562439 0.007751941680908203 0.17524772882461548
-0.1782945990562439 0.007751941680908203 0.20964284241199493
-0.1782945990562439 0.02325582504272461 0.17517438530921936
-0.1782945990562439 0.02325582504272461 0.20998834073543549
-0.1627907156944275 -0.02325582504272461 0.17557089030742645
-0.1627907156944275 -0.02325582504272461 0.20979581773281097
-0.1627907156944275 -0.007751941680908203 0.1754564344882965
-0.16279073059558868 -0.007751941680908203 0.20938624441623688
-0.1627907156944275 0.007751941680908203 0.17545334994792938
-0.1627907007932663 0.007751941680908203 0.20932632684707642
-0.1627907156944275 0.02325582504272461 0.175374373793602
-0.1627907156944275 0.02325582504272461 0.20959246158599854
-0.14728683233261108 -0.02325582504272461 0.1757545918226242
-0.14728683233261108 -0.02325582504272461 0.20938146114349365
-0.14728683233261108 -0.007751941680908203 0.1756201982498169
-0.14728683233261108 -0.007751941680908203 0.2075524926185608
-0.14728683233261108 0.007751941680908203 0.17561963200569153
-0.14728683233261108 0.007751941680908203 0.2072691172361374
-0.14728683233261108 0.02325582504272461 0.17554055154323578
-0.14728683233261108 0.02325582504272461 0.20856918394565582
-0.13178294897079468 -0.02325582504272461 0.17585502564907074
-0.13178294897079468 -0.02325582504272461 0.20818717777729034
-0.13178294897079468 -0.007751941680908203 0.17571108043193817
-0.13178294897079468 -0.007751941680908203 0.20607271790504456
-0.13178294897079468 0.007751941680908203 0.17571447789669037
-0.13178294897079468 0.007751941680908203 0.2059522271156311
-0.13178294897079468 0.02325582504272461 0.17564916610717773
-0.13178294897079468 0.02325582504272461 0.20733477175235748
-0.11627906560897827 -0.02325582504272461 0.1758912354707718
-0.11627906560897827 -0.02325582504272461 0.20773713290691376
-0.11627906560897827 -0.007751941680908203 0.1757330447435379
-0.11627906560897827 -0.007751941680908203 0.20552244782447815
-0.11627906560897827 0.007751941680908203 0.17573431134223938
-0.11627906560897827 0.007751941680908203 0.20551945269107819
-0.11627906560897827 0.02325582504272461 0.17568325996398926
-0.11627906560897827 0.02325582504272461 0.2071799635887146
-0.10077518224716187 -0.02325582504272461 0.17600113153457642
-0.10077518224716187 -0.02325582504272461 0.2069239616394043
-0.10077518224716187 -0.007751941680908203 0.1758328229188919
-0.10077518224716187 -0.007751941680908203 0.20464490354061127
-0.10077518224716187 0.007751941680908203 0.1758473813533783
-0.10077518224716187 0.007751941680908203 0.20468638837337494
-0.10077518224716187 0.02325582504272461 0.1758357435464859
-0.10077518224716187 0.02325582504272461 0.20650827884674072
-0.08527129888534546 -0.02325582504272461 0.1761627346277237
-0.08527129888534546 -0.02325582504272461 0.20637589693069458
-0.08527129888534546 -0.007751941680908203 0.17598970234394073
-0.08527129888534546 -0.007751941680908203 0.2040044665336609
-0.08527129888534546 0.007751941680908203 0.17601916193962097
-0.08527129888534546 0.007751941680908203 0.20405808091163635
-0.08527129888534546 0.02325582504272461 0.17604562640190125
-0.08527129888534546 0.02325582504272461 0.20594294369220734
-0.06976741552352905 -0.02325582504272461 0.1763993501663208
-0.06976741552352905 -0.02325582504272461 0.20553554594516754
-0.06976741552352905 -0.007751941680908203 0.17625759541988373
-0.06976741552352905 -0.007751941680908203 0.2033277451992035
-0.06976741552352905 0.007751941680908203 0.17629654705524445
-0.06976741552352905 0.007751941680908203 0.2033720314502716
-0.06976741552352905 0.02325582504272461 0.17632827162742615
-0.06976741552352905 0.02325582504272461 0.20505809783935547
-0.05426359176635742 -0.02325582504272461 0.17663685977458954
-0.05426359176635742 -0.02325582504272461 0.2043224722146988
-0.05426359176635742 -0.007751941680908203 0.17651531100273132
-0.05426359176635742 -0.007751941680908203 0.20245826244354248
-0.05426359176635742 0.007751941680908203 0.17656183242797852
-0.05426359176635742 0.007751941680908203 0.20245429873466492
-0.05426359176635742 0.02325582504272461 0.17659655213356018
-0.05426359176635742 0.02325582504272461 0.20373490452766418
-0.038759708404541016 -0.02325582504272461 0.17676159739494324
-0.038759708404541016 -0.02325582504272461 0.2032117396593094
-0.038759708404541016 -0.007751941680908203 0.17667627334594727
-0.038759708404541016 -0.007751941680908203 0.2016294002532959
-0.038759708404541016 0.007751941680908203 0.1767221838235855
-0.038759708404541016 0.007751941680908203 0.20160147547721863
-0.038759708404541016 0.02325582504272461 0.17672815918922424
-0.038759708404541016 0.02325582504272461 0.2026035189628601
-0.02325582504272461 -0.02325582504272461 0.17684268951416016
-0.02325582504272461 -0.02325582504272461 0.2024296522140503
-0.02325582504272461 -0.007751941680908203 0.17679256200790405
-0.02325582504272461 -0.007751941680908203 0.20097017288208008
-0.02325582504272461 0.007751941680908203 0.17683696746826172
-0.02325582504272461 0.007751941680908203 0.2009427845478058
-0.02325582504272461 0.02325582504272461 0.17680314183235168
-0.02325582504272461 0.02325582504272461 0.20187580585479736
-0.007751941680908203 -0.02325582504272461 0.17681726813316345
-0.007751941680908203 -0.02325582504272461 0.20223213732242584
-0.007751941680908203 -0.007751941680908203 0.17679154872894287
-0.007751941680908203 -0.007751941680908203 0.20077720284461975
-0.007751941680908203 0.007751941680908203 0.17683103680610657
-0.007751941680908203 0.007751941680908203 0.2007627785205841
-0.007751941680908203 0.02325582504272461 0.17676055431365967
-0.007751941680908203 0.02325582504272461 0.20174941420555115
0.007751941680908203 -0.02325582504272461 0.1768370270729065
0.007751941680908203 -0.02325582504272461 0.20243719220161438
0.007751941680908203 -0.007751941680908203 0.17679329216480255
0.007751941680908203 -0.007751941680908203 0.20089778304100037
0.007751941680908203 0.007751941680908203 0.17683780193328857
0.007751941680908203 0.007751941680908203 0.20086832344532013
0.007751941680908203 0.02325582504272461 0.17678287625312805
0.007751941680908203 0.02325582504272461 0.20187215507030487
0.02325582504272461 -0.02325582504272461 0.1768597662448883
0.02325582504272461 -0.02325582504272461 0.2027844935655594
0.02325582504272461 -0.007751941680908203 0.17678433656692505
0.02325582504272461 -0.007751941680908203 0.20119698345661163
0.02325582504272461 0.007751941680908203 0.1768365502357483
0.02325582504272461 0.007751941680908203 0.20116642117500305
0.02325582504272461 0.02325582504272461 0.17682543396949768
0.02325582504272461 0.02325582504272461 0.20214104652404785
0.038759708404541016 -0.02325582504272461 0.17680127918720245
0.038759708404541016 -0.02325582504272461 0.20340794324874878
0.038759708404541016 -0.007751941680908203 0.1766962707042694
0.038759708404541016 -0.007751941680908203 0.20175108313560486
0.038759708404541016 0.007751941680908203 0.17675384879112244
0.038759708404541016 0.007751941680908203 0.20171746611595154
0.038759708404541016 0.02325582504272461 0.17677812278270721
0.038759708404541016 0.02325582504272461 0.20270340144634247
0.05426359176635742 -0.02325582504272461 0.17664167284965515
0.05426359176635742 -0.02325582504272461 0.20419251918792725
0.05426359176635742 -0.007751941680908203 0.17653290927410126
0.05426359176635742 -0.007751941680908203 0.20232845842838287
0.05426359176635742 0.007751941680908203 0.17658372223377228
0.05426359176635742 0.007751941680908203 0.20231330394744873
0.05426359176635742 0.02325582504272461 0.1766085922718048
0.05426359176635742 0.02325582504272461 0.2034965455532074
0.06976747512817383 -0.02325582504272461 0.17649802565574646
0.06976747512817383 -0.02325582504272461 0.20474612712860107
0.06976747512817383 -0.007751941680908203 0.17639099061489105
0.06976747512817383 -0.007751941680908203 0.20267561078071594
0.06976747512817383 0.007751941680908203 0.17642366886138916
0.06976747512817383 0.007751941680908203 0.20271503925323486
0.06976747512817383 0.02325582504272461 0.17642742395401
0.06976747512817383 0.02325582504272461 0.2041853368282318
0.08527135848999023 -0.02325582504272461 0.1764005869626999
0.08527135848999023 -0.02325582504272461 0.20487448573112488
0.08527135848999023 -0.007751941680908203 0.17626160383224487
0.08527135848999023 -0.007751941680908203 0.20282641053199768
0.08527135848999023 0.007751941680908203 0.17627623677253723
0.08527135848999023 0.007751941680908203 0.20290490984916687
0.08527135848999023 0.02325582504272461 0.1762869656085968
0.08527135848999023 0.02325582504272461 0.2044745236635208
0.10077524185180664 -0.02325582504272461 0.17636050283908844
0.10077524185180664 -0.02325582504272461 0.20473873615264893
0.10077524185180664 -0.007751941680908203 0.17617198824882507
0.10077524185180664 -0.007751941680908203 0.20280365645885468
0.10077524185180664 0.007751941680908203 0.17617034912109375
0.10077524185180664 0.007751941680908203 0.20290499925613403
0.10077524185180664 0.02325582504272461 0.17620348930358887
0.10077524185180664 0.02325582504272461 0.2043870985507965
0.11627912521362305 -0.02325582504272461 0.1763862818479538
0.11627912521362305 -0.02325582504272461 0.20424842834472656
0.11627912521362305 -0.007751941680908203 0.1761482059955597
0.11627912521362305 -0.007751941680908203 0.20253831148147583
0.11627912521362305 0.007751941680908203 0.17613287270069122
0.11627912521362305 0.007751941680908203 0.20261934399604797
0.11627912521362305 0.02325582504272461 0.1761896014213562
0.11627912521362305 0.02325582504272461 0.20384657382965088
0.1317828893661499 -0.02325582504272461 0.1764359474182129
0.1317828893661499 -0.02325582504272461 0.20402255654335022
0.1317828893661499 -0.007751941680908203 0.17616111040115356
0.1317828893661499 -0.007751941680908203 0.20250505208969116
0.1317828893661499 0.007751941680908203 0.17614780366420746
0.1317828893661499 0.007751941680908203 0.2025313377380371
0.1317828893661499 0.02325582504272461 0.17623107135295868
0.1317828893661499 0.02325582504272461 0.20349375903606415
0.1472867727279663 -0.02325582504272461 0.1764759123325348
0.1472867727279663 -0.02325582504272461 0.20412486791610718
0.1472867727279663 -0.007751941680908203 0.17619463801383972
0.1472867727279663 -0.007751941680908203 0.20268893241882324
0.1472867727279663 0.007751941680908203 0.17618240416049957
0.1472867727279663 0.007751941680908203 0.20266276597976685
0.1472867727279663 0.02325582504272461 0.1762801855802536
0.1472867727279663 0.02325582504272461 0.2034974992275238
0.16279065608978271 -0.02325582504272461 0.17647486925125122
0.16279065608978271 -0.02325582504272461 0.20486868917942047
0.16279065608978271 -0.007751941680908203 0.1762266457080841
0.16279065608978271 -0.007751941680908203 0.20327863097190857
0.16279065608978271 0.007751941680908203 0.17620836198329926
0.16279065608978271 0.007751941680908203 0.20321771502494812
0.16279065608978271 0.02325582504272461 0.17629936337471008
0.16279065608978271 0.02325582504272461 0.2042180895805359
0.17829453945159912 -0.02325582504272461 0.1762460321187973
0.17829453945159912 -0.02325582504272461 0.20743997395038605
0.17829453945159912 -0.007751941680908203 0.17603006958961487
0.17829453945159912 -0.007751941680908203 0.205047607421875
0.17829453945159912 0.007751941680908203 0.17601558566093445
0.17829453945159912 0.007751941680908203 0.2048623114824295
0.17829453945159912 0.02325582504272461 0.17608512938022614
0.17829453945159912 0.02325582504272461 0.206488698720932
0.19379842281341553 -0.02325582504272461 0.175486758351326
0.19379842281341553 -0.02325582504272461 0.20964708924293518
0.19379842281341553 -0.007751941680908203 0.17528995871543884
0.19379842281341553 -0.007751941680908203 0.20821607112884521
0.19379842281341553 0.007751941680908203 0.1752888709306717
0.19379842281341553 0.007751941680908203 0.2077438235282898
0.19379842281341553 0.02325582504272461 0.17532499134540558
0.19379842281341553 0.02325582504272461 0.20946750044822693
0.20930230617523193 -0.02325582504272461 0.17370633780956268
0.20930230617523193 -0.02325582318007946 0.21004900336265564
0.20930230617523193 -0.007751941680908203 0.17340975999832153
0.20930230617523193 -0.007751941680908203 0.20954275131225586
0.20930230617523193 0.007751941680908203 0.17340677976608276
0.20930230617523193 0.007751941215246916 0.20945686101913452
0.20930230617523193 0.02325582504272461 0.17342880368232727
0.20930229127407074 0.02325582504272461 0.20983204245567322
0.22480618953704834 -0.02325582504272461 0.17026259005069733
0.22480618953704834 -0.02325582504272461 0.20992609858512878
0.22480617463588715 -0.007751941215246916 0.1695934236049652
0.22480618953704834 -0.007751941680908203 0.20944319665431976
0.22480618953704834 0.007751941680908203 0.16956540942192078
0.22480618953704834 0.007751941680908203 0.20932462811470032
0.22480618953704834 0.02325582504272461 0.16974055767059326
0.22480618953704834 0.02325582504272461 0.20963862538337708
0.24031007289886475 -0.02325582504272461 0.16608159244060516
0.24031007289886475 -0.02325582504272461 0.2094936966896057
0.24031007289886475 -0.007751941680908203 0.16471688449382782
0.24031007289886475 -0.007751941680908203 0.20732006430625916
0.24031007289886475 0.007751941680908203 0.1644430160522461
0.24031007289886475 0.007751941680908203 0.20649537444114685
0.24031007289886475 0.02325582504272461 0.16490910947322845
0.24031007289886475 0.02325582504272461 0.20817257463932037
0.25581395626068115 -0.02325582504272461 0.1645640879869461
0.25581395626068115 -0.02325582504272461 0.20796197652816772
0.25581395626068115 -0.007751941680908203 0.1627684384584427
0.25581395626068115 -0.007751941680908203 0.20522618293762207
0.25581395626068115 0.007751941680908203 0.1627292037010193
0.25581395626068115 0.007751941680908203 0.20459939539432526
0.25581398606300354 0.02325582504272461 0.16306611895561218
0.25581395626068115 0.02325582504272461 0.20595026016235352
0.27131783962249756 -0.02325582504272461 0.16784873604774475
0.27131780982017517 -0.02325582318007946 0.20932169258594513
0.27131783962249756 -0.007751941680908203 0.16547217965126038
0.27131783962249756 -0.007751941680908203 0.20635223388671875
0.27131783962249756 0.007751941680908203 0.1649845987558365
0.27131783962249756 0.007751941680908203 0.20562447607517242
0.27131783962249756 0.02325582504272461 0.1667957305908203
0.27131783962249756 0.02325582504272461 0.207753986120224
0.28682172298431396 -0.02325582504272461 0.17289523780345917
0.2868216931819916 -0.02325582504272461 0.20978228747844696
0.28682172298431396 -0.007751941680908203 0.17127704620361328
0.28682172298431396 -0.00775194214656949 0.20961305499076843
0.28682172298431396 0.007751941680908203 0.17077340185642242
0.28682172298431396 0.007751941215246916 0.20954519510269165
0.28682172298431396 0.02325582504272461 0.17211581766605377
0.28682172298431396 0.02325582318007946 0.2097412496805191
0.30232560634613037 -0.02325582504272461 0.17631202936172485
0.30232560634613037 -0.02325582504272461 0.20953606069087982
0.30232560634613037 -0.007751941680908203 0.1753411889076233
0.30232560634613037 -0.00775194214656949 0.20992502570152283
0.30232560634613037 0.007751941680908203 0.17487183213233948
0.30232560634613037 0.007751941215246916 0.20991250872612
0.30232560634613037 0.02325582504272461 0.175694540143013
0.30232560634613037 0.02325582504272461 0.2096661627292633
0.3178294897079468 -0.02325582504272461 0.17465250194072723
0.3178294897079468 -0.02325582504272461 0.2040504664182663
0.3178294897079468 -0.007751941680908203 0.1684209108352661
0.3178294897079468 -0.007751941680908203 0.2095893919467926
0.3178294897079468 0.007751941680908203 0.16176284849643707
0.3178294897079468 0.007751941680908203 0.20968344807624817
0.3178294897079468 0.02325582504272461 0.16777919232845306
0.3178294897079468 0.02325582504272461 0.20705311000347137
0.3333333432674408 -0.02325582504272461 0.11897888034582138
0.3333333730697632 -0.02325582504272461 0.21678006649017334
0.3333333730697632 -0.007751941680908203 0.12069527059793472
0.3333333730697632 -0.007751941680908203 0.22031517326831818
0.3333333730697632 0.007751941680908203 0.12088803946971893
0.3333333730697632 0.007751941680908203 0.2196885645389557
0.3333333730697632 0.02325582504272461 0.1191478967666626
0.3333333730697632 0.02325582504272461 0.21764099597930908
0.3488372564315796 -0.02325582504272461 0.11201509833335876
0.3488372564315796 -0.02325582504272461 0.28699201345443726
0.3488372564315796 -0.007751941680908203 0.11312946677207947
0.3488372564315796 -0.007751941680908203 0.2882499694824219
0.3488372564315796 0.007751941680908203 0.11314800381660461
0.3488372564315796 0.00775194214656949 0.2877486050128937
0.3488372564315796 0.02325582504272461 0.11210046708583832
0.3488372564315796 0.02325582504272461 0.2826800048351288
0.364341139793396 -0.02325582504272461 0.1006261333823204
0.364341139793396 -0.02325582504272461 0.29120582342147827
0.364341139793396 -0.007751941680908203 0.10591891407966614
0.364341139793396 -0.007751941680908203 0.29224300384521484
0.364341139793396 0.007751941680908203 0.10633715987205505
0.364341139793396 0.007751941680908203 0.29217538237571716
0.364341139793396 0.02325582504272461 0.10160179436206818
0.364341139793396 0.02325582504272461 0.2909528911113739
0.37984490394592285 -0.02325582504272461 0.09945310652256012
0.37984490394592285 -0.02325582504272461 0.13847243785858154
0.37984490394592285 -0.02325582504272461 0.2351856827735901
0.37984493374824524 -0.02325582690536976 0.29082632064819336
0.37984490394592285 -0.007751941680908203 0.09977278858423233
0.37984490394592285 -0.00775194214656949 0.14924544095993042
0.37984490394592285 -0.007751941680908203 0.23537135124206543
0.37984490394592285 -0.007751941215246916 0.29142698645591736
0.37984490394592285 0.007751941680908203 0.09977225214242935
0.37984490394592285 0.007751941680908203 0.15288418531417847
0.37984490394592285 0.007751941680908203 0.2349710464477539
0.37984490394592285 0.007751941680908203 0.2913777530193329
0.37984490394592285 0.02325582504272461 0.09948726743459702
0.37984490394592285 0.02325582504272461 0.1456759124994278
0.37984490394592285 0.02325582504272461 0.23469248414039612
0.37984490394592285 0.02325582504272461 0.29083484411239624
0.39534878730773926 -0.02325582504272461 0.09853753447532654
0.39534878730773926 -0.02325582504272461 0.1255996823310852
0.39534878730773926 -0.02325582504272461 0.2390432208776474
0.39534878730773926 -0.02325582504272461 0.26643601059913635
0.39534878730773926 -0.007751941680908203 0.09874752163887024
0.39534881711006165 -0.00775194214656949 0.13432325422763824
0.39534878730773926 -0.007751941680908203 0.23934893310070038
0.39534875750541687 -0.007751941215246916 0.27281391620635986
0.39534878730773926 0.007751941680908203 0.09874217212200165
0.39534878730773926 0.007751941680908203 0.1370607167482376
0.39534878730773926 0.007751941680908203 0.2389698028564453
0.39534878730773926 0.007751941680908203 0.273741751909256
0.39534878730773926 0.02325582504272461 0.09879251569509506
0.39534878730773926 0.02325582504272461 0.13281004130840302
0.39534878730773926 0.02325582504272461 0.23876316845417023
0.39534878730773926 0.02325582504272461 0.2719140648841858
0.41085267066955566 -0.02325582504272461 0.09639514237642288
0.41085267066955566 -0.02325582504272461 0.11824793368577957
0.41085267066955566 -0.02325582504272461 0.2395232766866684
0.41085267066955566 -0.02325582504272461 0.2587183117866516
0.41085267066955566 -0.007751941680908203 0.09689387679100037
0.41085267066955566 -0.007751941680908203 0.11991319060325623
0.41085267066955566 -0.007751941680908203 0.23967185616493225
0.41085267066955566 -0.007751941680908203 0.26175302267074585
0.41085267066955566 0.007751941680908203 0.09700116515159607
0.41085267066955566 0.00775194214656949 0.12161923944950104
0.41085267066955566 0.007751941680908203 0.23934829235076904
0.41085267066955566 0.007751941215246916 0.26307380199432373
0.41085267066955566 0.02325582504272461 0.09709834307432175
0.41085267066955566 0.02325582504272461 0.11956482380628586
0.41085267066955566 0.02325582504272461 0.23926521837711334
0.41085267066955566 0.02325582504272461 0.26089727878570557
0.42635655403137207 -0.02325582504272461 0.0914793387055397
0.42635655403137207 -0.02325582318007946 0.11638243496417999
0.42635655403137207 -0.02325582504272461 0.2372179627418518
0.42635655403137207 -0.02325582504272461 0.25775662064552307
0.42635655403137207 -0.007751941680908203 0.09171266853809357
0.4263565242290497 -0.007751941680908203 0.11672655493021011
0.42635655403137207 -0.007751941680908203 0.23677116632461548
0.42635655403137207 -0.00775194214656949 0.25842615962028503
0.42635655403137207 0.007751941680908203 0.09234336018562317
0.42635655403137207 0.007751941680908203 0.11689676344394684
0.42635655403137207 0.007751941680908203 0.2364407479763031
0.42635655403137207 0.007751941680908203 0.2589561641216278
0.42635655403137207 0.02325582504272461 0.09323965013027191
0.42635655403137207 0.02325582504272461 0.11662083119153976
0.42635655403137207 0.02325582504272461 0.23702797293663025
0.4263565242290497 0.02325582318007946 0.25870540738105774
0.4418604373931885 -0.02325582504272461 0.0849919393658638
0.4418604373931885 -0.02325582504272461 0.10898950695991516
0.4418604373931885 -0.02325582504272461 0.22737956047058105
0.4418604373931885 -0.02325582504272461 0.25655731558799744
0.4418604373931885 -0.007751941680908203 0.08499506860971451
0.4418604373931885 -0.007751941680908203 0.11422659456729889
0.4418604373931885 -0.007751941680908203 0.2247416079044342
0.4418604373931885 -0.007751941680908203 0.25582462549209595
0.4418604373931885 0.007751941680908203 0.08503183722496033
0.4418604373931885 0.007751941680908203 0.11613919585943222
0.4418604373931885 0.007751941680908203 0.22466225922107697
0.4418604373931885 0.007751941680908203 0.2559106647968292
0.4418604373931885 0.02325582504272461 0.08514810353517532
0.4418604373931885 0.02325582504272461 0.11004500836133957
0.4418604373931885 0.02325582504272461 0.22486233711242676
0.4418604373931885 0.02325582504272461 0.25673606991767883
0.4573643207550049 -0.02325582504272461 0.0844547301530838
0.4573643207550049 -0.02325582504272461 0.10560855269432068
0.4573643207550049 -0.02325582504272461 0.22380699217319489
0.4573643207550049 -0.02325582504272461 0.246593177318573
0.4573643207550049 -0.007751941680908203 0.08453406393527985
0.4573643207550049 -0.007751941680908203 0.10806503891944885
0.4573643207550049 -0.007751941680908203 0.22319217026233673
0.4573643207550049 -0.007751941680908203 0.24465252459049225
0.4573643207550049 0.007751941680908203 0.08452226221561432
0.4573643207550049 0.007751941680908203 0.10886454582214355
0.4573643207550049 0.007751941680908203 0.22310517728328705
0.45736435055732727 0.007751941680908203 0.24473169445991516
0.4573643207550049 0.02325582504272461 0.0845000296831131
0.4573643207550049 0.02325582504272461 0.1058390736579895
0.4573643207550049 0.02325582504272461 0.22352725267410278
0.4573643207550049 0.02325582504272461 0.24615919589996338
0.4728682041168213 -0.02325582504272461 0.08395017683506012
0.4728682041168213 -0.02325582504272461 0.10375232994556427
0.4728682041168213 -0.02325582504272461 0.22322484850883484
0.4728682041168213 -0.02325582504272461 0.24227143824100494
0.4728682041168213 -0.007751941680908203 0.08394960314035416
0.4728682041168213 -0.007751941680908203 0.10487695783376694
0.4728682041168213 -0.007751941680908203 0.2223292589187622
0.4728682041168213 -0.007751941680908203 0.24034693837165833
0.4728682041168213 0.007751941680908203 0.08391395956277847
0.4728682041168213 0.007751941680908203 0.10518087446689606
0.4728682041168213 0.007751941680908203 0.22218161821365356
0.4728682041168213 0.007751941680908203 0.24041643738746643
0.4728682041168213 0.02325582504272461 0.08394332975149155
0.4728682041168213 0.02325582504272461 0.10374340415000916
0.4728682041168213 0.02325582504272461 0.22297558188438416
0.4728682041168213 0.02325582318007946 0.24173542857170105
0.4883720874786377 -0.02325582504272461 0.08336810022592545
0.4883721172809601 -0.02325582690536976 0.10294833034276962
0.4883720874786377 -0.02325582504272461 0.22129039466381073
0.4883720874786377 -0.02325582504272461 0.2302091419696808
0.4883720874786377 -0.007751941680908203 0.08309873193502426
0.4883720874786377 -0.007751941680908203 0.10350985825061798
0.4883720874786377 -0.007751941680908203 0.21913884580135345
0.4883720874786377 -0.007751941680908203 0.22874762117862701
0.4883720874786377 0.007751941680908203 0.08301536738872528
0.4883720874786377 0.007751941680908203 0.10373980551958084
0.4883720874786377 0.007751941680908203 0.21856197714805603
0.4883720874786377 0.007751941680908203 0.22874987125396729
0.4883720874786377 0.02325582504272461 0.08330558240413666
0.4883720874786377 0.02325582504272461 0.10301866382360458
0.4883720874786377 0.02325582504272461 0.2206227034330368
0.4883720874786377 0.02325582504272461 0.22907066345214844
0.5038759708404541 -0.02325582504272461 0.08253800868988037
0.5038759708404541 -0.02325582504272461 0.10305361449718475
0.5038759708404541 -0.02325582504272461 0.20921814441680908
0.5038759708404541 -0.02325582504272461 0.2263253927230835
0.5038759708404541 -0.007751941680908203 0.08168471604585648
0.5038759708404541 -0.007751941680908203 0.10350777208805084
0.5038759708404541 -0.007751941680908203 0.20889966189861298
0.5038759708404541 -0.007751941680908203 0.22492140531539917
0.5038759708404541 0.007751941680908203 0.0815032422542572
0.5038759708404541 0.00775194214656949 0.1038082093000412
0.5038759708404541 0.007751941680908203 0.20886550843715668
0.5038759708404541 0.00775194214656949 0.22498080134391785
0.5038759708404541 0.02325582504272461 0.08232764154672623
0.5038759708404541 0.02325582318007946 0.10322770476341248
0.5038759708404541 0.02325582504272461 0.2090243101119995
0.5038759708404541 0.02325582504272461 0.22575722634792328
0.5193798542022705 -0.02325582504272461 0.08214043825864792
0.5193798542022705 -0.02325582504272461 0.10258544981479645
0.5193798542022705 -0.02325582504272461 0.20853127539157867
0.5193798542022705 -0.02325582504272461 0.21342891454696655
0.5193798542022705 -0.007751941680908203 0.08080536127090454
0.5193798542022705 -0.007751941680908203 0.10282321274280548
0.5193798542022705 -0.007751941680908203 0.20854775607585907
0.5193798542022705 -0.007751941680908203 0.21229873597621918
0.5193798542022705 0.007751941680908203 0.08043324202299118
0.5193798542022705 0.007751941680908203 0.10305987298488617
0.5193798542022705 0.007751941680908203 0.20850315690040588
0.5193798542022705 0.007751941680908203 0.21221601963043213
0.5193798542022705 0.02325582504272461 0.0818043127655983
0.5193798542022705 0.02325582504272461 0.10283584147691727
0.5193798542022705 0.02325582504272461 0.2085951417684555
0.5193798542022705 0.02325582504272461 0.21204829216003418
0.5348837375640869 -0.02325582504272461 0.08154033869504929
0.5348837375640869 -0.02325582318007946 0.10193923115730286
0.5348837375640869 -0.02325582504272461 0.20851948857307434
0.5348837375640869 -0.02325582504272461 0.21037089824676514
0.5348837375640869 -0.007751941680908203 0.07981379330158234
0.5348837375640869 -0.007751941680908203 0.10211808234453201
0.5348837375640869 -0.007751941680908203 0.2088603377342224
0.5348837375640869 -0.007751941680908203 0.20974422991275787
0.5348837375640869 0.007751941680908203 0.07906579971313477
0.5348837375640869 0.00775194214656949 0.10224597156047821
0.5348837375640869 0.007751941680908203 0.20875108242034912
0.5348837375640869 0.007751941680908203 0.20980992913246155
0.5348837375640869 0.02325582504272461 0.08088184893131256
0.5348837375640869 0.02325582318007946 0.10218027234077454
0.5348837375640869 0.02325582504272461 0.2089531421661377
0.5348837375640869 0.02325582504272461 0.209692120552063
0.5503876209259033 -0.02325582504272461 0.08005432039499283
0.5503876209259033 -0.02325582504272461 0.10147435963153839
0.5503876209259033 -0.007751941680908203 0.07734385877847672
0.5503876209259033 -0.007751941680908203 0.1015419065952301
0.5503876209259033 0.007751941680908203 0.07575364410877228
0.5503876209259033 0.007751941680908203 0.10168269276618958
0.5503876209259033 0.02325582504272461 0.07877139747142792
0.5503876209259033 0.02325582504272461 0.10171667486429214
0.5658915042877197 -0.02325582504272461 0.07996756583452225
0.5658915042877197 -0.02325582504272461 0.09732633829116821
0.5658915042877197 -0.007751941680908203 0.07688131928443909
0.5658915042877197 -0.007751941680908203 0.09687112271785736
0.5658915042877197 0.00775194214656949 0.07469238340854645
0.5658915042877197 0.007751941680908203 0.09869492799043655
0.5658915042877197 0.007751941680908203 0.1782919466495514
0.5658915042877197 0.007751941680908203 0.17831234633922577
0.5658915042877197 0.02325582504272461 0.07812255620956421
0.5658915042877197 0.02325582504272461 0.09997402876615524
0.5658915042877197 0.02325582504272461 0.17829081416130066
0.5658915042877197 0.02325582504272461 0.1783101111650467
0.5813953876495361 -0.02325582504272461 0.07702277600765228
0.5813953876495361 -0.02325582504272461 0.08977532386779785
0.5813953876495361 -0.02325582504272461 0.14686919748783112
0.5813953876495361 -0.02325582504272461 0.183381587266922
0.5813953876495361 -0.007751941680908203 0.07444578409194946
0.5813953876495361 -0.007751941680908203 0.08971793949604034
0.5813953876495361 -0.007751941680908203 0.14636360108852386
0.5813953876495361 -0.007751941680908203 0.1818482130765915
0.5813953876495361 0.007751941215246916 0.0717053934931755
0.5813953876495361 0.007751941680908203 0.0904436707496643
0.5813953876495361 0.007751941680908203 0.14592798054218292
0.5813953876495361 0.007751941680908203 0.18169227242469788
0.5813953876495361 0.02325582504272461 0.07300151139497757
0.5813953876495361 0.02325582504272461 0.0904446393251419
0.5813953876495361 0.02325582504272461 0.1458444595336914
0.5813953876495361 0.02325582504272461 0.18204118311405182
0.5968992710113525 -0.02325582504272461 -0.023738287389278412
0.5968992710113525 -0.02325582690536976 -0.02294323220849037
0.5968992710113525 -0.02325582504272461 0.06758739799261093
0.5968992710113525 -0.02325582504272461 0.08854444324970245
0.5968992710113525 -0.02325582504272461 0.1424696445465088
0.5968992710113525 -0.02325582504272461 0.17935210466384888
0.5968992710113525 -0.007751941680908203 -0.023626942187547684
0.5968992710113525 -0.007751941680908203 -0.022992875427007675
0.5968992710113525 -0.007751941680908203 0.06815323978662491
0.5968992710113525 -0.007751941680908203 0.08836391568183899
0.5968992710113525 -0.007751941680908203 0.14380872249603271
0.5968992710113525 -0.007751941680908203 0.1777147501707077
0.5968992710113525 0.007751941680908203 -0.024007918313145638
0.5968992710113525 0.007751941680908203 -0.022701894864439964
0.5968992710113525 0.007751941680908203 0.06765696406364441
0.5968992710113525 0.007751941680908203 0.08886328339576721
0.5968992710113525 0.007751941680908203 0.14341524243354797
0.5968992710113525 0.007751941680908203 0.17788256704807281
0.5968992710113525 0.02325582504272461 -0.023944230750203133
0.5968992710113525 0.02325582318007946 -0.022743990644812584
0.5968992710113525 0.02325582504272461 0.0658511221408844
0.5968992710113525 0.02325582504272461 0.08907787501811981
0.5968992710113525 0.02325582504272461 0.14224649965763092
0.5968992710113525 0.02325582504272461 0.1793895959854126
0.612403154373169 -0.02325582504272461 -0.02548905648291111
0.612403154373169 -0.02325582504272461 -0.02224225178360939
0.612403154373169 -0.02325582504272461 0.14673183858394623
0.612403154373169 -0.02325582504272461 0.16883882880210876
0.612403154373169 -0.007751941680908203 -0.025430889800190926
0.612403154373169 -0.007751941680908203 -0.022178495302796364
0.612403154373169 -0.007751941680908203 0.08443085849285126
0.612403154373169 -0.007751941680908203 0.08535493910312653
0.612403154373169 -0.007751941680908203 0.14668092131614685
0.612403154373169 -0.007751941680908203 0.1669500172138214
0.612403154373169 0.007751941680908203 -0.02567329630255699
0.612403154373169 0.007751941680908203 -0.022004397585988045
0.612403154373169 0.007751941680908203 0.07906690239906311
0.612403154373169 0.007751941680908203 0.08585610240697861
0.612403154373169 0.007751941680908203 0.14639991521835327
0.612403154373169 0.007751941680908203 0.1668337881565094
0.612403154373169 0.02325582504272461 -0.025577308610081673
0.612403154373169 0.02325582318007946 -0.022038349881768227
0.612403154373169 0.02325582504272461 0.1462235450744629
0.612403154373169 0.02325582504272461 0.16826656460762024
0.6279069185256958 -0.02325582504272461 -0.02880222350358963
0.6279069185256958 -0.02325582504272461 -0.021991761401295662
0.6279069185256958 -0.02325582504272461 0.16035772860050201
0.6279069185256958 -0.02325582318007946 0.16406267881393433
0.6279069185256958 -0.007751941680908203 -0.027420639991760254
0.6279069185256958 -0.007751941680908203 -0.021952971816062927
0.6279069185256958 -0.007751941680908203 0.16153618693351746
0.6279069781303406 -0.00775194214656949 0.1632906198501587
0.6279069185256958 0.007751941680908203 -0.027660753577947617
0.6279069185256958 0.007751941680908203 -0.021739661693572998
0.6279069185256958 0.007751941680908203 0.16115513443946838
0.6279069185256958 0.007751941680908203 0.1633533537387848
0.6279069185256958 0.02325582504272461 -0.028934568166732788
0.6279069185256958 0.02325582504272461 -0.02170112170279026
0.6279069185256958 0.02325582504272461 0.15947994589805603
0.6279069185256958 0.02325582504272461 0.16420984268188477
0.6434108018875122 -0.02325582504272461 -0.03240722417831421
0.6434108018875122 -0.02325582504272461 -0.021710366010665894
0.6434108018875122 -0.007751941680908203 -0.029045358300209045
0.6434108018875122 -0.007751941680908203 -0.021661898121237755
0.6434108018875122 0.007751941680908203 -0.02916581742465496
0.6434108018875122 0.007751941680908203 -0.021427398547530174
0.6434108018875122 0.02325582504272461 -0.032677389681339264
0.6434108018875122 0.02325582318007946 -0.02132229134440422
0.6589146852493286 -0.02325582504272461 -0.03376583382487297
0.6589146852493286 -0.02325582504272461 -0.021292569115757942
0.6589146852493286 -0.007751941680908203 -0.029859967529773712
0.6589146256446838 -0.007751941680908203 -0.021194657310843468
0.6589146852493286 0.007751941680908203 -0.029910266399383545
0.6589147448539734 0.00775194214656949 -0.020908862352371216
0.6589146852493286 0.02325582690536976 -0.03427429124712944
0.6589146852493286 0.02325582504272461 -0.02073339931666851
0.674418568611145 -0.02325582504272461 -0.03232480213046074
0.674418568611145 -0.02325582504272461 -0.02097296714782715
0.674418568611145 -0.02325582504272461 0.048528775572776794
0.674418568611145 -0.02325582504272461 0.0605289526283741
0.674418568611145 -0.007751941680908203 -0.029377691447734833
0.674418568611145 -0.00775194214656949 -0.02058565989136696
0.674418568611145 -0.007751941680908203 0.04099966585636139
0.674418568611145 -0.007751941680908203 0.06790780276060104
0.674418568611145 0.007751941680908203 -0.02946677803993225
0.674418568611145 0.007751941680908203 -0.02012553997337818
0.674418568611145 0.007751941680908203 0.038630396127700806
0.674418568611145 0.007751941680908203 0.06856370717287064
0.674418568611145 0.02325582504272461 -0.033099882304668427
0.674418568611145 0.02325582504272461 -0.020182713866233826
0.674418568611145 0.02325582504272461 0.044288914650678635
0.674418568611145 0.02325582504272461 0.0590718574821949
0.6899224519729614 -0.02325582504272461 -0.029520627111196518
0.6899224519729614 -0.02325582504272461 -0.020978035405278206
0.6899224519729614 -0.02325582504272461 0.04420936480164528
0.6899224519729614 -0.02325582504272461 0.07760140299797058
0.6899224519729614 -0.02325582504272461 0.10063859820365906
0.6899224519729614 -0.02325582690536976 0.1171102523803711
0.6899224519729614 -0.007751941680908203 -0.028131704777479172
0.6899225115776062 -0.007751941680908203 -0.01988978125154972
0.6899224519729614 -0.007751941680908203 0.03786950930953026
0.6899224519729614 -0.007751941680908203 0.08500498533248901
0.6899224519729614 -0.007751941215246916 0.08609220385551453
0.6899225115776062 -0.007751941680908203 0.11651495099067688
0.6899224519729614 0.007751941680908203 -0.028202611953020096
0.6899224519729614 0.007751941680908203 -0.019151214510202408
0.6899224519729614 0.007751941680908203 0.037798989564180374
0.6899224519729614 0.007751941215246916 0.11741907894611359
0.6899224519729614 0.02325582504272461 -0.030054956674575806
0.6899224519729614 0.02325582504272461 -0.020031584426760674
0.6899224519729614 0.02325582504272461 0.04210488498210907
0.6899224519729614 0.02325582504272461 0.07802338898181915
0.6899224519729614 0.02325582504272461 0.09059208631515503
0.6899224519729614 0.02325582504272461 0.11846079677343369
0.7054263353347778 -0.02325582504272461 -0.028074655681848526
0.7054263353347778 -0.02325582504272461 -0.021209973841905594
0.7054263353347778 -0.02325582504272461 0.037830788642168045
0.7054263353347778 -0.02325582504272461 0.11975965648889542
0.7054263353347778 -0.007751941680908203 -0.027478981763124466
0.7054263353347778 -0.007751941680908203 -0.019693506881594658
0.7054263353347778 -0.007751941680908203 0.037034276872873306
0.7054263353347778 -0.007751941680908203 0.11962385475635529
0.7054263353347778 0.007751941680908203 -0.027556300163269043
0.7054263353347778 0.007751941680908203 -0.018613794818520546
0.7054263353347778 0.007751941680908203 0.0370611771941185
0.7054263353347778 0.007751941680908203 0.11973518133163452
0.7054263353347778 0.02325582504272461 -0.028510233387351036
0.7054263353347778 0.02325582504272461 -0.020272258669137955
0.7054263353347778 0.02325582504272461 0.037811990827322006
0.7054263353347778 0.02325582504272461 0.11970029771327972
0.7209302186965942 -0.02325582504272461 -0.027064546942710876
0.7209302186965942 -0.02325582504272461 -0.019064614549279213
0.7209302186965942 -0.02325582504272461 0.03761842101812363
0.720930278301239 -0.02325582504272461 0.11770617961883545
0.7209302186965942 -0.007751941680908203 -0.02694801241159439
0.7209302186965942 -0.007751941680908203 -0.016464335843920708
0.7209302186965942 -0.007751941680908203 0.03654857352375984
0.7209302186965942 -0.007751941680908203 0.11734012514352798
0.7209302186965942 0.007751941680908203 -0.027060896158218384
0.7209302186965942 0.007751941680908203 -0.013466853648424149
0.7209302186965942 0.007751941680908203 0.03637314587831497
0.7209302186965942 0.007751941680908203 0.11739983409643173
0.7209302186965942 0.02325582504272461 -0.027693647891283035
0.7209302186965942 0.02325582504272461 -0.01731090433895588
0.7209302186965942 0.02325582504272461 0.03722769394516945
0.7209302186965942 0.02325582504272461 0.11783460527658463
0.7364341020584106 -0.02325582504272461 -0.026973120868206024
0.7364341020584106 -0.02325582504272461 0.009957759641110897
0.7364341020584106 -0.02325582504272461 0.07795275747776031
0.7364341020584106 -0.02325582504272461 0.10656511783599854
0.7364341020584106 -0.007751941680908203 -0.02661629393696785
0.7364341020584106 -0.007751941215246916 0.008398379199206829
0.7364341020584106 -0.007751941680908203 0.047235313802957535
0.7364341020584106 -0.007751941680908203 0.06701476126909256
0.7364341020584106 -0.007751941680908203 0.07131985574960709
0.7364341020584106 -0.00775194214656949 0.10603229701519012
0.7364341020584106 0.007751941680908203 -0.026883430778980255
0.7364341020584106 0.007751941680908203 0.009339640848338604
0.7364341020584106 0.007751941215246916 0.043517567217350006
0.7364341020584106 0.007751941680908203 0.10638821125030518
0.7364341020584106 0.02325582504272461 -0.02779122069478035
0.7364341020584106 0.02325582504272461 0.010769307613372803
0.7364341020584106 0.02325582504272461 0.04997745901346207
0.7364341020584106 0.02325582504272461 0.06483730673789978
0.7364341020584106 0.02325582504272461 0.07227494567632675
0.7364341020584106 0.02325582504272461 0.10686814785003662
0.751937985420227 -0.02325582504272461 -0.02781016379594803
