-0.20930232107639313 0.48922818899154663 -0.14728683233261108
-0.20930230617523193 0.4886728525161743 -0.13178294897079468
-0.20930230617523193 0.4889267086982727 -0.11627906560897827
-0.20930230617523193 0.4891085624694824 -0.10077518224716187
-0.19379842281341553 -0.4861656129360199 -0.1782945841550827
-0.19379842281341553 -0.4847525656223297 -0.1627907156944275
-0.19379840791225433 -0.4836111068725586 -0.14728683233261108
-0.19379840791225433 -0.48356014490127563 -0.13178294897079468
-0.19379842281341553 -0.48328354954719543 -0.11627906560897827
-0.19379842281341553 -0.48325884342193604 -0.10077518224716187
-0.19379842281341553 -0.45694348216056824 -0.1782945990562439
-0.19379842281341553 -0.45557940006256104 -0.1627907156944275
-0.19379842281341553 -0.4545552730560303 -0.14728683233261108
-0.19379842281341553 -0.44634032249450684 -0.13178294897079468
-0.19379842281341553 -0.42772144079208374 -0.08527129888534546
-0.19379842281341553 -0.41963431239128113 -0.13178294897079468
-0.19379843771457672 -0.4244849681854248 -0.06976741552352905
-0.19379842281341553 -0.4236701428890228 -0.05426359176635742
-0.19379843771457672 -0.4225725531578064 -0.038759708404541016
-0.19379842281341553 -0.42072242498397827 -0.02325582504272461
-0.19379842281341553 -0.42004504799842834 -0.007751941680908203
-0.19379842281341553 -0.4045640826225281 0.007751941680908203
-0.19379842281341553 -0.3611833155155182 0.007751941680908203
-0.19379842281341553 -0.2639462947845459 0.007751941680908203
-0.19379842281341553 -0.21186020970344543 -0.14728683233261108
-0.19379842281341553 -0.14873544871807098 -0.14728683233261108
-0.19379842281341553 -0.09175962209701538 -0.14728683233261108
-0.19379842281341553 0.06214012950658798 -0.14728683233261108
-0.19379842281341553 0.10351251065731049 -0.14728683233261108
-0.19379842281341553 0.22111359238624573 -0.14728683233261108
-0.19379842281341553 0.3920542001724243 0.007751941680908203
-0.19379842281341553 0.41052934527397156 -0.05426359176635742
-0.19379842281341553 0.4078095555305481 -0.038759708404541016
-0.19379842281341553 0.40740978717803955 -0.007751941680908203
-0.19379843771457672 0.4135255813598633 -0.06976741552352905
-0.19379842281341553 0.41094934940338135 -0.02325582318007946
-0.19379842281341553 0.4284142851829529 -0.13178294897079468
-0.19379842281341553 0.43362748622894287 -0.11627906560897827
-0.19379842281341553 0.43249091506004333 -0.10077518224716187
-0.19379843771457672 0.42644980549812317 -0.08527130633592606
-0.19379842281341553 0.455630898475647 -0.1627907156944275
-0.19379842281341553 0.45512065291404724 -0.14728683233261108
-0.19379842281341553 0.4562941789627075 -0.13178294897079468
-0.19379842281341553 0.4518664479255676 -0.11627906560897827
-0.19379842281341553 0.45081818103790283 -0.10077518224716187
-0.19379842281341553 0.46069955825805664 -0.1782945990562439
-0.19379842281341553 0.4900667667388916 -0.1782945990562439
-0.19379842281341553 0.4896228611469269 -0.1627907156944275
-0.19379842281341553 0.4892561435699463 -0.14728683233261108
-0.19379842281341553 0.4886687695980072 -0.13178294897079468
-0.19379842281341553 0.48896029591560364 -0.11627905815839767
-0.19379842281341553 0.48915228247642517 -0.10077518969774246
-0.1782945990562439 -0.48569542169570923 -0.1782945990562439
-0.1782945841550827 -0.4846230745315552 -0.1627907156944275
-0.1782945990562439 -0.4835858941078186 -0.14728683233261108
-0.1782945990562439 -0.48353928327560425 -0.13178294897079468
-0.1782945990562439 -0.48320460319519043 -0.11627906560897827
-0.1782945990562439 -0.4831889271736145 -0.10077518224716187
-0.1782945990562439 -0.4570748507976532 -0.1782945990562439
-0.1782946139574051 -0.4554663896560669 -0.1627907156944275
-0.1782945990562439 -0.45416560769081116 -0.14728683233261108
-0.1782945990562439 -0.4452967345714569 -0.13178294897079468
-0.1782945990562439 -0.4279076159000397 -0.08527129888534546
-0.1782945990562439 -0.42011845111846924 -0.13178294897079468
-0.1782945841550827 -0.4244897663593292 -0.06976741552352905
-0.1782945990562439 -0.42337489128112793 -0.05426359176635742
-0.1782945990562439 -0.4223942160606384 -0.038759708404541016
-0.1782945990562439 -0.4209896922111511 -0.02325582504272461
-0.1782945990562439 -0.4201093316078186 -0.007751941680908203
-0.1782945990562439 -0.40439537167549133 0.007751941680908203
-0.1782945990562439 -0.3613301217556 0.007751941680908203
-0.1782945990562439 -0.2633485794067383 0.007751941680908203
-0.1782945990562439 -0.19583283364772797 -0.14728683233261108
-0.1782945990562439 -0.16406802833080292 -0.14728683233261108
-0.1782945990562439 -0.08423822373151779 -0.14728684723377228
-0.1782945990562439 0.006953276693820953 -0.14728683233261108
-0.1782945990562439 0.11563175171613693 -0.14728683233261108
-0.1782945990562439 0.2077057808637619 -0.14728683233261108
-0.1782945990562439 0.3929443061351776 0.007751941680908203
-0.1782945990562439 0.4108339548110962 -0.05426359176635742
-0.1782945990562439 0.408007949590683 -0.038759708404541016
-0.1782945990562439 0.40751922130584717 -0.007751941680908203
-0.1782945990562439 0.42603254318237305 -0.08527129888534546
-0.1782945990562439 0.4136967062950134 -0.06976741552352905
-0.1782945841550827 0.41101139783859253 -0.02325582504272461
-0.1782945990562439 0.42780327796936035 -0.13178294897079468
-0.1782945990562439 0.43289440870285034 -0.11627906560897827
-0.1782945990562439 0.43177545070648193 -0.10077518224716187
-0.1782945990562439 0.4556872844696045 -0.1627907156944275
-0.1782945990562439 0.45499691367149353 -0.14728683233261108
-0.1782945990562439 0.45679613947868347 -0.13178294897079468
-0.1782945990562439 0.4530491232872009 -0.11627906560897827
-0.1782945990562439 0.4515305757522583 -0.10077518224716187
-0.1782945990562439 0.4621887803077698 -0.1782945990562439
-0.1782945990562439 0.4899912476539612 -0.1782945990562439
-0.1782945990562439 0.4895893335342407 -0.1627907156944275
-0.1782945990562439 0.4892461895942688 -0.14728683233261108
-0.1782945990562439 0.48865875601768494 -0.13178294897079468
-0.1782945990562439 0.48894813656806946 -0.11627906560897827
-0.1782945990562439 0.48912733793258667 -0.10077518224716187
-0.1627907156944275 -0.4854302406311035 -0.1782945990562439
-0.1627907156944275 -0.4844733476638794 -0.1627907156944275
-0.1627907156944275 -0.4835156500339508 -0.14728683233261108
-0.1627907156944275 -0.4834476113319397 -0.13178294897079468
-0.1627907156944275 -0.4830586016178131 -0.11627906560897827
-0.1627907156944275 -0.4829811751842499 -0.10077518224716187
-0.1627907156944275 -0.4568730294704437 -0.1782945990562439
-0.1627907156944275 -0.4551539123058319 -0.1627907156944275
-0.1627907156944275 -0.45346394181251526 -0.14728683233261108
-0.1627907156944275 -0.44233667850494385 -0.13178294897079468
-0.1627907156944275 -0.42852264642715454 -0.08527129888534546
-0.1627907156944275 -0.4215041697025299 -0.13178294897079468
-0.1627907156944275 -0.4254187345504761 -0.06976741552352905
-0.1627907156944275 -0.4235575497150421 -0.05426359549164772
-0.1627907156944275 -0.4225319027900696 -0.038759708404541016
-0.1627907156944275 -0.42133575677871704 -0.02325582318007946
-0.1627907156944275 -0.42016488313674927 -0.007751941680908203
-0.1627907156944275 -0.40441077947616577 0.00775194214656949
-0.1627907007932663 -0.3623376190662384 0.007751941680908203
-0.1627907156944275 -0.2648736238479614 0.007751941680908203
-0.1627907156944275 -0.0772944837808609 -0.14728683233261108
-0.1627907156944275 -0.012544957920908928 -0.14728683233261108
-0.1627907156944275 0.12749306857585907 -0.14728683233261108
-0.1627907156944275 0.19526106119155884 -0.14728683233261108
-0.1627907156944275 0.3942142426967621 0.007751941680908203
-0.1627907156944275 0.40838363766670227 -0.038759708404541016
-0.1627907156944275 0.407562255859375 -0.007751941680908203
-0.1627907156944275 0.41475218534469604 -0.06976741552352905
-0.1627907156944275 0.4112246334552765 -0.05426359176635742
-0.1627907156944275 0.41106608510017395 -0.02325582504272461
-0.1627907156944275 0.4282183051109314 -0.13178294897079468
-0.1627907156944275 0.433215469121933 -0.11627906560897827
-0.1627907156944275 0.43199998140335083 -0.10077518224716187
-0.16279073059558868 0.42658859491348267 -0.08527129888534546
-0.1627907156944275 0.4556424915790558 -0.1627907156944275
-0.1627907156944275 0.45465385913848877 -0.14728683233261108
-0.1627907156944275 0.456294447183609 -0.13178294897079468
-0.1627907156944275 0.45297348499298096 -0.11627906560897827
-0.1627907156944275 0.4515573978424072 -0.10077518224716187
-0.1627907156944275 0.46292465925216675 -0.1782945990562439
-0.1627907156944275 0.48990002274513245 -0.1782945990562439
-0.1627907156944275 0.4895467460155487 -0.1627907156944275
-0.1627907156944275 0.48924875259399414 -0.14728683233261108
-0.1627907007932663 0.4887399971485138 -0.13178294897079468
-0.1627907156944275 0.4889773428440094 -0.11627906560897827
-0.1627907156944275 0.4891239404678345 -0.10077518224716187
-0.14728683233261108 -0.48549824953079224 -0.1782945990562439
-0.14728683233261108 -0.4844207763671875 -0.1627907156944275
-0.14728683233261108 -0.4834657907485962 -0.14728683233261108
-0.14728683233261108 -0.48341548442840576 -0.13178294897079468
-0.14728683233261108 -0.482931911945343 -0.11627906560897827
-0.14728683233261108 -0.4829477071762085 -0.10077518224716187
-0.14728684723377228 -0.45656639337539673 -0.1782945990562439
-0.14728683233261108 -0.4549655318260193 -0.1627907156944275
-0.14728683233261108 -0.4527866840362549 -0.14728683233261108
-0.14728683233261108 -0.43266019225120544 -0.13178294897079468
-0.14728683233261108 -0.42962849140167236 -0.08527129888534546
-0.14728683233261108 -0.42642518877983093 -0.06976741552352905
-0.14728683233261108 -0.42291903495788574 -0.13178294897079468
-0.14728683233261108 -0.4240689277648926 -0.05426359176635742
-0.14728683233261108 -0.4229811728000641 -0.038759708404541016
-0.14728683233261108 -0.42193812131881714 -0.02325582504272461
-0.14728683233261108 -0.4203908443450928 -0.007751941680908203
-0.14728683233261108 -0.40513068437576294 0.007751941680908203
-0.14728683233261108 -0.3583091199398041 0.007751941680908203
-0.14728683233261108 -0.27504897117614746 0.007751941680908203
-0.14728683233261108 -0.07453763484954834 -0.14728683233261108
-0.14728683233261108 -0.022550612688064575 -0.14728683233261108
-0.14728683233261108 0.13441510498523712 -0.14728683233261108
-0.14728683233261108 0.18548642098903656 -0.14728683233261108
-0.14728683233261108 0.39444202184677124 0.007751941680908203
-0.14728683233261108 0.4090741276741028 -0.038759708404541016
-0.14728683233261108 0.4073452055454254 -0.007751941680908203
-0.14728683233261108 0.41592925786972046 -0.06976741552352905
-0.14728683233261108 0.4115561842918396 -0.05426358804106712
-0.14728683233261108 0.41106900572776794 -0.02325582504272461
-0.14728683233261108 0.4289885461330414 -0.13178294897079468
-0.14728683233261108 0.4337460398674011 -0.11627906560897827
-0.14728683233261108 0.4324983060359955 -0.10077518224716187
-0.14728684723377228 0.4272412061691284 -0.08527129888534546
-0.14728683233261108 0.4555463492870331 -0.1627907156944275
-0.14728683233261108 0.45421671867370605 -0.14728683233261108
-0.14728683233261108 0.4553213119506836 -0.13178294897079468
-0.14728683233261108 0.452334463596344 -0.11627906560897827
-0.14728683233261108 0.4512900412082672 -0.10077518224716187
-0.14728683233261108 0.4623618721961975 -0.1782945990562439
-0.14728683233261108 0.48996642231941223 -0.1782945841550827
-0.14728683233261108 0.4895336329936981 -0.1627907156944275
-0.14728683233261108 0.48925843834877014 -0.14728683233261108
-0.14728683233261108 0.48885801434516907 -0.13178294897079468
-0.14728683233261108 0.48902368545532227 -0.11627906560897827
-0.14728683233261108 0.48914089798927307 -0.10077518224716187
-0.13178294897079468 -0.485773503780365 -0.1782945990562439
-0.13178294897079468 -0.4845731258392334 -0.1627907156944275
-0.13178294897079468 -0.4834969937801361 -0.14728683233261108
-0.13178294897079468 -0.4833378791809082 -0.13178294897079468
-0.13178294897079468 -0.48279327154159546 -0.11627906560897827
-0.13178294897079468 -0.4830768406391144 -0.10077517479658127
-0.13178294897079468 -0.45629364252090454 -0.1782945990562439
-0.13178294897079468 -0.4546605348587036 -0.1627907156944275
-0.13178294897079468 -0.45213761925697327 -0.14728683233261108
-0.13178294897079468 -0.43208247423171997 -0.13178294897079468
-0.13178294897079468 -0.43083858489990234 -0.08527129888534546
-0.13178294897079468 -0.4267841577529907 -0.06976741552352905
-0.13178294897079468 -0.4219990372657776 -0.13178294897079468
-0.13178294897079468 -0.42512640357017517 -0.05426359176635742
-0.13178294897079468 -0.42326727509498596 -0.038759708404541016
-0.13178294897079468 -0.4225699007511139 -0.02325582690536976
-0.13178294897079468 -0.42070549726486206 -0.007751941680908203
-0.13178294897079468 -0.4055902063846588 0.007751941680908203
-0.13178294897079468 -0.3525155186653137 0.007751941680908203
-0.13178294897079468 -0.2958797514438629 0.007751941215246916
-0.13178294897079468 -0.07129985094070435 -0.14728683233261108
-0.13178294897079468 -0.027797728776931763 -0.14728683233261108
-0.13178294897079468 0.1472625881433487 -0.14728683233261108
-0.13178294897079468 0.17900186777114868 -0.14728683233261108
-0.13178294897079468 0.39522039890289307 0.007751941680908203
-0.13178294897079468 0.4103100597858429 -0.038759708404541016
-0.13178294897079468 0.4080069661140442 -0.007751941680908203
-0.13178294897079468 0.4169270992279053 -0.06976741552352905
-0.13178294897079468 0.41206464171409607 -0.05426359176635742
-0.13178294897079468 0.4115658104419708 -0.02325582690536976
-0.13178294897079468 0.4292793869972229 -0.13178294897079468
-0.13178294897079468 0.43380069732666016 -0.11627906560897827
-0.13178294897079468 0.4325564503669739 -0.10077518224716187
-0.13178294897079468 0.4276861250400543 -0.08527129888534546
-0.13178294897079468 0.45508748292922974 -0.1627907156944275
-0.13178294897079468 0.45339030027389526 -0.14728683233261108
-0.13178294897079468 0.4542297124862671 -0.13178294897079468
-0.13178294897079468 0.451922208070755 -0.11627906560897827
-0.13178294897079468 0.4512443542480469 -0.10077518224716187
-0.13178294897079468 0.4608078598976135 -0.1782945990562439
-0.13178294897079468 0.49004435539245605 -0.1782945990562439
-0.13178294897079468 0.48954400420188904 -0.1627907007932663
-0.13178294897079468 0.4892669916152954 -0.14728683233261108
-0.13178294897079468 0.4888915419578552 -0.13178294897079468
-0.13178294897079468 0.4890304207801819 -0.11627906560897827
-0.13178293406963348 0.4891674816608429 -0.10077517479658127
-0.11627906560897827 -0.4860449731349945 -0.1782945990562439
-0.11627905815839767 -0.48484814167022705 -0.1627907007932663
-0.11627905815839767 -0.48361366987228394 -0.14728683233261108
-0.11627906560897827 -0.4832974076271057 -0.13178294897079468
-0.11627906560897827 -0.48275226354599 -0.11627906560897827
-0.11627906560897827 -0.48324060440063477 -0.10077518224716187
-0.11627906560897827 -0.456344336271286 -0.1782945990562439
-0.11627906560897827 -0.45472538471221924 -0.1627907156944275
-0.11627906560897827 -0.4520927667617798 -0.14728683233261108
-0.11627906560897827 -0.43311387300491333 -0.13178294897079468
-0.11627906560897827 -0.432084321975708 -0.08527129888534546
-0.11627906560897827 -0.42710453271865845 -0.06976741552352905
-0.11627906560897827 -0.4206464886665344 -0.13178294897079468
-0.11627906560897827 -0.42629918456077576 -0.05426359176635742
-0.11627906560897827 -0.4240298271179199 -0.038759708404541016
-0.11627906560897827 -0.4232557713985443 -0.02325582504272461
-0.11627906560897827 -0.42100393772125244 -0.007751941680908203
-0.11627906560897827 -0.4066949784755707 0.007751941680908203
-0.11627906560897827 -0.34377068281173706 0.007751941680908203
-0.11627906560897827 -0.31872114539146423 0.007751941680908203
-0.11627906560897827 -0.0704575851559639 -0.14728683233261108
-0.11627906560897827 -0.028698697686195374 -0.14728683233261108
-0.11627906560897827 0.15359461307525635 -0.14728683233261108
-0.11627906560897827 0.1728293001651764 -0.14728683233261108
-0.11627906560897827 0.40875375270843506 -0.007751941680908203
-0.11627906560897827 0.39567866921424866 0.007751941680908203
-0.11627906560897827 0.41768836975097656 -0.06976741552352905
-0.11627906560897827 0.4124453365802765 -0.05426359176635742
-0.11627906560897827 0.4110219478607178 -0.038759708404541016
-0.11627905815839767 0.41205617785453796 -0.02325582504272461
-0.11627906560897827 0.4292393922805786 -0.13178294897079468
-0.11627906560897827 0.43393951654434204 -0.11627906560897827
-0.11627905815839767 0.43265512585639954 -0.10077518224716187
-0.11627906560897827 0.42794400453567505 -0.08527129888534546
-0.11627906560897827 0.45489925146102905 -0.1627907156944275
-0.11627906560897827 0.453092485666275 -0.14728683233261108
-0.11627906560897827 0.4535065293312073 -0.13178294897079468
-0.11627906560897827 0.45126616954803467 -0.11627906560897827
-0.11627906560897827 0.4509690999984741 -0.10077518224716187
-0.11627906560897827 0.46034106612205505 -0.1782945990562439
-0.11627906560897827 0.4900926649570465 -0.1782945990562439
-0.11627905815839767 0.48958173394203186 -0.1627907156944275
-0.11627905815839767 0.48930123448371887 -0.14728683233261108
-0.11627906560897827 0.488927960395813 -0.13178294897079468
-0.11627906560897827 0.4890677332878113 -0.11627906560897827
-0.11627906560897827 0.4892359972000122 -0.10077518224716187
-0.10077518224716187 -0.486108660697937 -0.1782945990562439
-0.10077518224716187 -0.4848830997943878 -0.1627907156944275
-0.10077517479658127 -0.48362573981285095 -0.14728683233261108
-0.10077518224716187 -0.4832383692264557 -0.13178294897079468
-0.10077518224716187 -0.4826934337615967 -0.11627906560897827
-0.10077518224716187 -0.4832479655742645 -0.10077518224716187
-0.10077518224716187 -0.45638224482536316 -0.1782945990562439
-0.10077518224716187 -0.4548329710960388 -0.1627907156944275
-0.10077518224716187 -0.45219141244888306 -0.14728683233261108
-0.10077518224716187 -0.4340285658836365 -0.13178294897079468
-0.10077518224716187 -0.43251854181289673 -0.08527129888534546
-0.10077518224716187 -0.4270656108856201 -0.06976741552352905
-0.10077518224716187 -0.4196210503578186 -0.13178294897079468
-0.10077518224716187 -0.4262314736843109 -0.05426359176635742
-0.10077518224716187 -0.42421847581863403 -0.038759708404541016
-0.10077518224716187 -0.42337125539779663 -0.02325582690536976
-0.10077518224716187 -0.42093411087989807 -0.007751941680908203
-0.10077517479658127 -0.40650635957717896 0.007751941680908203
-0.10077518224716187 -0.07124628126621246 -0.14728683233261108
-0.10077518224716187 -0.02686690166592598 -0.14728683233261108
-0.10077518224716187 0.1478022187948227 -0.14728683233261108
-0.10077518224716187 0.17961159348487854 -0.14728683233261108
-0.10077518224716187 0.39524906873703003 0.007751941680908203
-0.10077518224716187 0.40867307782173157 -0.007751941680908203
-0.10077518224716187 0.4178306460380554 -0.06976741552352905
-0.10077518224716187 0.4124720096588135 -0.05426359176635742
-0.10077518224716187 0.41104522347450256 -0.038759708404541016
-0.10077518224716187 0.4121820628643036 -0.02325582504272461
-0.10077518224716187 0.42910343408584595 -0.13178294897079468
-0.10077518224716187 0.43401288986206055 -0.11627906560897827
-0.10077518224716187 0.4327614903450012 -0.10077518224716187
-0.10077517479658127 0.42801210284233093 -0.08527129888534546
-0.10077518224716187 0.4548346996307373 -0.1627907156944275
-0.10077518224716187 0.4529690146446228 -0.14728683233261108
-0.10077518224716187 0.4532000720500946 -0.13178294897079468
-0.10077518224716187 0.45082271099090576 -0.11627906560897827
-0.10077518224716187 0.4506458640098572 -0.10077518224716187
-0.10077518224716187 0.46008890867233276 -0.1782945841550827
-0.10077518224716187 0.49009501934051514 -0.1782945990562439
-0.10077518224716187 0.48958897590637207 -0.1627907156944275
-0.10077518224716187 0.4893096387386322 -0.14728683233261108
-0.10077518224716187 0.488930881023407 -0.13178294897079468
-0.10077518969774246 0.48906829953193665 -0.11627907305955887
-0.10077518224716187 0.48925095796585083 -0.10077518224716187
-0.08527129888534546 -0.48599639534950256 -0.1782946139574051
-0.08527129888534546 -0.4847126007080078 -0.1627907156944275
-0.08527129888534546 -0.4834902286529541 -0.14728683233261108
-0.08527129888534546 -0.48309290409088135 -0.13178294897079468
-0.08527129888534546 -0.48251986503601074 -0.11627906560897827
-0.08527129888534546 -0.48308128118515015 -0.10077518224716187
-0.08527129888534546 -0.4565232992172241 -0.1782945990562439
-0.08527129888534546 -0.45507562160491943 -0.1627907156944275
-0.08527129888534546 -0.45254215598106384 -0.14728683233261108
-0.08527129888534546 -0.43566033244132996 -0.13178294897079468
-0.08527129888534546 -0.432247132062912 -0.08527129888534546
-0.08527129888534546 -0.42694219946861267 -0.06976741552352905
-0.08527129888534546 -0.4183431565761566 -0.13178294897079468
-0.08527129888534546 -0.42577287554740906 -0.05426359176635742
-0.08527129888534546 -0.4240495562553406 -0.038759708404541016
-0.08527129888534546 -0.42315369844436646 -0.02325582504272461
-0.08527129888534546 -0.42065995931625366 -0.007751941680908203
-0.08527129888534546 -0.4053519666194916 0.007751941680908203
-0.08527129888534546 -0.06552691757678986 -0.14728683233261108
-0.08527129888534546 -0.03339130058884621 -0.14728683233261108
-0.08527129888534546 0.3931417763233185 0.007751941680908203
-0.08527129888534546 0.40797004103660583 -0.007751941680908203
-0.08527129888534546 0.4173421263694763 -0.06976741552352905
-0.08527129888534546 0.41223055124282837 -0.05426359176635742
-0.08527129888534546 0.4108799695968628 -0.038759708404541016
-0.08527129888534546 0.4120340347290039 -0.02325582504272461
-0.08527129888534546 0.4288453459739685 -0.13178294897079468
-0.08527129888534546 0.4335750937461853 -0.11627906560897827
-0.08527129888534546 0.43213561177253723 -0.10077518224716187
-0.08527129888534546 0.4277188181877136 -0.08527129888534546
-0.08527129888534546 0.4551161229610443 -0.1627907156944275
-0.08527129888534546 0.45332837104797363 -0.14728683233261108
-0.08527129888534546 0.4536462426185608 -0.13178294897079468
-0.08527129888534546 0.4513431191444397 -0.11627906560897827
-0.08527129888534546 0.4513375759124756 -0.10077518224716187
-0.08527129888534546 0.46087366342544556 -0.1782945990562439
-0.08527129888534546 0.4900707006454468 -0.1782945990562439
-0.08527129888534546 0.4895748198032379 -0.1627907156944275
-0.08527129888534546 0.48929452896118164 -0.14728684723377228
-0.08527129888534546 0.4889240264892578 -0.13178294897079468
-0.08527129888534546 0.4890470504760742 -0.11627906560897827
-0.08527129888534546 0.4892186224460602 -0.10077517479658127
-0.06976741552352905 -0.485882043838501 -0.1782945990562439
-0.06976741552352905 -0.4845566153526306 -0.1627907156944275
-0.06976741552352905 -0.4833580255508423 -0.14728683233261108
-0.06976741552352905 -0.48298388719558716 -0.13178294897079468
-0.06976741552352905 -0.4823644161224365 -0.11627906560897827
-0.06976741552352905 -0.4828493595123291 -0.10077518969774246
-0.06976741552352905 -0.45672520995140076 -0.1782945990562439
-0.06976741552352905 -0.4553353786468506 -0.16279073059558868
-0.06976741552352905 -0.45316073298454285 -0.14728683233261108
-0.06976741552352905 -0.4385334551334381 -0.13178294897079468
-0.06976741552352905 -0.43088409304618835 -0.08527129888534546
-0.06976741552352905 -0.42668893933296204 -0.06976741552352905
-0.06976741552352905 -0.41697221994400024 -0.13178294897079468
-0.06976741552352905 -0.42479491233825684 -0.05426359176635742
-0.06976741552352905 -0.42340609431266785 -0.038759708404541016
-0.06976741552352905 -0.4224523603916168 -0.02325582504272461
-0.06976741552352905 -0.42017918825149536 -0.007751941680908203
-0.06976741552352905 -0.4026753902435303 0.007751941680908203
-0.06976741552352905 -0.352126806974411 0.007751941680908203
-0.06976741552352905 -0.3252463638782501 0.007751941680908203
-0.06976741552352905 0.390483021736145 0.007751941680908203
-0.06976741552352905 0.4099426865577698 -0.038759708404541016
-0.06976741552352905 0.4071293771266937 -0.007751941680908203
-0.06976741552352905 0.41644561290740967 -0.06976741552352905
-0.06976741552352905 0.4118558168411255 -0.05426359176635742
-0.06976741552352905 0.4117389917373657 -0.02325582504272461
-0.06976742297410965 0.42787227034568787 -0.13178294897079468
-0.06976741552352905 0.43230903148651123 -0.11627906560897827
-0.06976741552352905 0.43082767724990845 -0.10077518224716187
-0.06976741552352905 0.427218496799469 -0.08527129888534546
-0.06976741552352905 0.45541810989379883 -0.1627907156944275
-0.06976741552352905 0.453836053609848 -0.14728683233261108
-0.06976741552352905 0.4551178812980652 -0.13178294897079468
-0.06976741552352905 0.45358479022979736 -0.11627906560897827
-0.06976741552352905 0.45336318016052246 -0.10077518224716187
-0.06976741552352905 0.46193599700927734 -0.1782945990562439
-0.06976741552352905 0.490005761384964 -0.1782945841550827
-0.06976741552352905 0.48954060673713684 -0.1627907156944275
-0.06976741552352905 0.48925620317459106 -0.14728683233261108
-0.06976741552352905 0.48886048793792725 -0.13178294897079468
-0.06976741552352905 0.48896369338035583 -0.11627906560897827
-0.06976741552352905 0.4891137182712555 -0.10077518224716187
-0.05426359176635742 -0.4857662618160248 -0.1782945990562439
-0.05426359176635742 -0.4844111204147339 -0.1627907156944275
-0.05426359176635742 -0.48324576020240784 -0.14728683233261108
-0.05426359176635742 -0.4829348027706146 -0.13178294897079468
-0.05426359176635742 -0.4822942018508911 -0.11627906560897827
-0.05426359176635742 -0.4826176166534424 -0.10077518224716187
-0.05426359176635742 -0.45693716406822205 -0.1782945990562439
-0.05426359176635742 -0.4556002616882324 -0.1627907007932663
-0.05426359176635742 -0.4539693295955658 -0.14728683233261108
-0.05426359176635742 -0.44365397095680237 -0.13178294897079468
-0.05426359176635742 -0.42881685495376587 -0.08527129888534546
-0.05426359176635742 -0.41509416699409485 -0.13178294897079468
-0.05426359176635742 -0.425529420375824 -0.06976741552352905
-0.05426359176635742 -0.42299702763557434 -0.05426359176635742
-0.05426359176635742 -0.4224020838737488 -0.038759708404541016
-0.05426359176635742 -0.42136406898498535 -0.02325582504272461
-0.05426359176635742 -0.41951984167099 -0.007751941680908203
-0.05426359176635742 -0.39964985847473145 0.007751941680908203
-0.05426359176635742 -0.3668699860572815 0.007751941680908203
-0.05426358804106712 -0.3008134067058563 0.007751941680908203
-0.05426359176635742 0.38732996582984924 0.007751941215246916
-0.05426359176635742 0.40823256969451904 -0.038759708404541016
-0.05426359176635742 0.4059109687805176 -0.007751941680908203
-0.05426359176635742 0.4153550863265991 -0.06976741552352905
-0.05426359176635742 0.41136839985847473 -0.05426359176635742
-0.05426359176635742 0.411082923412323 -0.02325582504272461
-0.05426359176635742 0.4263593554496765 -0.13178294897079468
-0.05426359176635742 0.4308790862560272 -0.11627906560897827
-0.05426359176635742 0.429729700088501 -0.10077518224716187
-0.05426358804106712 0.42671528458595276 -0.08527129143476486
-0.05426359176635742 0.45574304461479187 -0.1627907156944275
-0.05426359176635742 0.4544680118560791 -0.14728683233261108
-0.05426359176635742 0.4571893513202667 -0.13178294897079468
-0.05426359176635742 0.4562455415725708 -0.11627906560897827
-0.05426359176635742 0.45524972677230835 -0.10077518224716187
-0.05426359176635742 0.4632551670074463 -0.1782945990562439
-0.05426359176635742 0.4899282157421112 -0.1782945990562439
-0.05426359176635742 0.489507794380188 -0.1627907156944275
-0.05426359176635742 0.48921334743499756 -0.14728683233261108
-0.05426359176635742 0.48876211047172546 -0.13178294897079468
-0.05426359176635742 0.488871693611145 -0.11627906560897827
-0.05426359176635742 0.48901626467704773 -0.10077518969774246
-0.038759708404541016 -0.48583292961120605 -0.1782945990562439
-0.038759708404541016 -0.48445501923561096 -0.1627907156944275
-0.038759708404541016 -0.4832591414451599 -0.14728683233261108
-0.038759708404541016 -0.48295533657073975 -0.13178294897079468
-0.038759708404541016 -0.4823126494884491 -0.11627906560897827
-0.038759708404541016 -0.48249003291130066 -0.10077518969774246
-0.038759708404541016 -0.45712777972221375 -0.1782945990562439
-0.038759708404541016 -0.4558536410331726 -0.1627907156944275
-0.038759708404541016 -0.45458757877349854 -0.14728683233261108
-0.038759708404541016 -0.4471123218536377 -0.13178294897079468
-0.038759708404541016 -0.44209975004196167 -0.10077518224716187
-0.038759712129831314 -0.4413028657436371 -0.10077518224716187
-0.038759708404541016 -0.4277859926223755 -0.08527129888534546
-0.038759708404541016 -0.4135870337486267 -0.13178294897079468
-0.038759708404541016 -0.4236118197441101 -0.06976741552352905
-0.038759708404541016 -0.4220212697982788 -0.05426359176635742
-0.038759708404541016 -0.4220510721206665 -0.038759708404541016
-0.038759708404541016 -0.4208430051803589 -0.02325582504272461
-0.038759708404541016 -0.41909897327423096 -0.007751941680908203
-0.038759708404541016 -0.39870965480804443 0.007751941680908203
-0.038759708404541016 -0.37041860818862915 0.007751941680908203
-0.038759708404541016 -0.2873847484588623 0.007751941680908203
-0.038759708404541016 0.38521069288253784 0.007751941680908203
-0.038759708404541016 0.4108083248138428 -0.05426359176635742
-0.038759708404541016 0.4070080816745758 -0.038759708404541016
-0.038759708404541016 0.4098649024963379 -0.02325582504272461
-0.038759708404541016 0.40500178933143616 -0.007751941680908203
-0.038759708404541016 0.4237813353538513 -0.13178294897079468
-0.038759708404541016 0.4252539873123169 -0.08527129888534546
-0.038759708404541016 0.41412484645843506 -0.06976741552352905
-0.038759708404541016 0.4298676550388336 -0.11627906560897827
-0.038759708404541016 0.42886391282081604 -0.10077518224716187
-0.038759708404541016 0.4561253786087036 -0.1627907156944275
-0.038759708404541016 0.4551461338996887 -0.14728683233261108
-0.038759708404541016 0.4563041627407074 -0.10077518224716187
-0.038759708404541016 0.46431106328964233 -0.1782945990562439
-0.038759708404541016 0.4594570994377136 -0.13178294897079468
-0.038759708404541016 0.4578627049922943 -0.11627906560897827
-0.038759708404541016 0.4899021089076996 -0.1782945990562439
-0.038759708404541016 0.48950234055519104 -0.1627907156944275
-0.038759708404541016 0.48920223116874695 -0.14728683233261108
-0.038759712129831314 0.4887150228023529 -0.13178296387195587
-0.038759708404541016 0.48883381485939026 -0.11627906560897827
-0.038759708404541016 0.488973468542099 -0.10077518224716187
-0.02325582504272461 -0.48584073781967163 -0.1782946139574051
-0.02325582504272461 -0.4844728410243988 -0.1627907156944275
-0.02325582504272461 -0.48326385021209717 -0.14728683233261108
-0.02325582504272461 -0.4829246997833252 -0.13178294897079468
-0.02325582504272461 -0.482333779335022 -0.11627906560897827
-0.02325582504272461 -0.48238039016723633 -0.10077518224716187
-0.02325582504272461 -0.4573008418083191 -0.1782945990562439
-0.02325582504272461 -0.4560239911079407 -0.1627907156944275
-0.02325582504272461 -0.4551064968109131 -0.14728683233261108
-0.02325582504272461 -0.4494907557964325 -0.13178294897079468
-0.02325582504272461 -0.4458315372467041 -0.10077518224716187
-0.02325582504272461 -0.43271729350090027 -0.10077518224716187
-0.02325582504272461 -0.4269008934497833 -0.08527129888534546
-0.02325582504272461 -0.4114501476287842 -0.13178294897079468
-0.02325582504272461 -0.42199474573135376 -0.06976741552352905
-0.02325582504272461 -0.42108994722366333 -0.05426359176635742
-0.02325582504272461 -0.4213235378265381 -0.038759708404541016
-0.02325582504272461 -0.4201023280620575 -0.02325582504272461
-0.02325582504272461 -0.4185793995857239 -0.007751941680908203
-0.02325582504272461 -0.39704573154449463 0.007751941680908203
-0.02325582504272461 -0.37628188729286194 0.007751941215246916
-0.02325582504272461 -0.2702488303184509 0.007751941680908203
-0.02325582504272461 0.3826088309288025 0.007751941680908203
-0.02325582504272461 0.4087108373641968 -0.05426359176635742
-0.02325582504272461 0.4057663679122925 -0.038759708404541016
-0.02325582504272461 0.40862804651260376 -0.02325582504272461
-0.02325582504272461 0.4041922092437744 -0.007751941680908203
-0.02325582504272461 0.4210274815559387 -0.13178294897079468
-0.02325582504272461 0.4227420687675476 -0.08527129888534546
-0.02325582504272461 0.4128660559654236 -0.06976741552352905
-0.02325582504272461 0.4289611577987671 -0.11627906560897827
-0.02325582504272461 0.42808789014816284 -0.10077518224716187
-0.02325582504272461 0.45643386244773865 -0.1627907156944275
-0.02325582504272461 0.4557216763496399 -0.14728683233261108
-0.02325582504272461 0.456720769405365 -0.10077518224716187
-0.02325582504272461 0.465386301279068 -0.1782945990562439
-0.02325582504272461 0.46127408742904663 -0.13178294897079468
-0.02325582504272461 0.45918309688568115 -0.11627906560897827
-0.02325582504272461 0.48985520005226135 -0.1782945990562439
-0.02325582504272461 0.48950889706611633 -0.1627907007932663
-0.02325582504272461 0.48919588327407837 -0.14728683233261108
-0.02325582504272461 0.48863717913627625 -0.13178294897079468
-0.02325582504272461 0.4887973368167877 -0.11627906560897827
-0.02325582504272461 0.4889611303806305 -0.10077518224716187
-0.007751941680908203 -0.4858021140098572 -0.1782945990562439
-0.007751941215246916 -0.48444873094558716 -0.1627907156944275
-0.007751941680908203 -0.4832155406475067 -0.14728683233261108
-0.007751941680908203 -0.482867956161499 -0.13178294897079468
-0.007751941680908203 -0.48236218094825745 -0.11627906560897827
-0.007751941680908203 -0.4823612570762634 -0.10077518224716187
-0.007751941680908203 -0.4573482275009155 -0.1782945990562439
-0.007751941680908203 -0.4561160206794739 -0.1627907156944275
-0.00775194214656949 -0.45533719658851624 -0.14728683233261108
-0.007751941680908203 -0.45017147064208984 -0.13178294897079468
-0.007751941680908203 -0.44236910343170166 -0.11627906560897827
-0.007751941680908203 -0.44642168283462524 -0.10077518224716187
-0.007751941680908203 -0.43980535864830017 -0.11627907305955887
-0.007751941680908203 -0.4319688379764557 -0.10077518224716187
-0.007751941680908203 -0.42656195163726807 -0.08527129888534546
-0.007751941680908203 -0.41090402007102966 -0.13178294897079468
-0.007751941680908203 -0.42085766792297363 -0.06976741552352905
-0.007751941680908203 -0.4205375015735626 -0.05426359176635742
-0.007751941680908203 -0.4209955334663391 -0.038759708404541016
-0.007751941680908203 -0.4197712242603302 -0.02325582504272461
-0.007751941680908203 -0.4182676076889038 -0.007751941680908203
-0.007751941680908203 -0.39627280831336975 0.007751941680908203
-0.007751941680908203 -0.3793182373046875 0.007751941680908203
-0.007751941680908203 -0.2631247639656067 0.007751941680908203
-0.007751941680908203 0.3806491792201996 0.007751941680908203
-0.007751941680908203 0.40731438994407654 -0.05426359176635742
-0.007751941680908203 0.4050992727279663 -0.038759708404541016
-0.007751941680908203 0.4077363610267639 -0.02325582504272461
-0.007751941680908203 0.40362852811813354 -0.007751941680908203
-0.007751941680908203 0.41990143060684204 -0.13178294897079468
-0.007751941680908203 0.4217027723789215 -0.08527129888534546
-0.007751941680908203 0.4121449589729309 -0.06976741552352905
-0.007751941680908203 0.4285575747489929 -0.11627906560897827
-0.007751941215246916 0.4278007447719574 -0.10077518224716187
-0.007751941680908203 0.4566788673400879 -0.1627907156944275
-0.007751941680908203 0.45611143112182617 -0.14728683233261108
-0.007751941680908203 0.4561929404735565 -0.10077518224716187
-0.007751941680908203 0.46593791246414185 -0.1782945990562439
-0.007751941680908203 0.4616369307041168 -0.13178294897079468
-0.00775194214656949 0.4583536386489868 -0.11627906560897827
-0.007751941215246916 0.48987820744514465 -0.1782945990562439
-0.007751941215246916 0.4895550012588501 -0.1627907156944275
-0.007751941680908203 0.4892335832118988 -0.14728684723377228
-0.007751941215246916 0.4886757433414459 -0.13178294897079468
-0.007751941680908203 0.4888773262500763 -0.11627906560897827
-0.007751941680908203 0.48903265595436096 -0.10077518224716187
0.007751941680908203 -0.48581016063690186 -0.1782945990562439
0.007751941680908203 -0.4844803810119629 -0.1627907156944275
0.007751941680908203 -0.48320847749710083 -0.14728683233261108
0.007751941680908203 -0.4828311800956726 -0.13178294897079468
0.007751941680908203 -0.48235344886779785 -0.11627906560897827
0.007751941680908203 -0.4823222756385803 -0.10077518224716187
0.007751941215246916 -0.45721858739852905 -0.1782945990562439
0.007751941680908203 -0.4560108780860901 -0.1627907156944275
0.007751941680908203 -0.45536667108535767 -0.14728683233261108
0.00775194214656949 -0.4504229724407196 -0.13178294897079468
0.007751941680908203 -0.44297102093696594 -0.11627906560897827
0.007751941680908203 -0.44674116373062134 -0.10077518224716187
0.007751941680908203 -0.43824416399002075 -0.11627906560897827
0.007751941680908203 -0.4321953058242798 -0.10077518224716187
0.007751941680908203 -0.42667245864868164 -0.08527129888534546
0.007751941680908203 -0.4112040400505066 -0.13178294897079468
0.007751941680908203 -0.42088955640792847 -0.06976741552352905
0.007751941680908203 -0.4203699827194214 -0.05426359176635742
0.007751941215246916 -0.42079663276672363 -0.038759708404541016
0.00775194214656949 -0.4195942282676697 -0.02325582504272461
0.007751941680908203 -0.41808104515075684 -0.007751941680908203
0.007751941680908203 -0.395702600479126 0.007751941680908203
0.007751941680908203 -0.38826680183410645 0.007751941680908203
0.007751941680908203 -0.26080322265625 0.007751941680908203
0.007751941680908203 0.37995171546936035 0.007751941680908203
0.007751941680908203 0.40699806809425354 -0.05426359176635742
0.007751941680908203 0.4051855206489563 -0.038759708404541016
0.007751941680908203 0.4078509509563446 -0.02325582504272461
0.007751941680908203 0.4035986065864563 -0.007751941680908203
0.007751941680908203 0.41971874237060547 -0.13178294897079468
0.007751941680908203 0.4216473698616028 -0.08527129888534546
0.007751941680908203 0.41192328929901123 -0.06976741552352905
0.00775194214656949 0.4285997152328491 -0.11627906560897827
0.007751941680908203 0.4278794825077057 -0.10077518224716187
0.007751941680908203 0.45664453506469727 -0.1627907156944275
0.007751941680908203 0.45611345767974854 -0.14728683233261108
0.007751941680908203 0.45560717582702637 -0.10077518224716187
0.007751941680908203 0.4660792946815491 -0.1782945990562439
0.007751941680908203 0.46143579483032227 -0.13178294897079468
0.00775194214656949 0.45745766162872314 -0.11627906560897827
0.007751941215246916 0.489871621131897 -0.1782945841550827
0.007751941680908203 0.4895699620246887 -0.1627907156944275
0.007751941680908203 0.48924246430397034 -0.14728683233261108
0.007751941680908203 0.48867255449295044 -0.13178294897079468
0.00775194214656949 0.4888957440853119 -0.11627906560897827
0.007751941680908203 0.4890533983707428 -0.10077518224716187
0.02325582504272461 -0.4858071208000183 -0.1782945990562439
0.02325582504272461 -0.4843955636024475 -0.1627907156944275
0.02325582504272461 -0.48315706849098206 -0.14728683233261108
0.02325582504272461 -0.4828169047832489 -0.13178294897079468
0.02325582504272461 -0.48230332136154175 -0.11627905815839767
0.02325582504272461 -0.48233434557914734 -0.10077518224716187
0.02325582504272461 -0.45702627301216125 -0.1782945990562439
0.02325582504272461 -0.455849826335907 -0.1627907156944275
0.02325582504272461 -0.4551748037338257 -0.14728683233261108
0.02325582504272461 -0.4497426152229309 -0.13178294897079468
0.02325582504272461 -0.4458836317062378 -0.10077518224716187
0.02325582504272461 -0.43477895855903625 -0.10077518224716187
0.02325582504272461 -0.4273165762424469 -0.08527129888534546
0.02325582504272461 -0.41290098428726196 -0.13178294897079468
0.02325582690536976 -0.4221848249435425 -0.06976741552352905
0.02325582504272461 -0.4208352565765381 -0.05426359176635742
0.02325582504272461 -0.4209289848804474 -0.038759708404541016
0.02325582504272461 -0.41982507705688477 -0.02325582504272461
0.02325582504272461 -0.4181693196296692 -0.007751941680908203
0.02325582504272461 -0.2625589370727539 0.007751941680908203
0.02325582504272461 0.3794507682323456 0.007751941680908203
0.02325582504272461 0.40781277418136597 -0.05426359176635742
0.02325582504272461 0.40568360686302185 -0.038759708404541016
0.02325582504272461 0.4083203673362732 -0.02325582504272461
0.02325582504272461 0.4037073850631714 -0.007751941680908203
0.02325582504272461 0.4210655689239502 -0.13178294897079468
0.02325582504272461 0.4223535656929016 -0.08527129888534546
0.02325582504272461 0.41229408979415894 -0.06976740807294846
0.02325582504272461 0.42894721031188965 -0.11627906560897827
0.02325582504272461 0.42813557386398315 -0.10077518224716187
0.02325582504272461 0.45662280917167664 -0.1627907156944275
0.02325582504272461 0.4560415744781494 -0.14728683233261108
0.02325582504272461 0.45576661825180054 -0.10077518224716187
0.02325582504272461 0.4660182297229767 -0.1782945990562439
0.02325582504272461 0.4611688554286957 -0.13178294897079468
0.02325582504272461 0.45775678753852844 -0.11627906560897827
0.02325582504272461 0.4898976683616638 -0.1782945841550827
0.02325582504272461 0.4895652234554291 -0.1627907156944275
0.02325582504272461 0.48924270272254944 -0.14728683233261108
0.02325582504272461 0.4886980652809143 -0.13178296387195587
0.02325582504272461 0.48888951539993286 -0.11627906560897827
0.02325582318007946 0.4890292286872864 -0.10077518224716187
0.038759708404541016 -0.4858589768409729 -0.1782945990562439
0.038759708404541016 -0.4843165874481201 -0.1627907156944275
0.038759708404541016 -0.4830560088157654 -0.14728683233261108
0.038759708404541016 -0.4827292263507843 -0.13178294897079468
0.038759708404541016 -0.4821891784667969 -0.11627906560897827
0.038759708404541016 -0.48231232166290283 -0.10077518224716187
0.038759708404541016 -0.45676594972610474 -0.1782945990562439
0.038759708404541016 -0.45569315552711487 -0.1627907156944275
0.038759708404541016 -0.45482462644577026 -0.14728683233261108
0.038759708404541016 -0.44782692193984985 -0.13178294897079468
0.038759708404541016 -0.4428938031196594 -0.10077518224716187
0.038759708404541016 -0.44019201397895813 -0.10077518224716187
0.038759708404541016 -0.4279518127441406 -0.08527129888534546
0.038759708404541016 -0.4157993495464325 -0.13178294897079468
0.038759708404541016 -0.4233267903327942 -0.06976741552352905
0.038759708404541016 -0.4214465618133545 -0.05426359176635742
0.038759708404541016 -0.4214009642601013 -0.038759708404541016
0.038759708404541016 -0.42031705379486084 -0.02325582504272461
0.038759708404541016 -0.41834115982055664 -0.007751941680908203
0.038759708404541016 -0.39539963006973267 0.007751941680908203
0.038759708404541016 -0.3944629728794098 0.007751941680908203
0.038759708404541016 -0.2676562964916229 0.007751941680908203
0.038759708404541016 0.380217581987381 0.007751941680908203
0.038759708404541016 0.40933579206466675 -0.05426359176635742
0.038759708404541016 0.4064744710922241 -0.038759708404541016
0.038759708404541016 0.40889307856559753 -0.02325582504272461
0.038759708404541016 0.4039813280105591 -0.007751941680908203
0.038759708404541016 0.42387890815734863 -0.13178294897079468
0.038759708404541016 0.4239962697029114 -0.08527129888534546
0.038759708404541016 0.41315150260925293 -0.06976741552352905
0.038759708404541016 0.4297986328601837 -0.11627906560897827
0.038759708404541016 0.42879295349121094 -0.10077518224716187
0.038759708404541016 0.45649009943008423 -0.1627907156944275
0.038759708404541016 0.45566779375076294 -0.14728683233261108
0.038759708404541016 0.4566764235496521 -0.11627906560897827
0.038759708404541016 0.45538586378097534 -0.10077518224716187
0.038759708404541016 0.4653884172439575 -0.1782945990562439
0.038759708404541016 0.45948100090026855 -0.13178294897079468
0.038759708404541016 0.48998352885246277 -0.1782945990562439
0.038759708404541016 0.4895678460597992 -0.1627907156944275
0.038759708404541016 0.48925653100013733 -0.14728683233261108
0.038759708404541016 0.4888027310371399 -0.13178294897079468
0.038759708404541016 0.4889374077320099 -0.11627906560897827
0.038759708404541016 0.4890417158603668 -0.10077518224716187
0.05426359176635742 -0.4860016107559204 -0.1782945990562439
0.05426359176635742 -0.48444604873657227 -0.1627907156944275
0.05426359176635742 -0.48310112953186035 -0.14728683233261108
0.05426359176635742 -0.48269563913345337 -0.13178294897079468
0.05426359176635742 -0.4821561574935913 -0.11627906560897827
0.05426359176635742 -0.48246508836746216 -0.10077518224716187
0.05426359549164772 -0.45650792121887207 -0.1782945990562439
0.05426359176635742 -0.4554510712623596 -0.1627907156944275
0.05426359176635742 -0.4544217586517334 -0.14728683233261108
0.05426359176635742 -0.4454818069934845 -0.13178294897079468
0.05426359176635742 -0.4287458062171936 -0.08527129888534546
0.05426359176635742 -0.41792091727256775 -0.13178294897079468
0.05426359176635742 -0.425127774477005 -0.06976741552352905
0.05426359176635742 -0.4223450720310211 -0.05426359176635742
0.05426359176635742 -0.42158961296081543 -0.038759708404541016
0.05426358804106712 -0.42064589262008667 -0.02325582504272461
0.05426359176635742 -0.41854649782180786 -0.007751941680908203
0.05426359176635742 -0.26729491353034973 0.007751941680908203
0.05426359176635742 -0.06247783079743385 -0.14728683233261108
0.05426359176635742 -0.03210455924272537 -0.14728683233261108
0.05426359549164772 0.3798535466194153 0.007751941680908203
0.05426359176635742 0.4107770323753357 -0.05426359176635742
0.05426359176635742 0.40743985772132874 -0.038759708404541016
0.05426359176635742 0.4100506901741028 -0.02325582504272461
0.05426359176635742 0.40428784489631653 -0.007751941680908203
0.05426359176635742 0.4262892007827759 -0.13178294897079468
0.05426359176635742 0.42591604590415955 -0.08527129888534546
0.05426359176635742 0.41425132751464844 -0.06976741552352905
0.05426359176635742 0.4307171404361725 -0.11627906560897827
0.05426359176635742 0.429543673992157 -0.10077518224716187
0.05426359176635742 0.456245094537735 -0.1627907156944275
0.05426359176635742 0.45515698194503784 -0.14728683233261108
0.05426359176635742 0.4555014371871948 -0.11627906560897827
0.05426359176635742 0.4546394646167755 -0.10077518224716187
0.05426359176635742 0.4648376405239105 -0.1782945990562439
0.05426359176635742 0.4575158357620239 -0.13178294897079468
0.05426359176635742 0.4900529384613037 -0.1782945990562439
0.05426359176635742 0.48958978056907654 -0.1627907156944275
0.05426359176635742 0.4892800748348236 -0.14728683233261108
0.05426359176635742 0.4888608157634735 -0.13178294897079468
0.05426359176635742 0.4889724552631378 -0.11627905815839767
0.05426359176635742 0.48907944560050964 -0.10077518224716187
0.06976747512817383 -0.48617303371429443 -0.1782945990562439
0.06976747512817383 -0.48465898633003235 -0.1627907156944275
0.06976747512817383 -0.48319751024246216 -0.14728683233261108
0.06976747512817383 -0.48266714811325073 -0.13178294897079468
0.06976747512817383 -0.48211371898651123 -0.11627906560897827
0.06976747512817383 -0.4826112389564514 -0.10077518224716187
0.06976747512817383 -0.45647719502449036 -0.1782945990562439
0.06976747512817383 -0.4553593099117279 -0.1627907156944275
0.06976747512817383 -0.4541277289390564 -0.14728683233261108
0.06976747512817383 -0.4424293041229248 -0.13178294897079468
0.06976747512817383 -0.429752916097641 -0.08527129888534546
0.06976747512817383 -0.4264771044254303 -0.06976741552352905
0.06976747512817383 -0.4193538427352905 -0.13178294897079468
0.06976747512817383 -0.42354029417037964 -0.05426358804106712
0.06976747512817383 -0.42209392786026 -0.038759708404541016
0.06976747512817383 -0.4212324023246765 -0.02325582504272461
