-0.20670418441295624 0.8759689331054688 -0.007751941215246916
-0.1995103657245636 0.8914728164672852 -0.05426359176635742
-0.19166851043701172 -0.9379844665527344 -0.14728683233261108
-0.1836596131324768 -0.6124030947685242 -0.08527129888534546
-0.1870037019252777 0.6899224519729614 0.11627912521362305
-0.18620389699935913 0.8759689331054688 -0.007751941680908203
-0.19043105840682983 0.8914728164672852 -0.05426359176635742
-0.1666901707649231 -0.9224807024002075 -0.10077518224716187
-0.17367689311504364 -0.8759689331054688 -0.06976741552352905
-0.17510586977005005 -0.643410861492157 0.08527135848999023
-0.17247384786605835 -0.5658915042877197 -0.08527129888534546
-0.17827856540679932 -0.39534884691238403 0.08527135848999023
-0.17685411870479584 0.27131783962249756 0.08527135848999023
-0.16364333033561707 0.7054263353347778 0.11627912521362305
-0.16807863116264343 0.7984496355056763 0.11627912521362305
-0.15910348296165466 -0.6279069781303406 0.08527135848999023
-0.15076175332069397 -0.6124030947685242 -0.08527129888534546
-0.15770992636680603 -0.5658915042877197 -0.08527129888534546
-0.15380403399467468 -0.41085273027420044 0.08527135848999023
-0.1547490954399109 0.5348837375640869 0.10077524185180664
-0.1585966944694519 0.8449612855911255 -0.06976741552352905
-0.15272250771522522 0.8759689331054688 0.007751941680908203
-0.1485152244567871 0.8759689331054688 0.08527135848999023
-0.16191135346889496 0.8914728760719299 -0.038759712129831314
-0.14412707090377808 -0.6124030947685242 0.08527135848999023
-0.1362454891204834 -0.5968992114067078 -0.08527129888534546
-0.13684991002082825 -0.5813953876495361 -0.08527129888534546
-0.13495159149169922 -0.4728682041168213 0.08527135848999023
-0.14295431971549988 -0.4573643207550049 0.08527135848999023
-0.13496671617031097 -0.4418604373931885 0.08527135848999023
-0.13728518784046173 -0.42635661363601685 0.08527135848999023
-0.13487981259822845 0.4418604373931885 0.08527135848999023
-0.1336488574743271 0.4573643207550049 0.08527135848999023
-0.14050644636154175 0.5968992710113525 0.10077524185180664
-0.13994961977005005 0.7209302186965942 0.11627912521362305
-0.13975514471530914 0.7829457521438599 0.11627912521362305
-0.12106548249721527 0.42635655403137207 0.08527135848999023
-0.11802903562784195 0.4728682041168213 0.08527135848999023
-0.12711884081363678 0.612403154373169 0.10077524185180664
-0.11196325719356537 -0.8604651093482971 -0.06976741552352905
-0.10430748015642166 -0.4883720874786377 0.08527135848999023
-0.0888594314455986 -0.9689922332763672 -0.10077518224716187
-0.08829496055841446 -0.9689922332763672 -0.08527129888534546
-0.08917815238237381 -0.8449612259864807 -0.06976741552352905
-0.10072562098503113 0.4883720874786377 -0.06976741552352905
-0.10000982880592346 0.5038759708404541 -0.06976741552352905
-0.09810800105333328 0.8294574022293091 -0.06976741552352905
-0.08811180293560028 0.9379844665527344 -0.05426359176635742
-0.07452806830406189 -0.9689922332763672 -0.11627906560897827
-0.08457806706428528 -0.9689922332763672 -0.06976741552352905
-0.07975252717733383 -0.9534883499145508 -0.02325582504272461
-0.07662637531757355 -0.9224807024002075 -0.08527129888534546
-0.07815292477607727 -0.5038759708404541 0.08527135848999023
-0.0790615826845169 0.9379844665527344 -0.038759708404541016
-0.06494919210672379 -0.9534883499145508 -0.14728683233261108
-0.06094156950712204 -0.8294573426246643 -0.06976741552352905
-0.06881611794233322 0.42635655403137207 0.08527135848999023
-0.05509427934885025 0.4573643207550049 0.08527135848999023
-0.054648663848638535 0.4728682041168213 -0.06976741552352905
-0.06756138056516647 0.4728681743144989 0.08527135848999023
-0.06755802780389786 0.5193798542022705 -0.06976741552352905
-0.05967143923044205 0.8759689331054688 -0.05426359176635742
-0.06313902884721756 0.8759689331054688 -0.02325582504272461
-0.04123120754957199 -0.9534883499145508 -0.14728683233261108
-0.05309377238154411 0.25581395626068115 0.08527135848999023
-0.052728503942489624 0.4418604373931885 0.08527135848999023
-0.04383265972137451 0.612403154373169 0.10077524185180664
-0.0439322330057621 0.7829457521438599 0.11627912521362305
-0.04392967373132706 0.8139535188674927 -0.06976741552352905
-0.05106102675199509 0.9534883499145508 -0.14728683233261108
-0.031196141615509987 -0.612403154373169 0.08527135848999023
-0.03576093912124634 -0.5038759708404541 0.08527135848999023
-0.02927684411406517 0.24031007289886475 0.08527135848999023
-0.036205485463142395 0.7209302186965942 0.11627912521362305
-0.0313648097217083 0.8139535188674927 -0.06976741552352905
-0.024912450462579727 0.8759689331054688 -0.02325582504272461
-0.022706924006342888 -0.9689922332763672 -0.11627906560897827
-0.01947171241044998 -0.8294572830200195 -0.06976741552352905
-0.01406099647283554 0.4728682041168213 -0.06976741552352905
-0.016300981864333153 0.7984496355056763 0.11627911776304245
-0.02220676653087139 0.8759689331054688 -0.05426359176635742
-0.0049849082715809345 -0.4883720874786377 0.08527135848999023
-0.0013685785233974457 0.22480618953704834 0.08527135848999023
-0.006444478407502174 0.7054263353347778 0.11627911776304245
0.022785022854804993 -0.9689922332763672 -0.10077518224716187
0.01812797226011753 -0.9379844665527344 -0.007751941680908203
0.012427125126123428 0.19379842281341553 0.08527135848999023
0.008270377293229103 0.20930230617523193 0.08527135848999023
0.01263725571334362 0.5193798542022705 -0.06976741552352905
0.0274512879550457 -0.9689921736717224 -0.06976741552352905
0.025385074317455292 0.17829455435276031 0.08527135848999023
0.02701176330447197 0.7054263353347778 0.11627912521362305
0.035347361117601395 0.8139535188674927 -0.06976741552352905
0.025552548468112946 0.8759689331054688 -0.05426359176635742
0.04498229920864105 -0.9689922332763672 -0.08527129888534546
0.041557230055332184 0.16279065608978271 0.08527135848999023
0.04092800244688988 0.4883720874786377 -0.06976741552352905
0.05347403511404991 0.612403154373169 0.10077524185180664
0.043162934482097626 0.7984496355056763 0.11627912521362305
0.043681807816028595 0.8139535188674927 -0.06976741552352905
0.04419809952378273 0.8759689331054688 -0.05426359176635742
0.059441179037094116 -0.9379844665527344 -0.007751941680908203
0.06912168860435486 -0.5813953876495361 -0.08527129888534546
0.05443240702152252 0.5038759708404541 -0.06976740807294846
0.06881754100322723 0.9379844665527344 -0.038759708404541016
0.06579027324914932 0.9534883499145508 -0.14728683233261108
0.07951437681913376 -0.9534883499145508 -0.02325582504272461
0.08338075876235962 -0.5968992114067078 -0.08527129888534546
0.07966066151857376 -0.4883720874786377 0.08527135848999023
0.08170545101165771 0.16279065608978271 0.08527135848999023
0.08432811498641968 0.4418604373931885 0.08527135848999023
0.07818016409873962 0.4573643207550049 0.08527135848999023
0.07440343499183655 0.612403154373169 0.10077524930238724
0.0836077332496643 0.8759689331054688 0.007751941680908203
0.08310515433549881 0.8914728164672852 -0.038759708404541016
0.07246001064777374 0.9379844665527344 -0.05426359176635742
0.09368502348661423 -0.8449612259864807 -0.06976741552352905
0.09016276150941849 -0.6124030947685242 0.08527135848999023
0.09117686748504639 -0.596899151802063 -0.08527129888534546
0.09412428736686707 0.17829453945159912 0.08527135848999023
0.08700000494718552 0.8294574022293091 -0.06976741552352905
0.09887421131134033 0.8759689331054688 0.08527135848999023
0.11407522112131119 -0.5038759708404541 0.08527135848999023
0.10424427688121796 0.19379842281341553 0.08527135848999023
0.10591304302215576 0.20930230617523193 0.08527135848999023
0.10780438035726547 0.4418604373931885 0.08527135848999023
0.11261463910341263 0.4573643207550049 0.08527135848999023
0.10119698941707611 0.8914728760719299 -0.05426359176635742
0.1186823844909668 -0.8449612855911255 -0.06976741552352905
0.11840104311704636 -0.5968992114067078 0.08527135103940964
0.11847057938575745 0.22480617463588715 0.08527135103940964
0.1315188854932785 0.7209302186965942 0.11627912521362305
0.12144353240728378 0.8914728164672852 -0.05426359176635742
0.13866087794303894 -0.9224806427955627 -0.08527129888534546
0.13299784064292908 -0.5813953876495361 -0.08527129888534546
0.13434918224811554 0.5968992710113525 0.10077524185180664
0.13187314569950104 0.7209302186965942 0.11627912521362305
0.13576260209083557 0.8294574618339539 -0.06976741552352905
0.14818912744522095 0.24031007289886475 0.08527135848999023
0.1579950451850891 0.5348837375640869 0.10077524185180664
0.15663287043571472 0.8294574022293091 -0.06976741552352905
0.1580236554145813 0.8759689331054688 -0.007751941680908203
0.16741536557674408 -0.5968992114067078 0.08527135848999023
0.1729893982410431 -0.5038759708404541 0.08527135848999023
0.17164090275764465 0.25581395626068115 0.08527135848999023
0.16677682101726532 0.7054263353347778 0.11627911776304245
0.16856913268566132 0.7984496355056763 0.11627912521362305
0.1714489609003067 0.8914728164672852 -0.05426359176635742
0.18445740640163422 -0.8449612259864807 -0.06976741552352905
0.18961994349956512 0.6899224519729614 0.11627912521362305
0.18233677744865417 0.8449612855911255 -0.06976741552352905
0.20653438568115234 -0.9224806427955627 -0.10077518224716187
0.20577383041381836 -0.8604651093482971 -0.06976741552352905
0.19413234293460846 -0.6124030947685242 0.08527135848999023
0.20307870209217072 -0.5968992114067078 -0.08527129888534546
0.19897150993347168 -0.5813953876495361 -0.08527129888534546
0.19640317559242249 0.8139535784721375 0.11627912521362305
0.22068077325820923 -0.6124030947685242 -0.08527129888534546
0.21050146222114563 -0.5658915042877197 -0.08527129888534546
0.21998445689678192 -0.5038759708404541 0.08527135848999023
0.2182651162147522 0.8139535188674927 0.11627912521362305
0.24865154922008514 -0.9534883499145508 -0.14728683233261108
0.24184685945510864 -0.8759689927101135 -0.06976741552352905
0.2546599507331848 -0.6124030947685242 -0.08527129888534546
0.24125955998897552 0.9379845261573792 -0.02325582690536976
0.25285103917121887 0.9379844665527344 0.42635655403137207
0.2667192220687866 -0.5658915042877197 -0.08527129888534546
0.2628045678138733 0.8604651689529419 -0.06976741552352905
0.27025091648101807 0.8914728164672852 -0.02325582504272461
0.2698109447956085 0.8914728164672852 0.038759708404541016
0.26596230268478394 0.8914728164672852 0.05426359176635742
0.26019352674484253 0.9379844665527344 -0.06976741552352905
0.27212876081466675 -0.9379844665527344 -0.14728683233261108
0.27839505672454834 -0.5968992114067078 -0.08527129888534546
0.28607693314552307 -0.5813953876495361 -0.08527129888534546
0.27408891916275024 0.27131783962249756 0.08527136594057083
0.29891541600227356 -0.8759689927101135 -0.06976741552352905
0.2877885103225708 -0.8604651093482971 0.06976747512817383
0.2882189154624939 -0.5813953876495361 -0.08527129888534546
0.29367128014564514 0.28682172298431396 0.08527135848999023
0.29952168464660645 0.8449612855911255 0.11627912521362305
0.2980344891548157 0.8914728164672852 -0.02325582504272461
0.29834428429603577 0.9379844665527344 0.05426359176635742
0.2968101501464844 0.9379844665527344 0.06976747512817383
0.29533886909484863 0.9379844665527344 0.08527135848999023
0.2992708384990692 0.9379844665527344 0.10077524185180664
0.31211167573928833 -0.8604651689529419 -0.06976741552352905
0.3050077259540558 -0.6279069781303406 0.08527136594057083
0.30656084418296814 -0.5968992114067078 -0.08527129888534546
0.31208813190460205 -0.5658915042877197 -0.08527129888534546
0.3134872317314148 0.6434108018875122 0.11627912521362305
0.3155357837677002 0.6589146852493286 0.11627912521362305
0.3027430772781372 0.674418568611145 0.11627912521362305
0.3173491656780243 0.8139535188674927 0.11627912521362305
0.307576984167099 0.8914728164672852 0.038759708404541016
0.3026380240917206 0.8914728760719299 0.05426359549164772
0.3034650385379791 0.9379844069480896 -0.007751941680908203
0.30469608306884766 0.9379844665527344 0.00775194214656949
0.30256104469299316 0.9379844665527344 0.02325582318007946
0.30316272377967834 0.9379844665527344 0.038759708404541016
0.31580302119255066 0.9379844665527344 0.11627912521362305
0.32971876859664917 -0.8449612259864807 -0.06976741552352905
0.33211633563041687 -0.5658915042877197 -0.08527129888534546
0.3325832486152649 0.612403154373169 0.11627912521362305
0.3199867308139801 0.6279069185256958 0.11627912521362305
0.32628655433654785 0.8294574022293091 0.11627912521362305
0.32250550389289856 0.8604651689529419 -0.06976741552352905
0.33264511823654175 0.8914728164672852 -0.05426359176635742
0.32401981949806213 0.9379844665527344 0.11627912521362305
0.3468974232673645 -0.8914728760719299 0.05426359176635742
0.34719282388687134 -0.5968992114067078 -0.08527129888534546
0.3486335277557373 0.30232560634613037 -0.08527129888534546
0.33994174003601074 0.30232560634613037 0.08527135848999023
0.3425622284412384 0.3178294897079468 -0.08527129888534546
0.33868008852005005 0.3333333730697632 -0.08527129888534546
0.33966755867004395 0.3488372564315796 -0.08527129888534546
0.34007728099823 0.9379844665527344 -0.06976741552352905
0.34662064909935 0.9379844665527344 -0.007751941680908203
0.34557095170021057 0.9379844665527344 0.007751941680908203
0.3463248610496521 0.9379844665527344 0.02325582504272461
0.34483033418655396 0.9379844665527344 0.038759708404541016
0.34788617491722107 0.9379844665527344 0.05426359176635742
0.3437369763851166 0.9379844665527344 0.10077524185180664
0.3556247651576996 -0.968992292881012 -0.06976741552352905
0.35411879420280457 -0.9689922332763672 -0.05426359176635742
0.34971582889556885 -0.5968992114067078 -0.08527129888534546
0.36226552724838257 -0.5658915042877197 -0.08527129888534546
0.34894272685050964 -0.5038760304450989 0.08527136594057083
0.3623139560222626 -0.3798449635505676 -0.08527129888534546
0.36394426226615906 -0.3643410801887512 -0.08527129888534546
0.3602267801761627 0.22480618953704834 -0.08527129888534546
0.3547601103782654 0.24031007289886475 -0.08527129888534546
0.35150936245918274 0.25581395626068115 -0.08527129888534546
0.3502311706542969 0.27131783962249756 -0.08527129888534546
0.35058626532554626 0.28682172298431396 -0.08527129888534546
0.36219826340675354 0.3178294897079468 0.08527135848999023
0.35202744603157043 0.364341139793396 -0.08527129888534546
0.35574620962142944 0.5813953876495361 0.11627912521362305
0.35133591294288635 0.5968992710113525 0.11627912521362305
0.3488720655441284 0.9379844069480896 0.06976747512817383
0.34905511140823364 0.9379844665527344 0.08527135848999023
0.37298381328582764 -0.9689922332763672 -0.08527129888534546
0.3720023036003113 -0.9379844665527344 -0.14728683233261108
0.37460532784461975 -0.643410861492157 0.08527135848999023
0.3706386089324951 -0.39534884691238403 -0.08527129888534546
0.3735295534133911 -0.19379842281341553 -0.08527129888534546
0.3681725263595581 -0.1782945990562439 -0.08527129888534546
0.37615224719047546 -0.02325582504272461 -0.08527129888534546
0.3734666705131531 -0.007751941680908203 -0.08527129888534546
0.37348026037216187 0.007751941680908203 -0.08527129888534546
0.3747098445892334 0.02325582504272461 -0.08527129888534546
0.3767891526222229 0.17829453945159912 -0.08527129888534546
0.37416934967041016 0.19379842281341553 -0.08527129888534546
0.3672949969768524 0.20930229127407074 -0.08527129888534546
0.37624695897102356 0.37984490394592285 -0.08527129888534546
0.367757111787796 0.8604651689529419 -0.06976741552352905
0.37319502234458923 0.8914728164672852 -0.05426359176635742
0.36812761425971985 0.9379844069480896 0.42635655403137207
0.3911459147930145 -0.8449612259864807 -0.06976741552352905
0.3911496102809906 -0.41085273027420044 -0.08527129888534546
0.3801761567592621 -0.3488371670246124 -0.08527129888534546
0.3873017728328705 -0.3333333134651184 -0.08527129888534546
0.3945053219795227 -0.317829430103302 -0.08527129888534546
0.3933676481246948 -0.24031007289886475 -0.08527129888534546
0.3870874345302582 -0.22480618953704834 -0.08527129888534546
0.38228902220726013 -0.20930230617523193 -0.08527129888534546
0.3803666830062866 -0.1627907156944275 -0.08527129888534546
0.38305410742759705 -0.14728683233261108 -0.08527129888534546
0.38325849175453186 -0.13178294897079468 -0.08527129888534546
0.38864678144454956 -0.11627906560897827 -0.08527129888534546
0.3940620422363281 -0.06976741552352905 -0.08527129888534546
0.3886680006980896 -0.05426359176635742 -0.08527129888534546
0.3825835585594177 -0.038759708404541016 -0.08527129888534546
0.38144466280937195 0.038759708404541016 -0.08527129888534546
0.3854418396949768 0.05426359176635742 -0.08527129888534546
0.39311450719833374 0.06976747512817383 -0.08527129888534546
0.3947516083717346 0.11627912521362305 -0.08527129888534546
0.3927771747112274 0.1317828893661499 -0.08527129888534546
0.38664090633392334 0.1472867727279663 -0.08527129888534546
0.38097354769706726 0.16279065608978271 -0.08527129888534546
0.380933552980423 0.3333333730697632 0.08527135848999023
0.39455509185791016 0.39534878730773926 -0.08527129888534546
0.38561350107192993 0.5813953876495361 0.11627912521362305
0.39822015166282654 -0.8914729356765747 0.05426359176635742
0.3964832127094269 -0.6124030947685242 -0.08527129888534546
0.4035056531429291 -0.5503876209259033 -0.08527129888534546
0.4037327170372009 -0.30232560634613037 -0.08527129888534546
0.40515226125717163 -0.28682172298431396 -0.08527129888534546
0.4043969511985779 -0.27131783962249756 -0.08527129888534546
0.3998316824436188 -0.25581395626068115 -0.08527129888534546
0.39614376425743103 -0.10077518224716187 -0.08527129888534546
0.39723441004753113 -0.08527129888534546 -0.08527129888534546
0.4002189636230469 0.08527135848999023 -0.08527129888534546
0.3987448811531067 0.10077524185180664 -0.08527129888534546
0.40474405884742737 0.3488372564315796 0.08527135848999023
0.4091911017894745 0.41085267066955566 0.08527135848999023
0.4032212495803833 0.42635655403137207 0.08527135848999023
0.40368300676345825 0.5968992710113525 0.11627912521362305
0.397092342376709 0.8914728164672852 -0.05426359176635742
0.42287176847457886 0.364341139793396 0.08527135848999023
0.41883623600006104 0.39534878730773926 0.08527135848999023
0.4128393530845642 0.4418604373931885 0.08527135848999023
0.420413613319397 0.612403154373169 0.11627912521362305
0.41330310702323914 0.8604651689529419 -0.06976741552352905
0.42391061782836914 0.8914728164672852 -0.038759708404541016
0.43903690576553345 -0.8604651093482971 -0.06976741552352905
0.4301573932170868 -0.643410861492157 0.08527135848999023
0.43875497579574585 -0.5038759708404541 0.08527135848999023
0.4352976083755493 -0.30232560634613037 -0.08527129888534546
0.43373429775238037 -0.28682172298431396 -0.08527129888534546
0.4330623745918274 -0.27131783962249756 -0.08527129888534546
0.4363335371017456 -0.25581395626068115 -0.08527129888534546
0.4269583821296692 0.37984490394592285 0.08527135848999023
0.43969443440437317 0.39534878730773926 -0.08527129888534546
0.4267580807209015 0.4573643207550049 0.08527135848999023
0.4397485554218292 0.4728682041168213 0.08527135848999023
0.43223363161087036 0.6279069185256958 0.11627912521362305
0.44130566716194153 0.6434108018875122 0.11627912521362305
0.44174841046333313 0.8759689331054688 -0.007751941680908203
0.4346056580543518 0.9379844665527344 0.42635655403137207
0.4431924521923065 -0.9689922332763672 -0.10077518224716187
0.4435248374938965 -0.9689922332763672 -0.05426359176635742
0.4555090665817261 -0.9224806427955627 -0.11627906560897827
0.44968828558921814 -0.8759689927101135 -0.06976741552352905
0.4530051052570343 -0.6279069781303406 0.08527135848999023
0.4443514049053192 -0.5503876209259033 -0.08527129888534546
0.44760364294052124 -0.41085273027420044 -0.08527129888534546
0.4561563730239868 -0.39534884691238403 -0.08527129888534546
0.4529114365577698 -0.3488371968269348 -0.08527129888534546
0.4471784830093384 -0.3333333134651184 -0.08527129888534546
0.4426754117012024 -0.317829430103302 -0.08527129143476486
0.4424051344394684 -0.24031007289886475 -0.08527129888534546
0.44727346301078796 -0.22480617463588715 -0.08527129888534546
0.45180487632751465 -0.20930230617523193 -0.08527129888534546
0.4490309953689575 0.37984490394592285 -0.08527129888534546
0.4474897086620331 0.5348837375640869 0.10077524185180664
0.44708821177482605 0.6589146852493286 0.11627911776304245
0.4545381963253021 0.8139535188674927 0.11627912521362305
0.4518886208534241 0.8604651689529419 -0.06976741552352905
0.45094016194343567 0.8914728164672852 -0.038759708404541016
0.4580685794353485 -0.9534883499145508 -0.14728683233261108
0.4597328305244446 -0.6124030947685242 -0.08527129888534546
0.4685434103012085 -0.6124030947685242 0.08527135848999023
0.4667447805404663 -0.5968992114067078 -0.08527129888534546
0.4672727882862091 -0.5813953876495361 -0.08527129888534546
0.4617414176464081 -0.5658915042877197 -0.08527129888534546
0.4633309245109558 -0.5193798542022705 0.08527135848999023
0.45828941464424133 -0.3798449635505676 -0.08527129888534546
0.4578733444213867 -0.3643410801887512 -0.08527130633592606
0.4581519067287445 -0.19379842281341553 -0.08527129888534546
0.4619726538658142 -0.1782945990562439 -0.08527129888534546
0.46280670166015625 -0.1627907156944275 -0.08527129888534546
0.4643040895462036 -0.14728683233261108 -0.08527129888534546
0.46697840094566345 -0.13178294897079468 -0.08527129888534546
0.46822690963745117 -0.11627906560897827 -0.08527129888534546
0.46900466084480286 -0.10077518224716187 -0.08527129888534546
0.4700292944908142 0.06976747512817383 -0.08527129888534546
0.46630069613456726 0.08527135848999023 -0.08527129888534546
0.4651525616645813 0.10077524185180664 -0.08527129888534546
0.4646277129650116 0.11627912521362305 -0.08527129888534546
0.46323686838150024 0.1317828893661499 -0.08527129888534546
0.4644511938095093 0.1472867727279663 -0.08527129888534546
0.46819692850112915 0.16279065608978271 -0.08527129888534546
0.472272127866745 0.17829453945159912 -0.08527129888534546
0.47141000628471375 0.3178294897079468 -0.08527129888534546
0.46665436029434204 0.3333333730697632 -0.08527129888534546
0.46284574270248413 0.3488372564315796 -0.08527129888534546
0.4582390785217285 0.364341139793396 -0.08527129143476486
0.4584040641784668 0.4883720874786377 0.08527135848999023
0.46274328231811523 0.674418568611145 0.11627912521362305
0.45927199721336365 0.7984496355056763 0.11627912521362305
0.46830040216445923 0.8294574022293091 0.11627912521362305
0.47182154655456543 0.8449612855911255 0.11627912521362305
0.46382105350494385 0.8759689331054688 -0.00775194214656949
0.4719701111316681 0.8914728164672852 -0.05426359176635742
0.47434186935424805 -0.9689922332763672 -0.06976741552352905
0.48189496994018555 -0.9379844665527344 -0.007751941680908203
0.4786405563354492 -0.8604651689529419 0.06976747512817383
0.476173996925354 -0.5968992114067078 0.08527135848999023
0.4837768077850342 -0.5813953876495361 0.08527135848999023
0.48619329929351807 -0.5658915042877197 0.08527135848999023
0.48430323600769043 -0.5503876209259033 0.08527135848999023
0.4777217507362366 -0.5348837375640869 0.08527135848999023
0.4745907783508301 -0.08527129888534546 -0.08527129888534546
0.4798920452594757 -0.06976741552352905 -0.08527129888534546
0.4826316237449646 -0.05426359176635742 -0.08527129888534546
0.4859526753425598 -0.038759708404541016 -0.08527129888534546
0.4870949983596802 -0.007751941680908203 -0.08527129888534546
0.48377466201782227 0.007751941680908203 -0.08527129888534546
0.4811875820159912 0.02325582504272461 -0.08527129888534546
0.4774349629878998 0.038759708404541016 -0.08527129888534546
0.47364991903305054 0.05426359549164772 -0.08527130633592606
0.47490450739860535 0.19379842281341553 -0.08527129888534546
0.47797852754592896 0.20930230617523193 -0.08527129888534546
0.4812206029891968 0.22480618953704834 -0.08527129888534546
0.48408061265945435 0.24031007289886475 -0.08527129888534546
0.4846811294555664 0.25581395626068115 -0.08527129888534546
0.48344549536705017 0.27131783962249756 -0.08527129888534546
0.47991228103637695 0.28682172298431396 -0.08527129888534546
0.4756886065006256 0.30232560634613037 -0.08527129888534546
0.47745269536972046 0.5038759708404541 0.08527135848999023
0.4793751537799835 0.5503876209259033 0.10077524185180664
0.48535025119781494 0.5813953876495361 0.10077524185180664
0.4749254882335663 0.7829457521438599 0.11627912521362305
0.4965428411960602 -0.02325582504272461 -0.08527129888534546
0.4892856776714325 0.5658915042877197 0.10077524185180664
0.4990442097187042 0.5968992710113525 0.10077524185180664
0.4890108108520508 0.6899224519729614 0.11627911776304245
0.5036062598228455 0.751937985420227 0.11627912521362305
0.4908597469329834 0.7674418687820435 0.11627912521362305
0.4923698306083679 0.8759689331054688 0.08527135848999023
0.5042703151702881 -0.9689922332763672 -0.08527129888534546
0.5173071622848511 -0.08527129888534546 -0.08527129888534546
0.5116150975227356 -0.06976741552352905 -0.08527129888534546
0.5102308392524719 -0.05426359176635742 -0.08527129888534546
0.5076082348823547 -0.038759708404541016 -0.08527129888534546
0.5046624541282654 -0.02325582504272461 -0.08527129888534546
0.5076332688331604 -0.007751941680908203 -0.08527129888534546
0.5116289854049683 0.007751941680908203 -0.08527129888534546
0.5156779289245605 0.02325582504272461 -0.08527129888534546
0.5149750113487244 0.20930230617523193 0.06976747512817383
0.5096756219863892 0.22480618953704834 0.06976747512817383
0.5168285369873047 0.24031007289886475 0.06976747512817383
0.5122030973434448 0.5193798542022705 0.08527135848999023
0.5072295665740967 0.7054263353347778 0.11627913266420364
0.5108307600021362 0.7209302186965942 0.11627913266420364
0.508935272693634 0.7364341020584106 0.11627912521362305
0.5141149163246155 0.8604651689529419 -0.06976741552352905
0.5064844489097595 0.8759689927101135 -0.007751941680908203
0.5048705339431763 0.8914728164672852 -0.05426359176635742
0.5157648324966431 0.8914728164672852 -0.038759708404541016
0.5166559815406799 0.9379844665527344 0.42635655403137207
0.5262024998664856 -0.9534884095191956 -0.02325582504272461
0.533822774887085 -0.1782945990562439 0.06976747512817383
0.5308569669723511 -0.1627907156944275 0.06976747512817383
0.5324150323867798 -0.14728683233261108 0.06976747512817383
0.5340936183929443 -0.13178294897079468 0.06976747512817383
0.5212007761001587 0.038759708404541016 -0.08527129888534546
0.5339308977127075 0.05426359176635742 -0.08527129888534546
0.5278261303901672 0.19379842281341553 0.06976747512817383
0.5310407876968384 0.24031007289886475 -0.08527129888534546
0.5321537256240845 0.25581395626068115 -0.08527129888534546
0.526160717010498 0.25581395626068115 0.06976747512817383
0.5261681079864502 0.612403154373169 0.10077524185180664
0.5482831597328186 -0.30232560634613037 0.06976747512817383
0.5459322929382324 -0.28682172298431396 0.06976747512817383
0.5450037121772766 -0.27131783962249756 0.06976747512817383
0.5468124747276306 -0.25581395626068115 0.06976747512817383
0.5485621690750122 -0.24031007289886475 0.06976747512817383
0.5468825101852417 -0.22480618953704834 0.06976747512817383
0.5423107147216797 -0.20930230617523193 0.06976747512817383
0.538052499294281 -0.19379842281341553 0.06976747512817383
0.5401219725608826 -0.11627906560897827 0.06976747512817383
0.5495271682739258 -0.10077518224716187 0.06976747512817383
0.5361019372940063 0.05426359176635742 -0.08527129888534546
0.5412766337394714 0.17829453945159912 0.06976747512817383
0.5367348194122314 0.24031007289886475 -0.08527129888534546
0.5359348058700562 0.25581395626068115 -0.08527129888534546
0.5385736227035522 0.27131783962249756 0.06976747512817383
0.5426440238952637 0.42635655403137207 0.06976747512817383
0.5376309752464294 0.4418604373931885 0.06976747512817383
0.5403019189834595 0.4573643207550049 0.06976747512817383
0.5452600717544556 0.5348837375640869 0.08527135848999023
0.5451973080635071 0.6279069185256958 0.10077524185180664
0.5392177104949951 0.9379844665527344 -0.05426359176635742
0.5376412272453308 0.9379844665527344 -0.02325582504272461
0.5509220361709595 -0.9689921736717224 -0.08527129143476486
0.5609939098358154 -0.3488371968269348 0.06976747512817383
0.5558193922042847 -0.3333333134651184 0.06976747512817383
0.5523693561553955 -0.317829430103302 0.06976747512817383
0.5537014007568359 -0.08527129888534546 -0.08527129888534546
0.5576377511024475 -0.08527129888534546 0.06976747512817383
0.5563286542892456 -0.06976741552352905 -0.08527129888534546
0.5646309852600098 -0.06976741552352905 0.06976747512817383
0.556573212146759 -0.05426359549164772 -0.08527129888534546
0.5570909976959229 -0.038759708404541016 -0.08527129888534546
0.5579193234443665 -0.02325582504272461 -0.08527129888534546
0.5564005374908447 -0.00775194214656949 -0.08527129888534546
0.5635855197906494 -0.007751941680908203 0.06976747512817383
0.5548957586288452 0.00775194214656949 -0.08527129888534546
0.5606549382209778 0.007751941680908203 0.06976747512817383
0.5529532432556152 0.02325582504272461 -0.08527129888534546
0.5587342977523804 0.02325582504272461 0.06976747512817383
0.551123857498169 0.038759708404541016 -0.08527129888534546
0.5597001314163208 0.038759708404541016 0.06976747512817383
0.561569094657898 0.05426359176635742 0.06976747512817383
0.5634145736694336 0.06976747512817383 0.06976747512817383
0.5639418363571167 0.08527135848999023 0.06976747512817383
0.5648741126060486 0.10077524185180664 0.06976747512817383
0.5627026557922363 0.11627912521362305 0.06976747512817383
0.558366596698761 0.1317828893661499 0.06976747512817383
0.5569965839385986 0.1472867727279663 0.06976747512817383
0.5517553687095642 0.16279065608978271 0.06976747512817383
0.5504336953163147 0.28682175278663635 0.06976748257875443
0.5620180368423462 0.30232560634613037 0.06976747512817383
0.5542086958885193 0.41085267066955566 0.06976747512817383
0.5533809661865234 0.4728682041168213 0.06976747512817383
0.5591402649879456 0.5503876209259033 0.08527135848999023
0.5594093799591064 0.5658915042877197 0.08527135848999023
0.5617433786392212 0.5813953876495361 0.08527135848999023
0.5599842667579651 0.6434108018875122 0.10077524185180664
0.5506215691566467 0.9379844069480896 -0.03875970467925072
0.5736777186393738 -0.8449612259864807 0.06976747512817383
0.5794399976730347 -0.39534884691238403 0.06976747512817383
0.5736674070358276 -0.3798449635505676 0.06976747512817383
0.5672491788864136 -0.3643410801887512 0.06976747512817383
0.5683834552764893 -0.05426359176635742 0.06976747512817383
0.5695004463195801 -0.038759708404541016 0.06976747512817383
0.5684327483177185 -0.02325582690536976 0.06976747512817383
0.5720854997634888 0.3178294897079468 0.06976747512817383
0.5784369111061096 0.3333333730697632 0.06976747512817383
0.5752352476119995 0.37984490394592285 0.06976747512817383
0.5661313533782959 0.39534878730773926 0.06976747512817383
0.5692759156227112 0.4883720874786377 0.06976747512817383
0.5776538848876953 0.5968992710113525 0.08527135848999023
0.570838212966919 0.6589146852493286 0.10077524185180664
0.5750805139541626 0.8604651689529419 0.10077524185180664
0.5786331295967102 0.8759689331054688 0.007751941680908203
0.5857294797897339 -0.9224807024002075 0.007751941680908203
0.5937656760215759 -0.9069768190383911 0.02325582504272461
0.5909678936004639 -0.8294572830200195 0.06976747512817383
0.5964347124099731 -0.8139535188674927 0.06976747512817383
0.5942312479019165 -0.4728682041168213 0.06976747512817383
0.5898141264915466 -0.4573643207550049 0.06976747512817383
0.5882152915000916 -0.4418604373931885 0.06976747512817383
0.5859889984130859 -0.42635661363601685 0.06976747512817383
0.5829104781150818 -0.41085273027420044 0.06976747512817383
0.5824391841888428 0.3488372564315796 0.06976747512817383
0.5820796489715576 0.364341139793396 0.06976747512817383
0.5820730924606323 0.5038759708404541 0.06976747512817383
0.5925602912902832 0.5193798542022705 0.06976747512817383
0.5920328497886658 0.612403154373169 0.08527135848999023
0.581529974937439 0.674418568611145 0.10077523440122604
0.5864972472190857 0.6899224519729614 0.10077523440122604
0.5898375511169434 0.7054263353347778 0.10077524185180664
0.5910335183143616 0.7209302186965942 0.10077524185180664
0.592106282711029 0.7364341020584106 0.10077524185180664
0.5918330550193787 0.751937985420227 0.10077524185180664
0.5890111923217773 0.7674418687820435 0.10077524185180664
0.5884982347488403 0.7829457521438599 0.10077524185180664
0.5916740298271179 0.7984496355056763 0.10077524185180664
0.5833432674407959 0.8759689331054688 -0.02325582504272461
0.6037100553512573 -0.9689922332763672 -0.08527129888534546
0.6069693565368652 -0.9069767594337463 -0.05426359176635742
0.6103157997131348 -0.8759689927101135 0.05426359176635742
0.5993046760559082 -0.7984496355056763 0.06976747512817383
0.6005635261535645 -0.7829457521438599 0.06976747512817383
0.6007768511772156 -0.7674418687820435 0.06976747512817383
0.6015231609344482 -0.751937985420227 0.06976747512817383
0.6035983562469482 -0.7364341020584106 0.06976747512817383
0.607758641242981 -0.7209302186965942 0.06976747512817383
0.6118637919425964 -0.7054263353347778 0.06976747512817383
0.6121842861175537 -0.674418568611145 0.06976747512817383
0.6067435145378113 -0.5038759708404541 0.06976747512817383
0.5998494625091553 -0.4883721172809601 0.06976747512817383
0.6048492193222046 0.4728682041168213 -0.06976741552352905
0.5995734930038452 0.4883721172809601 -0.06976741552352905
0.6079564094543457 0.5038759708404541 -0.06976741552352905
0.6020601391792297 0.5348837375640869 0.06976747512817383
0.6071593761444092 0.5503876209259033 0.06976747512817383
0.6078127026557922 0.5658915042877197 0.06976747512817383
0.6103997230529785 0.5813953876495361 0.06976747512817383
0.6022990345954895 0.6279069185256958 0.08527135848999023
0.6089433431625366 0.6434108018875122 0.08527135848999023
0.5995683670043945 0.8139535188674927 0.10077524185180664
0.6112574338912964 0.8294574022293091 -0.06976741552352905
0.6076539754867554 0.8294574022293091 0.10077524185180664
0.5992626547813416 0.8449612855911255 -0.06976741552352905
0.6063817143440247 0.8449612855911255 0.10077524185180664
0.6052447557449341 0.8759689331054688 -0.05426359176635742
0.6063806414604187 0.8759689331054688 0.06976747512817383
0.6193082332611084 -0.9379844665527344 -0.02325582504272461
0.619533896446228 -0.922480583190918 -0.007751941680908203
0.6187859773635864 -0.8914729356765747 0.038759708404541016
0.6130580306053162 -0.6899224519729614 0.06976747512817383
0.6138683557510376 -0.6589146852493286 0.06976747512817383
0.6199290752410889 -0.643410861492157 0.06976747512817383
0.6246013045310974 -0.6279069781303406 0.06976747512817383
0.626503050327301 -0.5503876209259033 0.06976747512817383
0.6201790571212769 -0.5348837375640869 0.06976747512817383
0.6137651205062866 -0.5193798542022705 0.06976747512817383
0.6234955787658691 0.41085267066955566 0.05426359176635742
0.6268954873085022 0.42635655403137207 -0.06976741552352905
0.6177278161048889 0.42635655403137207 0.05426359176635742
0.6203022003173828 0.4418604373931885 -0.06976741552352905
0.6145877242088318 0.4418604373931885 0.05426359176635742
0.6142449378967285 0.4573643207550049 -0.06976741552352905
0.6134870052337646 0.4573643207550049 0.05426359176635742
0.6150786876678467 0.4728682041168213 0.05426359176635742
0.6212124824523926 0.4883720874786377 0.05426359176635742
0.6223099231719971 0.5193798542022705 -0.06976741552352905
0.6147351861000061 0.5968992710113525 0.06976747512817383
0.6220966577529907 0.612403154373169 0.06976747512817383
0.6147810816764832 0.6589146852493286 0.08527135848999023
0.6183242201805115 0.674418568611145 0.08527135848999023
0.6206841468811035 0.6899224519729614 0.08527135848999023
0.6223002076148987 0.7054263353347778 0.08527135848999023
0.6233425736427307 0.7209302186965942 0.08527135848999023
0.6246334314346313 0.7364341020584106 0.08527135848999023
0.6259809732437134 0.751937985420227 0.08527135848999023
0.6270701885223389 0.7674418687820435 0.08527135848999023
0.6242310404777527 0.8139535188674927 -0.06976741552352905
0.6261894702911377 0.8604651689529419 0.08527135848999023
0.6167808175086975 0.8759689331054688 -0.038759708404541016
0.6158205270767212 0.8759689331054688 0.02325582504272461
0.6278727650642395 0.8759689331054688 0.038759708404541016
0.6229686737060547 0.8759689331054688 0.05426359176635742
0.6221343278884888 0.9534883499145508 0.24031007289886475
0.6185100674629211 0.9534883499145508 0.25581395626068115
0.6179680228233337 0.9534883499145508 0.27131783962249756
0.6176657676696777 0.9534883499145508 0.28682172298431396
0.6138348579406738 0.9534883499145508 0.30232560634613037
0.6171596050262451 0.9534884095191956 0.3178294897079468
0.6277759671211243 0.9534883499145508 0.3333333730697632
0.6334590911865234 -0.9534883499145508 -0.06976741552352905
0.634373128414154 -0.9534883499145508 -0.038759708404541016
0.6360663175582886 -0.9224806427955627 -0.02325582504272461
0.6393921375274658 -0.9069767594337463 -0.05426359176635742
0.6426810622215271 -0.9069767594337463 -0.02325582504272461
0.6378340125083923 -0.9069767594337463 -0.007751941680908203
0.630139946937561 -0.9069766998291016 0.007751941215246916
0.6399888396263123 -0.8759689927101135 -0.06976741552352905
0.6290916800498962 -0.6124030947685242 0.06976747512817383
0.6315467953681946 -0.5968992114067078 0.06976747512817383
0.6338655948638916 -0.5813953876495361 0.06976747512817383
0.6316777467727661 -0.5658915042877197 0.06976747512817383
0.6432264447212219 0.17829453945159912 0.05426359176635742
0.6399903297424316 0.19379842281341553 0.05426359176635742
0.636825442314148 0.20930230617523193 0.05426359176635742
0.634331226348877 0.22480618953704834 0.05426359176635742
0.6335431337356567 0.24031007289886475 0.05426359176635742
0.6337130069732666 0.25581395626068115 0.05426359176635742
0.6351456642150879 0.27131783962249756 0.05426359176635742
0.6372668743133545 0.28682172298431396 0.05426359176635742
0.6400261521339417 0.30232560634613037 0.05426359176635742
0.6412297487258911 0.364341139793396 0.05426359176635742
0.635991096496582 0.37984490394592285 0.05426359176635742
0.6405640840530396 0.39534878730773926 -0.06976741552352905
0.6300942897796631 0.39534878730773926 0.05426359549164772
0.6325446367263794 0.41085270047187805 -0.06976741552352905
0.6296644806861877 0.5038759708404541 0.05426359176635742
0.6383523344993591 0.5193798542022705 0.05426359176635742
0.6395158171653748 0.5348837375640869 -0.06976741552352905
0.6297578811645508 0.6279069781303406 0.06976747512817383
0.6364115476608276 0.6434108018875122 0.06976747512817383
0.6419147253036499 0.6589146852493286 0.06976747512817383
0.6294113397598267 0.7829457521438599 0.08527135848999023
0.6333919763565063 0.7984496355056763 0.08527135848999023
0.639536440372467 0.8139535188674927 0.08527135848999023
0.6347407102584839 0.8604651689529419 -0.007751941680908203
0.6431815028190613 0.9379844665527344 0.02325582504272461
0.6321722865104675 0.9534883499145508 0.24031007289886475
0.6414410471916199 0.9534883499145508 0.25581395626068115
0.6280325055122375 0.9534883499145508 0.3333333730697632
0.6384263038635254 0.9689922332763672 -0.1627907156944275
0.6543566584587097 -0.9534883499145508 -0.05426359176635742
0.6489537358283997 -0.9224807024002075 -0.06976741552352905
0.6494804620742798 -0.8914728164672852 -0.007751941680908203
0.6586139798164368 -0.8914728760719299 0.007751941680908203
0.6505769491195679 -0.8914728760719299 0.02325582504272461
0.6567602753639221 -0.8604651093482971 0.05426359176635742
0.6555079221725464 -0.3643410801887512 -0.06976741552352905
0.6500778198242188 -0.3488371968269348 -0.06976741552352905
0.6536787748336792 -0.3488371968269348 0.05426359176635742
0.6460824012756348 -0.3333333134651184 -0.06976741552352905
0.6504805088043213 -0.3333333134651184 0.05426359176635742
0.6452045440673828 -0.317829430103302 -0.06976741552352905
0.6488448977470398 -0.317829430103302 0.05426359176635742
0.6460981965065002 -0.30232560634613037 -0.06976741552352905
0.6476076245307922 -0.30232560634613037 0.05426359176635742
0.6467710137367249 -0.28682172298431396 -0.06976741552352905
0.6472306847572327 -0.28682172298431396 0.05426359176635742
0.6472187042236328 -0.27131783962249756 -0.06976741552352905
0.647006630897522 -0.27131783962249756 0.05426359176635742
0.6465501189231873 -0.25581395626068115 -0.06976741552352905
0.646848738193512 -0.25581395626068115 0.05426359176635742
0.646695613861084 -0.24031007289886475 -0.06976741552352905
0.6469548344612122 -0.24031007289886475 0.05426359176635742
0.6488827466964722 -0.22480618953704834 -0.06976741552352905
0.6469180583953857 -0.22480618953704834 0.05426359176635742
0.6503909826278687 -0.20930230617523193 -0.06976741552352905
0.646469235420227 -0.20930230617523193 0.05426359176635742
0.652174174785614 -0.19379842281341553 -0.06976741552352905
0.6458275318145752 -0.19379842281341553 0.05426359176635742
0.6558732390403748 -0.1782945990562439 -0.06976741552352905
0.6452468037605286 -0.1782945990562439 0.05426359176635742
0.64454585313797 -0.1627907007932663 0.05426359176635742
0.6445138454437256 -0.1472868174314499 0.05426359176635742
0.6449337601661682 -0.13178294897079468 0.05426359176635742
0.646705687046051 -0.11627906560897827 0.05426359176635742
0.6486530303955078 -0.10077518224716187 0.05426359176635742
0.650745153427124 -0.08527129888534546 0.05426359176635742
0.6526986360549927 -0.06976741552352905 0.05426359176635742
0.653537929058075 -0.05426359176635742 0.05426359176635742
0.6536166667938232 -0.038759708404541016 0.05426359176635742
0.6531206369400024 -0.02325582504272461 0.05426359176635742
0.6518331170082092 -0.007751941680908203 0.05426359176635742
0.6502490043640137 0.007751941680908203 0.05426359176635742
0.6486219763755798 0.02325582504272461 0.05426359176635742
0.6473773717880249 0.038759708404541016 0.05426359176635742
0.646972119808197 0.05426359176635742 0.05426359176635742
0.6469433307647705 0.06976747512817383 0.05426359176635742
0.6468809843063354 0.08527135103940964 0.05426358804106712
0.6473048329353333 0.10077524185180664 0.05426359176635742
0.6473874449729919 0.11627912521362305 0.05426359176635742
0.6468648314476013 0.1317828893661499 0.05426359176635742
0.6464380621910095 0.1472867727279663 0.05426359176635742
0.6452741026878357 0.16279065608978271 0.05426359176635742
0.643430233001709 0.3178294897079468 0.05426359549164772
0.6441659927368164 0.3333333730697632 0.05426359549164772
0.6436911821365356 0.3488372564315796 0.05426359176635742
0.6497921943664551 0.37984490394592285 -0.06976741552352905
0.6576743125915527 0.4418604373931885 0.038759708404541016
0.6560062766075134 0.4573643207550049 0.038759708404541016
0.6584455370903015 0.4728682041168213 0.038759708404541016
0.6457869410514832 0.5348837375640869 0.05426359176635742
0.6492964029312134 0.5503876209259033 0.05426359176635742
0.6516650915145874 0.5658915042877197 0.05426359176635742
0.6554611921310425 0.5813953876495361 0.05426359176635742
0.647037923336029 0.674418568611145 0.06976747512817383
0.6503599882125854 0.6899224519729614 0.06976747512817383
0.6518169641494751 0.7054263353347778 0.06976747512817383
0.6523421406745911 0.7209302186965942 0.06976747512817383
0.6527560949325562 0.7364341020584106 0.06976747512817383
0.6536180973052979 0.751937985420227 0.06976747512817383
0.6549583673477173 0.7674418687820435 0.06976747512817383
0.656954824924469 0.7829457521438599 0.06976747512817383
0.6455641984939575 0.8294574022293091 0.08527135848999023
0.6473363637924194 0.8449612855911255 0.08527135848999023
0.656895637512207 0.8604651689529419 0.06976747512817383
0.6476243138313293 0.8759689331054688 -0.038759708404541016
0.6532489061355591 0.9379844665527344 -0.05426359176635742
0.6545178890228271 0.9379844665527344 -0.038759708404541016
0.6581476926803589 0.9379844665527344 -0.02325582504272461
0.6558871269226074 0.9379844665527344 -0.007751941680908203
0.6465571522712708 0.9379844665527344 0.007751941680908203
0.6573148369789124 0.9379844665527344 0.038759708404541016
0.6484450697898865 0.9534883499145508 0.27131783962249756
0.6495733261108398 0.9534883499145508 0.28682172298431396
0.6498987674713135 0.9534883499145508 0.30232560634613037
0.6450727581977844 0.9534883499145508 0.3178294897079468
0.6558191776275635 0.9689922332763672 -0.4418604373931885
0.6586781740188599 0.9689922332763672 -0.42635661363601685
0.658701479434967 0.9689922332763672 -0.317829430103302
0.6596843004226685 -0.9689922332763672 -0.11627906560897827
0.6608545184135437 -0.9689922332763672 -0.08527129888534546
0.6654994487762451 -0.9379844665527344 -0.06976741552352905
0.6648710370063782 -0.9379845261573792 -0.038759708404541016
0.6640537977218628 -0.8914728164672852 -0.02325582504272461
0.6700225472450256 -0.8759689927101135 0.02325582504272461
0.659614622592926 -0.8759689927101135 0.038759708404541016
0.6715981364250183 -0.8604651093482971 0.038759708404541016
0.6673364639282227 -0.8449612259864807 0.05426359176635742
0.6697264909744263 -0.8294573426246643 0.05426359176635742
0.6732604503631592 -0.8139535188674927 0.05426359176635742
0.6722428202629089 -0.7984496355056763 -0.06976741552352905
0.6730135083198547 -0.7829457521438599 -0.06976741552352905
0.6695883870124817 -0.7674418687820435 -0.06976741552352905
0.6667917966842651 -0.751937985420227 -0.06976741552352905
0.6690771579742432 -0.7364341020584106 -0.06976741552352905
0.6680630445480347 -0.5348837375640869 -0.06976741552352905
0.6640995740890503 -0.5193798542022705 -0.06976741552352905
0.6741636395454407 -0.5193798542022705 0.05426359176635742
0.666615903377533 -0.5038759708404541 -0.06976741552352905
0.6742990612983704 -0.5038759708404541 0.05426359176635742
0.6725634336471558 -0.4883720874786377 -0.06976741552352905
0.6727563142776489 -0.4573643207550049 -0.06976741552352905
0.6694082617759705 -0.4418604373931885 -0.06976741552352905
0.6678297519683838 -0.42635661363601685 -0.06976741552352905
0.6672942638397217 -0.41085273027420044 -0.06976741552352905
0.6719782948493958 -0.41085273027420044 0.05426359176635742
0.6643815040588379 -0.39534884691238403 -0.06976741552352905
0.6677690744400024 -0.39534884691238403 0.05426359176635742
0.6611918807029724 -0.3798449635505676 -0.06976741552352905
0.6632312536239624 -0.3798449635505676 0.05426359176635742
0.6591759920120239 -0.3643410801887512 0.05426359176635742
0.659628689289093 -0.1627907156944275 -0.06976741552352905
0.6631249189376831 -0.14728683233261108 -0.06976741552352905
0.6690794229507446 -0.13178294897079468 -0.06976741552352905
0.6701599359512329 0.3333333730697632 -0.06976741552352905
0.666022539138794 0.3488372564315796 -0.06976741552352905
0.6603584289550781 0.364341139793396 -0.06976741552352905
0.671951174736023 0.39534878730773926 0.038759708404541016
0.6662368774414062 0.41085267066955566 0.038759708404541016
0.6612371206283569 0.42635655403137207 0.038759708404541016
0.662021815776825 0.4883720874786377 0.038759708404541016
0.6655004024505615 0.5038759708404541 0.038759708404541016
0.667534589767456 0.5193798542022705 0.038759708404541016
0.6692730784416199 0.5348837375640869 0.038759708404541016
0.6602542400360107 0.5503876209259033 -0.06976741552352905
0.6706724762916565 0.5503876209259033 0.038759708404541016
0.67264723777771 0.5658915042877197 0.038759708404541016
0.659455418586731 0.5968993306159973 0.05426359176635742
0.661872386932373 0.612403154373169 0.05426359176635742
0.6645245552062988 0.6279069185256958 0.05426359176635742
0.6670515537261963 0.6434108018875122 0.05426359176635742
0.6687029600143433 0.6589146852493286 0.05426359176635742
0.6699198484420776 0.674418568611145 0.05426359176635742
0.6704005599021912 0.6899224519729614 0.05426359176635742
0.6701970100402832 0.7054263353347778 0.05426359176635742
0.6696561574935913 0.7209302186965942 0.05426359176635742
0.6691102385520935 0.7364341020584106 0.05426359176635742
0.669217050075531 0.751937985420227 0.05426359176635742
0.6699257493019104 0.7674418687820435 0.05426359176635742
0.6706522703170776 0.7829457521438599 0.05426359176635742
