0.3178294897079468 0.9362267255783081 0.30232560634613037
0.3178294897079468 0.9367690682411194 0.3178294897079468
0.3178294897079468 0.9439955949783325 -0.3488371968269348
0.3178294897079468 0.9477200508117676 0.05426359176635742
0.3178294897079468 0.9498942494392395 0.10077524185180664
0.3178294897079468 0.9432566165924072 0.11627912521362305
0.3178294897079468 0.9422131180763245 0.1317828893661499
0.3178294897079468 0.943793535232544 0.1472867727279663
0.3178294897079468 0.943224310874939 0.16279065608978271
0.3178294897079468 0.947212815284729 0.17829453945159912
0.3178294897079468 0.9495466947555542 0.19379842281341553
0.3178294897079468 0.9503237009048462 0.20930230617523193
0.3178294897079468 0.9500331282615662 0.22480618953704834
0.3178294897079468 0.9491058588027954 0.24031007289886475
0.3178294897079468 0.9511326551437378 0.25581395626068115
0.3178294897079468 0.9489850997924805 0.27131783962249756
0.3178294897079468 0.9526597261428833 0.39534878730773926
0.3178294897079468 0.9493237733840942 0.41085267066955566
0.3178294897079468 0.9497449398040771 0.42635655403137207
0.3178294897079468 0.9656122922897339 0.3333333730697632
0.3178294897079468 0.9648302793502808 0.4418604373931885
0.3178294897079468 0.9703885912895203 -0.3488371968269348
0.3178294599056244 0.9712159037590027 -0.3333333134651184
0.3178294897079468 0.9710630774497986 -0.3178294003009796
0.31782951951026917 0.9703401327133179 -0.30232560634613037
0.3178294897079468 0.9706137776374817 -0.28682172298431396
0.3178294897079468 0.9706737399101257 -0.27131783962249756
0.3178294897079468 0.970700740814209 -0.25581395626068115
0.3178294897079468 0.9706493616104126 -0.24031008780002594
0.3178294897079468 0.9707752466201782 -0.22480618953704834
0.31782951951026917 0.9708801507949829 -0.20930230617523193
0.3178294897079468 0.9714279770851135 -0.19379842281341553
0.3178294897079468 0.9717620611190796 -0.1782945990562439
0.31782951951026917 0.9718015789985657 -0.1627907156944275
0.3178294897079468 0.9724892377853394 -0.14728683233261108
0.3178294897079468 0.9725375175476074 -0.13178294897079468
0.3178294897079468 0.97245192527771 -0.11627906560897827
0.3178294897079468 0.9722939133644104 -0.10077518969774246
0.3178294897079468 0.9718512296676636 -0.08527129143476486
0.3178294897079468 0.9711124300956726 -0.06976741552352905
0.3178294897079468 0.9706529378890991 -0.05426359176635742
0.3178294599056244 0.9709619879722595 -0.03875970467925072
0.3178294897079468 0.9721182584762573 -0.02325582690536976
0.3178294897079468 0.9745004177093506 -0.007751941680908203
0.3178294897079468 0.9784272909164429 0.007751941680908203
0.3178294897079468 0.9787774085998535 0.02325582504272461
0.3178294897079468 0.9757733345031738 0.038759708404541016
0.3178294897079468 0.971840500831604 0.05426359176635742
0.3178294897079468 0.9694324731826782 0.10077523440122604
0.3178294897079468 0.9706937074661255 0.11627912521362305
0.3178294897079468 0.9703802466392517 0.1317828893661499
0.3178294897079468 0.9700559973716736 0.1472867727279663
0.3178294897079468 0.9704442024230957 0.1627906709909439
0.3178294897079468 0.9712785482406616 0.17829453945159912
0.3178294897079468 0.9733144044876099 0.19379842281341553
0.3178294897079468 0.9753361940383911 0.20930230617523193
0.3178294897079468 0.9754763245582581 0.22480618953704834
0.3178294897079468 0.972560465335846 0.24031007289886475
0.3178294897079468 0.9696335196495056 0.25581395626068115
0.3178294897079468 0.9698418378829956 0.27131783962249756
0.3178294897079468 0.972679853439331 0.28682172298431396
0.3178294897079468 0.9766197204589844 0.30232560634613037
0.3178294897079468 0.9754478335380554 0.3178294897079468
0.3178294897079468 0.9691011309623718 0.3333333730697632
0.3178294897079468 0.9703832268714905 0.39534878730773926
0.3178294897079468 0.9789789915084839 0.41085267066955566
0.3178294897079468 0.9813916087150574 0.42635655403137207
0.3178294897079468 0.9700315594673157 0.4418604373931885
0.3333333730697632 -0.9884276390075684 -0.3488371968269348
0.3333333730697632 -0.988862931728363 -0.3333333134651184
0.3333333730697632 -0.9884050488471985 -0.317829430103302
0.3333333730697632 -0.9875562787055969 -0.30232560634613037
0.3333333730697632 -0.987034261226654 -0.28682172298431396
0.3333333730697632 -0.98734050989151 -0.27131783962249756
0.3333333730697632 -0.9873799681663513 -0.25581395626068115
0.3333333730697632 -0.9874864816665649 -0.24031007289886475
0.3333333730697632 -0.9879748821258545 -0.22480618953704834
0.3333333730697632 -0.9886846542358398 -0.20930230617523193
0.3333333730697632 -0.9893478751182556 -0.19379842281341553
0.3333333730697632 -0.9892329573631287 -0.1782945990562439
0.3333333730697632 -0.9889414310455322 -0.1627907156944275
0.3333333730697632 -0.9888296723365784 -0.14728683233261108
0.3333333730697632 -0.9886959791183472 -0.13178294897079468
0.3333333730697632 -0.9888201355934143 -0.11627906560897827
0.3333333730697632 -0.9891054630279541 -0.10077518224716187
0.3333333730697632 -0.9894023537635803 -0.08527129888534546
0.3333333730697632 -0.9890781044960022 -0.06976741552352905
0.3333333730697632 -0.9710075855255127 -0.05426359176635742
0.3333333730697632 -0.9616323709487915 -0.3488371968269348
0.3333333730697632 -0.9592389464378357 -0.3333333134651184
0.3333333730697632 -0.9593040943145752 -0.317829430103302
0.3333333730697632 -0.9545409679412842 -0.30232560634613037
0.33333340287208557 -0.9684829711914062 -0.05426359176635742
0.3333333730697632 -0.9438132643699646 -0.28682172298431396
0.3333333730697632 -0.9466519355773926 -0.06976741552352905
0.3333333730697632 -0.9272685647010803 -0.19379842281341553
0.3333333730697632 -0.9284645318984985 -0.1782945990562439
0.3333333730697632 -0.9266765117645264 -0.1627907156944275
0.3333333730697632 -0.9013984799385071 -0.28682172298431396
0.3333333730697632 -0.8849140405654907 -0.19379842281341553
0.3333333730697632 -0.886265754699707 -0.1627907156944275
0.3333333730697632 -0.8746222257614136 -0.1782945990562439
0.3333333730697632 -0.8034194707870483 -0.06976741552352905
0.3333333730697632 -0.7740820646286011 -0.06976741552352905
0.3333333730697632 -0.6923472881317139 -0.06976741552352905
0.3333333730697632 -0.24650469422340393 -0.1782945990562439
0.33333340287208557 -0.1929260641336441 -0.1627907156944275
0.3333333730697632 -0.1477022022008896 -0.1627907156944275
0.3333333432674408 -0.1466028392314911 -0.1782945990562439
0.3333333730697632 0.3987695574760437 -0.1627907156944275
0.3333333730697632 0.4921092092990875 -0.1782945990562439
0.3333333730697632 0.5791772603988647 -0.1782945990562439
0.3333333730697632 0.6232476234436035 -0.1627907156944275
0.3333333730697632 0.7558684349060059 0.007751941680908203
0.3333333730697632 0.7584614753723145 0.02325582504272461
0.3333333730697632 0.7957911491394043 0.02325582504272461
0.3333333730697632 0.8002539873123169 0.007751941680908203
0.3333333730697632 0.8626065254211426 -0.1782945990562439
0.3333333730697632 0.8645553588867188 -0.1627907156944275
0.3333333730697632 0.8808507919311523 -0.19379842281341553
0.3333333730697632 0.881364107131958 -0.14728683233261108
0.3333333730697632 0.9029340147972107 -0.20930230617523193
0.3333333730697632 0.9216232299804688 -0.20930230617523193
0.3333333730697632 0.910014271736145 -0.06976741552352905
0.3333333730697632 0.9379785656929016 -0.317829430103302
0.3333333730697632 0.93480384349823 -0.30232560634613037
0.3333333730697632 0.9295175671577454 -0.19379842281341553
0.3333333730697632 0.9311456680297852 -0.1782945990562439
0.3333333730697632 0.9304051399230957 -0.1627907156944275
0.3333333730697632 0.9261044263839722 -0.14728683233261108
0.3333333730697632 0.9259829521179199 -0.06976741552352905
0.3333333730697632 0.9366732835769653 -0.05426359176635742
0.3333333730697632 0.9362739324569702 -0.038759708404541016
0.3333333730697632 0.9355993866920471 -0.02325582504272461
0.3333333730697632 0.9337993860244751 -0.007751941680908203
0.3333333730697632 0.9282015562057495 0.007751941680908203
0.3333333730697632 0.9303085803985596 0.02325582504272461
0.3333333730697632 0.9367620944976807 0.038759708404541016
0.3333333730697632 0.9372472763061523 0.28682172298431396
0.3333333730697632 0.936439573764801 0.30232560634613037
0.3333333730697632 0.9371247887611389 0.3178294897079468
0.3333333730697632 0.9471082091331482 -0.3488371968269348
0.3333333432674408 0.9382177591323853 -0.333333283662796
0.3333333730697632 0.948950469493866 0.05426359176635742
0.3333333730697632 0.950632631778717 0.10077524185180664
0.3333333730697632 0.944498598575592 0.11627912521362305
0.3333333730697632 0.9451155662536621 0.1317828893661499
0.3333333730697632 0.9468485116958618 0.1472867727279663
0.3333333730697632 0.9459643959999084 0.16279065608978271
0.3333333730697632 0.9475715160369873 0.17829453945159912
0.3333333730697632 0.9488803148269653 0.19379842281341553
0.3333333730697632 0.9493030309677124 0.20930230617523193
0.3333333730697632 0.9491689801216125 0.22480618953704834
0.3333333730697632 0.9490281939506531 0.24031007289886475
0.3333333730697632 0.9508878588676453 0.27131783962249756
0.3333333730697632 0.9497138261795044 0.41085267066955566
0.3333333730697632 0.9503093361854553 0.42635655403137207
0.3333333730697632 0.962569534778595 0.39534878730773926
0.3333333730697632 0.9647437334060669 0.4418604373931885
0.3333333730697632 0.9700040817260742 -0.3488371968269348
0.3333333432674408 0.9710001349449158 -0.3333333134651184
0.3333333730697632 0.9707502126693726 -0.3178294599056244
0.3333333730697632 0.9700525999069214 -0.30232560634613037
0.3333333730697632 0.9704606533050537 -0.28682172298431396
0.3333333730697632 0.9704027771949768 -0.27131783962249756
0.3333333730697632 0.9705408215522766 -0.25581395626068115
0.3333333730697632 0.9706345796585083 -0.24031007289886475
0.3333333730697632 0.9708414077758789 -0.22480618953704834
0.3333333730697632 0.9709815382957458 -0.20930230617523193
0.3333333730697632 0.9713005423545837 -0.19379842281341553
0.3333333730697632 0.9714170694351196 -0.1782945990562439
0.3333333730697632 0.9716154932975769 -0.1627907156944275
0.3333333730697632 0.9720619320869446 -0.14728683233261108
0.3333333730697632 0.9717379212379456 -0.13178294897079468
0.3333333730697632 0.9714674949645996 -0.11627906560897827
0.3333333730697632 0.9714711904525757 -0.10077518224716187
0.3333333730697632 0.9715553522109985 -0.08527130633592606
0.3333333730697632 0.970962405204773 -0.06976741552352905
0.3333333730697632 0.970298171043396 -0.05426359549164772
0.3333333730697632 0.9704734683036804 -0.038759708404541016
0.3333333730697632 0.9715136885643005 -0.02325582504272461
0.3333333730697632 0.9734654426574707 -0.007751941680908203
0.3333333730697632 0.9766961336135864 0.007751941680908203
0.3333333730697632 0.9769304990768433 0.02325582504272461
0.3333333730697632 0.9744101762771606 0.038759708404541016
0.3333333432674408 0.9711583256721497 0.05426359176635742
0.3333333730697632 0.9692057967185974 0.10077524930238724
0.3333333730697632 0.970384418964386 0.11627912521362305
0.3333333730697632 0.9700539708137512 0.1317828893661499
0.3333333730697632 0.9696235060691833 0.1472867727279663
0.3333333730697632 0.9698531627655029 0.16279065608978271
0.3333333730697632 0.9703676104545593 0.17829453945159912
0.3333333730697632 0.971889317035675 0.19379842281341553
0.3333333730697632 0.9736127257347107 0.20930230617523193
0.3333333730697632 0.9738450050354004 0.22480618953704834
0.3333333730697632 0.9712544083595276 0.24031007289886475
0.3333333730697632 0.9692778587341309 0.27131786942481995
0.3333333730697632 0.9721293449401855 0.28682172298431396
0.3333333730697632 0.9753451943397522 0.30232560634613037
0.3333333730697632 0.9747546911239624 0.3178294897079468
0.3333333730697632 0.9694930911064148 0.39534878730773926
0.3333333730697632 0.97746741771698 0.41085267066955566
0.3333333730697632 0.9800031185150146 0.42635655403137207
0.3333333730697632 0.9702120423316956 0.4418604373931885
0.3488372564315796 -0.9889124631881714 -0.3488371968269348
0.3488372564315796 -0.9895672798156738 -0.3333333134651184
0.3488372564315796 -0.9891166687011719 -0.317829430103302
0.3488372564315796 -0.9882057309150696 -0.30232560634613037
0.3488372564315796 -0.9876092076301575 -0.28682172298431396
0.3488372564315796 -0.9879740476608276 -0.27131783962249756
0.3488372564315796 -0.9880382418632507 -0.25581395626068115
0.3488372564315796 -0.9881563782691956 -0.24031007289886475
0.3488372564315796 -0.9886985421180725 -0.22480618953704834
0.3488372564315796 -0.9893638491630554 -0.20930230617523193
0.3488372564315796 -0.9899016618728638 -0.19379842281341553
0.3488372564315796 -0.989820659160614 -0.1782945990562439
0.3488372564315796 -0.9895552396774292 -0.1627907156944275
0.3488372564315796 -0.9894528985023499 -0.14728683233261108
0.3488372564315796 -0.9893592000007629 -0.13178294897079468
0.3488372564315796 -0.989592432975769 -0.11627906560897827
0.3488372564315796 -0.989848792552948 -0.10077518224716187
0.3488372564315796 -0.9901023507118225 -0.08527129888534546
0.3488372564315796 -0.9898021817207336 -0.06976741552352905
0.3488372564315796 -0.9616053700447083 -0.3488371968269348
0.3488372564315796 -0.9591137170791626 -0.3333333134651184
0.3488372564315796 -0.959382176399231 -0.317829430103302
0.3488372564315796 -0.9549133777618408 -0.30232560634613037
0.3488372564315796 -0.9444600939750671 -0.28682172298431396
0.3488372564315796 -0.9454655647277832 -0.06976741552352905
0.3488372564315796 -0.9276250600814819 -0.19379842281341553
0.3488372564315796 -0.9287671446800232 -0.1782945990562439
0.3488372564315796 -0.9278292059898376 -0.1627907156944275
0.3488372564315796 -0.9039501547813416 -0.28682172298431396
0.3488372564315796 -0.8859885931015015 -0.19379842281341553
0.3488372564315796 -0.8768104910850525 -0.1782945990562439
0.3488372564315796 -0.8864946961402893 -0.1627907156944275
0.3488372564315796 -0.8120875954627991 -0.06976741552352905
0.3488372564315796 -0.7685689330101013 -0.06976741552352905
0.3488372564315796 -0.6948620080947876 -0.06976741552352905
0.3488372564315796 -0.18695920705795288 -0.1782945990562439
0.3488372564315796 -0.18233884871006012 -0.1627907156944275
0.3488372564315796 -0.15202216804027557 -0.1782945990562439
0.3488372564315796 -0.15752464532852173 -0.1627907156944275
0.3488372564315796 0.41071149706840515 -0.1627907156944275
0.3488372564315796 0.4463307857513428 -0.1627907156944275
0.3488372564315796 0.48778703808784485 -0.1627907156944275
0.3488372564315796 0.49840304255485535 -0.1782945990562439
0.3488372564315796 0.5664678812026978 -0.1782945990562439
0.3488372564315796 0.6143608689308167 -0.1627907156944275
0.3488372564315796 0.758191704750061 0.007751941680908203
0.3488372564315796 0.760033369064331 0.02325582504272461
0.3488372564315796 0.7974087595939636 0.007751941680908203
0.3488372564315796 0.7932648658752441 0.02325582504272461
0.3488372564315796 0.8637880086898804 -0.1782945990562439
0.3488372564315796 0.8647117018699646 -0.1627907156944275
0.3488372564315796 0.8804619312286377 -0.19379840791225433
0.3488372564315796 0.8813834190368652 -0.14728683233261108
0.3488372564315796 0.9013181924819946 -0.20930230617523193
0.3488372564315796 0.9220253825187683 -0.20930230617523193
0.3488372564315796 0.9347892999649048 -0.30232560634613037
0.3488372564315796 0.9296014904975891 -0.19379842281341553
0.3488372564315796 0.9312906861305237 -0.1782945990562439
0.3488372564315796 0.9306648969650269 -0.1627907156944275
0.3488372564315796 0.9267637729644775 -0.14728683233261108
0.3488372564315796 0.9365931749343872 -0.05426359176635742
0.3488372564315796 0.9365138411521912 -0.038759708404541016
0.3488372564315796 0.9359010457992554 -0.02325582504272461
0.3488372564315796 0.9339075684547424 -0.007751941680908203
0.3488372564315796 0.9283312559127808 0.007751941680908203
0.3488372564315796 0.9300081729888916 0.02325582504272461
0.3488372564315796 0.9368133544921875 0.038759708404541016
0.3488372564315796 0.9373587965965271 0.28682172298431396
0.3488372564315796 0.9365519285202026 0.30232560634613037
0.3488372564315796 0.9375038743019104 0.3178294897079468
0.3488372564315796 0.9477721452713013 -0.3488371968269348
0.3488372564315796 0.9395285248756409 -0.3333333134651184
0.3488372564315796 0.9390715956687927 -0.317829430103302
0.3488372564315796 0.9492249488830566 0.05426359176635742
0.3488372564315796 0.9500157833099365 0.10077524185180664
0.3488372564315796 0.9444741010665894 0.11627912521362305
0.3488372564315796 0.945300281047821 0.1317828893661499
0.3488372564315796 0.9474830627441406 0.1472867727279663
0.3488372564315796 0.9472099542617798 0.16279065608978271
0.3488372564315796 0.9482440948486328 0.17829453945159912
0.3488372564315796 0.9492030739784241 0.19379842281341553
0.3488372564315796 0.9496167898178101 0.20930230617523193
0.3488372564315796 0.9495954513549805 0.22480618953704834
0.3488372564315796 0.9497126340866089 0.24031007289886475
0.3488372564315796 0.9500365853309631 0.27131783962249756
0.3488372564315796 0.95050448179245 0.41085267066955566
0.3488372564315796 0.9509840607643127 0.42635655403137207
0.3488372564315796 0.9668761491775513 0.39534878730773926
0.3488372564315796 0.9644091129302979 0.4418604373931885
0.3488372564315796 0.9699313640594482 -0.3488371968269348
0.3488372564315796 0.9710214138031006 -0.333333283662796
0.3488372564315796 0.9706574082374573 -0.317829430103302
0.3488372266292572 0.9698717594146729 -0.30232560634613037
0.3488372564315796 0.9702662229537964 -0.28682172298431396
0.3488372564315796 0.9701976776123047 -0.27131783962249756
0.3488372564315796 0.9703852534294128 -0.25581395626068115
0.3488372564315796 0.9705139398574829 -0.24031007289886475
0.3488372564315796 0.9707111120223999 -0.22480618953704834
0.3488372564315796 0.9708163738250732 -0.20930230617523193
0.3488372564315796 0.9710694551467896 -0.19379842281341553
0.3488372564315796 0.9710602760314941 -0.1782945990562439
0.3488372564315796 0.9712225794792175 -0.1627907156944275
0.3488372564315796 0.9714441895484924 -0.14728683233261108
0.348837286233902 0.9709303975105286 -0.13178294897079468
0.3488372564315796 0.9706029295921326 -0.11627906560897827
0.3488372564315796 0.9707511067390442 -0.10077518224716187
0.3488372564315796 0.971383810043335 -0.08527129888534546
0.3488372564315796 0.9712418913841248 -0.06976741552352905
0.3488372564315796 0.9703047275543213 -0.05426359176635742
0.3488372564315796 0.9703632593154907 -0.038759708404541016
0.3488372564315796 0.9713162183761597 -0.02325582504272461
0.3488372564315796 0.97343909740448 -0.007751941680908203
0.3488372564315796 0.9768708348274231 0.007751941680908203
0.3488372564315796 0.9771454334259033 0.02325582504272461
0.3488372564315796 0.9745091795921326 0.038759708404541016
0.3488372564315796 0.9711206555366516 0.05426359549164772
0.3488372564315796 0.96952885389328 0.10077523440122604
0.3488372564315796 0.9705936908721924 0.11627912521362305
0.3488372564315796 0.9702542424201965 0.1317828893661499
0.3488372564315796 0.9696430563926697 0.1472867727279663
0.3488372564315796 0.9696559906005859 0.16279064118862152
0.348837286233902 0.9698337316513062 0.17829453945159912
0.3488372564315796 0.9707555770874023 0.19379842281341553
0.3488372564315796 0.9721462726593018 0.20930230617523193
0.3488372564315796 0.9724096655845642 0.22480618953704834
0.3488372564315796 0.970212459564209 0.24031007289886475
0.3488372564315796 0.9693073034286499 0.27131783962249756
0.3488372564315796 0.9721192121505737 0.28682172298431396
0.3488372564315796 0.9753491878509521 0.30232560634613037
0.3488372564315796 0.9754762649536133 0.3178294897079468
0.3488372564315796 0.9692254066467285 0.39534878730773926
0.3488372564315796 0.9778181314468384 0.41085267066955566
0.3488372564315796 0.9805978536605835 0.42635655403137207
0.3488372564315796 0.9706873297691345 0.4418604373931885
0.364341139793396 -0.9895418882369995 -0.3488371968269348
0.364341139793396 -0.9901283979415894 -0.3333333134651184
0.364341139793396 -0.9897099733352661 -0.317829430103302
0.364341139793396 -0.9885894656181335 -0.30232560634613037
0.364341139793396 -0.9873937964439392 -0.28682172298431396
0.364341139793396 -0.9876455068588257 -0.27131783962249756
0.364341139793396 -0.9873375296592712 -0.25581395626068115
0.364341139793396 -0.9871357679367065 -0.24031007289886475
0.364341139793396 -0.9878227114677429 -0.22480618953704834
0.364341139793396 -0.9885168671607971 -0.20930230617523193
0.364341139793396 -0.9892920851707458 -0.19379842281341553
0.364341139793396 -0.9894677400588989 -0.1782945990562439
0.364341139793396 -0.9892942309379578 -0.1627907156944275
0.364341139793396 -0.9892346858978271 -0.14728683233261108
0.364341139793396 -0.9894829988479614 -0.13178294897079468
0.364341139793396 -0.9900055527687073 -0.11627906560897827
0.364341139793396 -0.9902491569519043 -0.10077518224716187
0.364341139793396 -0.9904401898384094 -0.08527129888534546
0.364341139793396 -0.9901219606399536 -0.06976741552352905
0.364341139793396 -0.9611923098564148 -0.3488371968269348
0.364341139793396 -0.9594247341156006 -0.3333333134651184
0.364341139793396 -0.9598669409751892 -0.317829430103302
0.364341139793396 -0.956885814666748 -0.30232560634613037
0.364341139793396 -0.9475396871566772 -0.28682172298431396
0.364341139793396 -0.9454864263534546 -0.06976741552352905
0.3643411099910736 -0.9344680309295654 -0.20930229127407074
0.364341139793396 -0.9364371299743652 -0.19379842281341553
0.364341139793396 -0.9366806149482727 -0.1782945990562439
0.3643411099910736 -0.9366546869277954 -0.1627907156944275
0.3643411695957184 -0.936219334602356 -0.14728683233261108
0.364341139793396 -0.9012258052825928 -0.28682172298431396
0.364341139793396 -0.8988282680511475 -0.20930230617523193
0.364341139793396 -0.9054385423660278 -0.14728683233261108
0.364341139793396 -0.8777836561203003 -0.19379842281341553
0.364341139793396 -0.8797314167022705 -0.1627907156944275
0.364341139793396 -0.8667687773704529 -0.1782945990562439
0.364341139793396 -0.8191269636154175 -0.06976741552352905
0.364341139793396 -0.7674117088317871 -0.06976741552352905
0.364341139793396 -0.6950569152832031 -0.06976741552352905
0.364341139793396 -0.23832543194293976 -0.1782945990562439
0.364341139793396 -0.19486498832702637 -0.1627907156944275
0.364341139793396 -0.1704794317483902 -0.1627907156944275
0.364341139793396 -0.15590432286262512 -0.1782945990562439
0.364341139793396 0.49934709072113037 -0.1627907156944275
0.364341139793396 0.514941930770874 -0.1782945990562439
0.364341139793396 0.5361536741256714 -0.1782945990562439
0.364341139793396 0.5912533402442932 -0.1627907156944275
0.364341139793396 0.7597780227661133 0.007751941680908203
0.364341139793396 0.7610167264938354 0.02325582504272461
0.364341139793396 0.7948681116104126 0.007751941680908203
0.364341139793396 0.7913912534713745 0.02325582504272461
0.364341139793396 0.8682122230529785 -0.1782945990562439
0.364341139793396 0.8676230907440186 -0.1627907156944275
0.364341139793396 0.8811876773834229 -0.19379842281341553
0.364341139793396 0.8819966912269592 -0.14728683233261108
0.364341139793396 0.9009748697280884 -0.20930230617523193
0.364341139793396 0.9377220869064331 -0.3333333134651184
0.364341139793396 0.9376519322395325 -0.317829430103302
0.364341139793396 0.9338600635528564 -0.30232560634613037
0.364341139793396 0.9251686930656433 -0.20930230617523193
0.364341139793396 0.9313367009162903 -0.19379842281341553
0.364341139793396 0.9322737455368042 -0.1782945990562439
0.364341139793396 0.931453287601471 -0.1627907156944275
0.364341139793396 0.9279367327690125 -0.14728683233261108
0.364341139793396 0.9359855651855469 -0.05426359176635742
0.364341139793396 0.936050534248352 -0.038759708404541016
0.364341139793396 0.9353589415550232 -0.02325582504272461
0.364341139793396 0.9328833222389221 -0.007751941680908203
0.3643411099910736 0.9257416725158691 0.007751941680908203
0.364341139793396 0.9273828268051147 0.02325582504272461
0.364341139793396 0.9361050724983215 0.038759708404541016
0.364341139793396 0.9373161196708679 0.28682172298431396
0.364341139793396 0.9365282654762268 0.30232560634613037
0.364341139793396 0.9376893639564514 0.3178294897079468
0.364341139793396 0.9459271430969238 -0.3488371968269348
0.364341139793396 0.9485335350036621 0.05426359176635742
0.364341139793396 0.9531111717224121 0.06976747512817383
0.364341139793396 0.9530586004257202 0.08527135848999023
0.364341139793396 0.9490063190460205 0.10077524185180664
0.364341139793396 0.9448665380477905 0.11627912521362305
0.364341139793396 0.945712685585022 0.1317828893661499
0.364341139793396 0.9476844072341919 0.1472867727279663
0.364341139793396 0.9476810693740845 0.16279065608978271
0.364341139793396 0.9486085176467896 0.17829453945159912
0.364341139793396 0.9493155479431152 0.19379842281341553
0.364341139793396 0.9494783282279968 0.20930230617523193
0.364341139793396 0.9493621587753296 0.22480618953704834
0.364341139793396 0.9510948657989502 0.24031007289886475
0.364341139793396 0.9492599964141846 0.27131783962249756
0.364341139793396 0.950791597366333 0.41085267066955566
0.364341139793396 0.9511052370071411 0.42635655403137207
0.364341139793396 0.956462025642395 0.06976747512817383
0.3643411099910736 0.956584095954895 0.08527135848999023
0.364341139793396 0.9689310789108276 0.39534878730773926
0.364341139793396 0.9620257616043091 0.4418604373931885
0.364341139793396 0.9701236486434937 -0.3488372266292572
0.364341139793396 0.9711726307868958 -0.3333333134651184
0.3643411695957184 0.9707310795783997 -0.3178294599056244
0.3643411695957184 0.9697540998458862 -0.30232560634613037
0.364341139793396 0.9701160788536072 -0.28682172298431396
0.364341139793396 0.9702007174491882 -0.27131783962249756
0.364341139793396 0.9703248143196106 -0.25581395626068115
0.364341139793396 0.9703223705291748 -0.24031007289886475
0.364341139793396 0.970411479473114 -0.22480618953704834
0.364341139793396 0.9703565835952759 -0.20930230617523193
0.364341139793396 0.9704881310462952 -0.19379842281341553
0.364341139793396 0.970518946647644 -0.1782945841550827
0.364341139793396 0.9708520770072937 -0.1627907156944275
0.364341139793396 0.971138060092926 -0.1472868174314499
0.364341139793396 0.9707460403442383 -0.13178294897079468
0.364341139793396 0.9705219864845276 -0.11627906560897827
0.364341139793396 0.9708071947097778 -0.10077518224716187
0.364341139793396 0.9716687202453613 -0.08527129888534546
0.364341139793396 0.9715091586112976 -0.06976741552352905
0.364341139793396 0.9703626036643982 -0.05426359176635742
0.364341139793396 0.9703666567802429 -0.038759708404541016
0.364341139793396 0.971284806728363 -0.02325582504272461
0.364341139793396 0.9736827611923218 -0.007751941680908203
0.364341139793396 0.9776651859283447 0.007751941680908203
0.364341139793396 0.9780207872390747 0.02325582504272461
0.364341139793396 0.9747792482376099 0.038759708404541016
0.364341139793396 0.9710836410522461 0.05426359176635742
0.3643411695957184 0.9698659181594849 0.10077524185180664
0.3643411695957184 0.9706686735153198 0.11627913266420364
0.364341139793396 0.9703353643417358 0.1317828893661499
0.364341139793396 0.9697421193122864 0.1472867727279663
0.364341139793396 0.9696560502052307 0.16279065608978271
0.3643411695957184 0.9695196151733398 0.17829453945159912
0.364341139793396 0.9700075387954712 0.19379842281341553
0.364341139793396 0.9710978865623474 0.20930230617523193
0.364341139793396 0.9712151288986206 0.22480618953704834
0.364341139793396 0.9691344499588013 0.24031007289886475
0.364341139793396 0.9692731499671936 0.27131783962249756
0.364341139793396 0.9720990657806396 0.28682172298431396
0.364341139793396 0.9757373332977295 0.30232560634613037
0.364341139793396 0.9763206243515015 0.3178294897079468
0.364341139793396 0.968999981880188 0.39534878730773926
0.364341139793396 0.978702962398529 0.41085267066955566
0.364341139793396 0.9822517037391663 0.42635655403137207
0.364341139793396 0.9717372059822083 0.4418604373931885
0.37984490394592285 -0.990125834941864 -0.3488371968269348
0.37984490394592285 -0.9904670119285583 -0.3333333134651184
0.37984490394592285 -0.9901227951049805 -0.317829430103302
0.37984490394592285 -0.9890068769454956 -0.30232560634613037
0.37984490394592285 -0.9871419072151184 -0.28682172298431396
0.37984490394592285 -0.9870172739028931 -0.27131783962249756
0.37984490394592285 -0.9865068197250366 -0.25581395626068115
0.37984490394592285 -0.9861994385719299 -0.24031007289886475
0.37984490394592285 -0.9867602586746216 -0.22480618953704834
0.37984490394592285 -0.9871051907539368 -0.20930230617523193
0.37984490394592285 -0.9878202676773071 -0.19379842281341553
0.37984490394592285 -0.9883917570114136 -0.1782945990562439
0.37984490394592285 -0.9885727763175964 -0.1627907156944275
0.37984490394592285 -0.9887834787368774 -0.14728683233261108
0.37984490394592285 -0.9894707798957825 -0.13178294897079468
0.37984490394592285 -0.9901970624923706 -0.11627906560897827
0.37984490394592285 -0.9904735684394836 -0.10077518224716187
0.37984490394592285 -0.9906344413757324 -0.08527129888534546
0.37984490394592285 -0.9902553558349609 -0.06976741552352905
0.37984490394592285 -0.9690826535224915 -0.05426359176635742
0.37984490394592285 -0.960042417049408 -0.3488371968269348
0.37984490394592285 -0.9592400789260864 -0.3333333134651184
0.37984490394592285 -0.9596882462501526 -0.317829430103302
0.37984490394592285 -0.9570221900939941 -0.30232560634613037
0.37984487414360046 -0.9689645171165466 -0.05426359176635742
0.37984487414360046 -0.9495655298233032 -0.28682172298431396
0.37984490394592285 -0.9405905604362488 -0.20930230617523193
0.37984490394592285 -0.942585825920105 -0.19379842281341553
0.37984490394592285 -0.9421091079711914 -0.1782945990562439
0.37984490394592285 -0.9408879280090332 -0.1627907156944275
0.37984490394592285 -0.9417170882225037 -0.14728683233261108
0.37984490394592285 -0.9460754990577698 -0.06976741552352905
0.37984490394592285 -0.9232516884803772 -0.22480618953704834
0.37984490394592285 -0.9221526980400085 -0.22480618953704834
0.37984490394592285 -0.8947035074234009 -0.28682172298431396
0.37984490394592285 -0.8925729393959045 -0.20930230617523193
0.37984490394592285 -0.9021456241607666 -0.14728683233261108
0.37984490394592285 -0.8761366009712219 -0.1627907156944275
0.37984490394592285 -0.864400327205658 -0.19379842281341553
0.37984490394592285 -0.8532395362854004 -0.1782945990562439
0.37984490394592285 -0.6712993383407593 -0.06976741552352905
0.37984490394592285 -0.371884286403656 -0.1782945990562439
0.37984490394592285 -0.35919299721717834 -0.06976741552352905
0.37984490394592285 -0.31118908524513245 -0.1782945990562439
0.37984490394592285 -0.2811559736728668 -0.1782945990562439
0.37984490394592285 -0.21998153626918793 -0.1627907156944275
0.37984490394592285 -0.15688127279281616 -0.1627907156944275
0.37984490394592285 -0.14355134963989258 -0.1782946139574051
0.37984490394592285 -0.1297350376844406 -0.06976741552352905
0.37984490394592285 0.40763187408447266 -0.1627907156944275
0.37984490394592285 0.4504362940788269 -0.1627907156944275
0.37984490394592285 0.48727741837501526 -0.1627907156944275
0.37984490394592285 0.4894232153892517 -0.1782945990562439
0.37984490394592285 0.5731407403945923 -0.1782945990562439
0.37984490394592285 0.5981519818305969 -0.1627907156944275
0.37984490394592285 0.7612594366073608 0.007751941680908203
0.37984490394592285 0.7614395618438721 0.02325582504272461
0.37984490394592285 0.7927645444869995 0.007751941680908203
0.37984490394592285 0.7904702425003052 0.02325582504272461
0.37984490394592285 0.8620248436927795 -0.1782945990562439
0.37984490394592285 0.864384651184082 -0.1627907156944275
0.37984493374824524 0.8764808177947998 -0.19379842281341553
0.37984490394592285 0.880072832107544 -0.14728683233261108
0.37984490394592285 0.8945774435997009 -0.20930230617523193
0.37984490394592285 0.9372682571411133 -0.3333333134651184
0.37984490394592285 0.9373834729194641 -0.317829430103302
0.37984490394592285 0.9334818124771118 -0.30232560634613037
0.37984490394592285 0.9279242753982544 -0.20930230617523193
0.37984490394592285 0.9323493242263794 -0.19379842281341553
0.37984490394592285 0.9327383041381836 -0.1782945990562439
0.37984490394592285 0.932074785232544 -0.1627907156944275
0.37984490394592285 0.9297747015953064 -0.14728683233261108
0.37984490394592285 0.9360997676849365 -0.05426359176635742
0.37984490394592285 0.93589848279953 -0.038759708404541016
0.37984490394592285 0.9349532723426819 -0.02325582504272461
0.37984490394592285 0.9320100545883179 -0.007751941680908203
0.37984490394592285 0.9241169095039368 0.007751941680908203
0.37984490394592285 0.9248756766319275 0.02325582504272461
0.37984490394592285 0.9352701902389526 0.038759708404541016
0.37984490394592285 0.9371176958084106 0.30232560634613037
0.37984490394592285 0.9432998895645142 -0.3488371968269348
0.37984490394592285 0.9472781419754028 0.05426359176635742
0.37984490394592285 0.9509170055389404 0.06976747512817383
0.37984490394592285 0.9500832557678223 0.08527135848999023
0.37984490394592285 0.948417603969574 0.10077524185180664
0.37984490394592285 0.9466015100479126 0.11627912521362305
0.37984490394592285 0.9470678567886353 0.1317828893661499
0.37984490394592285 0.9482532739639282 0.1472867727279663
0.37984490394592285 0.9483785629272461 0.16279065608978271
0.37984490394592285 0.9492979645729065 0.17829453945159912
0.37984490394592285 0.9501708149909973 0.19379842281341553
0.37984490394592285 0.94977867603302 0.20930230617523193
0.37984490394592285 0.9499046802520752 0.22480618953704834
0.37984490394592285 0.9518964290618896 0.27131783962249756
0.37984490394592285 0.939741313457489 0.28682172298431396
0.37984490394592285 0.9419424533843994 0.3178294897079468
0.37984490394592285 0.9509297609329224 0.41085267066955566
0.37984490394592285 0.9510871767997742 0.42635655403137207
0.37984490394592285 0.9659186005592346 0.27131783962249756
0.37984490394592285 0.9566396474838257 0.4418604373931885
0.37984490394592285 0.9703848958015442 -0.3488371968269348
0.37984490394592285 0.9713146686553955 -0.3333333134651184
0.37984490394592285 0.9708554744720459 -0.3178294003009796
0.37984493374824524 0.9699078798294067 -0.30232563614845276
0.37984490394592285 0.9701141715049744 -0.28682172298431396
0.37984487414360046 0.9702730774879456 -0.27131783962249756
0.37984490394592285 0.9703346490859985 -0.25581395626068115
0.37984490394592285 0.9703617095947266 -0.24031005799770355
0.37984490394592285 0.9703643321990967 -0.22480618953704834
0.37984490394592285 0.9701775908470154 -0.20930230617523193
0.37984490394592285 0.9702188968658447 -0.19379840791225433
0.37984487414360046 0.9703019261360168 -0.1782945990562439
0.37984490394592285 0.9706920385360718 -0.1627907156944275
0.37984490394592285 0.9709247350692749 -0.14728683233261108
0.37984490394592285 0.970754086971283 -0.13178294897079468
0.37984490394592285 0.9708537459373474 -0.11627907305955887
0.37984490394592285 0.9712544679641724 -0.10077518224716187
0.37984490394592285 0.971936821937561 -0.08527129143476486
0.37984490394592285 0.9712973833084106 -0.06976741552352905
0.37984490394592285 0.9703150391578674 -0.05426359176635742
0.37984490394592285 0.9703337550163269 -0.038759708404541016
0.37984490394592285 0.9711551666259766 -0.02325582504272461
0.37984490394592285 0.9733660221099854 -0.007751941680908203
0.37984490394592285 0.9780125617980957 0.007751941680908203
0.37984490394592285 0.9787496328353882 0.02325582504272461
0.37984490394592285 0.9747252464294434 0.038759708404541016
0.37984490394592285 0.9712964296340942 0.05426359176635742
0.37984490394592285 0.969818115234375 0.06976747512817383
0.37984490394592285 0.970016598701477 0.08527135848999023
0.37984490394592285 0.970457136631012 0.10077524185180664
0.37984490394592285 0.9708348512649536 0.11627912521362305
0.37984490394592285 0.970492422580719 0.1317828893661499
0.37984490394592285 0.9699952602386475 0.1472867727279663
0.37984490394592285 0.9698097705841064 0.16279065608978271
0.37984490394592285 0.9694379568099976 0.17829453945159912
0.37984490394592285 0.9694096446037292 0.19379840791225433
0.37984490394592285 0.9699849486351013 0.20930230617523193
0.37984490394592285 0.9699208736419678 0.22480618953704834
0.37984490394592285 0.9716638922691345 0.28682172298431396
0.37984490394592285 0.9756079912185669 0.30232560634613037
0.37984490394592285 0.9755686521530151 0.3178294897079468
0.37984490394592285 0.978675127029419 0.41085267066955566
0.37984490394592285 0.9837228655815125 0.42635655403137207
0.37984490394592285 0.9729198813438416 0.4418604373931885
0.39534878730773926 -0.9906042218208313 -0.3488371968269348
0.39534878730773926 -0.9908317923545837 -0.3333333134651184
0.39534878730773926 -0.9905519485473633 -0.317829430103302
0.39534878730773926 -0.9894769191741943 -0.30232560634613037
0.39534878730773926 -0.9873470067977905 -0.28682172298431396
0.39534878730773926 -0.9872041344642639 -0.27131783962249756
0.39534878730773926 -0.9861940145492554 -0.25581395626068115
0.39534878730773926 -0.9853428602218628 -0.24031007289886475
0.39534878730773926 -0.9861554503440857 -0.22480618953704834
0.39534878730773926 -0.9865037202835083 -0.20930230617523193
0.39534878730773926 -0.9873946309089661 -0.19379842281341553
0.39534878730773926 -0.9881799221038818 -0.1782945990562439
0.39534878730773926 -0.988447904586792 -0.1627907156944275
0.39534878730773926 -0.9888371229171753 -0.14728683233261108
0.39534878730773926 -0.989768922328949 -0.13178294897079468
0.39534878730773926 -0.99053555727005 -0.11627906560897827
0.39534878730773926 -0.9908186197280884 -0.10077518224716187
0.39534878730773926 -0.9909470677375793 -0.08527129888534546
0.39534878730773926 -0.9904046058654785 -0.06976741552352905
0.39534878730773926 -0.958256721496582 -0.3488371968269348
0.39534878730773926 -0.957491397857666 -0.3333333134651184
0.39534878730773926 -0.9581325054168701 -0.317829430103302
0.39534878730773926 -0.9552301168441772 -0.30232560634613037
0.39534878730773926 -0.949154257774353 -0.28682172298431396
0.39534878730773926 -0.9428009390830994 -0.20930230617523193
0.39534878730773926 -0.9438318014144897 -0.19379842281341553
0.39534878730773926 -0.9432582855224609 -0.1782945990562439
0.39534878730773926 -0.9421885013580322 -0.1627907156944275
0.39534878730773926 -0.942659854888916 -0.14728683233261108
0.39534878730773926 -0.9470757246017456 -0.06976741552352905
0.39534878730773926 -0.9345263242721558 -0.22480618953704834
0.39534878730773926 -0.9145117998123169 -0.22480618953704834
0.39534878730773926 -0.896097719669342 -0.28682172298431396
0.39534878730773926 -0.9015915393829346 -0.14728683233261108
0.39534878730773926 -0.8823624849319458 -0.20930230617523193
0.39534878730773926 -0.8698369264602661 -0.1627907156944275
0.39534878730773926 -0.8325896859169006 -0.19379842281341553
0.39534878730773926 -0.7324517965316772 -0.1782945990562439
0.39534878730773926 -0.49333077669143677 -0.06976741552352905
0.39534878730773926 -0.41554757952690125 -0.06976741552352905
0.39534878730773926 -0.4017292857170105 -0.1782945990562439
0.39534878730773926 -0.22914275527000427 -0.1627907156944275
0.39534878730773926 -0.21857017278671265 -0.19379842281341553
0.39534878730773926 -0.17249026894569397 -0.19379842281341553
0.39534878730773926 -0.1556691974401474 -0.1627907156944275
0.39534878730773926 -0.1249050721526146 -0.1782945990562439
0.39534878730773926 0.0029976319056004286 -0.1782945990562439
0.39534878730773926 0.04554251581430435 -0.1782945990562439
0.39534875750541687 0.10271032899618149 -0.06976741552352905
0.39534878730773926 0.204249307513237 -0.1782945990562439
0.39534878730773926 0.21400175988674164 -0.1782945990562439
0.39534878730773926 0.3884826898574829 -0.1782945990562439
0.39534878730773926 0.39078861474990845 -0.1627907156944275
0.39534878730773926 0.6225259304046631 -0.1782945990562439
0.39534878730773926 0.612610399723053 -0.1627907156944275
0.39534878730773926 0.7345787286758423 -0.1782945990562439
0.39534878730773926 0.7650743722915649 0.007751941680908203
0.39534878730773926 0.7640978693962097 0.02325582504272461
0.39534875750541687 0.767746090888977 -0.1782945990562439
0.39534881711006165 0.787339448928833 0.00775194214656949
0.39534878730773926 0.787050724029541 0.02325582504272461
0.39534878730773926 0.8046588897705078 -0.1782945990562439
0.39534878730773926 0.8500801920890808 -0.1627907156944275
0.39534878730773926 0.8619524836540222 -0.19379842281341553
0.39534878730773926 0.886614978313446 -0.20930230617523193
0.39534875750541687 0.8781255483627319 -0.14728683233261108
0.39534878730773926 0.8982203602790833 -0.06976741552352905
0.39534878730773926 0.9372336864471436 -0.3333333134651184
0.39534878730773926 0.9375078082084656 -0.317829430103302
0.39534878730773926 0.9339433908462524 -0.30232560634613037
0.39534878730773926 0.9289369583129883 -0.20930230617523193
0.39534878730773926 0.9323642253875732 -0.19379842281341553
0.39534878730773926 0.9326028823852539 -0.1782945990562439
0.39534878730773926 0.9321005344390869 -0.1627907156944275
0.39534878730773926 0.93007892370224 -0.14728683233261108
0.39534878730773926 0.9256571531295776 -0.06976741552352905
0.39534878730773926 0.9366578459739685 -0.05426359176635742
0.39534878730773926 0.9361665844917297 -0.038759708404541016
0.39534878730773926 0.9350121021270752 -0.02325582504272461
0.39534878730773926 0.9320966005325317 -0.007751941680908203
0.39534878730773926 0.9261138439178467 0.007751941680908203
0.39534878730773926 0.9265128970146179 0.02325582504272461
0.39534878730773926 0.9353156685829163 0.038759708404541016
0.39534878730773926 0.941767156124115 -0.3488371968269348
0.39534878730773926 0.9468679428100586 0.05426359176635742
0.39534878730773926 0.9501794576644897 0.06976747512817383
0.39534878730773926 0.9493227005004883 0.08527135848999023
0.39534878730773926 0.9483728408813477 0.10077524185180664
0.39534878730773926 0.9474921822547913 0.11627912521362305
0.39534878730773926 0.9475997090339661 0.1317828893661499
0.39534878730773926 0.9477896690368652 0.1472867727279663
0.39534878730773926 0.9477611780166626 0.16279065608978271
0.39534878730773926 0.9491344094276428 0.17829453945159912
0.39534878730773926 0.9510862231254578 0.19379842281341553
0.39534878730773926 0.9510257244110107 0.20930230617523193
0.39534878730773926 0.951522707939148 0.22480618953704834
0.39534878730773926 0.9452844858169556 0.28682172298431396
0.39534878730773926 0.9392037987709045 0.30232560634613037
0.39534878730773926 0.9464079141616821 0.3178294897079468
0.39534878730773926 0.9509239196777344 0.41085267066955566
0.39534878730773926 0.9510471820831299 0.42635655403137207
0.39534878730773926 0.9530239105224609 0.4418604373931885
0.39534878730773926 0.9658081531524658 0.19379842281341553
0.39534878730773926 0.9676125645637512 0.20930230617523193
0.39534878730773926 0.9654392600059509 0.22480618953704834
0.39534881711006165 0.9700660705566406 -0.3488372266292572
0.39534878730773926 0.9709709882736206 -0.3333333134651184
0.39534878730773926 0.9705680012702942 -0.317829430103302
0.39534878730773926 0.969660758972168 -0.30232560634613037
0.39534878730773926 0.9699064493179321 -0.28682172298431396
0.39534878730773926 0.9700666666030884 -0.27131783962249756
0.39534878730773926 0.9700314998626709 -0.25581395626068115
0.39534881711006165 0.9699569940567017 -0.24031007289886475
0.39534878730773926 0.9699411392211914 -0.22480618953704834
0.39534878730773926 0.9697561860084534 -0.20930230617523193
0.39534878730773926 0.9697794318199158 -0.19379842281341553
0.39534881711006165 0.969790518283844 -0.1782945990562439
0.39534878730773926 0.970011830329895 -0.16279073059558868
0.39534881711006165 0.9701525568962097 -0.14728683233261108
0.39534878730773926 0.9701449871063232 -0.13178294897079468
0.39534878730773926 0.9705207943916321 -0.11627906560897827
0.39534878730773926 0.9709532856941223 -0.10077518224716187
0.39534878730773926 0.9713132977485657 -0.08527129888534546
0.39534875750541687 0.9705466032028198 -0.06976741552352905
0.39534878730773926 0.9698950052261353 -0.05426359176635742
0.39534878730773926 0.9698879718780518 -0.038759708404541016
0.39534878730773926 0.9705551862716675 -0.02325582504272461
0.39534878730773926 0.9722763895988464 -0.007751941680908203
0.39534878730773926 0.976611316204071 0.007751941680908203
0.39534878730773926 0.9775638580322266 0.02325582504272461
0.39534878730773926 0.9735699892044067 0.038759708404541016
0.39534878730773926 0.9708489775657654 0.05426359549164772
0.39534878730773926 0.969861626625061 0.06976747512817383
0.39534875750541687 0.9700980186462402 0.08527135103940964
0.39534878730773926 0.9703042507171631 0.10077524930238724
0.39534878730773926 0.9704447984695435 0.11627912521362305
0.39534878730773926 0.9702147245407104 0.1317828893661499
0.39534878730773926 0.9698968529701233 0.1472867727279663
0.39534878730773926 0.9696568846702576 0.16279065608978271
0.39534878730773926 0.9691476225852966 0.17829453945159912
0.39534878730773926 0.9705694317817688 0.28682172298431396
0.39534878730773926 0.9741445183753967 0.30232560634613037
0.39534878730773926 0.9734905958175659 0.3178294897079468
0.39534878730773926 0.9771948456764221 0.41085267066955566
0.39534878730773926 0.9843259453773499 0.42635655403137207
0.39534881711006165 0.9734143018722534 0.4418604373931885
0.41085267066955566 -0.9904571771621704 -0.3488371968269348
0.41085267066955566 -0.9909875392913818 -0.3333333134651184
0.41085267066955566 -0.990699827671051 -0.317829430103302
0.41085267066955566 -0.989162266254425 -0.30232560634613037
0.41085267066955566 -0.9873603582382202 -0.28682172298431396
0.41085267066955566 -0.9879370331764221 -0.27131783962249756
0.41085267066955566 -0.9855883717536926 -0.25581395626068115
0.41085267066955566 -0.985767126083374 -0.19379842281341553
0.41085267066955566 -0.9872375726699829 -0.1782945990562439
0.41085267066955566 -0.9876266717910767 -0.1627907156944275
0.41085267066955566 -0.9880962371826172 -0.14728683233261108
0.41085267066955566 -0.9896820187568665 -0.13178294897079468
0.41085267066955566 -0.9906636476516724 -0.11627906560897827
0.41085267066955566 -0.9910064935684204 -0.10077518224716187
0.41085267066955566 -0.9911540150642395 -0.08527129888534546
0.41085267066955566 -0.9902791976928711 -0.06976741552352905
0.41085267066955566 -0.9746241569519043 -0.24031007289886475
0.41085267066955566 -0.9761218428611755 -0.22480618953704834
0.41085267066955566 -0.9790248870849609 -0.20930230617523193
0.41085267066955566 -0.9574588537216187 -0.3488371968269348
0.41085267066955566 -0.9544679522514343 -0.3333333134651184
0.41085267066955566 -0.9553489685058594 -0.317829430103302
0.41085267066955566 -0.95339035987854 -0.30232560634613037
0.41085267066955566 -0.9464452862739563 -0.28682172298431396
0.41085267066955566 -0.9404041171073914 -0.22480618953704834
0.41085267066955566 -0.9439573287963867 -0.20930230617523193
0.41085267066955566 -0.9434207677841187 -0.19379842281341553
0.41085267066955566 -0.9421713948249817 -0.1782945990562439
0.41085267066955566 -0.9411224126815796 -0.1627907156944275
0.41085267066955566 -0.9411811232566833 -0.14728683233261108
0.41085267066955566 -0.9486514925956726 -0.06976741552352905
0.41085267066955566 -0.9027179479598999 -0.28682172298431396
0.41085267066955566 -0.9060830473899841 -0.22480620443820953
0.41085267066955566 -0.9040095806121826 -0.14728683233261108
0.41085267066955566 -0.8661516904830933 -0.1627907156944275
0.41085267066955566 -0.8573304414749146 -0.20930230617523193
0.41085267066955566 -0.7113387584686279 -0.19379842281341553
0.41085267066955566 -0.7143961191177368 -0.1782945990562439
0.41085267066955566 -0.6412447094917297 -0.1782945990562439
0.41085267066955566 -0.5705369710922241 -0.19379842281341553
0.41085267066955566 -0.5415415167808533 -0.19379842281341553
0.41085267066955566 -0.5155104398727417 -0.1782945990562439
0.41085267066955566 -0.44295549392700195 -0.1782945990562439
0.41085267066955566 -0.41355639696121216 -0.19379842281341553
0.41085267066955566 -0.18485409021377563 -0.1627907156944275
0.41085267066955566 -0.177236407995224 -0.1627907156944275
0.41085267066955566 -0.13267412781715393 -0.19379842281341553
