0.22480617463588715 0.9706174731254578 0.038759708404541016
0.22480618953704834 0.9710798859596252 0.05426359176635742
0.22480618953704834 0.9712615013122559 0.06976747512817383
0.22480618953704834 0.971200168132782 0.08527135848999023
0.22480618953704834 0.9710307717323303 0.10077524185180664
0.22480618953704834 0.9703556895256042 0.11627912521362305
0.22480618953704834 0.9702173471450806 0.1317828893661499
0.22480618953704834 0.9701852202415466 0.1472867727279663
0.22480617463588715 0.9694894552230835 0.16279065608978271
0.22480618953704834 0.969611644744873 0.42635655403137207
0.22480618953704834 0.9706709384918213 0.4418604373931885
0.22480618953704834 0.9715427160263062 0.4573643207550049
0.22480618953704834 0.9718189239501953 0.4728682041168213
0.24031005799770355 -0.9788050651550293 -0.1627907156944275
0.24031007289886475 -0.981330931186676 -0.14728683233261108
0.24031007289886475 -0.9813348054885864 -0.13178294897079468
0.24031005799770355 -0.9810285568237305 -0.11627906560897827
0.24031007289886475 -0.9809874296188354 -0.10077518224716187
0.24031008780002594 -0.9807997941970825 -0.08527129888534546
0.24031007289886475 -0.9804826378822327 -0.06976741552352905
0.24031007289886475 -0.9800505042076111 -0.05426359176635742
0.24031008780002594 -0.9798755645751953 -0.038759708404541016
0.24031007289886475 -0.9798123240470886 -0.02325582504272461
0.24031007289886475 -0.9797931909561157 -0.007751941680908203
0.24031007289886475 -0.9794227480888367 0.007751941680908203
0.24031007289886475 -0.9790626764297485 0.02325582504272461
0.24031005799770355 -0.9797292947769165 0.038759708404541016
0.24031007289886475 -0.9799250364303589 0.05426359176635742
0.24031007289886475 -0.979240894317627 0.06976747512817383
0.24031007289886475 -0.9788353443145752 0.08527135848999023
0.24031007289886475 -0.9785929918289185 0.10077524185180664
0.24031007289886475 -0.9783197045326233 0.11627913266420364
0.24031007289886475 -0.9777543544769287 0.1317828893661499
0.24031007289886475 -0.9770746231079102 0.1472867727279663
0.24031007289886475 -0.9763913154602051 0.16279065608978271
0.24031007289886475 -0.9774074554443359 0.17829453945159912
0.24031007289886475 -0.9567697644233704 -0.1627907156944275
0.24031007289886475 -0.943130373954773 0.05426359176635742
0.24031007289886475 -0.9491909742355347 0.06976747512817383
0.24031005799770355 -0.9503982067108154 0.08527135848999023
0.24031007289886475 -0.9506936073303223 0.10077524185180664
0.24031007289886475 -0.9507514238357544 0.11627912521362305
0.24031007289886475 -0.9508455395698547 0.1317828893661499
0.24031007289886475 -0.950682520866394 0.1472867727279663
0.24031005799770355 -0.9509265422821045 0.16279065608978271
0.24031007289886475 -0.9521988034248352 0.17829453945159912
0.24031007289886475 -0.9246609210968018 -0.08527129888534546
0.24031007289886475 -0.9349678754806519 -0.06976741552352905
0.24031007289886475 -0.9360542893409729 -0.05426358804106712
0.24031007289886475 -0.9362261891365051 -0.038759708404541016
0.24031007289886475 -0.9365058541297913 -0.02325582504272461
0.24031007289886475 -0.9363462924957275 -0.007751941680908203
0.24031007289886475 -0.9354426264762878 0.007751941680908203
0.24031007289886475 -0.9352118968963623 0.02325582504272461
0.24031007289886475 -0.9370414018630981 0.03875970467925072
0.24031007289886475 -0.9105584025382996 -0.08527129888534546
0.24031007289886475 -0.8825021982192993 -0.08527129888534546
0.24031007289886475 -0.8715173602104187 -0.08527129888534546
0.24031007289886475 -0.8546953201293945 0.02325582504272461
0.24031007289886475 -0.8581926226615906 0.038759708404541016
0.24031007289886475 -0.8394296169281006 0.007751941680908203
0.24031007289886475 -0.8375892043113708 0.05426359176635742
0.24031007289886475 -0.8175308704376221 -0.06976741552352905
0.24031007289886475 -0.8248151540756226 -0.007751941680908203
0.24031007289886475 -0.794868528842926 -0.02325582504272461
0.24031007289886475 -0.7566674947738647 -0.05426359176635742
0.24031007289886475 -0.756464958190918 -0.038759708404541016
0.24031007289886475 0.476636677980423 0.06976747512817383
0.24031007289886475 0.5212865471839905 -0.038759708404541016
0.24031007289886475 0.5208669304847717 0.08527135848999023
0.24031007289886475 0.5442436337471008 -0.05426359176635742
0.24031007289886475 0.5665927529335022 0.10077524185180664
0.24031007289886475 0.5912172794342041 -0.05426359176635742
0.24031007289886475 0.5931206941604614 -0.038759708404541016
0.24031008780002594 0.631166934967041 0.10077524930238724
0.24031007289886475 0.715756893157959 0.08527135848999023
0.24031007289886475 0.7364907264709473 0.08527135848999023
0.24031007289886475 0.8153856992721558 0.08527135848999023
0.24031007289886475 0.8448588848114014 0.038759708404541016
0.24031007289886475 0.8390673398971558 0.05426359176635742
0.24031007289886475 0.8296872973442078 0.06976747512817383
0.24031007289886475 0.8499844074249268 -0.06976741552352905
0.24031007289886475 0.8464853167533875 -0.05426358804106712
0.24031005799770355 0.8450857996940613 -0.038759708404541016
0.24031007289886475 0.8451904654502869 -0.02325582504272461
0.24031007289886475 0.8459809422492981 -0.007751941680908203
0.24031007289886475 0.8457404375076294 0.007751941680908203
0.24031007289886475 0.8458565473556519 0.02325582504272461
0.24031007289886475 0.8660160303115845 -0.14728683233261108
0.24031005799770355 0.8605234622955322 -0.08527129888534546
0.24031008780002594 0.8788065910339355 -0.10077518224716187
0.24031007289886475 0.9065045714378357 -0.14728683233261108
0.24031007289886475 0.895388662815094 -0.10077518224716187
0.24031007289886475 0.9038420915603638 -0.08527129888534546
0.24031007289886475 0.9068841338157654 -0.06976741552352905
0.24031007289886475 0.9103381633758545 -0.05426359176635742
0.24031007289886475 0.914920449256897 -0.038759708404541016
0.24031007289886475 0.9171832203865051 -0.02325582504272461
0.24031007289886475 0.919259786605835 -0.007751941680908203
0.24031007289886475 0.921362042427063 0.007751941680908203
0.24031007289886475 0.9222813844680786 0.02325582504272461
0.24031007289886475 0.9217135906219482 0.05426359176635742
0.24031007289886475 0.920792818069458 0.06976747512817383
0.24031007289886475 0.9214063286781311 0.08527135848999023
0.24031007289886475 0.9244236946105957 0.038759712129831314
0.24031007289886475 0.9270555377006531 0.10077524185180664
0.24031007289886475 0.9331213235855103 0.11627912521362305
0.24031007289886475 0.93465256690979 0.1317828893661499
0.24031007289886475 0.9339390993118286 0.1472867727279663
0.24031007289886475 0.9345384836196899 0.16279065608978271
0.24031007289886475 0.9361453056335449 0.17829453945159912
0.24031007289886475 0.9371523261070251 0.19379842281341553
0.24031007289886475 0.9374308586120605 0.20930230617523193
0.24031007289886475 0.937166690826416 0.22480618953704834
0.24031007289886475 0.9370614290237427 0.24031007289886475
0.24031007289886475 0.9374486207962036 0.25581395626068115
0.24031007289886475 0.9377806186676025 0.27131783962249756
0.24031007289886475 0.9376052618026733 0.42635655403137207
0.24031007289886475 0.9375026822090149 0.4418604373931885
0.24031007289886475 0.9525253176689148 -0.1627907156944275
0.24031008780002594 0.9392654299736023 0.28682172298431396
0.24031007289886475 0.9408981204032898 0.30232560634613037
0.24031007289886475 0.9425346851348877 0.3178294897079468
0.24031007289886475 0.9427688121795654 0.3333333730697632
0.24031007289886475 0.942426323890686 0.3488372564315796
0.24031008780002594 0.942252516746521 0.3643411695957184
0.24031005799770355 0.9412496089935303 0.37984490394592285
0.24031007289886475 0.9395366311073303 0.39534878730773926
0.24031005799770355 0.9384940266609192 0.41085267066955566
0.24031008780002594 0.9398256540298462 0.4573643207550049
0.24031008780002594 0.9426956176757812 0.4728682041168213
0.24031007289886475 0.957970142364502 -0.1627907156944275
0.24031007289886475 0.9681723713874817 -0.11627906560897827
0.24031007289886475 0.9655529260635376 -0.10077518224716187
0.24031007289886475 0.9648585319519043 -0.08527129888534546
0.24031007289886475 0.964697539806366 -0.06976741552352905
0.24031007289886475 0.964657723903656 -0.05426359176635742
0.24031007289886475 0.9658735990524292 -0.038759708404541016
0.24031007289886475 0.9668217897415161 -0.02325582504272461
0.24031007289886475 0.9668295979499817 0.17829453945159912
0.24031007289886475 0.965758740901947 0.19379842281341553
0.24031007289886475 0.9650810956954956 0.20930230617523193
0.24031007289886475 0.9652235507965088 0.22480618953704834
0.24031007289886475 0.9654605984687805 0.24031007289886475
0.24031007289886475 0.9657546281814575 0.25581395626068115
0.24031007289886475 0.9664948582649231 0.27131783962249756
0.24031007289886475 0.9674944877624512 0.28682172298431396
0.24031007289886475 0.9681849479675293 0.30232560634613037
0.24031007289886475 0.9685890078544617 0.3178294897079468
0.24031007289886475 0.9688558578491211 0.3333333730697632
0.24031005799770355 0.969490110874176 -0.14728683233261108
0.24031007289886475 0.9691580533981323 -0.13178293406963348
0.24031007289886475 0.9691305756568909 -0.007751941680908203
0.24031007289886475 0.969792366027832 0.007751941680908203
0.24031007289886475 0.9700952172279358 0.02325582504272461
0.24031007289886475 0.9704571962356567 0.038759708404541016
0.24031007289886475 0.9709520936012268 0.05426359176635742
0.24031007289886475 0.9711334705352783 0.06976747512817383
0.24031007289886475 0.9710676670074463 0.08527135848999023
0.24031008780002594 0.9709469676017761 0.10077524185180664
0.24031005799770355 0.9704210162162781 0.11627911776304245
0.24031007289886475 0.9701716303825378 0.1317828893661499
0.24031007289886475 0.9699905514717102 0.1472867727279663
0.24031007289886475 0.9692414402961731 0.16279065608978271
0.24031007289886475 0.9691234827041626 0.3488372564315796
0.24031007289886475 0.9692846536636353 0.364341139793396
0.24031007289886475 0.9693419933319092 0.37984493374824524
0.24031007289886475 0.969511866569519 0.39534878730773926
0.24031007289886475 0.9694936871528625 0.41085267066955566
0.24031007289886475 0.9700989127159119 0.4263565242290497
0.24031007289886475 0.9707200527191162 0.4418604373931885
0.24031007289886475 0.9717317223548889 0.4573643207550049
0.24031007289886475 0.9723633527755737 0.4728682041168213
0.25581395626068115 -0.9787147045135498 -0.1627907156944275
0.25581395626068115 -0.981333315372467 -0.14728683233261108
0.25581395626068115 -0.9810824394226074 -0.13178294897079468
0.25581395626068115 -0.9807726144790649 -0.11627906560897827
0.25581395626068115 -0.9809799790382385 -0.10077517479658127
0.25581395626068115 -0.9808316230773926 -0.08527129888534546
0.25581395626068115 -0.9803950786590576 -0.06976741552352905
0.25581395626068115 -0.9798423051834106 -0.05426359176635742
0.25581395626068115 -0.9797964096069336 -0.038759708404541016
0.25581395626068115 -0.9797037243843079 -0.02325582504272461
0.25581395626068115 -0.9797729253768921 -0.00775194214656949
0.25581395626068115 -0.9793446063995361 0.007751941680908203
0.25581395626068115 -0.9789398908615112 0.02325582504272461
0.25581395626068115 -0.9795039892196655 0.038759708404541016
0.25581395626068115 -0.979772686958313 0.05426359176635742
0.25581395626068115 -0.979102373123169 0.06976747512817383
0.25581395626068115 -0.9787683486938477 0.08527135848999023
0.25581395626068115 -0.9786195755004883 0.10077524185180664
0.25581395626068115 -0.9783676862716675 0.11627912521362305
0.25581395626068115 -0.9778470993041992 0.1317828893661499
0.25581395626068115 -0.9772501587867737 0.1472867727279663
0.25581395626068115 -0.9765640497207642 0.16279065608978271
0.25581395626068115 -0.9774731993675232 0.17829453945159912
0.25581395626068115 -0.9576424360275269 -0.1627907156944275
0.25581395626068115 -0.94032883644104 0.05426359176635742
0.25581395626068115 -0.948094367980957 0.06976747512817383
0.25581395626068115 -0.9497039914131165 0.08527135848999023
0.25581395626068115 -0.9500479698181152 0.10077524185180664
0.25581395626068115 -0.9501209855079651 0.11627912521362305
0.25581395626068115 -0.9502312541007996 0.1317828893661499
0.25581395626068115 -0.949974775314331 0.1472867727279663
0.25581395626068115 -0.9501181840896606 0.16279065608978271
0.25581395626068115 -0.9515629410743713 0.17829453945159912
0.25581395626068115 -0.9338574409484863 -0.06976741552352905
0.25581395626068115 -0.9354197978973389 -0.05426359176635742
0.25581395626068115 -0.9355142116546631 -0.03875970467925072
0.25581395626068115 -0.9350325465202332 -0.02325582504272461
0.25581395626068115 -0.9345213770866394 -0.007751941680908203
0.25581395626068115 -0.9335901737213135 0.007751941215246916
0.25581395626068115 -0.9330434799194336 0.02325582504272461
0.25581395626068115 -0.9353561401367188 0.038759708404541016
0.25581395626068115 -0.8785147666931152 -0.08527129888534546
0.25581395626068115 -0.872467577457428 -0.08527129888534546
0.25581395626068115 -0.8559858202934265 0.02325582504272461
0.25581395626068115 -0.860387921333313 0.038759708404541016
0.25581395626068115 -0.8372032642364502 0.007751941680908203
0.25581395626068115 -0.8391380310058594 0.05426359176635742
0.25581395626068115 -0.8167804479598999 -0.06976741552352905
0.25581395626068115 -0.8191479444503784 -0.007751941680908203
0.25581395626068115 -0.790079653263092 -0.02325582504272461
0.25581395626068115 -0.7581382989883423 -0.05426359176635742
0.25581395626068115 -0.758040189743042 -0.038759708404541016
0.25581395626068115 0.4759766757488251 0.06976747512817383
0.25581395626068115 0.5188330411911011 -0.038759708404541016
0.25581395626068115 0.5206336975097656 0.08527135848999023
0.25581395626068115 0.5523248910903931 -0.05426359176635742
0.25581395626068115 0.565241813659668 0.10077524185180664
0.25581395626068115 0.588593602180481 -0.05426359176635742
0.25581395626068115 0.5973151922225952 -0.038759708404541016
0.25581395626068115 0.6364142894744873 0.10077524185180664
0.25581395626068115 0.7814379334449768 0.10077524185180664
0.25581395626068115 0.7838159799575806 0.10077524185180664
0.25581395626068115 0.8162521719932556 0.08527135848999023
0.25581395626068115 0.8398571610450745 0.05426359176635742
0.25581395626068115 0.8302127122879028 0.06976748257875443
0.25581395626068115 0.8510215282440186 -0.06976741552352905
0.25581395626068115 0.8472434282302856 -0.05426358804106712
0.25581395626068115 0.8456808924674988 -0.038759708404541016
0.25581395626068115 0.8453096747398376 -0.02325582504272461
0.25581395626068115 0.8457632064819336 -0.007751941215246916
0.25581395626068115 0.8457092642784119 0.007751941680908203
0.25581395626068115 0.8460822701454163 0.02325582504272461
0.25581395626068115 0.8452885746955872 0.038759708404541016
0.25581395626068115 0.8692399859428406 -0.14728683233261108
0.25581395626068115 0.8616476655006409 -0.08527129888534546
0.25581395626068115 0.8863667249679565 -0.10077518224716187
0.25581395626068115 0.9039145112037659 -0.14728683233261108
0.25581395626068115 0.8930230140686035 -0.10077518224716187
0.25581395626068115 0.9026308059692383 -0.08527129888534546
0.25581395626068115 0.9055776596069336 -0.06976741552352905
0.25581395626068115 0.9071972966194153 -0.05426359176635742
0.25581395626068115 0.9130173921585083 -0.038759708404541016
0.25581395626068115 0.9165710210800171 -0.02325582504272461
0.25581395626068115 0.9192980527877808 -0.007751941680908203
0.25581395626068115 0.9211962223052979 0.007751941680908203
0.25581395626068115 0.921988308429718 0.02325582504272461
0.25581395626068115 0.9212930202484131 0.05426359176635742
0.25581395626068115 0.9203897714614868 0.06976747512817383
0.25581395626068115 0.9209691882133484 0.08527135848999023
0.25581395626068115 0.9230448603630066 0.038759708404541016
0.25581395626068115 0.9253277778625488 0.10077524185180664
0.25581395626068115 0.9325520992279053 0.11627912521362305
0.25581395626068115 0.9339120388031006 0.1317828893661499
0.25581395626068115 0.9330137372016907 0.1472867727279663
0.25581395626068115 0.9336856603622437 0.16279065608978271
0.25581395626068115 0.9354646801948547 0.17829453945159912
0.25581395626068115 0.9361513257026672 0.19379842281341553
0.25581395626068115 0.9363183975219727 0.20930230617523193
0.25581395626068115 0.9362320899963379 0.22480618953704834
0.25581395626068115 0.936439037322998 0.24031007289886475
0.25581395626068115 0.9366532564163208 0.25581395626068115
0.25581395626068115 0.9366773962974548 0.27131783962249756
0.25581395626068115 0.9369295239448547 0.28682172298431396
0.25581395626068115 0.9371500611305237 0.30232560634613037
0.25581395626068115 0.9373624324798584 0.3178294897079468
0.25581395626068115 0.93744957447052 0.3333333730697632
0.25581395626068115 0.9375184774398804 0.3488372564315796
0.25581395626068115 0.9377028942108154 0.364341139793396
0.25581395626068115 0.937664806842804 0.37984490394592285
0.25581395626068115 0.9373878240585327 0.39534878730773926
0.25581395626068115 0.9373350143432617 0.41085267066955566
0.25581395626068115 0.9373438358306885 0.42635655403137207
0.25581395626068115 0.9373315572738647 0.4418604373931885
0.25581395626068115 0.9379826188087463 0.4573643207550049
0.25581395626068115 0.9526333212852478 -0.1627907156944275
0.25581395626068115 0.9420110583305359 0.4728681743144989
0.25581395626068115 0.9572976231575012 -0.1627907156944275
0.25581395626068115 0.9684992432594299 -0.11627906560897827
0.25581395626068115 0.9671462178230286 -0.10077518224716187
0.25581395626068115 0.9666673541069031 -0.08527129888534546
0.25581395626068115 0.9666265249252319 -0.06976741552352905
0.25581395626068115 0.967247724533081 -0.05426359176635742
0.25581395626068115 0.9688430428504944 -0.038759708404541016
0.25581395626068115 0.9687830209732056 -0.02325582504272461
0.25581395626068115 0.9668729901313782 0.17829453945159912
0.25581395626068115 0.9661797881126404 0.19379842281341553
0.25581395626068115 0.96567302942276 0.20930230617523193
0.25581395626068115 0.9653770327568054 0.22480618953704834
0.25581395626068115 0.9651519060134888 0.24031007289886475
0.25581395626068115 0.9655372500419617 0.25581395626068115
0.25581395626068115 0.9661675095558167 0.27131783962249756
0.25581395626068115 0.9670576453208923 0.28682172298431396
0.25581395626068115 0.967757523059845 0.30232560634613037
0.25581395626068115 0.9681991338729858 0.3178294897079468
0.25581395626068115 0.9683931469917297 0.3333333730697632
0.25581395626068115 0.968801736831665 0.3488372564315796
0.25581395626068115 0.9696270227432251 -0.14728683233261108
0.25581395626068115 0.9692435264587402 -0.13178294897079468
0.25581395626068115 0.9692904949188232 -0.00775194214656949
0.25581395626068115 0.96988445520401 0.007751941680908203
0.25581395626068115 0.9701685905456543 0.02325582690536976
0.25581395626068115 0.9705317616462708 0.038759708404541016
0.25581395626068115 0.9710536599159241 0.05426359176635742
0.25581395626068115 0.9711318016052246 0.06976747512817383
0.25581395626068115 0.9710672497749329 0.08527135848999023
0.25581395626068115 0.9710240960121155 0.10077523440122604
0.25581395626068115 0.9705824851989746 0.11627912521362305
0.25581395626068115 0.9702631235122681 0.1317828893661499
0.25581395626068115 0.9700221419334412 0.1472867727279663
0.25581395626068115 0.9693349599838257 0.16279065608978271
0.25581395626068115 0.969096839427948 0.364341139793396
0.25581395626068115 0.9692415595054626 0.37984490394592285
0.25581395626068115 0.9694926142692566 0.39534878730773926
0.25581395626068115 0.9696503281593323 0.41085267066955566
0.25581395626068115 0.9702395796775818 0.42635655403137207
0.25581395626068115 0.9708343744277954 0.4418604373931885
0.25581395626068115 0.9719180464744568 0.4573643207550049
0.25581395626068115 0.9724892973899841 0.4728682041168213
0.27131783962249756 -0.9786926507949829 -0.1627907156944275
0.27131783962249756 -0.9816668629646301 -0.14728683233261108
0.27131783962249756 -0.9813178777694702 -0.13178294897079468
0.27131783962249756 -0.9809544086456299 -0.11627906560897827
0.27131783962249756 -0.9815286993980408 -0.10077518224716187
0.27131783962249756 -0.9813560843467712 -0.08527129888534546
0.27131783962249756 -0.9806951284408569 -0.06976741552352905
0.27131783962249756 -0.980026364326477 -0.05426359176635742
0.27131783962249756 -0.9798886775970459 -0.038759708404541016
0.27131783962249756 -0.9797114133834839 -0.02325582504272461
0.27131783962249756 -0.9799070358276367 -0.007751941680908203
0.27131783962249756 -0.9793791770935059 0.007751941680908203
0.27131783962249756 -0.9785683155059814 0.02325582504272461
0.27131783962249756 -0.9789411425590515 0.038759708404541016
0.27131783962249756 -0.9796333312988281 0.05426359176635742
0.27131783962249756 -0.979182243347168 0.06976747512817383
0.27131783962249756 -0.9788273572921753 0.08527135848999023
0.27131783962249756 -0.9786003828048706 0.10077524185180664
0.27131783962249756 -0.9783724546432495 0.11627912521362305
0.27131783962249756 -0.9778294563293457 0.1317828893661499
0.27131783962249756 -0.9771730899810791 0.1472867727279663
0.27131783962249756 -0.9764715433120728 0.16279065608978271
0.27131783962249756 -0.9773412942886353 0.17829453945159912
0.27131783962249756 -0.9584435224533081 -0.1627907156944275
0.27131783962249756 -0.9383320808410645 0.05426359176635742
0.27131783962249756 -0.9477745294570923 0.06976747512817383
0.27131783962249756 -0.9496779441833496 0.08527135848999023
0.27131783962249756 -0.9502995014190674 0.10077524185180664
0.27131783962249756 -0.9505300521850586 0.11627912521362305
0.27131783962249756 -0.9506217241287231 0.1317828893661499
0.27131783962249756 -0.9502888917922974 0.1472867727279663
0.27131783962249756 -0.9503588676452637 0.16279065608978271
0.27131783962249756 -0.9516924023628235 0.17829453945159912
0.27131783962249756 -0.9333161115646362 -0.06976741552352905
0.27131783962249756 -0.9352279901504517 -0.05426359176635742
0.27131783962249756 -0.9353917837142944 -0.038759708404541016
0.27131783962249756 -0.9346566796302795 -0.02325582318007946
0.27131783962249756 -0.9336874485015869 -0.007751941680908203
0.27131783962249756 -0.932330846786499 0.007751941680908203
0.27131783962249756 -0.930846095085144 0.02325582504272461
0.27131783962249756 -0.9336103200912476 0.038759708404541016
0.27131783962249756 -0.860501229763031 0.02325582504272461
0.27131783962249756 -0.8629149794578552 0.038759708404541016
0.27131783962249756 -0.8412634134292603 0.007751941680908203
0.27131783962249756 -0.8439721465110779 0.05426359176635742
0.27131783962249756 -0.820095419883728 -0.06976741552352905
0.27131783962249756 -0.8240154981613159 -0.007751941680908203
0.27131783962249756 -0.7967708110809326 -0.02325582504272461
0.27131783962249756 -0.7874103784561157 0.06976747512817383
0.27131783962249756 -0.7645988464355469 -0.05426359176635742
0.27131783962249756 -0.7649213075637817 -0.038759708404541016
0.27131783962249756 -0.7552236914634705 0.06976747512817383
0.27131783962249756 -0.4513121247291565 0.06976747512817383
0.27131783962249756 -0.42074471712112427 0.06976747512817383
0.27131783962249756 0.4764060974121094 0.06976747512817383
0.27131783962249756 0.5216834545135498 0.08527135848999023
0.27131783962249756 0.5543182492256165 -0.038759708404541016
0.27131783962249756 0.5655535459518433 0.10077524185180664
0.27131783962249756 0.5846198201179504 -0.038759708404541016
0.27131783962249756 0.6453530192375183 0.10077524185180664
0.27131783962249756 0.7744666337966919 0.10077524185180664
0.27131783962249756 0.7877742648124695 0.10077524185180664
0.27131783962249756 0.8172683119773865 0.08527135848999023
0.27131783962249756 0.8414863348007202 0.05426359176635742
0.27131783962249756 0.8312022686004639 0.06976747512817383
0.27131783962249756 0.8538041114807129 -0.06976741552352905
0.27131783962249756 0.849574089050293 -0.05426359176635742
0.27131783962249756 0.8477040529251099 -0.038759708404541016
0.27131783962249756 0.8466782569885254 -0.02325582504272461
0.27131783962249756 0.8466364741325378 -0.007751941680908203
0.27131783962249756 0.8464020490646362 0.007751941680908203
0.27131783962249756 0.8469353318214417 0.02325582504272461
0.27131783962249756 0.8461713790893555 0.038759708404541016
0.27131783962249756 0.864882230758667 -0.08527129888534546
0.27131783962249756 0.8759996891021729 -0.1472868174314499
0.27131783962249756 0.9006862640380859 -0.14728683233261108
0.27131783962249756 0.900110125541687 -0.08527129888534546
0.27131783962249756 0.9035731554031372 -0.06976741552352905
0.27131783962249756 0.9048952460289001 -0.05426359176635742
0.27131783962249756 0.9091480374336243 -0.038759708404541016
0.27131783962249756 0.9150404334068298 -0.02325582504272461
0.27131783962249756 0.9189730882644653 -0.007751941680908203
0.27131783962249756 0.9210103750228882 0.007751941680908203
0.27131783962249756 0.9218388795852661 0.02325582504272461
0.27131783962249756 0.9214693903923035 0.05426359176635742
0.27131783962249756 0.9205265045166016 0.06976747512817383
0.27131783962249756 0.9211915731430054 0.08527135848999023
0.27131783962249756 0.9232867360115051 0.038759708404541016
0.27131783962249756 0.9274282455444336 0.10077524185180664
0.27131783962249756 0.9334995746612549 0.11627912521362305
0.27131783962249756 0.9345532655715942 0.1317828893661499
0.27131783962249756 0.93385910987854 0.1472867727279663
0.27131783962249756 0.93439781665802 0.16279065608978271
0.27131783962249756 0.9358855485916138 0.17829453945159912
0.27131783962249756 0.9364742636680603 0.19379842281341553
0.27131783962249756 0.9365441799163818 0.20930230617523193
0.27131783962249756 0.9366408586502075 0.22480618953704834
0.27131783962249756 0.9369243383407593 0.24031007289886475
0.27131783962249756 0.9371093511581421 0.25581395626068115
0.27131783962249756 0.9370936155319214 0.27131783962249756
0.27131783962249756 0.937322199344635 0.28682172298431396
0.27131783962249756 0.9375066757202148 0.30232560634613037
0.27131783962249756 0.9376344680786133 0.3178294897079468
0.27131783962249756 0.9376682639122009 0.3333333730697632
0.27131783962249756 0.9377440214157104 0.3488372564315796
0.27131783962249756 0.9379513263702393 0.364341139793396
0.27131783962249756 0.937958836555481 0.37984490394592285
0.27131783962249756 0.9377212524414062 0.39534878730773926
0.27131783962249756 0.9376129508018494 0.41085267066955566
0.27131783962249756 0.9378330111503601 0.42635655403137207
0.27131783962249756 0.9386976957321167 0.44186046719551086
0.27131783962249756 0.941084623336792 0.4573643207550049
0.27131783962249756 0.9439976215362549 0.4728682041168213
0.27131783962249756 0.9678784608840942 -0.11627906560897827
0.27131783962249756 0.9666325449943542 -0.10077518224716187
0.27131783962249756 0.966112494468689 -0.08527129888534546
0.27131783962249756 0.9659674763679504 -0.06976741552352905
0.27131783962249756 0.9670519828796387 -0.05426359176635742
0.27131783962249756 0.9678748250007629 0.17829453945159912
0.27131783962249756 0.9664586782455444 0.19379842281341553
0.27131783962249756 0.9659340381622314 0.20930230617523193
0.27131783962249756 0.9654334783554077 0.22480618953704834
0.27131783962249756 0.9651772379875183 0.24031007289886475
0.27131783962249756 0.9656581878662109 0.25581395626068115
0.27131783962249756 0.9663612246513367 0.27131783962249756
0.27131783962249756 0.9674198627471924 0.28682172298431396
0.27131783962249756 0.9683809876441956 0.30232560634613037
0.27131783962249756 0.96894371509552 0.3178294897079468
0.27131783962249756 0.9696487784385681 -0.14728683233261108
0.27131783962249756 0.9692350625991821 -0.13178294897079468
0.27131783962249756 0.9690389037132263 -0.038759708404541016
0.27131783962249756 0.9690881371498108 -0.02325582504272461
0.27131783962249756 0.9694507718086243 -0.007751941215246916
0.27131783962249756 0.9700068235397339 0.007751941680908203
0.27131783962249756 0.9702645540237427 0.02325582504272461
0.27131783962249756 0.970547616481781 0.038759708404541016
0.27131783962249756 0.9709863066673279 0.05426359176635742
0.27131783962249756 0.9710938930511475 0.06976747512817383
0.27131783962249756 0.9710489511489868 0.08527135848999023
0.27131783962249756 0.9709671139717102 0.10077524185180664
0.27131783962249756 0.9705197215080261 0.11627913266420364
0.27131783962249756 0.9703878164291382 0.1317828893661499
0.27131783962249756 0.9701505303382874 0.1472867727279663
0.27131783962249756 0.969612181186676 0.16279065608978271
0.27131783962249756 0.9690672159194946 0.3333333730697632
0.27131783962249756 0.9691898822784424 0.3488372564315796
0.27131783962249756 0.9693078398704529 0.364341139793396
0.27131783962249756 0.9694260954856873 0.37984490394592285
0.27131783962249756 0.9696314334869385 0.39534878730773926
0.27131783962249756 0.9698299169540405 0.41085267066955566
0.27131783962249756 0.9704709649085999 0.42635655403137207
0.27131783962249756 0.9709729552268982 0.4418604373931885
0.27131783962249756 0.9721266031265259 0.45736435055732727
0.27131783962249756 0.9724069833755493 0.4728682339191437
0.28682172298431396 -0.9788103103637695 -0.1627907156944275
0.28682172298431396 -0.9815332293510437 -0.14728683233261108
0.28682172298431396 -0.9812446236610413 -0.13178294897079468
0.28682172298431396 -0.9810906052589417 -0.11627906560897827
0.28682172298431396 -0.9817586541175842 -0.10077518224716187
0.28682172298431396 -0.9816199541091919 -0.08527129888534546
0.28682172298431396 -0.9810490608215332 -0.06976741552352905
0.28682172298431396 -0.9803372621536255 -0.05426359176635742
0.28682172298431396 -0.9800397157669067 -0.038759708404541016
0.28682172298431396 -0.9800613522529602 -0.02325582690536976
0.28682172298431396 -0.9803956747055054 -0.007751941680908203
0.28682172298431396 -0.9799704551696777 0.007751941680908203
0.28682172298431396 -0.9789742231369019 0.02325582504272461
0.28682172298431396 -0.979026198387146 0.038759708404541016
0.28682172298431396 -0.9795698523521423 0.05426359176635742
0.28682172298431396 -0.9791290760040283 0.06976747512817383
0.28682172298431396 -0.9788069128990173 0.08527135848999023
0.28682172298431396 -0.9785350561141968 0.10077524185180664
0.28682172298431396 -0.9782470464706421 0.11627912521362305
0.28682172298431396 -0.9776113033294678 0.1317828893661499
0.28682172298431396 -0.9768930673599243 0.1472867727279663
0.28682172298431396 -0.9762227535247803 0.16279065608978271
0.28682172298431396 -0.9771866202354431 0.17829453945159912
0.28682172298431396 -0.9577771425247192 -0.1627907156944275
0.28682172298431396 -0.9468449354171753 0.06976747512817383
0.28682172298431396 -0.9493287801742554 0.08527135848999023
0.28682172298431396 -0.9503509998321533 0.10077524185180664
0.28682172298431396 -0.9508423805236816 0.11627912521362305
0.28682172298431396 -0.9509685635566711 0.1317828893661499
0.28682172298431396 -0.9506645202636719 0.1472867727279663
0.28682172298431396 -0.9507761597633362 0.16279065608978271
0.28682172298431396 -0.9519972205162048 0.17829453945159912
0.28682172298431396 -0.9331048727035522 -0.06976741552352905
0.28682172298431396 -0.9350311756134033 -0.05426359176635742
0.28682172298431396 -0.9352365732192993 -0.038759708404541016
0.28682172298431396 -0.9344789385795593 -0.02325582504272461
0.28682172298431396 -0.933124303817749 -0.007751941680908203
0.28682172298431396 -0.9309439659118652 0.007751941680908203
0.28682172298431396 -0.9277685284614563 0.02325582504272461
0.28682172298431396 -0.9310510158538818 0.038759708404541016
0.28682172298431396 -0.9369714856147766 0.05426359176635742
0.28682172298431396 -0.8628016710281372 0.02325582504272461
0.28682172298431396 -0.8660358190536499 0.038759708404541016
0.28682172298431396 -0.844966471195221 0.007751941680908203
0.28682172298431396 -0.8467745780944824 0.05426359176635742
0.28682172298431396 -0.8214631080627441 -0.06976741552352905
0.28682172298431396 -0.8276383280754089 -0.007751941680908203
0.28682172298431396 -0.8008787035942078 -0.02325582504272461
0.28682172298431396 -0.796513020992279 0.06976747512817383
0.28682172298431396 -0.7690027356147766 -0.038759708404541016
0.28682172298431396 -0.7653193473815918 -0.05426359176635742
0.28682172298431396 -0.7471019625663757 0.06976747512817383
0.28682172298431396 -0.4581868052482605 0.06976747512817383
0.28682172298431396 -0.41957902908325195 0.06976747512817383
0.28682172298431396 0.4767027795314789 0.06976747512817383
0.28682172298431396 0.5235678553581238 0.08527135848999023
0.28682172298431396 0.5528953671455383 -0.038759708404541016
0.2868216931819916 0.5667198300361633 0.10077524185180664
0.28682172298431396 0.5859642028808594 -0.038759708404541016
0.28682172298431396 0.6515604257583618 0.10077524185180664
0.28682172298431396 0.7709252238273621 0.10077524185180664
0.28682172298431396 0.7908557653427124 0.10077524185180664
0.28682172298431396 0.8183382153511047 0.08527135848999023
0.28682172298431396 0.8427639603614807 0.05426359176635742
0.28682172298431396 0.8321635723114014 0.06976747512817383
0.28682172298431396 0.8558105826377869 -0.06976741552352905
0.28682172298431396 0.8512665033340454 -0.05426359176635742
0.28682172298431396 0.8490355014801025 -0.038759708404541016
0.28682172298431396 0.8477243185043335 -0.02325582504272461
0.28682172298431396 0.8473207950592041 -0.007751941680908203
0.28682172298431396 0.8469009399414062 0.007751941215246916
0.28682172298431396 0.8475053310394287 0.02325582318007946
0.28682172298431396 0.8467575907707214 0.038759708404541016
0.28682172298431396 0.8667871952056885 -0.08527129888534546
0.28682172298431396 0.8782130479812622 -0.14728683233261108
0.28682172298431396 0.9001721739768982 -0.14728683233261108
0.28682172298431396 0.8996033668518066 -0.08527129888534546
0.28682172298431396 0.9032739400863647 -0.06976741552352905
0.28682172298431396 0.9045709371566772 -0.05426359176635742
0.28682172298431396 0.9086632132530212 -0.038759708404541016
0.28682172298431396 0.9156206846237183 -0.02325582504272461
0.28682172298431396 0.9199268221855164 -0.007751941680908203
0.28682172298431396 0.9219291806221008 0.007751941680908203
0.28682172298431396 0.9224645495414734 0.05426359176635742
0.28682172298431396 0.9213130474090576 0.06976747512817383
0.28682172298431396 0.9219993948936462 0.08527135848999023
0.28682175278663635 0.9242757558822632 0.02325582504272461
0.28682172298431396 0.9274470806121826 0.038759708404541016
0.28682172298431396 0.9307278990745544 0.10077524185180664
0.28682172298431396 0.9347797632217407 0.11627912521362305
0.28682172298431396 0.935531735420227 0.1317828893661499
0.28682172298431396 0.9351467490196228 0.1472867727279663
0.28682172298431396 0.9354422092437744 0.16279065608978271
0.28682172298431396 0.936376690864563 0.17829453945159912
0.28682172298431396 0.936876654624939 0.19379842281341553
0.28682172298431396 0.9368083477020264 0.20930230617523193
0.28682172298431396 0.9370823502540588 0.22480618953704834
0.28682172298431396 0.9374284744262695 0.24031007289886475
0.28682172298431396 0.9376339912414551 0.25581395626068115
0.28682172298431396 0.9376068115234375 0.27131783962249756
0.28682172298431396 0.9378402233123779 0.28682172298431396
0.28682172298431396 0.9379431009292603 0.41085267066955566
0.28682172298431396 0.9381543397903442 0.30232560634613037
0.28682172298431396 0.9385953545570374 0.31782951951026917
0.28682175278663635 0.9384753108024597 0.3333333730697632
0.28682172298431396 0.9386691451072693 0.3488372564315796
0.28682172298431396 0.9394000172615051 0.364341139793396
0.28682172298431396 0.939502477645874 0.37984490394592285
0.28682172298431396 0.9387512803077698 0.39534878730773926
0.28682172298431396 0.9413456320762634 0.42635655403137207
0.28682172298431396 0.9444760680198669 0.4418604373931885
0.28682172298431396 0.9448182582855225 0.4573643207550049
0.28682172298431396 0.9467824697494507 0.4728682041168213
0.28682172298431396 0.9678502678871155 0.22480618953704834
0.28682172298431396 0.9672356247901917 0.24031007289886475
0.28682172298431396 0.967868447303772 0.25581395626068115
0.28682172298431396 0.9688195586204529 0.27131783962249756
0.28682172298431396 0.9695946574211121 -0.14728683233261108
0.28682172298431396 0.9693284630775452 -0.13178294897079468
0.28682172298431396 0.969007134437561 -0.11627906560897827
0.28682172298431396 0.9691455364227295 -0.10077518224716187
0.28682172298431396 0.9693179726600647 -0.08527130633592606
0.28682172298431396 0.969398021697998 -0.06976741552352905
0.28682172298431396 0.9694398641586304 -0.05426359176635742
0.28682172298431396 0.9697463512420654 -0.03875970467925072
0.28682172298431396 0.9698978066444397 -0.02325582504272461
0.28682175278663635 0.9702377915382385 -0.007751941680908203
0.28682172298431396 0.9705033898353577 0.007751941680908203
0.28682172298431396 0.9705799221992493 0.02325582504272461
0.28682172298431396 0.9707596302032471 0.038759708404541016
0.28682172298431396 0.970973551273346 0.05426359176635742
0.28682172298431396 0.971021831035614 0.06976747512817383
0.28682172298431396 0.971031904220581 0.08527135848999023
0.28682172298431396 0.9710613489151001 0.10077524185180664
0.28682172298431396 0.9709062576293945 0.11627912521362305
0.28682172298431396 0.9708054065704346 0.1317828893661499
0.2868216931819916 0.9704592823982239 0.14728675782680511
0.28682172298431396 0.9700344800949097 0.16279065608978271
0.28682172298431396 0.9695433974266052 0.17829453945159912
0.28682172298431396 0.9692544937133789 0.19379842281341553
0.28682172298431396 0.9690442681312561 0.20930230617523193
0.28682172298431396 0.969422459602356 0.28682172298431396
0.28682175278663635 0.9697940349578857 0.30232560634613037
0.28682172298431396 0.9699626564979553 0.3178294897079468
0.28682172298431396 0.970041036605835 0.3333333730697632
0.28682172298431396 0.9701184034347534 0.3488372564315796
0.28682172298431396 0.9701721668243408 0.364341139793396
0.28682172298431396 0.9702214002609253 0.37984490394592285
0.28682172298431396 0.9703283905982971 0.39534878730773926
0.28682172298431396 0.9705353379249573 0.41085267066955566
0.28682172298431396 0.9710259437561035 0.42635655403137207
0.28682172298431396 0.971299409866333 0.4418604373931885
0.28682172298431396 0.972422182559967 0.4573643207550049
0.28682172298431396 0.9720916748046875 0.4728682041168213
0.30232560634613037 -0.9790714979171753 -0.1627907156944275
0.30232560634613037 -0.981613039970398 -0.14728683233261108
0.30232560634613037 -0.9813461899757385 -0.13178294897079468
0.30232560634613037 -0.9811874032020569 -0.11627906560897827
0.30232560634613037 -0.9815492033958435 -0.10077518224716187
0.30232560634613037 -0.9813990592956543 -0.08527129888534546
0.30232560634613037 -0.980898380279541 -0.06976741552352905
0.30232560634613037 -0.980280876159668 -0.05426359176635742
0.30232560634613037 -0.9800102710723877 -0.038759708404541016
0.30232560634613037 -0.9799791574478149 -0.02325582504272461
0.30232560634613037 -0.9800020456314087 -0.007751941680908203
0.30232560634613037 -0.979407548904419 0.00775194214656949
0.30232560634613037 -0.9784518480300903 0.02325582504272461
0.30232560634613037 -0.9786456823348999 0.038759708404541016
0.30232560634613037 -0.9793605208396912 0.05426359176635742
0.30232560634613037 -0.9790075421333313 0.06976747512817383
0.30232560634613037 -0.9787042140960693 0.08527135848999023
0.30232560634613037 -0.978504478931427 0.10077524185180664
0.30232560634613037 -0.9782403111457825 0.11627912521362305
0.30232560634613037 -0.9775987267494202 0.1317828893661499
0.30232560634613037 -0.9768804907798767 0.1472867727279663
0.30232560634613037 -0.9762027263641357 0.16279065608978271
0.30232560634613037 -0.9772518277168274 0.17829453945159912
0.30232560634613037 -0.9567937254905701 -0.1627907156944275
0.30232560634613037 -0.9452749490737915 0.06976747512817383
0.30232560634613037 -0.9487613439559937 0.08527135848999023
0.30232560634613037 -0.9500724077224731 0.10077524185180664
0.30232560634613037 -0.9506725668907166 0.11627912521362305
0.30232560634613037 -0.9508244395256042 0.1317828893661499
0.30232560634613037 -0.9504780769348145 0.1472867727279663
0.30232560634613037 -0.9506193995475769 0.16279065608978271
0.30232560634613037 -0.9519203901290894 0.17829453945159912
0.30232560634613037 -0.9327991604804993 -0.06976741552352905
0.30232560634613037 -0.9346730709075928 -0.05426359549164772
0.30232560634613037 -0.9348893165588379 -0.038759708404541016
0.30232560634613037 -0.9340468049049377 -0.02325582504272461
0.30232560634613037 -0.9320762157440186 -0.00775194214656949
0.30232560634613037 -0.9289730787277222 0.007751941680908203
0.30232560634613037 -0.9239058494567871 0.02325582504272461
0.30232560634613037 -0.9282366633415222 0.038759708404541016
0.30232560634613037 -0.9356215000152588 0.05426359176635742
0.30232560634613037 -0.8643967509269714 0.02325582504272461
0.30232560634613037 -0.8680051565170288 0.038759708404541016
0.30232560634613037 -0.8465389013290405 0.007751941680908203
0.30232560634613037 -0.8480409383773804 0.05426359176635742
0.30232560634613037 -0.8302016258239746 -0.007751941680908203
0.30232560634613037 -0.8229566812515259 -0.06976741552352905
0.30232560634613037 -0.8051782846450806 -0.02325582504272461
0.30232560634613037 -0.7996134161949158 0.06976747512817383
0.30232560634613037 -0.7722951769828796 -0.05426359176635742
0.30232560634613037 -0.7744768857955933 -0.038759708404541016
0.30232560634613037 -0.7434749603271484 0.06976747512817383
0.30232560634613037 -0.45981550216674805 0.06976747512817383
0.30232560634613037 -0.41918036341667175 0.06976747512817383
0.30232560634613037 0.47553297877311707 0.06976747512817383
0.30232560634613037 0.5235722064971924 0.08527135848999023
0.30232560634613037 0.5571696758270264 -0.038759708404541016
0.30232560634613037 0.5649336576461792 0.10077524185180664
0.30232560634613037 0.5838102102279663 -0.038759708404541016
0.30232560634613037 0.655959963798523 0.10077524185180664
0.30232560634613037 0.7670477628707886 0.10077524185180664
0.30232560634613037 0.7940850257873535 0.10077524185180664
0.30232560634613037 0.8191196918487549 0.08527135848999023
0.30232560634613037 0.8433564901351929 0.05426359176635742
0.30232560634613037 0.8327102661132812 0.06976747512817383
0.30232560634613037 0.8572657704353333 -0.06976741552352905
0.30232560634613037 0.8520992994308472 -0.05426359176635742
0.30232560634613037 0.84947669506073 -0.038759708404541016
0.30232560634613037 0.8481820821762085 -0.02325582504272461
0.30232560634613037 0.8476923108100891 -0.007751941680908203
0.302325576543808 0.8471583127975464 0.007751941680908203
0.30232560634613037 0.8477085828781128 0.02325582504272461
0.30232560634613037 0.8469709157943726 0.038759708404541016
0.30232560634613037 0.868445873260498 -0.08527129888534546
0.30232560634613037 0.8807531595230103 -0.14728683233261108
0.30232560634613037 0.8982836604118347 -0.14728683233261108
0.30232560634613037 0.8986248970031738 -0.08527129888534546
0.30232560634613037 0.902530312538147 -0.06976741552352905
0.30232560634613037 0.9040170907974243 -0.05426359176635742
0.30232560634613037 0.9075173735618591 -0.038759708404541016
0.30232560634613037 0.9152696132659912 -0.02325582504272461
0.30232560634613037 0.9199191927909851 -0.007751941680908203
0.30232560634613037 0.9221231341362 0.007751941680908203
0.30232560634613037 0.9213546514511108 0.06976747512817383
0.30232560634613037 0.9220083951950073 0.08527135848999023
0.30232560634613037 0.9253047108650208 0.02325582504272461
0.30232560634613037 0.928188145160675 0.038759708404541016
0.30232560634613037 0.9233177304267883 0.05426359176635742
0.30232560634613037 0.9309625625610352 0.10077524185180664
0.30232560634613037 0.9349867105484009 0.11627912521362305
0.30232560634613037 0.9358987212181091 0.1317828893661499
0.30232560634613037 0.9356379508972168 0.1472867727279663
0.30232560634613037 0.9359016418457031 0.16279065608978271
0.30232560634613037 0.9367854595184326 0.17829453945159912
0.30232560634613037 0.9371944665908813 0.19379842281341553
0.30232560634613037 0.9370068311691284 0.20930230617523193
0.30232560634613037 0.9373726844787598 0.22480618953704834
0.30232560634613037 0.9378045797348022 0.24031007289886475
0.30232560634613037 0.9534832835197449 -0.1627907156944275
0.30232560634613037 0.938247561454773 0.25581392645835876
0.30232560634613037 0.9381771683692932 0.27131783962249756
0.30232560634613037 0.9395565986633301 0.28682172298431396
0.30232560634613037 0.9403303265571594 0.30232560634613037
0.30232560634613037 0.940435528755188 0.3178294897079468
0.30232560634613037 0.940065860748291 0.3333333730697632
0.30232560634613037 0.9399882555007935 0.3488372564315796
0.30232560634613037 0.9402273297309875 0.3643411099910736
0.30232560634613037 0.9401113986968994 0.37984490394592285
0.30232560634613037 0.9394241571426392 0.39534878730773926
0.30232560634613037 0.9386395215988159 0.41085267066955566
0.30232560634613037 0.9422155618667603 0.42635655403137207
0.30232560634613037 0.945426344871521 0.4418604373931885
0.30232560634613037 0.9454123377799988 0.4573643207550049
0.30232560634613037 0.9483495950698853 0.4728682041168213
0.30232560634613037 0.9535127282142639 -0.1627907156944275
0.30232560634613037 0.9688348770141602 -0.11627906560897827
0.30232560634613037 0.9687306880950928 -0.10077518224716187
0.30232563614845276 0.9696332812309265 -0.14728683233261108
0.30232560634613037 0.9693411588668823 -0.13178294897079468
0.30232560634613037 0.9690961837768555 -0.08527129888534546
0.30232560634613037 0.9692843556404114 -0.06976741552352905
0.30232560634613037 0.9693788886070251 -0.05426359176635742
0.30232563614845276 0.9697074890136719 -0.038759708404541016
0.30232560634613037 0.9699411988258362 -0.02325582504272461
0.30232560634613037 0.9702783823013306 -0.007751941680908203
0.30232560634613037 0.9705639481544495 0.007751941680908203
0.30232560634613037 0.9707058072090149 0.02325582504272461
0.30232560634613037 0.9709019660949707 0.038759708404541016
0.30232560634613037 0.9711019992828369 0.05426359176635742
0.30232560634613037 0.9711354970932007 0.06976747512817383
0.30232560634613037 0.9711465239524841 0.08527135848999023
0.30232560634613037 0.9712526202201843 0.10077524185180664
0.30232560634613037 0.9712004065513611 0.11627912521362305
0.30232560634613037 0.9710896611213684 0.1317828893661499
0.30232560634613037 0.9706913232803345 0.1472867727279663
0.30232560634613037 0.9703028202056885 0.16279065608978271
0.30232560634613037 0.9699968099594116 0.17829453945159912
0.30232560634613037 0.9699748754501343 0.19379842281341553
0.30232560634613037 0.9698769450187683 0.20930229127407074
0.30232560634613037 0.9694037437438965 0.22480617463588715
0.30232560634613037 0.9691405296325684 0.24031007289886475
0.30232560634613037 0.9692899584770203 0.25581395626068115
0.30232560634613037 0.9694951176643372 0.27131783962249756
0.30232560634613037 0.9699345231056213 0.28682172298431396
0.30232560634613037 0.970302939414978 0.30232560634613037
0.30232560634613037 0.9704705476760864 0.3178294897079468
0.30232560634613037 0.9705488085746765 0.3333333730697632
0.30232560634613037 0.9706158638000488 0.3488372564315796
0.30232560634613037 0.9706287980079651 0.364341139793396
0.30232560634613037 0.9706413745880127 0.37984490394592285
0.30232560634613037 0.9707304239273071 0.39534878730773926
0.30232560634613037 0.970958411693573 0.41085267066955566
0.30232560634613037 0.9713234901428223 0.42635655403137207
0.30232560634613037 0.9715323448181152 0.4418604373931885
0.30232560634613037 0.9726705551147461 0.4573643207550049
0.30232560634613037 0.9717683792114258 0.4728681743144989
0.3178294897079468 -0.979360818862915 -0.1627907156944275
0.3178294897079468 -0.9817823767662048 -0.14728683233261108
0.3178294897079468 -0.981589138507843 -0.13178294897079468
0.3178294897079468 -0.9814766049385071 -0.11627906560897827
0.3178294897079468 -0.9815472364425659 -0.10077518224716187
0.3178294897079468 -0.9813534617424011 -0.08527129888534546
0.3178294897079468 -0.9808722734451294 -0.06976741552352905
0.3178294897079468 -0.9804012775421143 -0.05426359176635742
0.3178294897079468 -0.9802321195602417 -0.038759708404541016
0.3178294897079468 -0.9800360202789307 -0.02325582504272461
0.3178294897079468 -0.9795891046524048 -0.00775194214656949
