-0.06976741552352905 0.9674539566040039 -0.28682172298431396
-0.06976741552352905 0.966594398021698 -0.27131783962249756
-0.06976741552352905 0.9655207395553589 -0.25581395626068115
-0.06976741552352905 0.9639140367507935 -0.24031007289886475
-0.06976741552352905 0.9617782831192017 -0.22480618953704834
-0.06976741552352905 0.9590307474136353 -0.20930230617523193
-0.06976741552352905 0.9562186598777771 -0.19379842281341553
-0.06976741552352905 0.9694284796714783 -0.6279069781303406
-0.06976741552352905 0.971833348274231 -0.6124030351638794
-0.06976741552352905 0.9751415252685547 -0.5968992710113525
-0.06976741552352905 0.9780604839324951 -0.5813953876495361
-0.06976741552352905 0.9803464412689209 -0.5658915042877197
-0.06976741552352905 0.9818755388259888 -0.5503876209259033
-0.06976741552352905 0.9828375577926636 -0.5348837375640869
-0.06976741552352905 0.98317950963974 -0.5193798542022705
-0.06976741552352905 0.9827620983123779 -0.5038759708404541
-0.06976741552352905 0.9822310209274292 -0.4883720874786377
-0.06976741552352905 0.9815446734428406 -0.4728682041168213
-0.06976741552352905 0.9807286262512207 -0.4573643207550049
-0.06976741552352905 0.979904294013977 -0.4418604373931885
-0.06976741552352905 0.9790046215057373 -0.42635661363601685
-0.06976741552352905 0.9783021211624146 -0.41085273027420044
-0.06976741552352905 0.9774194955825806 -0.39534884691238403
-0.06976741552352905 0.9763247966766357 -0.3798449635505676
-0.06976741552352905 0.975053071975708 -0.3643410801887512
-0.06976741552352905 0.9736694097518921 -0.3488371968269348
-0.06976741552352905 0.9719715714454651 -0.3333333134651184
-0.06976741552352905 0.9703347682952881 -0.317829430103302
-0.05426359176635742 -0.272043377161026 0.4573643207550049
-0.05426359176635742 -0.2559824585914612 -0.751937985420227
-0.05426359176635742 -0.2567370533943176 -0.7364341020584106
-0.05426359176635742 -0.2563652992248535 -0.7209302186965942
-0.05426359176635742 -0.260000079870224 0.42635655403137207
-0.05426358804106712 -0.26907068490982056 0.4418604373931885
-0.05426359549164772 -0.2672405242919922 0.4728682339191437
-0.05426359176635742 -0.24428144097328186 -0.7984496355056763
-0.05426359176635742 -0.24910447001457214 -0.7829457521438599
-0.05426359176635742 -0.2529396116733551 -0.7674418687820435
-0.05426359549164772 -0.25450417399406433 -0.7054263353347778
-0.05426359176635742 -0.2513362169265747 -0.6899224519729614
-0.05426359176635742 -0.24830839037895203 -0.674418568611145
-0.05426359176635742 -0.24466899037361145 -0.6589146852493286
-0.05426359176635742 -0.24176964163780212 -0.643410861492157
-0.05426359176635742 -0.24332520365715027 -0.3798449635505676
-0.05426359176635742 -0.2468564510345459 -0.3643410801887512
-0.05426359176635742 -0.24929141998291016 -0.3488371968269348
-0.05426359176635742 -0.2511087954044342 -0.3333333134651184
-0.05426359176635742 -0.2522009313106537 -0.317829430103302
-0.05426359176635742 -0.2523156702518463 -0.30232560634613037
-0.05426359549164772 -0.25164517760276794 -0.28682172298431396
-0.05426359176635742 -0.25060075521469116 -0.27131783962249756
-0.05426359176635742 -0.2490541934967041 -0.25581395626068115
-0.05426359176635742 -0.24764886498451233 -0.24031007289886475
-0.05426359176635742 -0.24703258275985718 -0.22480618953704834
-0.05426359176635742 -0.2468051165342331 -0.20930230617523193
-0.05426359176635742 -0.2468600571155548 -0.19379842281341553
-0.05426359176635742 -0.24626073241233826 -0.1782945990562439
-0.05426359176635742 -0.24475282430648804 -0.1627907156944275
-0.05426359176635742 -0.24247746169567108 -0.14728683233261108
-0.05426359176635742 -0.2403809130191803 -0.13178294897079468
-0.05426359176635742 -0.24536125361919403 0.41085267066955566
-0.05426359176635742 -0.2539636790752411 0.4883721172809601
-0.05426359176635742 -0.22605226933956146 -0.8449612259864807
-0.05426359176635742 -0.23204752802848816 -0.8294573426246643
-0.05426359176635742 -0.2395750880241394 -0.8139535188674927
-0.05426359176635742 -0.23980583250522614 -0.6279069781303406
-0.05426359176635742 -0.23607200384140015 -0.6124030947685242
-0.05426359176635742 -0.23312753438949585 -0.596899151802063
-0.05426359176635742 -0.23043787479400635 -0.5813953876495361
-0.05426359176635742 -0.22767187654972076 -0.5658915042877197
-0.05426359176635742 -0.22586585581302643 -0.5503876209259033
-0.05426359176635742 -0.22568075358867645 -0.4728682041168213
-0.05426359176635742 -0.22760221362113953 -0.4573643207550049
-0.05426359176635742 -0.23010499775409698 -0.4418604373931885
-0.05426359176635742 -0.23312419652938843 -0.42635661363601685
-0.05426359176635742 -0.23655369877815247 -0.41085273027420044
-0.05426359176635742 -0.2402859330177307 -0.39534884691238403
-0.05426359176635742 -0.23557424545288086 -0.11627906560897827
-0.05426359176635742 -0.2309872806072235 -0.10077518224716187
-0.05426359176635742 -0.22590075433254242 -0.08527129888534546
-0.05426359176635742 -0.2298515886068344 0.39534878730773926
-0.05426359176635742 -0.23598510026931763 0.5038759708404541
-0.05426359176635742 -0.20974567532539368 -0.8759689927101135
-0.05426359176635742 -0.21746401488780975 -0.8604651689529419
-0.05426359176635742 -0.22461724281311035 -0.5348837375640869
-0.05426359176635742 -0.22387075424194336 -0.5193798542022705
-0.05426359176635742 -0.2237478345632553 -0.5038759708404541
-0.05426359176635742 -0.2245396375656128 -0.4883720874786377
-0.05426359176635742 -0.2213495969772339 -0.06976741552352905
-0.05426359176635742 -0.21697570383548737 -0.05426359176635742
-0.05426359176635742 -0.2128707319498062 -0.038759708404541016
-0.05426359176635742 -0.2120308130979538 0.37984490394592285
-0.05426359176635742 -0.2123008668422699 0.5193798542022705
-0.05426359176635742 -0.1966693103313446 -0.8914728760719299
-0.05426359176635742 -0.20876869559288025 -0.02325582504272461
-0.05426359176635742 -0.2040240317583084 -0.007751941680908203
-0.05426359176635742 -0.1987331360578537 0.007751941680908203
-0.05426359176635742 -0.17937390506267548 -0.9069767594337463
-0.05426358804106712 -0.19236981868743896 0.02325582318007946
-0.05426359176635742 -0.18284375965595245 0.038759708404541016
-0.05426359176635742 -0.1897261142730713 0.364341139793396
-0.05426359176635742 -0.18565955758094788 0.5348837375640869
-0.05426359176635742 -0.16833418607711792 0.05426359176635742
-0.05426359176635742 -0.16387896239757538 0.3488372564315796
-0.05426359176635742 -0.1529006063938141 -0.9224806427955627
-0.05426359176635742 -0.15586504340171814 0.5503876209259033
-0.05426359176635742 -0.14623408019542694 0.06976747512817383
-0.05426359176635742 -0.13769569993019104 0.3333333730697632
-0.05426359176635742 -0.11856800317764282 -0.9379844665527344
-0.05426359176635742 -0.11758635193109512 0.3178294897079468
-0.05426359176635742 -0.11599559336900711 0.08527135848999023
-0.05426359176635742 -0.11471233516931534 0.565891444683075
-0.05426359176635742 -0.09889200329780579 0.30232560634613037
-0.05426359176635742 -0.07856298983097076 -0.9534883499145508
-0.05426359176635742 -0.08380573987960815 0.10077524185180664
-0.05426359176635742 -0.08190833777189255 0.28682172298431396
-0.05426359176635742 -0.07860346138477325 0.5813953876495361
-0.05426359176635742 -0.06420493125915527 0.27131783962249756
-0.05426359176635742 -0.051590219140052795 0.11627912521362305
-0.05426359176635742 -0.04379773139953613 0.25581395626068115
-0.05426359176635742 -0.05426350608468056 0.5968992710113525
-0.05426359176635742 -0.03299592807888985 -0.9689921736717224
-0.05426359176635742 -0.03833955153822899 0.6124032139778137
-0.05426359176635742 -0.024274200201034546 0.6279069185256958
-0.05426359176635742 -0.02013290859758854 0.1317828893661499
-0.05426359176635742 -0.015584423206746578 0.24031007289886475
-0.05426359176635742 -0.00876864418387413 0.6434108018875122
-0.05426359176635742 0.019143657758831978 0.1472867727279663
-0.05426359176635742 0.008642381988465786 0.6589146852493286
-0.05426359549164772 0.027530431747436523 0.22480620443820953
-0.05426358804106712 0.026045963168144226 0.674418568611145
-0.05426359176635742 0.041696008294820786 0.6899224519729614
-0.05426359176635742 0.05944319814443588 -0.9844961166381836
-0.05426359176635742 0.06488519161939621 0.16279065608978271
-0.05426359176635742 0.05585800111293793 0.7054263353347778
-0.05426359176635742 0.06970379501581192 0.7209302186965942
-0.05426359176635742 0.07200466096401215 0.20930232107639313
-0.05426359176635742 0.08429338037967682 0.7364341020584106
-0.05426359176635742 0.0948348343372345 0.17829453945159912
-0.05426359176635742 0.09525132179260254 0.19379842281341553
-0.05426359176635742 0.10119909793138504 0.751937985420227
-0.05426359176635742 0.12110291421413422 0.7674418687820435
-0.05426359176635742 0.14546948671340942 0.7829457521438599
-0.05426359176635742 0.17730365693569183 0.7984496355056763
-0.05426359176635742 0.2077699601650238 0.8139535188674927
-0.05426359176635742 0.23424504697322845 0.8294574022293091
-0.05426359176635742 0.26150739192962646 0.8449612855911255
-0.05426359176635742 0.29620930552482605 0.8604651689529419
-0.05426359176635742 0.3810960352420807 0.8604651689529419
-0.05426358804106712 0.460974782705307 -0.9844961166381836
-0.05426359176635742 0.46875613927841187 0.8449612855911255
-0.05426359176635742 0.5172624588012695 0.8294574022293091
-0.05426358804106712 0.5546092987060547 0.8139534592628479
-0.05426359176635742 0.5903854370117188 0.7984496355056763
-0.05426359176635742 0.6001467704772949 -0.9689922332763672
-0.05426359176635742 0.6205926537513733 0.7829457521438599
-0.05426359176635742 0.6457041501998901 0.7674418687820435
-0.05426359176635742 0.6671634912490845 0.751937985420227
-0.05426359176635742 0.6860863566398621 0.7364341020584106
-0.05426359176635742 0.6936200857162476 -0.953488290309906
-0.05426359176635742 0.7030347585678101 0.7209302186965942
-0.05426359176635742 0.7182567715644836 0.7054263353347778
-0.05426359176635742 0.7323574423789978 0.6899224519729614
-0.05426359176635742 0.7371945977210999 -0.9379844069480896
-0.05426359176635742 0.7449902296066284 0.674418568611145
-0.05426359176635742 0.7654317617416382 -0.9224806427955627
-0.05426359176635742 0.7569599151611328 0.17829453945159912
-0.05426359176635742 0.753122866153717 0.19379842281341553
-0.05426359176635742 0.7560150623321533 0.20930230617523193
-0.05426359176635742 0.763859748840332 0.22480618953704834
-0.05426359176635742 0.7568161487579346 0.6589146852493286
-0.05426359176635742 0.76919025182724 0.16279065608978271
-0.05426359176635742 0.7731956243515015 0.24031007289886475
-0.05426359176635742 0.7823129892349243 0.25581395626068115
-0.05426359176635742 0.7797707915306091 0.6279069185256958
-0.05426359176635742 0.7675461769104004 0.6434108018875122
-0.05426359176635742 0.7865821719169617 -0.9069768190383911
-0.05426359176635742 0.7863190174102783 0.1472867727279663
-0.05426359176635742 0.7918143272399902 0.27131783962249756
-0.05426359176635742 0.7918404340744019 0.612403154373169
-0.05426359176635742 0.805813193321228 -0.8914728760719299
-0.05426359176635742 0.8076212406158447 0.1317828893661499
-0.05426359176635742 0.8013250231742859 0.28682172298431396
-0.05426359176635742 0.8098862171173096 0.30232560634613037
-0.05426359176635742 0.8126956224441528 0.5813953876495361
-0.05426358804106712 0.8023597002029419 0.5968992710113525
-0.05426359176635742 0.8227061033248901 -0.8759689927101135
-0.05426359176635742 0.8287932276725769 0.11627912521362305
-0.05426359176635742 0.8218865990638733 0.3178294897079468
-0.05426359176635742 0.8217263221740723 0.5658915042877197
-0.05426359176635742 0.8365825414657593 -0.8604651093482971
-0.05426359176635742 0.8337437510490417 0.3333333730697632
-0.05426359176635742 0.844322919845581 0.3488372564315796
-0.05426359176635742 0.8436071276664734 0.5193798542022705
-0.05426359176635742 0.8364591598510742 0.5348837375640869
-0.05426359176635742 0.8299205899238586 0.5503876209259033
-0.05426359176635742 0.8500580787658691 -0.8449612259864807
-0.05426359176635742 0.846681535243988 0.10077524185180664
-0.05426359176635742 0.8559814095497131 0.364341139793396
-0.05426359176635742 0.8599207401275635 0.4728682041168213
-0.05426359176635742 0.854338526725769 0.4883720874786377
-0.05426359176635742 0.8480328321456909 0.5038759708404541
-0.05426359176635742 0.8632369637489319 -0.8294573426246643
-0.05426359176635742 0.8740105628967285 0.06976747512817383
-0.05426359176635742 0.8612574934959412 0.08527135848999023
-0.05426359176635742 0.8641937375068665 0.37984490394592285
-0.05426359176635742 0.8704625368118286 0.39534878730773926
-0.05426359176635742 0.8725237250328064 0.41085267066955566
-0.05426359176635742 0.8717248439788818 0.42635655403137207
-0.05426359176635742 0.868415355682373 0.4418604373931885
-0.05426359176635742 0.8635393381118774 0.45736435055732727
-0.05426359176635742 0.8773300051689148 -0.8139535188674927
-0.05426359176635742 0.8911803960800171 -0.7984496355056763
-0.05426359176635742 0.8855667114257812 0.05426359176635742
-0.05426359176635742 0.9031837582588196 -0.7829457521438599
-0.05426359176635742 0.9040703177452087 0.02325582504272461
-0.05426359176635742 0.8952409029006958 0.038759708404541016
-0.05426359176635742 0.912060022354126 -0.7674418687820435
-0.05426359176635742 0.9217177033424377 -0.038759708404541016
-0.05426359176635742 0.9182754158973694 -0.02325582504272461
-0.05426359176635742 0.9144588708877563 -0.007751941680908203
-0.05426359176635742 0.9098197221755981 0.00775194214656949
-0.05426359176635742 0.9232836961746216 -0.751937985420227
-0.05426359176635742 0.9328997135162354 -0.7364341020584106
-0.05426359176635742 0.935066819190979 -0.10077518224716187
-0.05426359176635742 0.930984377861023 -0.08527129888534546
-0.05426359176635742 0.9270315170288086 -0.06976741552352905
-0.05426359549164772 0.9238454103469849 -0.05426359549164772
-0.05426359176635742 0.9393975138664246 -0.7209302186965942
-0.05426359176635742 0.9475592374801636 -0.7054263353347778
-0.05426359176635742 0.953468382358551 -0.6899224519729614
-0.05426359176635742 0.9512964487075806 -0.1627907156944275
-0.05426359176635742 0.947785496711731 -0.14728683233261108
-0.05426359176635742 0.9430907964706421 -0.13178294897079468
-0.05426359176635742 0.9381644129753113 -0.11627906560897827
-0.05426359176635742 0.956863284111023 -0.674418568611145
-0.05426359176635742 0.9637399911880493 -0.6589146852493286
-0.05426359176635742 0.9675407409667969 -0.643410861492157
-0.05426359176635742 0.9677382111549377 -0.28682172298431396
-0.05426359176635742 0.9668141007423401 -0.27131783962249756
-0.05426359176635742 0.9658406376838684 -0.25581395626068115
-0.05426359176635742 0.9643146395683289 -0.24031007289886475
-0.05426359176635742 0.9622572660446167 -0.22480618953704834
-0.05426359176635742 0.9595340490341187 -0.20930230617523193
-0.05426359176635742 0.9567350149154663 -0.19379842281341553
-0.05426359176635742 0.9535478353500366 -0.1782945990562439
-0.05426359176635742 0.9696873426437378 -0.6279069185256958
-0.05426359176635742 0.9724450707435608 -0.6124030947685242
-0.05426359176635742 0.9757897257804871 -0.596899151802063
-0.05426359176635742 0.9787556529045105 -0.5813953876495361
-0.05426359176635742 0.9810270667076111 -0.5658915042877197
-0.05426359176635742 0.9825501441955566 -0.5503876209259033
-0.05426359176635742 0.9835035800933838 -0.5348837375640869
-0.05426359176635742 0.9838305115699768 -0.5193798542022705
-0.05426359176635742 0.9834007024765015 -0.5038759708404541
-0.05426359176635742 0.9828503727912903 -0.4883720874786377
-0.05426359176635742 0.9821513295173645 -0.4728682041168213
-0.05426359176635742 0.9813268780708313 -0.4573643207550049
-0.05426359176635742 0.9805087447166443 -0.4418604373931885
-0.05426359176635742 0.9796068668365479 -0.42635661363601685
-0.05426359176635742 0.9788988828659058 -0.41085273027420044
-0.05426359176635742 0.9779982566833496 -0.39534884691238403
-0.05426359176635742 0.9768902063369751 -0.3798449635505676
-0.05426359176635742 0.9755921363830566 -0.3643410801887512
-0.05426359176635742 0.9741731882095337 -0.3488371968269348
-0.05426358804106712 0.9724116921424866 -0.333333283662796
-0.05426359176635742 0.9707385301589966 -0.317829430103302
-0.05426359176635742 0.9690735340118408 -0.302325576543808
-0.038759708404541016 -0.28959327936172485 0.4573643207550049
-0.038759708404541016 -0.2844567596912384 0.4418604373931885
-0.038759708404541016 -0.28184032440185547 0.4728682041168213
-0.038759708404541016 -0.25667113065719604 -0.751937985420227
-0.038759708404541016 -0.2573576867580414 -0.7364341020584106
-0.038759708404541016 -0.25688233971595764 -0.7209302186965942
-0.038759708404541016 -0.2690850496292114 0.42635655403137207
-0.038759708404541016 -0.26398494839668274 0.4883720576763153
-0.038759708404541016 -0.24087592959403992 -0.8139535188674927
-0.038759708404541016 -0.24536344408988953 -0.7984496355056763
-0.038759708404541016 -0.2503022253513336 -0.7829457521438599
-0.038759708404541016 -0.2542142868041992 -0.7674418687820435
-0.038759712129831314 -0.2556209862232208 -0.7054263949394226
-0.038759708404541016 -0.25196847319602966 -0.6899224519729614
-0.038759708404541016 -0.24903583526611328 -0.674418568611145
-0.038759708404541016 -0.24544304609298706 -0.6589146852493286
-0.038759708404541016 -0.24221761524677277 -0.643410861492157
-0.038759708404541016 -0.24035407602787018 -0.6279069781303406
-0.038759708404541016 -0.24040789902210236 -0.39534884691238403
-0.038759708404541016 -0.24342088401317596 -0.3798449635505676
-0.038759708404541016 -0.24692556262016296 -0.3643410801887512
-0.038759708404541016 -0.249350905418396 -0.3488371968269348
-0.038759708404541016 -0.2511986494064331 -0.3333333134651184
-0.038759708404541016 -0.2523341178894043 -0.317829430103302
-0.038759708404541016 -0.2524636685848236 -0.30232560634613037
-0.038759708404541016 -0.2517787516117096 -0.28682172298431396
-0.038759708404541016 -0.2507668137550354 -0.27131783962249756
-0.038759708404541016 -0.24925562739372253 -0.25581395626068115
-0.038759708404541016 -0.2477780431509018 -0.24031007289886475
-0.038759708404541016 -0.24701648950576782 -0.22480618953704834
-0.038759708404541016 -0.24666142463684082 -0.20930230617523193
-0.038759708404541016 -0.24664206802845 -0.19379842281341553
-0.038759708404541016 -0.24602055549621582 -0.1782945990562439
-0.038759708404541016 -0.24465222656726837 -0.1627907156944275
-0.038759708404541016 -0.242567777633667 -0.14728683233261108
-0.038759708404541016 -0.24060632288455963 -0.13178294897079468
-0.038759708404541016 -0.25181180238723755 0.41085267066955566
-0.038759708404541016 -0.24296525120735168 0.5038759708404541
-0.038759708404541016 -0.22711829841136932 -0.8449612259864807
-0.038759708404541016 -0.23347051441669464 -0.8294572830200195
-0.038759708404541016 -0.23663851618766785 -0.6124030947685242
-0.038759708404541016 -0.23342138528823853 -0.5968992114067078
-0.038759708404541016 -0.23062348365783691 -0.5813953876495361
-0.038759708404541016 -0.22764772176742554 -0.5658915042877197
-0.038759708404541016 -0.22577832639217377 -0.5503876209259033
-0.038759708404541016 -0.22570137679576874 -0.4728682041168213
-0.038759708404541016 -0.2276991605758667 -0.4573643207550049
-0.038759708404541016 -0.2302367389202118 -0.4418604373931885
-0.038759708404541016 -0.23325994610786438 -0.42635661363601685
-0.038759708404541016 -0.2367439717054367 -0.41085273027420044
-0.038759708404541016 -0.23606646060943604 -0.11627906560897827
-0.038759708404541016 -0.2315618246793747 -0.10077518224716187
-0.038759708404541016 -0.2265286147594452 -0.08527129888534546
-0.038759708404541016 -0.23502930998802185 0.39534878730773926
-0.038759708404541016 -0.21067926287651062 -0.8759690523147583
-0.038759708404541016 -0.21889939904212952 -0.8604650497436523
-0.038759708404541016 -0.22447282075881958 -0.5348837375640869
-0.038759708404541016 -0.22376582026481628 -0.5193798542022705
-0.03875970467925072 -0.22367559373378754 -0.5038759708404541
-0.038759708404541016 -0.224529430270195 -0.4883720874786377
-0.038759708404541016 -0.2223092019557953 -0.06976741552352905
-0.038759708404541016 -0.21783459186553955 -0.05426359176635742
-0.038759708404541016 -0.2137693166732788 -0.038759708404541016
-0.038759708404541016 -0.20972061157226562 -0.02325582504272461
-0.038759708404541016 -0.21622192859649658 0.37984490394592285
-0.038759708404541016 -0.21845346689224243 0.5193798542022705
-0.038759708404541016 -0.1977614015340805 -0.8914728760719299
-0.038759708404541016 -0.2049146443605423 -0.007751941680908203
-0.038759708404541016 -0.19949078559875488 0.007751941680908203
-0.038759708404541016 -0.1944412738084793 0.364341139793396
-0.038759708404541016 -0.18047133088111877 -0.9069767594337463
-0.038759708404541016 -0.1932571977376938 0.02325582504272461
-0.038759708404541016 -0.183665931224823 0.038759708404541016
-0.038759708404541016 -0.19283117353916168 0.5348837375640869
-0.038759708404541016 -0.16931697726249695 0.05426359176635742
-0.038759708404541016 -0.1669553816318512 0.3488372564315796
-0.038759708404541016 -0.1635577529668808 0.5503876209259033
-0.038759708404541016 -0.15413877367973328 -0.9224806427955627
-0.038759708404541016 -0.14726145565509796 0.06976747512817383
-0.038759708404541016 -0.13984966278076172 0.3333333730697632
-0.038759708404541016 -0.11960369348526001 -0.9379844665527344
-0.038759708404541016 -0.11726252734661102 0.08527135848999023
-0.038759708404541016 -0.11910480260848999 0.3178294897079468
-0.038759708404541016 -0.11976205557584763 0.5658915042877197
-0.038759708404541016 -0.10100524127483368 0.30232560634613037
-0.038759708404541016 -0.08547075092792511 0.10077524185180664
-0.038759708404541016 -0.07968379557132721 -0.9534883499145508
-0.038759708404541016 -0.08401928842067719 0.28682172298431396
-0.038759708404541016 -0.08132503181695938 0.5813953876495361
-0.038759708404541016 -0.06616014987230301 0.27131783962249756
-0.038759708404541016 -0.05664495378732681 0.5968992710113525
-0.038759708404541016 -0.05409266799688339 0.11627912521362305
-0.038759708404541016 -0.04566984623670578 0.25581395626068115
-0.038759708404541016 -0.0404280349612236 0.612403154373169
-0.038759708404541016 -0.03411787375807762 -0.9689922332763672
-0.038759708404541016 -0.023434054106473923 0.1317828893661499
-0.038759708404541016 -0.02608484774827957 0.6279069185256958
-0.038759708404541016 -0.018717121332883835 0.24031007289886475
-0.038759708404541016 -0.01050178986042738 0.6434108018875122
-0.038759708404541016 0.007012147456407547 0.6589146852493286
-0.038759708404541016 0.015490609221160412 0.1472867727279663
-0.038759708404541016 0.022156566381454468 0.22480618953704834
-0.038759712129831314 0.024566754698753357 0.674418568611145
-0.038759708404541016 0.040252432227134705 0.6899224519729614
-0.038759708404541016 0.06094490736722946 -0.9844961166381836
-0.038759708404541016 0.06152234971523285 0.16279065608978271
-0.038759708404541016 0.06887080520391464 0.20930230617523193
-0.038759708404541016 0.054507266730070114 0.7054263353347778
-0.038759708404541016 0.06795862317085266 0.7209302186965942
-0.038759708404541016 0.0826704129576683 0.7364341020584106
-0.038759708404541016 0.09266301989555359 0.17829453945159912
-0.038759708404541016 0.09359726309776306 0.19379842281341553
-0.038759708404541016 0.09972169995307922 0.751937985420227
-0.038759708404541016 0.11972495913505554 0.7674418687820435
-0.038759708404541016 0.14416281878948212 0.7829457521438599
-0.038759708404541016 0.17599144577980042 0.7984496355056763
-0.038759708404541016 0.2067890167236328 0.8139535188674927
-0.038759708404541016 0.23350311815738678 0.8294574022293091
-0.038759708404541016 0.26046818494796753 0.8449612855911255
-0.038759708404541016 0.2937527596950531 0.8604651689529419
-0.038759708404541016 0.3843514919281006 0.8604651689529419
-0.038759708404541016 0.4608779847621918 -0.9844961166381836
-0.038759712129831314 0.4731634259223938 0.8449612855911255
-0.038759708404541016 0.5211427211761475 0.8294574022293091
-0.038759708404541016 0.5579724311828613 0.8139535188674927
-0.038759708404541016 0.5933519601821899 0.7984496355056763
-0.038759708404541016 0.6011921167373657 -0.9689922332763672
-0.038759708404541016 0.6234223246574402 0.7829457521438599
-0.038759708404541016 0.6484674215316772 0.7674419283866882
-0.038759708404541016 0.6703661680221558 0.751937985420227
-0.038759708404541016 0.688710629940033 0.7364341020584106
-0.038759708404541016 0.6944875121116638 -0.9534883499145508
-0.038759708404541016 0.7053943276405334 0.7209302186965942
-0.038759708404541016 0.7204316854476929 0.7054263353347778
-0.038759708404541016 0.734363853931427 0.6899224519729614
-0.038759708404541016 0.7377982139587402 -0.9379845261573792
-0.038759708404541016 0.7470473051071167 0.674418568611145
-0.038759708404541016 0.7665401697158813 -0.9224807024002075
-0.038759708404541016 0.7563743591308594 0.17829453945159912
-0.038759708404541016 0.752931535243988 0.19379842281341553
-0.038759708404541016 0.7561599016189575 0.20930232107639313
-0.038759708404541016 0.76418137550354 0.22480618953704834
-0.038759708404541016 0.7589058876037598 0.6589146852493286
-0.038759708404541016 0.7685835957527161 0.16279065608978271
-0.038759708404541016 0.7735188007354736 0.24031007289886475
-0.038759708404541016 0.7826564311981201 0.25581395626068115
-0.038759708404541016 0.7809892296791077 0.6279069185256958
-0.038759708404541016 0.7691166996955872 0.6434108018875122
-0.038759708404541016 0.787225604057312 -0.9069767594337463
-0.038759708404541016 0.7855088710784912 0.1472867727279663
-0.038759708404541016 0.792125940322876 0.27131783962249756
-0.038759708404541016 0.7932274341583252 0.612403154373169
-0.038759708404541016 0.8068360090255737 -0.8914728760719299
-0.038759708404541016 0.8068727254867554 0.1317828893661499
-0.038759708404541016 0.8017629981040955 0.28682172298431396
-0.038759708404541016 0.8102966547012329 0.30232560634613037
-0.038759708404541016 0.8137294054031372 0.5813953876495361
-0.038759708404541016 0.8039941787719727 0.5968992710113525
-0.038759708404541016 0.8233846426010132 -0.8759689927101135
-0.038759708404541016 0.8283975720405579 0.11627912521362305
-0.038759708404541016 0.8222125768661499 0.3178294897079468
-0.038759708404541016 0.8230299949645996 0.5658915042877197
-0.038759708404541016 0.8371049165725708 -0.8604650497436523
-0.038759708404541016 0.8341860771179199 0.3333333730697632
-0.038759708404541016 0.844903826713562 0.3488372564315796
-0.038759708404541016 0.844594419002533 0.5193798542022705
-0.038759708404541016 0.8376421928405762 0.5348837375640869
-0.038759708404541016 0.8307567238807678 0.5503876209259033
-0.038759708404541016 0.8504232168197632 -0.8449611663818359
-0.038759712129831314 0.846657931804657 0.10077524185180664
-0.038759708404541016 0.8563933372497559 0.364341139793396
-0.038759708404541016 0.8553687334060669 0.4883720874786377
-0.038759708404541016 0.8490961790084839 0.5038759708404541
-0.038759708404541016 0.8634517788887024 -0.8294573426246643
-0.038759708404541016 0.8743433952331543 0.06976747512817383
-0.038759708404541016 0.8614841103553772 0.08527135848999023
-0.038759708404541016 0.8650879263877869 0.37984490394592285
-0.038759708404541016 0.8712602257728577 0.39534878730773926
-0.038759708404541016 0.8733909130096436 0.41085267066955566
-0.038759708404541016 0.8729120492935181 0.42635655403137207
-0.038759708404541016 0.8697994947433472 0.4418604373931885
-0.038759708404541016 0.8648867011070251 0.4573643207550049
-0.038759708404541016 0.8606184720993042 0.4728682041168213
-0.038759708404541016 0.8775201439857483 -0.8139535188674927
-0.038759708404541016 0.8914501070976257 -0.7984496355056763
-0.038759708404541016 0.8860089778900146 0.05426359176635742
-0.038759708404541016 0.9035846590995789 -0.7829457521438599
-0.038759708404541016 0.904554009437561 0.02325582504272461
-0.038759708404541016 0.8956727981567383 0.038759708404541016
-0.038759708404541016 0.9127383828163147 -0.7674418687820435
-0.038759708404541016 0.9220992922782898 -0.038759708404541016
-0.038759708404541016 0.9187635183334351 -0.02325582504272461
-0.038759708404541016 0.9148958921432495 -0.007751941680908203
-0.038759708404541016 0.9102396368980408 0.007751941680908203
-0.038759708404541016 0.9235435724258423 -0.751937985420227
-0.038759708404541016 0.9336581230163574 -0.7364341020584106
-0.038759708404541016 0.9352918863296509 -0.10077518224716187
-0.038759708404541016 0.9312107563018799 -0.08527129888534546
-0.038759708404541016 0.9272910356521606 -0.06976741552352905
-0.038759708404541016 0.9241727590560913 -0.05426359176635742
-0.038759708404541016 0.9396593570709229 -0.7209302186965942
-0.038759708404541016 0.9483964443206787 -0.7054263353347778
-0.038759708404541016 0.9515209197998047 -0.1627907156944275
-0.038759708404541016 0.9480290412902832 -0.14728683233261108
-0.038759708404541016 0.9433258771896362 -0.13178294897079468
-0.03875970467925072 0.9384125471115112 -0.11627906560897827
-0.038759708404541016 0.953751266002655 -0.6899224519729614
-0.038759708404541016 0.957730770111084 -0.674418568611145
-0.038759708404541016 0.9645677208900452 -0.6589146852493286
-0.038759708404541016 0.9679172039031982 -0.643410861492157
-0.038759708404541016 0.9680254459381104 -0.28682172298431396
-0.038759708404541016 0.9670209884643555 -0.27131783962249756
-0.038759708404541016 0.9661146998405457 -0.25581395626068115
-0.038759708404541016 0.9646416902542114 -0.24031007289886475
-0.038759708404541016 0.962626576423645 -0.22480618953704834
-0.038759708404541016 0.9599097967147827 -0.20930230617523193
-0.038759708404541016 0.9571001529693604 -0.19379840791225433
-0.03875970467925072 0.9538917541503906 -0.1782945990562439
-0.038759708404541016 0.9700714349746704 -0.6279070377349854
-0.038759708404541016 0.9733264446258545 -0.6124030947685242
-0.038759708404541016 0.9766429662704468 -0.5968992114067078
-0.038759708404541016 0.9796086549758911 -0.5813953876495361
-0.038759708404541016 0.9818328022956848 -0.5658915042877197
-0.038759708404541016 0.9833462238311768 -0.5503876209259033
-0.038759708404541016 0.984288215637207 -0.5348837375640869
-0.038759708404541016 0.9841606020927429 -0.5038759708404541
-0.038759708404541016 0.9835886359214783 -0.4883720874786377
-0.038759708404541016 0.9828776121139526 -0.4728682041168213
-0.038759708404541016 0.9820373058319092 -0.4573643207550049
-0.038759708404541016 0.981220006942749 -0.4418604373931885
-0.038759708404541016 0.9803090691566467 -0.42635661363601685
-0.038759708404541016 0.9795913696289062 -0.41085273027420044
-0.038759708404541016 0.9786759614944458 -0.39534884691238403
-0.038759708404541016 0.9775600433349609 -0.3798449635505676
-0.038759708404541016 0.976226806640625 -0.3643410801887512
-0.038759708404541016 0.9747526049613953 -0.3488371968269348
-0.038759708404541016 0.97291499376297 -0.3333333134651184
-0.038759708404541016 0.9711612462997437 -0.317829430103302
-0.038759712129831314 0.9694576263427734 -0.30232560634613037
-0.038759708404541016 0.9845205545425415 -0.5193798542022705
-0.02325582504272461 -0.3062182366847992 0.4418604373931885
-0.02325582504272461 -0.31033211946487427 0.4573643207550049
-0.02325582504272461 -0.29817235469818115 0.4728682041168213
-0.02325582504272461 -0.2822146713733673 0.4263565242290497
-0.02325582504272461 -0.2726495563983917 0.4883720874786377
-0.02325582504272461 -0.2570539712905884 -0.751937985420227
-0.02325582504272461 -0.2576862573623657 -0.7364341020584106
-0.02325582504272461 -0.2571246027946472 -0.7209302186965942
-0.02325582504272461 -0.2559047043323517 -0.7054263353347778
-0.02325582504272461 -0.25750529766082764 0.41085267066955566
-0.02325582504272461 -0.24147386848926544 -0.8139535188674927
-0.02325582504272461 -0.24604257941246033 -0.7984496355056763
-0.02325582504272461 -0.2510001063346863 -0.7829457521438599
-0.02325582504272461 -0.25510847568511963 -0.7674418687820435
-0.02325582504272461 -0.25221243500709534 -0.6899224519729614
-0.02325582504272461 -0.24921007454395294 -0.674418568611145
-0.02325582504272461 -0.24561671912670135 -0.6589146852493286
-0.02325582504272461 -0.2422434389591217 -0.643410861492157
-0.02325582504272461 -0.24261069297790527 -0.3798449635505676
-0.02325582504272461 -0.24623438715934753 -0.3643410801887512
-0.02325582504272461 -0.24891093373298645 -0.3488371968269348
-0.02325582504272461 -0.2507496178150177 -0.3333333134651184
-0.02325582504272461 -0.2518080472946167 -0.317829430103302
-0.02325582504272461 -0.25190746784210205 -0.30232560634613037
-0.02325582690536976 -0.25131726264953613 -0.28682172298431396
-0.02325582504272461 -0.250336229801178 -0.27131783962249756
-0.02325582504272461 -0.2487296760082245 -0.25581395626068115
-0.02325582504272461 -0.24722760915756226 -0.24031007289886475
-0.02325582504272461 -0.2464522421360016 -0.22480618953704834
-0.02325582504272461 -0.2460513859987259 -0.20930230617523193
-0.02325582504272461 -0.24598616361618042 -0.19379842281341553
-0.02325582504272461 -0.2453676462173462 -0.1782945990562439
-0.02325582504272461 -0.2441481351852417 -0.1627907156944275
-0.02325582504272461 -0.24230551719665527 -0.14728683233261108
-0.02325582504272461 -0.2405310869216919 -0.13178294897079468
-0.02325582504272461 -0.2465418577194214 0.5038759708404541
-0.02325582504272461 -0.2277449667453766 -0.8449612259864807
-0.02325582504272461 -0.23435156047344208 -0.8294572830200195
-0.02325582504272461 -0.2402866929769516 -0.6279069781303406
-0.02325582504272461 -0.23645544052124023 -0.6124030947685242
-0.02325582504272461 -0.23314392566680908 -0.5968992114067078
-0.02325582504272461 -0.23002538084983826 -0.5813953876495361
-0.02325582504272461 -0.22687041759490967 -0.5658915042877197
-0.02325582504272461 -0.22506067156791687 -0.5503876209259033
-0.02325582504272461 -0.2248445749282837 -0.4728682041168213
-0.02325582504272461 -0.226721853017807 -0.4573643207550049
-0.02325582504272461 -0.22938254475593567 -0.4418604373931885
-0.02325582504272461 -0.23235982656478882 -0.42635661363601685
-0.02325582504272461 -0.2358545958995819 -0.41085270047187805
-0.02325582504272461 -0.23946966230869293 -0.39534884691238403
-0.02325582504272461 -0.23585312068462372 -0.11627906560897827
-0.02325582504272461 -0.23139925301074982 -0.10077518224716187
-0.02325582504272461 -0.2265658676624298 -0.08527129888534546
-0.02325582504272461 -0.23787768185138702 0.39534878730773926
-0.02325582504272461 -0.21113812923431396 -0.8759689927101135
-0.02325582504272461 -0.21970099210739136 -0.8604651093482971
-0.02325582504272461 -0.22336217761039734 -0.5348837375640869
-0.02325582318007946 -0.22261430323123932 -0.5193798542022705
-0.02325582504272461 -0.22244702279567719 -0.5038759708404541
-0.02325582504272461 -0.22323504090309143 -0.4883720874786377
-0.02325582504272461 -0.2224581241607666 -0.06976741552352905
-0.02325582504272461 -0.21787992119789124 -0.05426359176635742
-0.02325582504272461 -0.21381284296512604 -0.038759708404541016
-0.02325582504272461 -0.20985092222690582 -0.02325582504272461
-0.02325582504272461 -0.21711373329162598 0.37984490394592285
-0.02325582504272461 -0.22041349112987518 0.5193798542022705
-0.02325582504272461 -0.19826698303222656 -0.8914728760719299
-0.02325582504272461 -0.20493166148662567 -0.007751941215246916
-0.02325582504272461 -0.19933195412158966 0.007751941680908203
-0.02325582504272461 -0.19457727670669556 0.364341139793396
-0.02325582504272461 -0.19412663578987122 0.5348837375640869
-0.02325582504272461 -0.18093644082546234 -0.9069767594337463
-0.02325582504272461 -0.19297368824481964 0.02325582504272461
-0.02325582504272461 -0.18319204449653625 0.038759708404541016
-0.02325582504272461 -0.16856417059898376 0.05426359176635742
-0.02325582504272461 -0.1669425219297409 0.3488372564315796
-0.02325582504272461 -0.16387368738651276 0.5503876209259033
-0.02325582504272461 -0.1546172797679901 -0.9224806427955627
-0.02325582504272461 -0.14625431597232819 0.06976747512817383
-0.02325582504272461 -0.13979899883270264 0.3333333730697632
-0.02325582504272461 -0.11992022395133972 -0.9379844665527344
-0.02325582504272461 -0.11686275154352188 0.08527135848999023
-0.02325582504272461 -0.11930406093597412 0.3178294897079468
-0.02325582504272461 -0.11845463514328003 0.5658915042877197
-0.02325582504272461 -0.10138709098100662 0.30232560634613037
-0.02325582504272461 -0.08577185124158859 0.10077524185180664
-0.02325582504272461 -0.07999734580516815 -0.9534883499145508
-0.02325582504272461 -0.08469720184803009 0.28682172298431396
-0.02325582504272461 -0.07954012602567673 0.5813953876495361
-0.02325582504272461 -0.05500669404864311 0.11627912521362305
-0.02325582318007946 -0.0668230652809143 0.27131783962249756
-0.02325582504272461 -0.05576948821544647 0.5968992710113525
-0.02325582504272461 -0.0463259331882 0.25581395626068115
-0.02325582504272461 -0.04052652418613434 0.612403154373169
-0.02325582504272461 -0.0340326726436615 -0.9689922332763672
-0.02325582504272461 -0.02470293827354908 0.1317828893661499
-0.02325582504272461 -0.026435628533363342 0.6279069185256958
-0.02325582504272461 -0.020091285929083824 0.24031007289886475
-0.02325582504272461 -0.010969921946525574 0.6434108018875122
-0.02325582504272461 0.006317217834293842 0.6589146852493286
-0.02325582504272461 0.013607577420771122 0.1472867727279663
-0.02325582504272461 0.02003989741206169 0.22480618953704834
-0.02325582504272461 0.023828357458114624 0.674418568611145
-0.02325582504272461 0.039424411952495575 0.6899224519729614
-0.02325582504272461 0.053400930017232895 0.7054263353347778
-0.02325582504272461 0.06312288343906403 -0.9844961166381836
-0.02325582504272461 0.06040620803833008 0.16279065608978271
-0.02325582504272461 0.06781193614006042 0.20930230617523193
-0.02325582504272461 0.06677989661693573 0.7209302186965942
-0.02325582504272461 0.08147082477807999 0.7364341020584106
-0.02325582504272461 0.09222471714019775 0.17829453945159912
-0.02325582504272461 0.09327024221420288 0.19379842281341553
-0.02325582504272461 0.09852845221757889 0.751937985420227
-0.02325582504272461 0.11848039925098419 0.7674418687820435
-0.02325582504272461 0.1430182307958603 0.7829457521438599
-0.02325582504272461 0.17476947605609894 0.7984496355056763
-0.02325582504272461 0.20582351088523865 0.8139535188674927
-0.02325582504272461 0.23283569514751434 0.8294574022293091
-0.02325582504272461 0.2593679428100586 0.8449612855911255
-0.02325582504272461 0.29032596945762634 0.8604651689529419
-0.02325582504272461 0.38701921701431274 0.8604651689529419
-0.02325582504272461 0.4601263701915741 -0.9844961166381836
-0.02325582504272461 0.4768208861351013 0.8449612855911255
-0.02325582504272461 0.5240759253501892 0.8294574022293091
-0.02325582504272461 0.559812068939209 0.8139535188674927
-0.02325582504272461 0.5944552421569824 0.7984496355056763
-0.02325582504272461 0.6014472246170044 -0.9689922332763672
-0.02325582504272461 0.6244592666625977 0.7829457521438599
-0.02325582504272461 0.6497862339019775 0.7674418687820435
-0.02325582504272461 0.6718212366104126 0.751937985420227
-0.02325582504272461 0.6949406862258911 -0.9534883499145508
-0.02325582504272461 0.6900100111961365 0.7364341020584106
-0.02325582690536976 0.7065755128860474 0.7209302186965942
-0.02325582504272461 0.735296905040741 0.6899224519729614
-0.02325582504272461 0.7215120196342468 0.7054262757301331
-0.02325582504272461 0.7381766438484192 -0.9379844665527344
-0.02325582504272461 0.7479122281074524 0.674418568611145
-0.02325582504272461 0.7672085165977478 -0.9224806427955627
-0.02325582504272461 0.7553174495697021 0.17829453945159912
-0.02325582504272461 0.7522505521774292 0.19379840791225433
-0.02325582504272461 0.7556995153427124 0.20930230617523193
-0.02325582504272461 0.7639841437339783 0.22480618953704834
-0.02325582504272461 0.7597353458404541 0.6589146852493286
-0.02325582504272461 0.767737090587616 0.16279065608978271
-0.02325582504272461 0.7733798027038574 0.24031007289886475
-0.02325582504272461 0.7825025916099548 0.25581395626068115
-0.02325582504272461 0.7815076112747192 0.6279069185256958
-0.02325582504272461 0.7698391079902649 0.6434108018875122
-0.02325582690536976 0.7877488732337952 -0.9069768190383911
-0.02325582504272461 0.7845016717910767 0.1472867727279663
-0.02325582504272461 0.7921257615089417 0.27131783962249756
-0.02325582504272461 0.7937986850738525 0.612403154373169
-0.02325582504272461 0.8076795935630798 -0.8914728164672852
-0.02325582504272461 0.806010365486145 0.1317828893661499
-0.02325582504272461 0.8017665147781372 0.28682172298431396
-0.02325582504272461 0.8103397488594055 0.30232560634613037
-0.02325582504272461 0.8047130107879639 0.5968992710113525
-0.02325582504272461 0.8239593505859375 -0.8759689331054688
-0.02325582504272461 0.8279675841331482 0.11627912521362305
-0.02325582504272461 0.8221797347068787 0.3178294897079468
-0.02325582504272461 0.8236712217330933 0.5658915042877197
-0.02325582318007946 0.8142365217208862 0.5813953876495361
-0.02325582504272461 0.8375895023345947 -0.8604651093482971
-0.02325582504272461 0.8341915011405945 0.3333333730697632
-0.02325582504272461 0.8383557796478271 0.5348837375640869
-0.02325582504272461 0.8312208652496338 0.5503876209259033
-0.02325582504272461 0.8508154153823853 -0.8449612259864807
-0.02325582504272461 0.8466700315475464 0.10077524185180664
-0.02325582504272461 0.8451535105705261 0.3488372564315796
-0.02325582504272461 0.8565632104873657 0.364341139793396
-0.02325582504272461 0.8561997413635254 0.4883720874786377
-0.02325582504272461 0.8498759269714355 0.5038759708404541
-0.02325582504272461 0.8451631665229797 0.5193798542022705
-0.02325582504272461 0.8636701703071594 -0.8294573426246643
-0.02325582504272461 0.8747550845146179 0.06976747512817383
-0.02325582504272461 0.8617698550224304 0.08527135848999023
-0.02325582504272461 0.865670919418335 0.37984490394592285
-0.02325582504272461 0.8719136714935303 0.39534878730773926
-0.02325582504272461 0.8742502927780151 0.41085267066955566
-0.02325582504272461 0.8741990327835083 0.42635655403137207
-0.02325582504272461 0.871543824672699 0.4418604373931885
-0.02325582504272461 0.8664848804473877 0.4573643207550049
-0.02325582318007946 0.8612578511238098 0.4728681743144989
-0.02325582504272461 0.8776911497116089 -0.8139535188674927
-0.02325582504272461 0.8865543603897095 0.05426359176635742
-0.02325582504272461 0.8915883302688599 -0.7984496355056763
-0.02325582504272461 0.9038118124008179 -0.7829457521438599
-0.02325582504272461 0.9050268530845642 0.02325582504272461
-0.02325582504272461 0.896108865737915 0.038759708404541016
-0.02325582504272461 0.9131632447242737 -0.7674418687820435
-0.02325582504272461 0.9193026423454285 -0.02325582504272461
-0.02325582504272461 0.9153404831886292 -0.007751941680908203
-0.02325582504272461 0.910621166229248 0.007751941680908203
-0.02325582504272461 0.9236997961997986 -0.751937985420227
-0.02325582504272461 0.9341803193092346 -0.7364341020584106
-0.02325582504272461 0.9356433153152466 -0.10077518224716187
-0.02325582504272461 0.9315731525421143 -0.08527129888534546
-0.02325582504272461 0.9276286959648132 -0.06976741552352905
-0.02325582504272461 0.9245527386665344 -0.05426358804106712
-0.02325582504272461 0.9224967360496521 -0.038759708404541016
-0.02325582504272461 0.9399253129959106 -0.7209302186965942
-0.02325582504272461 0.9491294622421265 -0.7054263353347778
-0.02325582504272461 0.9518492817878723 -0.1627907156944275
-0.02325582504272461 0.9484377503395081 -0.14728683233261108
-0.02325582504272461 0.9437485933303833 -0.13178294897079468
-0.02325582504272461 0.9388233423233032 -0.11627906560897827
-0.02325582504272461 0.9540416598320007 -0.6899224519729614
-0.02325582504272461 0.9586687088012695 -0.674418568611145
-0.02325582504272461 0.9653536081314087 -0.6589146852493286
-0.02325582504272461 0.9683279991149902 -0.643410861492157
-0.02325582504272461 0.96845543384552 -0.28682172298431396
-0.02325582504272461 0.9673001766204834 -0.27131783962249756
-0.02325582504272461 0.9664689898490906 -0.25581395626068115
-0.02325582504272461 0.9650974869728088 -0.24031007289886475
-0.02325582504272461 0.9631634950637817 -0.22480618953704834
-0.02325582504272461 0.9604861736297607 -0.20930230617523193
-0.02325582318007946 0.9576518535614014 -0.19379840791225433
-0.02325582504272461 0.9544318914413452 -0.1782945990562439
-0.02325582504272461 0.9706088304519653 -0.6279069781303406
-0.02325582504272461 0.9743499755859375 -0.6124030947685242
-0.02325582504272461 0.9776926040649414 -0.5968992114067078
-0.02325582504272461 0.9806363582611084 -0.5813953876495361
-0.02325582504272461 0.9828144907951355 -0.5658915042877197
-0.02325582504272461 0.9843236207962036 -0.5503876209259033
-0.02325582504272461 0.9844411611557007 -0.4883720874786377
-0.02325582504272461 0.9837138056755066 -0.4728682041168213
-0.02325582504272461 0.9828766584396362 -0.4573643207550049
-0.02325582504272461 0.9820816516876221 -0.4418604373931885
-0.02325582504272461 0.9811738133430481 -0.42635661363601685
-0.02325582504272461 0.9804655313491821 -0.41085273027420044
-0.02325582504272461 0.9795427322387695 -0.39534884691238403
-0.02325582504272461 0.9784299731254578 -0.3798449635505676
-0.02325582504272461 0.9770764112472534 -0.3643410801887512
-0.02325582504272461 0.9755600094795227 -0.3488371968269348
-0.02325582504272461 0.9736453294754028 -0.3333333134651184
-0.02325582504272461 0.9717742204666138 -0.3178294003009796
-0.02325582504272461 0.9700108766555786 -0.30232560634613037
-0.02325582504272461 0.984667956829071 -0.5348837375640869
-0.02325582504272461 0.9847313761711121 -0.5193798542022705
-0.02325582504272461 0.9846270084381104 -0.5038759708404541
-0.007751941680908203 -0.31947416067123413 0.4418604373931885
-0.007751941680908203 -0.3223874866962433 0.4573643207550049
-0.007751941680908203 -0.3106783628463745 0.4728682041168213
-0.007751941680908203 -0.29687124490737915 0.42635655403137207
-0.007751941680908203 -0.281006783246994 0.4883720874786377
-0.007751941680908203 -0.25702977180480957 -0.751937985420227
-0.007751941680908203 -0.2576299011707306 -0.7364341020584106
-0.007751941680908203 -0.2570613622665405 -0.7209302186965942
-0.007751941680908203 -0.2558492422103882 -0.7054263353347778
-0.007751941680908203 -0.2609489858150482 0.41085267066955566
-0.007751941680908203 -0.24164077639579773 -0.8139535188674927
-0.007751941680908203 -0.24616217613220215 -0.7984496355056763
-0.007751941680908203 -0.25107723474502563 -0.7829457521438599
-0.007751941680908203 -0.2551637589931488 -0.7674418687820435
-0.007751941680908203 -0.252098947763443 -0.6899224519729614
-0.007751941680908203 -0.24908527731895447 -0.674418568611145
-0.007751941680908203 -0.24550041556358337 -0.6589146852493286
-0.007751941680908203 -0.24213793873786926 -0.6434109210968018
-0.007751941680908203 -0.2420743852853775 -0.3798449635505676
-0.007751941680908203 -0.24566680192947388 -0.3643410801887512
-0.007751941680908203 -0.24863700568675995 -0.3488371968269348
-0.007751941680908203 -0.2505549192428589 -0.3333333134651184
-0.007751941680908203 -0.2515336275100708 -0.317829430103302
-0.00775194214656949 -0.2515545189380646 -0.30232560634613037
-0.007751941680908203 -0.25103652477264404 -0.28682172298431396
-0.007751941680908203 -0.2500690221786499 -0.27131783962249756
-0.00775194214656949 -0.24848194420337677 -0.25581395626068115
-0.007751941680908203 -0.2470274567604065 -0.24031007289886475
-0.007751941680908203 -0.24625954031944275 -0.22480618953704834
-0.007751941680908203 -0.24581795930862427 -0.20930230617523193
-0.007751941680908203 -0.24570336937904358 -0.19379842281341553
-0.007751941680908203 -0.2450537383556366 -0.1782945990562439
-0.007751941680908203 -0.24389250576496124 -0.1627907156944275
-0.007751941680908203 -0.2421409636735916 -0.14728683233261108
-0.007751941680908203 -0.24044454097747803 -0.13178294897079468
-0.007751941680908203 -0.2486347258090973 0.5038759708404541
-0.007751941680908203 -0.2279832661151886 -0.8449612855911255
-0.007751941680908203 -0.23465624451637268 -0.8294574022293091
-0.00775194214656949 -0.24005953967571259 -0.6279070377349854
