-0.25581395626068115 0.5346391201019287 -0.8604651093482971
-0.25581395626068115 0.5251964926719666 0.06976747512817383
-0.25581395626068115 0.524242103099823 0.3333333730697632
-0.25581395626068115 0.5331128239631653 0.5813953876495361
-0.25581395626068115 0.5254547595977783 0.5968992710113525
-0.25581395626068115 0.5482668876647949 -0.8449612259864807
-0.25581395626068115 0.5415611863136292 0.05426359176635742
-0.25581395626068115 0.536677360534668 0.3488372564315796
-0.25581395626068115 0.5465260148048401 0.364341139793396
-0.25581395626068115 0.5482931137084961 0.5503876209259033
-0.25581395626068115 0.5425575971603394 0.5658915042877197
-0.25581395626068115 0.5568761825561523 -0.8294572830200195
-0.25581395626068115 0.5658668279647827 -0.8139535188674927
-0.25581395626068115 0.5618398189544678 0.02325582504272461
-0.25581395626068115 0.5534240007400513 0.038759708404541016
-0.25581395626068115 0.5538108944892883 0.37984490394592285
-0.25581395626068115 0.560167133808136 0.39534878730773926
-0.25581395626068115 0.5643405318260193 0.41085267066955566
-0.25581395626068115 0.5633677244186401 0.5038759708404541
-0.25581395626068115 0.5606198906898499 0.5193798542022705
-0.25581395626068115 0.5548628568649292 0.5348837375640869
-0.25581395626068115 0.5750792026519775 -0.7984496355056763
-0.25581395626068115 0.5806013941764832 -0.7829457521438599
-0.25581395626068115 0.5790161490440369 -0.038759708404541016
-0.25581395626068115 0.5767266750335693 -0.02325582504272461
-0.25581395626068115 0.5741355419158936 -0.007751941680908203
-0.25581395626068115 0.5683606863021851 0.007751941680908203
-0.25581395626068115 0.5666047930717468 0.42635655403137207
-0.25581395626068115 0.5676787495613098 0.4418604373931885
-0.25581395626068115 0.5680596828460693 0.4573643207550049
-0.25581395626068115 0.567582905292511 0.4728682041168213
-0.25581395626068115 0.5661004185676575 0.4883720874786377
-0.25581395626068115 0.5874509811401367 -0.7674418687820435
-0.25581395626068115 0.5938836932182312 -0.751937985420227
-0.25581395626068115 0.5964352488517761 -0.7364341020584106
-0.25581395626068115 0.5948827862739563 -0.11627906560897827
-0.25581395626068115 0.5923182964324951 -0.10077518224716187
-0.25581395626068115 0.5897128582000732 -0.08527129888534546
-0.25581395626068115 0.5853756666183472 -0.06976741552352905
-0.25581395626068115 0.581779956817627 -0.05426359549164772
-0.25581395626068115 0.6013983488082886 -0.7209301590919495
-0.25581395626068115 0.6065399050712585 -0.7054263353347778
-0.25581395626068115 0.6090466380119324 -0.6899224519729614
-0.25581395626068115 0.611046314239502 -0.674418568611145
-0.25581395626068115 0.611461341381073 -0.19379842281341553
-0.25581395626068115 0.609582781791687 -0.1782945990562439
-0.25581395626068115 0.6077990531921387 -0.1627907156944275
-0.25581395626068115 0.6045548915863037 -0.14728683233261108
-0.25581395626068115 0.5994800925254822 -0.13178294897079468
-0.25581395626068115 0.6140322685241699 -0.6589146852493286
-0.25581395626068115 0.6172536611557007 -0.643410861492157
-0.25581395626068115 0.6205044984817505 -0.6279069781303406
-0.25581395626068115 0.622840166091919 -0.6124030947685242
-0.25581395626068115 0.6241700649261475 -0.5968992114067078
-0.25581395626068115 0.6249216198921204 -0.5813953876495361
-0.25581395626068115 0.6258832216262817 -0.5658915042877197
-0.25581395626068115 0.6267563104629517 -0.5503876209259033
-0.25581395626068115 0.6272607445716858 -0.5348837375640869
-0.25581395626068115 0.6276064515113831 -0.5193798542022705
-0.25581395626068115 0.6274952292442322 -0.5038759708404541
-0.25581395626068115 0.6274776458740234 -0.4883720874786377
-0.25581395626068115 0.6274594068527222 -0.4728682041168213
-0.25581395626068115 0.6276819705963135 -0.4573643207550049
-0.25581395626068115 0.6278636455535889 -0.4418604373931885
-0.25581395626068115 0.6278111338615417 -0.39534884691238403
-0.25581395626068115 0.6275588870048523 -0.3798449635505676
-0.25581395626068115 0.6272100210189819 -0.3643410801887512
-0.25581395626068115 0.6267384886741638 -0.3488371968269348
-0.25581395626068115 0.6259655356407166 -0.3333333134651184
-0.25581395626068115 0.6250771284103394 -0.317829430103302
-0.25581395626068115 0.6243309378623962 -0.30232560634613037
-0.25581395626068115 0.6235294938087463 -0.28682172298431396
-0.25581395626068115 0.6222785711288452 -0.27131783962249756
-0.25581395626068115 0.6201906204223633 -0.25581395626068115
-0.25581395626068115 0.6179982423782349 -0.24031007289886475
-0.25581395626068115 0.6156882047653198 -0.22480618953704834
-0.25581395626068115 0.6132097840309143 -0.20930230617523193
-0.25581395626068115 0.6279444694519043 -0.42635664343833923
-0.25581395626068115 0.6279959678649902 -0.41085273027420044
-0.24031007289886475 -0.5516357421875 -0.8294573426246643
-0.24031007289886475 -0.5556082725524902 -0.8139535188674927
-0.24031007289886475 -0.5588864684104919 -0.7984496355056763
-0.24031007289886475 -0.5624257326126099 -0.7829457521438599
-0.24031007289886475 -0.564038872718811 -0.7674418687820435
-0.24031005799770355 -0.5623672604560852 -0.751937985420227
-0.24031007289886475 -0.5570935606956482 -0.7364341020584106
-0.24031007289886475 -0.5359089970588684 -0.8604651093482971
-0.24031007289886475 -0.544205904006958 -0.8449611663818359
-0.24031007289886475 -0.5469751954078674 -0.7209302186965942
-0.24031007289886475 -0.5234427452087402 -0.8759689927101135
-0.24031007289886475 -0.5326687097549438 -0.7054263353347778
-0.24031007289886475 -0.5079984664916992 -0.8914728760719299
-0.24031007289886475 -0.5115340948104858 -0.6899224519729614
-0.24031007289886475 -0.4885505437850952 -0.9069767594337463
-0.24031007289886475 -0.48487553000450134 -0.6744185090065002
-0.24031005799770355 -0.4661412537097931 -0.922480583190918
-0.24031007289886475 -0.44750750064849854 -0.6589146852493286
-0.24031007289886475 -0.43664151430130005 -0.9379844665527344
-0.24031007289886475 -0.39272433519363403 -0.953488290309906
-0.24031007289886475 -0.3644835352897644 -0.643410861492157
-0.24031007289886475 -0.32909077405929565 -0.9689922332763672
-0.24031007289886475 -0.2654227018356323 -0.6279069781303406
-0.24031007289886475 -0.1866607964038849 -0.6124030947685242
-0.24031007289886475 -0.1704273521900177 -0.9844961166381836
-0.24031007289886475 -0.16853299736976624 -0.5968992114067078
-0.24031008780002594 -0.15690754354000092 -0.5813953876495361
-0.24031007289886475 -0.14886006712913513 -0.5658915042877197
-0.24031007289886475 -0.1426316499710083 -0.5503876209259033
-0.24031007289886475 -0.13893935084342957 -0.5348837375640869
-0.24031007289886475 -0.1367148607969284 -0.5193798542022705
-0.24031007289886475 -0.13548292219638824 -0.5038759708404541
-0.24031007289886475 -0.13487668335437775 -0.4883720874786377
-0.24031007289886475 -0.13443484902381897 -0.4728682041168213
-0.24031007289886475 -0.13430513441562653 -0.4573643207550049
-0.24031007289886475 -0.13421666622161865 -0.4418604373931885
-0.24031007289886475 -0.13440991938114166 -0.42635661363601685
-0.24031007289886475 -0.13495463132858276 -0.41085273027420044
-0.24031007289886475 -0.13559038937091827 -0.39534884691238403
-0.24031007289886475 -0.13620677590370178 -0.3798449635505676
-0.24031007289886475 -0.13687485456466675 -0.3643410801887512
-0.24031007289886475 -0.13715608417987823 -0.3488371968269348
-0.24031007289886475 -0.13680477440357208 -0.3333333134651184
-0.24031007289886475 -0.1360081285238266 -0.317829430103302
-0.24031007289886475 -0.13493484258651733 -0.30232560634613037
-0.24031007289886475 -0.13349221646785736 -0.28682172298431396
-0.24031007289886475 -0.1322297602891922 -0.27131783962249756
-0.24031007289886475 -0.13020433485507965 -0.25581395626068115
-0.24031007289886475 -0.1280469298362732 -0.24031007289886475
-0.24031007289886475 -0.1261548101902008 -0.22480618953704834
-0.24031007289886475 -0.12359160929918289 -0.20930230617523193
-0.24031007289886475 -0.12016011774539948 -0.19379842281341553
-0.24031007289886475 -0.11637610197067261 -0.1782945990562439
-0.24031007289886475 -0.11224954575300217 -0.1627907156944275
-0.24031008780002594 -0.10890039801597595 -0.14728683233261108
-0.24031007289886475 -0.10467986017465591 -0.13178294897079468
-0.24031007289886475 -0.10018795728683472 -0.11627906560897827
-0.24031007289886475 -0.0966939777135849 -0.10077518224716187
-0.24031007289886475 -0.09408722072839737 -0.08527129888534546
-0.24031007289886475 -0.09195436537265778 -0.06976741552352905
-0.24031007289886475 -0.08984833210706711 -0.05426359176635742
-0.24031007289886475 -0.0874299481511116 -0.038759708404541016
-0.24031007289886475 -0.08541698753833771 -0.02325582504272461
-0.24031007289886475 -0.08529724925756454 0.39534878730773926
-0.24031007289886475 -0.08959770202636719 0.41085267066955566
-0.24031007289886475 -0.08936163783073425 0.42635655403137207
-0.24031007289886475 -0.08660014718770981 0.4418604373931885
-0.24031007289886475 -0.08228105306625366 -0.007751941680908203
-0.24031007289886475 -0.07826239615678787 0.007751941215246916
-0.24031007289886475 -0.07221019268035889 0.02325582504272461
-0.24031007289886475 -0.07969193160533905 0.37984490394592285
-0.24031007289886475 -0.0815410166978836 0.4573643207550049
-0.24031007289886475 -0.07337924093008041 0.4728682041168213
-0.24031007289886475 -0.06175663322210312 0.038759708404541016
-0.24031007289886475 -0.06807228177785873 0.364341139793396
-0.24031007289886475 -0.06426607072353363 0.4883720874786377
-0.24031007289886475 -0.05533643066883087 0.5038759708404541
-0.24031007289886475 -0.04763609170913696 -0.9844961166381836
-0.24031007289886475 -0.044246017932891846 0.05426359176635742
-0.24031007289886475 -0.05246390029788017 0.3488372564315796
-0.24031007289886475 -0.048385195434093475 0.5193798542022705
-0.24031007289886475 -0.04150168225169182 0.5348837375640869
-0.24031007289886475 -0.03303270787000656 0.3333333730697632
-0.24031007289886475 -0.03419606387615204 0.5503876209259033
-0.24031007289886475 -0.027133140712976456 0.5658915042877197
-0.24031007289886475 -0.017210133373737335 0.06976747512817383
-0.24031007289886475 -0.011152153834700584 0.3178294897079468
-0.24031007289886475 -0.022065160796046257 0.5813953876495361
-0.24031007289886475 -0.013289799913764 0.5968992710113525
-0.24031007289886475 -0.0055990079417824745 0.612403154373169
-0.24031007289886475 0.018250392749905586 0.30232560634613037
-0.24031007289886475 0.012074570171535015 0.6279069185256958
-0.24031007289886475 0.025930918753147125 0.08527135848999023
-0.24031007289886475 0.03863447159528732 0.6434108018875122
-0.24031007289886475 0.04753020405769348 0.28682172298431396
-0.24031007289886475 0.06677050143480301 0.10077524185180664
-0.24031007289886475 0.05739383026957512 0.6589146852493286
-0.24031007289886475 0.07226487994194031 0.27131783962249756
-0.24031007289886475 0.0772961676120758 0.674418568611145
-0.24031007289886475 0.0988507866859436 -0.9689922332763672
-0.24031007289886475 0.09405960887670517 0.25581395626068115
-0.24031007289886475 0.09460695087909698 0.6899224519729614
-0.24031007289886475 0.10147363692522049 0.11627912521362305
-0.24031007289886475 0.11032425612211227 0.7054263353347778
-0.24031007289886475 0.11662266403436661 0.24031007289886475
-0.24031007289886475 0.1259104460477829 0.7209302186965942
-0.24031007289886475 0.14428748190402985 0.7364341020584106
-0.24031007289886475 0.15045878291130066 0.1317828893661499
-0.24031007289886475 0.15985919535160065 0.22480618953704834
-0.24031007289886475 0.16386497020721436 0.7519380450248718
-0.24031007289886475 0.19503410160541534 0.7674418687820435
-0.24031007289886475 0.23941880464553833 0.7829457521438599
-0.24031007289886475 0.2603839039802551 0.7984496355056763
-0.24031007289886475 0.2687501311302185 0.8139535188674927
-0.24031007289886475 0.27044665813446045 0.8294574022293091
-0.24031007289886475 0.2716861665248871 0.8449612855911255
-0.24031007289886475 0.27571600675582886 0.8604651689529419
-0.24031007289886475 0.27844512462615967 0.8759689331054688
-0.24031007289886475 0.2803119122982025 0.8914728164672852
-0.24031007289886475 0.2820737659931183 0.9069766998291016
-0.24031007289886475 0.2833667993545532 0.922480583190918
-0.24031007289886475 0.28445640206336975 0.9379844665527344
-0.24031007289886475 0.28544339537620544 0.9534883499145508
-0.24031007289886475 0.28665250539779663 0.9689922332763672
-0.24031007289886475 0.29732784628868103 0.9844961166381836
-0.24031007289886475 0.30771246552467346 0.9844961166381836
-0.24031007289886475 0.3316849172115326 0.9069766998291016
-0.24031007289886475 0.3281904458999634 0.922480583190918
-0.24031007289886475 0.3248540163040161 0.9379844665527344
-0.24031007289886475 0.3214772939682007 0.9534883499145508
-0.24031007289886475 0.31943655014038086 0.9689922332763672
-0.24031007289886475 0.34631770849227905 0.8139535188674927
-0.24031007289886475 0.3398410379886627 0.8294574022293091
-0.24031007289886475 0.3377295732498169 0.8449612855911255
-0.24031007289886475 0.3366362452507019 0.8604651689529419
-0.24031007289886475 0.3353940546512604 0.8759689331054688
-0.24031008780002594 0.3340136706829071 0.8914728164672852
-0.24031007289886475 0.36305099725723267 -0.9534883499145508
-0.24031007289886475 0.3588859736919403 0.7984496355056763
-0.24031007289886475 0.3769623637199402 0.22480618953704834
-0.24031007289886475 0.37639784812927246 0.7829457521438599
-0.24031007289886475 0.3907957375049591 0.1317828893661499
-0.24031007289886475 0.3915650248527527 0.7674418687820435
-0.24031007289886475 0.40762194991111755 0.24031007289886475
-0.24031007289886475 0.4064008295536041 0.751937985420227
-0.24031007289886475 0.42305988073349 0.7364341020584106
-0.24031007289886475 0.4297214150428772 -0.9379844665527344
-0.24031007289886475 0.4364049732685089 0.25581395626068115
-0.24031007289886475 0.440894216299057 0.7209302186965942
-0.24031007289886475 0.457030326128006 0.7054263353347778
-0.24031007289886475 0.46589523553848267 -0.9224807024002075
-0.24031008780002594 0.4641111493110657 0.11627913266420364
-0.24031007289886475 0.4635256826877594 0.27131783962249756
-0.24031007289886475 0.4709141254425049 0.6899224519729614
-0.24031007289886475 0.4853765368461609 0.28682172298431396
-0.24031007289886475 0.48361173272132874 0.674418568611145
-0.24031007289886475 0.49026361107826233 -0.9069767594337463
-0.24031007289886475 0.4965459108352661 0.10077524185180664
-0.24031007289886475 0.5035465955734253 0.6434108018875122
-0.24031005799770355 0.494888573884964 0.6589146852493286
-0.24031007289886475 0.5101196765899658 -0.8914728760719299
-0.24031007289886475 0.5175345540046692 0.08527135848999023
-0.24031005799770355 0.5051851272583008 0.30232560634613037
-0.24031007289886475 0.5144481062889099 0.6279069185256958
-0.24031007289886475 0.526992678642273 -0.8759690523147583
-0.24031007289886475 0.5212117433547974 0.3178294897079468
-0.24031007289886475 0.5323228240013123 0.5968992710113525
-0.24031007289886475 0.5235992670059204 0.612403154373169
-0.24031005799770355 0.5394692420959473 -0.8604651093482971
-0.24031007289886475 0.5495078563690186 0.05426359176635742
-0.24031007289886475 0.5351794362068176 0.06976747512817383
-0.24031007289886475 0.535027801990509 0.3333333730697632
-0.24031007289886475 0.5459762215614319 0.3488372564315796
-0.24031007289886475 0.5484359860420227 0.5658915042877197
-0.24031007289886475 0.5422062277793884 0.5813953876495361
-0.24031007289886475 0.5511205792427063 -0.8449612259864807
-0.24031007289886475 0.5635731220245361 -0.8294573426246643
-0.24031007289886475 0.5606001615524292 0.038759708404541016
-0.24031007289886475 0.554563581943512 0.364341139793396
-0.24031007289886475 0.5620662569999695 0.37984490394592285
-0.24031007289886475 0.5619727373123169 0.5348837375640869
-0.24031007289886475 0.5560384392738342 0.5503876209259033
-0.24031007289886475 0.5702345967292786 -0.8139535188674927
-0.24031007289886475 0.5794856548309326 -0.7984496355056763
-0.24031007289886475 0.5806872844696045 -0.02325582504272461
-0.24031007289886475 0.57765793800354 -0.007751941680908203
-0.24031007289886475 0.5749719738960266 0.007751941680908203
-0.24031007289886475 0.5681848526000977 0.02325582504272461
-0.24031007289886475 0.5673240423202515 0.39534878730773926
-0.24031007289886475 0.571334719657898 0.41085267066955566
-0.24031007289886475 0.5741325616836548 0.42635655403137207
-0.24031007289886475 0.5754116177558899 0.4418604373931885
-0.24031007289886475 0.5757077932357788 0.4573643207550049
-0.24031007289886475 0.5749428868293762 0.4728682041168213
-0.24031007289886475 0.5727108716964722 0.4883720874786377
-0.24031007289886475 0.5694149136543274 0.5038759708404541
-0.24031007289886475 0.5660400390625 0.5193798542022705
-0.24031007289886475 0.5843638181686401 -0.7829457521438599
-0.24031007289886475 0.5926452875137329 -0.7674418687820435
-0.24031007289886475 0.5955570936203003 -0.751937985420227
-0.24031007289886475 0.5951370596885681 -0.10077518224716187
-0.24031007289886475 0.5926461815834045 -0.08527129888534546
-0.24031007289886475 0.5907248854637146 -0.06976741552352905
-0.24031007289886475 0.5875213146209717 -0.05426359176635742
-0.24031007289886475 0.5839360952377319 -0.038759708404541016
-0.24031007289886475 0.6007290482521057 -0.7364341020584106
-0.24031007289886475 0.6063050627708435 -0.7209302186965942
-0.24031007289886475 0.6091176271438599 -0.7054263353347778
-0.24031007289886475 0.6113172769546509 -0.6899224519729614
-0.24031007289886475 0.6122354865074158 -0.1782945990562439
-0.24031007289886475 0.6098924279212952 -0.1627907156944275
-0.24031007289886475 0.6076732873916626 -0.14728683233261108
-0.24031007289886475 0.6044636964797974 -0.13178294897079468
-0.24031007289886475 0.5995053052902222 -0.11627907305955887
-0.24031007289886475 0.614560067653656 -0.674418568611145
-0.24031008780002594 0.6183650493621826 -0.6589146852493286
-0.24031007289886475 0.6217163801193237 -0.643410861492157
-0.24031007289886475 0.623829185962677 -0.6279069781303406
-0.24031007289886475 0.6247141361236572 -0.6124030947685242
-0.24031007289886475 0.6259573698043823 -0.5968992114067078
-0.24031007289886475 0.627470850944519 -0.5813953876495361
-0.24031007289886475 0.6275629997253418 -0.3333333134651184
-0.24031007289886475 0.6270134449005127 -0.317829430103302
-0.24031007289886475 0.6262151002883911 -0.30232560634613037
-0.24031007289886475 0.6252340078353882 -0.28682172298431396
-0.24031007289886475 0.6243849992752075 -0.27131783962249756
-0.24031007289886475 0.6233087182044983 -0.25581395626068115
-0.24031007289886475 0.6218694448471069 -0.24031007289886475
-0.24031007289886475 0.6200636625289917 -0.22480618953704834
-0.24031007289886475 0.6175908446311951 -0.20930230617523193
-0.24031007289886475 0.6149069666862488 -0.19379842281341553
-0.24031008780002594 0.6285412311553955 -0.5658915042877197
-0.24031007289886475 0.6293391585350037 -0.5503876209259033
-0.24031007289886475 0.6298229098320007 -0.5348837375640869
-0.24031005799770355 0.6301804780960083 -0.5193798542022705
-0.24031007289886475 0.6300069093704224 -0.5038759708404541
-0.24031007289886475 0.6299768686294556 -0.4883720874786377
-0.24031007289886475 0.6299013495445251 -0.4728682041168213
-0.24031008780002594 0.62999427318573 -0.4573643207550049
-0.24031007289886475 0.6300063729286194 -0.44186046719551086
-0.24031007289886475 0.6299535632133484 -0.42635661363601685
-0.24031007289886475 0.6299108266830444 -0.41085273027420044
-0.24031005799770355 0.6294933557510376 -0.39534881711006165
-0.24031007289886475 0.629044771194458 -0.3798449635505676
-0.24031007289886475 0.6285479068756104 -0.3643410801887512
-0.24031007289886475 0.6280956864356995 -0.3488371968269348
-0.22480618953704834 -0.5365641117095947 -0.7829457521438599
-0.22480618953704834 -0.5378491878509521 -0.7674418687820435
-0.22480618953704834 -0.5362754464149475 -0.751937985420227
-0.22480618953704834 -0.5240999460220337 -0.8294572830200195
-0.22480618953704834 -0.5301415920257568 -0.8139535188674927
-0.22480618953704834 -0.5341208577156067 -0.798449695110321
-0.22480618953704834 -0.5314557552337646 -0.7364341616630554
-0.22480618953704834 -0.5210443735122681 -0.7209302186965942
-0.22480618953704834 -0.5066480040550232 -0.8604651093482971
-0.22480618953704834 -0.5170061588287354 -0.8449612259864807
-0.22480618953704834 -0.5058011412620544 -0.7054263353347778
-0.22480618953704834 -0.4940800368785858 -0.8759690523147583
-0.22480618953704834 -0.479461133480072 -0.8914728164672852
-0.22480618953704834 -0.48334193229675293 -0.6899224519729614
-0.22480618953704834 -0.4622228145599365 -0.9069767594337463
-0.22480618953704834 -0.4536280333995819 -0.674418568611145
-0.22480618953704834 -0.4388107657432556 -0.9224806427955627
-0.22480618953704834 -0.4055323004722595 -0.9379844665527344
-0.22480618953704834 -0.4010322690010071 -0.6589146852493286
-0.22480618953704834 -0.36072587966918945 -0.9534883499145508
-0.22480618953704834 -0.30934298038482666 -0.643410861492157
-0.22480618953704834 -0.2845604419708252 -0.9689921736717224
-0.22480618953704834 -0.22101910412311554 -0.6279069781303406
-0.22480618953704834 -0.18572570383548737 -0.6124030947685242
-0.22480618953704834 -0.1705542504787445 -0.5968992114067078
-0.22480618953704834 -0.15704575181007385 -0.9844961762428284
-0.22480618953704834 -0.1602233201265335 -0.5813953876495361
-0.22480618953704834 -0.15207304060459137 -0.5658915042877197
-0.22480618953704834 -0.14765433967113495 -0.5503876209259033
-0.22480618953704834 -0.14321470260620117 -0.5348837375640869
-0.22480618953704834 -0.14088383316993713 -0.5193798542022705
-0.22480618953704834 -0.13959287106990814 -0.5038759708404541
-0.22480618953704834 -0.13887709379196167 -0.4883720874786377
-0.22480618953704834 -0.1383102536201477 -0.4728682041168213
-0.22480618953704834 -0.13812901079654694 -0.4573643207550049
-0.22480618953704834 -0.1380676031112671 -0.4418604373931885
-0.22480618953704834 -0.13835503160953522 -0.42635661363601685
-0.22480618953704834 -0.13903583586215973 -0.41085273027420044
-0.22480618953704834 -0.1397160291671753 -0.39534884691238403
-0.22480618953704834 -0.14030516147613525 -0.3798449635505676
-0.22480618953704834 -0.14091891050338745 -0.3643410801887512
-0.22480620443820953 -0.14124932885169983 -0.3488371968269348
-0.22480618953704834 -0.14110788702964783 -0.3333333134651184
-0.22480618953704834 -0.14066043496131897 -0.317829430103302
-0.22480618953704834 -0.13985112309455872 -0.30232560634613037
-0.22480618953704834 -0.1382555067539215 -0.28682172298431396
-0.22480618953704834 -0.13651198148727417 -0.27131783962249756
-0.22480618953704834 -0.13491526246070862 -0.25581395626068115
-0.22480618953704834 -0.13332794606685638 -0.24031007289886475
-0.22480618953704834 -0.13159392774105072 -0.22480618953704834
-0.22480617463588715 -0.12815433740615845 -0.20930230617523193
-0.22480618953704834 -0.12556622922420502 -0.19379842281341553
-0.22480618953704834 -0.12222979962825775 -0.1782945990562439
-0.22480618953704834 -0.11757966130971909 -0.1627907156944275
-0.22480618953704834 -0.11314358562231064 -0.14728683233261108
-0.22480618953704834 -0.10996300727128983 -0.13178294897079468
-0.22480618953704834 -0.10657535493373871 -0.11627906560897827
-0.22480618953704834 -0.10242613404989243 -0.10077518224716187
-0.22480618953704834 -0.10220742970705032 0.41085267066955566
-0.22480618953704834 -0.10232220590114594 0.42635655403137207
-0.22480618953704834 -0.09903266280889511 -0.08527129888534546
-0.22480618953704834 -0.09684643149375916 -0.06976741552352905
-0.22480618953704834 -0.09547697007656097 -0.05426359176635742
-0.22480618953704834 -0.09388937056064606 -0.038759708404541016
-0.22480618953704834 -0.09222118556499481 -0.02325582504272461
-0.22480618953704834 -0.08945149183273315 -0.007751941680908203
-0.22480618953704834 -0.08567406982183456 0.007751941680908203
-0.22480618953704834 -0.09254929423332214 0.37984490394592285
-0.22480618953704834 -0.09836134314537048 0.39534878730773926
-0.22480618953704834 -0.10013556480407715 0.4418604373931885
-0.22480618953704834 -0.09460171312093735 0.4573643207550049
-0.22480618953704834 -0.08676225692033768 0.4728682041168213
-0.22480618953704834 -0.07906357198953629 0.02325582504272461
-0.22480618953704834 -0.07016409188508987 0.038759708404541016
-0.22480618953704834 -0.08112704753875732 0.364341139793396
-0.22480618953704834 -0.07608149945735931 0.4883720874786377
-0.22480618953704834 -0.06562488526105881 0.3488372564315796
-0.22480618953704834 -0.06566998362541199 0.5038759708404541
-0.22480618953704834 -0.05685273930430412 0.5193798542022705
-0.22480618953704834 -0.054132282733917236 0.05426359176635742
-0.22480618953704834 -0.046056024730205536 0.3333333730697632
-0.22480618953704834 -0.04785310477018356 0.5348837375640869
-0.22480618953704834 -0.04057146981358528 0.5503876209259033
-0.22480618953704834 -0.02850186452269554 0.06976747512817383
-0.22480618953704834 -0.025483235716819763 0.3178294897079468
-0.22480618953704834 -0.03264865651726723 0.5658915042877197
-0.22480618953704834 -0.027158226817846298 0.5813953876495361
-0.22480618953704834 -0.023920122534036636 0.5968992710113525
-0.22480620443820953 -0.018982017412781715 -0.9844961762428284
-0.22480618953704834 -0.01723274402320385 0.612403154373169
-0.22480617463588715 -0.0018992212135344744 0.30232560634613037
-0.22480618953704834 -0.005003215745091438 0.6279069185256958
-0.22480618953704834 0.008540980517864227 0.08527135848999023
-0.22480618953704834 0.015066861175000668 0.6434108018875122
-0.22480618953704834 0.02619270607829094 0.28682172298431396
-0.22480618953704834 0.05070003867149353 0.10077524185180664
-0.22480618953704834 0.054006993770599365 0.27131783962249756
-0.22480618953704834 0.04479236528277397 0.6589146852493286
-0.22480618953704834 0.0664532408118248 0.674418568611145
-0.22480618953704834 0.0852166935801506 0.11627912521362305
-0.22480618953704834 0.07588956505060196 0.25581395626068115
-0.22480618953704834 0.09560830891132355 0.24031007289886475
-0.22480618953704834 0.08653846383094788 0.6899224519729614
-0.22480618953704834 0.10248204320669174 0.7054263353347778
-0.22480618953704834 0.116243876516819 0.7209302186965942
-0.22480618953704834 0.12225830554962158 0.1317828893661499
-0.22480618953704834 0.1162806898355484 0.22480618953704834
-0.22480618953704834 0.1338195949792862 0.7364341020584106
-0.22480618953704834 0.16024215519428253 0.20930230617523193
-0.22480620443820953 0.1522998809814453 0.751937985420227
-0.22480618953704834 0.17382194101810455 -0.9689922332763672
-0.22480618953704834 0.17460349202156067 0.7674418687820435
-0.22480618953704834 0.21943187713623047 0.7829457521438599
-0.22480618953704834 0.2526264786720276 0.7984496355056763
-0.22480618953704834 0.2673488259315491 0.8139535188674927
-0.22480618953704834 0.27023985981941223 0.8294574022293091
-0.22480618953704834 0.27118444442749023 0.8449612855911255
-0.22480618953704834 0.2759757339954376 0.1472867727279663
-0.22480618953704834 0.27491262555122375 0.8604651689529419
-0.22480618953704834 0.27822062373161316 0.8759689331054688
-0.22480618953704834 0.28046470880508423 0.8914728164672852
-0.22480618953704834 0.2823309302330017 0.9069766998291016
-0.22480618953704834 0.283640056848526 0.922480583190918
-0.22480618953704834 0.28484731912612915 0.9379844665527344
-0.22480618953704834 0.28609538078308105 0.9534883499145508
-0.22480618953704834 0.2924489676952362 0.9689922332763672
-0.22480618953704834 0.3175587058067322 0.9689922332763672
-0.22480618953704834 0.33095383644104004 0.9069766998291016
-0.22480618953704834 0.32777631282806396 0.922480583190918
-0.22480618953704834 0.323936402797699 0.9379844665527344
-0.22480618953704834 0.32051756978034973 0.9534883499145508
-0.22480617463588715 0.33567699790000916 0.14728675782680511
-0.22480618953704834 0.34084996581077576 0.8294574022293091
-0.22480618953704834 0.3373264670372009 0.8449612855911255
-0.22480618953704834 0.3361298441886902 0.8604651689529419
-0.22480618953704834 0.3349430561065674 0.8759689331054688
-0.22480618953704834 0.33366939425468445 0.8914728164672852
-0.22480618953704834 0.35216230154037476 0.8139535188674927
-0.22480618953704834 0.37517374753952026 0.20930230617523193
-0.22480618953704834 0.37272122502326965 0.7984496355056763
-0.22480618953704834 0.3910658359527588 0.7829457521438599
-0.22480618953704834 0.39605212211608887 -0.9534883499145508
-0.22480618953704834 0.4069598317146301 0.7674418687820435
-0.22480618953704834 0.4137205481529236 0.22480618953704834
-0.22480618953704834 0.4223211407661438 0.751937985420227
-0.22480618953704834 0.43561190366744995 0.1317828893661499
-0.22480618953704834 0.4380832314491272 0.7364341020584106
-0.22480618953704834 0.4453235864639282 -0.9379844665527344
-0.22480620443820953 0.44202080368995667 0.24031007289886475
-0.22480618953704834 0.4538108706474304 0.7209302186965942
-0.22480618953704834 0.46499186754226685 0.25581395626068115
-0.22480618953704834 0.4684367775917053 0.7054263353347778
-0.22480618953704834 0.47563520073890686 -0.9224807024002075
-0.22480618953704834 0.4834883511066437 0.11627912521362305
-0.22480618953704834 0.48373323678970337 0.27131783962249756
-0.22480618953704834 0.48192334175109863 0.6899224519729614
-0.22480618953704834 0.5018141269683838 -0.9069767594337463
-0.22480618953704834 0.5005978345870972 0.28682172298431396
-0.22480618953704834 0.5021127462387085 0.6589146852493286
-0.22480618953704834 0.4929291605949402 0.674418568611145
-0.22480618953704834 0.5185750126838684 -0.8914728760719299
-0.22480617463588715 0.5089658498764038 0.10077524185180664
-0.22480618953704834 0.5162140727043152 0.30232560634613037
-0.22480618953704834 0.5133042931556702 0.6434108018875122
-0.22480618953704834 0.5337561368942261 -0.8759689927101135
-0.22480618953704834 0.5278291702270508 0.08527135848999023
-0.22480618953704834 0.5307101607322693 0.3178294897079468
-0.22480618953704834 0.5313228368759155 0.612403154373169
-0.22480617463588715 0.5208871364593506 0.627906858921051
-0.22480618953704834 0.5472065210342407 -0.8604651689529419
-0.22480618953704834 0.543920636177063 0.06976747512817383
-0.22480618953704834 0.5428614616394043 0.3333333730697632
-0.22480618953704834 0.5478264093399048 0.5813953876495361
-0.22480618953704834 0.5402751564979553 0.5968992710113525
-0.22480618953704834 0.5565634369850159 -0.8449612259864807
-0.22480618953704834 0.5658416152000427 -0.8294573426246643
-0.22480618953704834 0.5658547878265381 0.038759708404541016
-0.22480618953704834 0.5572906732559204 0.05426359176635742
-0.22480618953704834 0.5529830455780029 0.3488372564315796
-0.22480618953704834 0.5617481470108032 0.364341139793396
-0.22480618953704834 0.5622159838676453 0.5503876209259033
-0.22480618953704834 0.5555805563926697 0.5658915042877197
-0.22480618953704834 0.5756891369819641 -0.8139535188674927
-0.22480618953704834 0.580930233001709 -0.7984496355056763
-0.22480618953704834 0.5779189467430115 0.007751941680908203
-0.22480618953704834 0.5743529200553894 0.02325582504272461
-0.22480618953704834 0.5682180523872375 0.37984490394592285
-0.22480618953704834 0.574621856212616 0.39534878730773926
-0.22480618953704834 0.5776767134666443 0.41085267066955566
-0.22480618953704834 0.5794188380241394 0.42635655403137207
-0.22480618953704834 0.5802550911903381 0.4418604373931885
-0.22480618953704834 0.5802857279777527 0.4573643207550049
-0.22480618953704834 0.5794613361358643 0.4728682041168213
-0.22480618953704834 0.5780408978462219 0.4883720874786377
-0.22480618953704834 0.5760975480079651 0.5038759708404541
-0.22480618953704834 0.572063684463501 0.5193798542022705
-0.22480618953704834 0.566794753074646 0.5348837375640869
-0.22480618953704834 0.5890152454376221 -0.7829457521438599
-0.22480618953704834 0.5947107076644897 -0.7674418687820435
-0.22480618953704834 0.5953307747840881 -0.08527129888534546
-0.22480618953704834 0.5929335951805115 -0.06976741552352905
-0.22480618953704834 0.5914574265480042 -0.05426359176635742
-0.22480618953704834 0.5891592502593994 -0.038759708404541016
-0.22480618953704834 0.5859225988388062 -0.02325582504272461
-0.22480618953704834 0.5819606184959412 -0.007751941215246916
-0.22480618953704834 0.5986918210983276 -0.751937985420227
-0.22480618953704834 0.6048698425292969 -0.7364341020584106
-0.22480618953704834 0.6088578104972839 -0.7209302186965942
-0.22480618953704834 0.6107240319252014 -0.7054263353347778
-0.22480618953704834 0.6094879508018494 -0.14728683233261108
-0.22480618953704834 0.607291042804718 -0.13178294897079468
-0.22480618953704834 0.6037153005599976 -0.11627906560897827
-0.22480618953704834 0.5991234183311462 -0.10077518224716187
-0.22480618953704834 0.6142192482948303 -0.6899224519729614
-0.22480618953704834 0.618182897567749 -0.674418568611145
-0.22480618953704834 0.62197345495224 -0.6589146852493286
-0.22480618953704834 0.6240348219871521 -0.643410861492157
-0.22480618953704834 0.6250874996185303 -0.6279069781303406
-0.22480618953704834 0.6267110705375671 -0.6124030947685242
-0.22480618953704834 0.6276358962059021 -0.30232560634613037
-0.22480618953704834 0.6270310878753662 -0.28682172298431396
-0.22480618953704834 0.6260095238685608 -0.27131783962249756
-0.22480618953704834 0.6247833371162415 -0.25581395626068115
-0.22480618953704834 0.6238998174667358 -0.24031007289886475
-0.22480618953704834 0.6227944493293762 -0.22480618953704834
-0.22480618953704834 0.6210108995437622 -0.20930230617523193
-0.22480618953704834 0.618808388710022 -0.19379842281341553
-0.22480620443820953 0.6158020496368408 -0.1782945990562439
-0.22480618953704834 0.6124307513237 -0.1627907156944275
-0.22480618953704834 0.6282927393913269 -0.5968992114067078
-0.22480618953704834 0.6298080086708069 -0.5813953876495361
-0.22480618953704834 0.6312901973724365 -0.5658915042877197
-0.22480618953704834 0.6324793696403503 -0.5503876209259033
-0.22480618953704834 0.6332076787948608 -0.5348837375640869
-0.22480618953704834 0.6337782740592957 -0.5193798542022705
-0.22480618953704834 0.6336678266525269 -0.5038759708404541
-0.22480618953704834 0.6337180733680725 -0.4883720874786377
-0.22480618953704834 0.6336238980293274 -0.4728682041168213
-0.22480618953704834 0.6336318254470825 -0.4573643207550049
-0.22480618953704834 0.6334156394004822 -0.4418604373931885
-0.22480618953704834 0.633082389831543 -0.42635661363601685
-0.22480618953704834 0.6328054070472717 -0.41085273027420044
-0.22480618953704834 0.6321192979812622 -0.39534884691238403
-0.22480617463588715 0.6314091086387634 -0.3798449635505676
-0.22480618953704834 0.6306036114692688 -0.3643410801887512
-0.22480618953704834 0.6298443078994751 -0.3488371968269348
-0.22480618953704834 0.6289209723472595 -0.3333333134651184
-0.22480618953704834 0.6281740069389343 -0.317829430103302
-0.20930230617523193 -0.5060684084892273 -0.7984496355056763
-0.20930230617523193 -0.509678304195404 -0.7829457521438599
-0.20930230617523193 -0.5115516185760498 -0.7674418687820435
-0.20930230617523193 -0.509739100933075 -0.751937985420227
-0.20930230617523193 -0.5042819380760193 -0.7364341020584106
-0.20930230617523193 -0.4958033263683319 -0.8294573426246643
-0.20930230617523193 -0.5021051168441772 -0.8139535188674927
-0.20930230617523193 -0.49376145005226135 -0.7209302186965942
-0.20930230617523193 -0.4774949550628662 -0.8604651093482971
-0.20930230617523193 -0.48792386054992676 -0.8449612259864807
-0.20930230617523193 -0.4768882095813751 -0.7054263353347778
-0.20930230617523193 -0.4659329056739807 -0.8759689927101135
-0.20930230617523193 -0.4519050121307373 -0.8914728164672852
-0.20930230617523193 -0.45060330629348755 -0.6899224519729614
-0.20930230617523193 -0.43375304341316223 -0.9069767594337463
-0.20930230617523193 -0.40759551525115967 -0.922480583190918
-0.20930230617523193 -0.4069633483886719 -0.674418568611145
-0.20930230617523193 -0.3737873435020447 -0.9379844665527344
-0.20930230617523193 -0.32662397623062134 -0.9534884095191956
-0.20930230617523193 -0.3295518159866333 -0.6589146852493286
-0.20930230617523193 -0.26147857308387756 -0.643410861492157
-0.20930230617523193 -0.24466925859451294 -0.9689922332763672
-0.20930230617523193 -0.20014117658138275 -0.6279069781303406
-0.20930230617523193 -0.18135571479797363 -0.6124030947685242
-0.20930230617523193 -0.16938036680221558 -0.5968992114067078
-0.20930230617523193 -0.1610087901353836 -0.5813953876495361
-0.20930230617523193 -0.15360867977142334 -0.5658915042877197
-0.20930230617523193 -0.14922752976417542 -0.5503876209259033
-0.20930230617523193 -0.14438208937644958 -0.9844961166381836
-0.20930230617523193 -0.14666318893432617 -0.5348837375640869
-0.20930230617523193 -0.14385771751403809 -0.5193798542022705
-0.20930230617523193 -0.14209997653961182 -0.5038759708404541
-0.20930230617523193 -0.14114318788051605 -0.4883720874786377
-0.20930230617523193 -0.14052212238311768 -0.4728682041168213
-0.20930230617523193 -0.14034652709960938 -0.4573643207550049
-0.20930230617523193 -0.14037027955055237 -0.4418604373931885
-0.20930230617523193 -0.14070340991020203 -0.42635661363601685
-0.20930232107639313 -0.1414726972579956 -0.41085273027420044
-0.20930230617523193 -0.1423199325799942 -0.39534884691238403
-0.20930230617523193 -0.14309000968933105 -0.3798449635505676
-0.20930230617523193 -0.14376966655254364 -0.36434105038642883
-0.20930230617523193 -0.14418619871139526 -0.3488371968269348
-0.20930232107639313 -0.14404702186584473 -0.3333333134651184
-0.20930230617523193 -0.14361725747585297 -0.317829430103302
-0.20930232107639313 -0.14288178086280823 -0.30232560634613037
-0.20930230617523193 -0.1416364312171936 -0.28682172298431396
-0.20930230617523193 -0.14025689661502838 -0.27131783962249756
-0.20930230617523193 -0.13867399096488953 -0.25581395626068115
-0.20930230617523193 -0.1368798017501831 -0.24031007289886475
-0.20930230617523193 -0.1348339319229126 -0.22480618953704834
-0.20930230617523193 -0.13229018449783325 -0.20930230617523193
-0.20930230617523193 -0.12872251868247986 -0.19379842281341553
-0.20930230617523193 -0.1257871836423874 -0.1782945990562439
-0.20930230617523193 -0.12243872880935669 -0.1627907156944275
-0.20930230617523193 -0.11772309988737106 -0.14728683233261108
-0.20930230617523193 -0.11332389712333679 -0.13178294897079468
-0.20930230617523193 -0.11041232943534851 -0.11627906560897827
-0.20930230617523193 -0.10773023962974548 -0.10077518224716187
-0.20930230617523193 -0.1045326218008995 -0.08527129888534546
-0.20930230617523193 -0.10201500356197357 -0.06976741552352905
-0.20930230617523193 -0.10543344914913177 0.37984490394592285
-0.20930230617523193 -0.11200087517499924 0.39534878730773926
-0.20930232107639313 -0.11546695977449417 0.41085267066955566
-0.20930232107639313 -0.11600004136562347 0.42635655403137207
-0.20930232107639313 -0.11446435004472733 0.4418604373931885
-0.20930230617523193 -0.10895495861768723 0.4573643207550049
-0.20930230617523193 -0.10173225402832031 0.4728682041168213
-0.20930230617523193 -0.10074888914823532 -0.05426359176635742
-0.20930232107639313 -0.09862887859344482 -0.038759708404541016
-0.20930230617523193 -0.09688736498355865 -0.02325582504272461
-0.20930230617523193 -0.0946311354637146 -0.007751941680908203
-0.20930230617523193 -0.09120708703994751 0.007751941680908203
-0.20930230617523193 -0.08538161963224411 0.02325582504272461
-0.20930230617523193 -0.09368440508842468 0.364341139793396
-0.20930230617523193 -0.09049416333436966 0.4883720874786377
-0.20930230617523193 -0.07526949793100357 0.038759708404541016
-0.20930230617523193 -0.07756972312927246 0.3488372564315796
-0.20930230617523193 -0.07877155393362045 0.5038759708404541
-0.20930230617523193 -0.05994701385498047 0.05426359176635742
-0.20930230617523193 -0.057782143354415894 0.3333333730697632
-0.20930230617523193 -0.06869945675134659 0.5193798542022705
-0.20930230617523193 -0.05606146529316902 0.5348837375640869
-0.20930230617523193 -0.04653097689151764 0.5503876209259033
-0.20930230617523193 -0.039659254252910614 0.5658915042877197
-0.20930230617523193 -0.037632256746292114 0.06976747512817383
-0.20930230617523193 -0.03791620954871178 0.3178294897079468
-0.20930230617523193 -0.035236064344644547 0.5813953876495361
-0.20930230617523193 -0.032472558319568634 0.5968992710113525
-0.20930230617523193 -0.024381790310144424 0.612403154373169
-0.20930230617523193 -0.017025165259838104 0.30232560634613037
-0.20930230617523193 -0.014668265357613564 0.6279069185256958
-0.20930230617523193 -0.00596453994512558 0.08527135848999023
-0.20930230617523193 0.006567454896867275 0.28682172298431396
-0.20930230617523193 0.0005569017957895994 0.6434108018875122
-0.20930230617523193 0.007768586277961731 -0.9844961166381836
-0.20930230617523193 0.03502462059259415 0.10077524185180664
-0.20930230617523193 0.03364855796098709 0.27131783962249756
-0.20930230617523193 0.027157176285982132 0.6589146852493286
-0.20930230617523193 0.06947711110115051 0.11627912521362305
-0.20930230617523193 0.05763188377022743 0.25581395626068115
-0.20930230617523193 0.0545719712972641 0.6744185090065002
-0.20930230617523193 0.07695998251438141 0.24031007289886475
-0.20930230617523193 0.07726628333330154 0.6899224519729614
-0.20930230617523193 0.09514570236206055 0.22480618953704834
-0.20930230617523193 0.0961480587720871 0.7054263353347778
-0.20930230617523193 0.10224618017673492 0.1317828893661499
-0.20930230617523193 0.11603400111198425 0.20930230617523193
-0.20930230617523193 0.11046214401721954 0.7209302186965942
-0.20930230617523193 0.12580285966396332 0.7364341020584106
-0.20930230617523193 0.13890422880649567 0.1472867727279663
-0.20930230617523193 0.14232395589351654 0.751937985420227
-0.20930230617523193 0.1507582813501358 0.19379842281341553
-0.20930230617523193 0.1607702672481537 0.7674418687820435
-0.20930230617523193 0.1938612461090088 0.7829457521438599
-0.20930230617523193 0.239501953125 0.7984496355056763
-0.20930230617523193 0.26337939500808716 0.8139535188674927
-0.20930230617523193 0.27000904083251953 0.8294574022293091
-0.20930230617523193 0.2712571620941162 0.8449612855911255
-0.20930230617523193 0.2844318151473999 0.16279065608978271
-0.20930230617523193 0.2758324146270752 0.8604651689529419
-0.20930230617523193 0.27911141514778137 0.8759689331054688
-0.20930230617523193 0.2812967896461487 0.8914728164672852
-0.20930230617523193 0.28299570083618164 0.9069766998291016
-0.20930230617523193 0.2842186689376831 0.922480583190918
-0.20930230617523193 0.28565236926078796 0.9379844665527344
-0.20930230617523193 0.30004802346229553 -0.9689922332763672
-0.20930229127407074 0.28813913464546204 0.17829453945159912
-0.20930230617523193 0.29108989238739014 0.953488290309906
-0.20930230617523193 0.3001081943511963 0.9689922332763672
-0.20930230617523193 0.30643558502197266 0.9689922332763672
-0.20930230617523193 0.33282414078712463 0.16279065608978271
-0.20930230617523193 0.33186066150665283 0.8914728164672852
-0.20930230617523193 0.3287721574306488 0.9069766998291016
-0.20930230617523193 0.32589709758758545 0.922480583190918
-0.20930230617523193 0.32144930958747864 0.9379844665527344
-0.20930232107639313 0.31819984316825867 0.9534883499145508
-0.20930230617523193 0.3350639343261719 0.17829453945159912
-0.20930230617523193 0.34328144788742065 0.8294574022293091
-0.20930230617523193 0.33690744638442993 0.8449612855911255
-0.20930230617523193 0.33529841899871826 0.8604652285575867
-0.20930230617523193 0.3340334892272949 0.8759689927101135
-0.20930230617523193 0.361634224653244 0.8139535188674927
-0.20930230617523193 0.3754514753818512 0.19379842281341553
-0.20930230617523193 0.38645121455192566 0.7984496355056763
-0.20930230617523193 0.39545494318008423 0.1472867727279663
-0.20930230617523193 0.4053482413291931 0.7829457521438599
-0.20930230617523193 0.4136580228805542 -0.9534883499145508
-0.20930230617523193 0.41410377621650696 0.20930230617523193
-0.20930230617523193 0.42177799344062805 0.7674418687820435
-0.20930230617523193 0.4367542564868927 0.751937985420227
-0.20930229127407074 0.44685807824134827 0.22480618953704834
-0.20930230617523193 0.4513844847679138 0.7364341020584106
-0.20930230617523193 0.458438515663147 -0.9379844665527344
-0.20930230617523193 0.464204877614975 0.1317828893661499
-0.20930230617523193 0.468588650226593 0.24031007289886475
-0.20930230617523193 0.4657513201236725 0.7209302186965942
-0.20930230617523193 0.48726415634155273 -0.9224806427955627
-0.20930230617523193 0.48422229290008545 0.25581395626068115
-0.20930232107639313 0.47893327474594116 0.7054263353347778
-0.20930230617523193 0.49730250239372253 0.11627912521362305
-0.20930230617523193 0.4980718493461609 0.27131783962249756
-0.20930230617523193 0.5009599924087524 0.674418568611145
-0.20930230617523193 0.489981472492218 0.6899224519729614
-0.20930230617523193 0.5049626231193542 -0.9069767594337463
-0.20930230617523193 0.5188003778457642 0.10077524185180664
-0.20930230617523193 0.5112682580947876 0.28682172298431396
-0.20930230617523193 0.5190016627311707 0.6434108018875122
-0.20930230617523193 0.5117155909538269 0.6589146852493286
-0.20930230617523193 0.5208986401557922 -0.8914728760719299
-0.20930230617523193 0.5252617597579956 0.30232560634613037
-0.20930230617523193 0.5300101637840271 0.6279069185256958
-0.20930230617523193 0.5357996225357056 -0.8759689927101135
-0.20930230617523193 0.5501778721809387 -0.8604651093482971
-0.20930230617523193 0.5360491275787354 0.08527135848999023
-0.20930230617523193 0.5386103391647339 0.3178294897079468
-0.20930230617523193 0.5470702648162842 0.5968992710113525
-0.20930230617523193 0.5379003286361694 0.612403154373169
-0.20930230617523193 0.5620924830436707 -0.8449612259864807
-0.20930230617523193 0.561790943145752 0.05426359176635742
-0.20930230617523193 0.5504320859909058 0.06976747512817383
-0.20930230617523193 0.5504788756370544 0.3333333730697632
-0.20930230617523193 0.5599966049194336 0.3488372564315796
-0.20930230617523193 0.5620708465576172 0.5658915042877197
-0.20930230617523193 0.5544853210449219 0.5813953876495361
-0.20930229127407074 0.5681808590888977 -0.8294573426246643
-0.20930230617523193 0.5790683031082153 -0.8139535188674927
-0.20930230617523193 0.5770639181137085 0.02325582504272461
-0.20930230617523193 0.5713422894477844 0.038759708404541016
-0.20930230617523193 0.5676099061965942 0.364341139793396
-0.20930230617523193 0.5753192901611328 0.37984490394592285
-0.20930230617523193 0.5799857378005981 0.39534878730773926
-0.20930230617523193 0.5801514387130737 0.5038759708404541
-0.20930230617523193 0.5776458978652954 0.5193798542022705
-0.20930230617523193 0.5732969045639038 0.5348837375640869
-0.20930230617523193 0.5670092105865479 0.5503876209259033
-0.20930230617523193 0.5838829278945923 -0.7984496355056763
-0.20930230617523193 0.5926896929740906 -0.7829457521438599
-0.20930230617523193 0.5961484909057617 -0.7674418687820435
-0.20930230617523193 0.5954577922821045 -0.06976741552352905
-0.20930230617523193 0.5933449268341064 -0.05426359176635742
-0.20930230617523193 0.5919126868247986 -0.038759708404541016
-0.20930230617523193 0.5901632308959961 -0.02325582504272461
-0.20930230617523193 0.5868217945098877 -0.007751941680908203
-0.20930230617523193 0.5819386839866638 0.007751941680908203
-0.20930230617523193 0.5828059911727905 0.41085267066955566
-0.20930230617523193 0.5844555497169495 0.42635655403137207
-0.20930232107639313 0.5852444767951965 0.4418604373931885
-0.20930230617523193 0.5851241946220398 0.4573643207550049
-0.20930229127407074 0.584106981754303 0.4728681743144989
-0.20930230617523193 0.5824378132820129 0.4883720874786377
-0.20930230617523193 0.602311372756958 -0.751937985420227
-0.20930230617523193 0.607973575592041 -0.7364341020584106
-0.20930230617523193 0.6099351644515991 -0.7209302186965942
-0.20930230617523193 0.6117206811904907 -0.14728683233261108
-0.20930230617523193 0.6088578104972839 -0.13178294897079468
-0.20930230617523193 0.6066609621047974 -0.11627906560897827
-0.20930230617523193 0.6028574705123901 -0.10077518224716187
-0.20930230617523193 0.5987979173660278 -0.08527129888534546
-0.20930230617523193 0.6133679151535034 -0.7054263353347778
-0.20930230617523193 0.6174423694610596 -0.6899224519729614
