-0.19379843771457672 -0.06693605333566666 0.038759712129831314
-0.19379842281341553 -0.0647137388586998 0.3333333730697632
-0.19379842281341553 -0.0638221800327301 0.5658915042877197
-0.19379842281341553 -0.05709685757756233 0.5813953876495361
-0.19379842281341553 -0.05079466104507446 0.05426359176635742
-0.19379842281341553 -0.04487273469567299 0.3178294897079468
-0.19379840791225433 -0.04980555921792984 0.5968992710113525
-0.19379842281341553 -0.04362018406391144 0.612403154373169
-0.19379842281341553 -0.03014019876718521 0.06976747512817383
-0.19379842281341553 -0.02506948634982109 0.30232560634613037
-0.19379842281341553 -0.03728048503398895 0.6279069185256958
-0.19379842281341553 -0.031519874930381775 0.6434108018875122
-0.19379842281341553 -0.01013709045946598 0.28682172298431396
-0.19379842281341553 -0.022015109658241272 0.6589146852493286
-0.19379842281341553 -0.006172615569084883 0.08527135848999023
-0.19379842281341553 -0.0033473148941993713 0.674418568611145
-0.19379842281341553 0.016572322696447372 0.27131783962249756
-0.19379842281341553 0.02466018870472908 0.10077524930238724
-0.19379842281341553 0.05387776717543602 0.11627912521362305
-0.19379842281341553 0.04816846922039986 0.25581395626068115
-0.19379842281341553 0.05329618230462074 0.6899224519729614
-0.19379842281341553 0.07829335331916809 0.1317828893661499
-0.19379842281341553 0.07296206057071686 0.24031008780002594
-0.19379843771457672 0.07150281965732574 0.7054263353347778
-0.19379842281341553 0.09730924665927887 -0.9844961166381836
-0.19379842281341553 0.09896086901426315 0.1472867727279663
-0.19379842281341553 0.09593238681554794 0.22480618953704834
-0.19379840791225433 0.08610180020332336 0.7209301590919495
-0.19379842281341553 0.10363250225782394 0.7364341020584106
-0.19379842281341553 0.11957529187202454 0.16279065608978271
-0.19379842281341553 0.12150464951992035 0.20930230617523193
-0.19379842281341553 0.12348443269729614 0.751937985420227
-0.19379842281341553 0.13791897892951965 0.17829453945159912
-0.19379842281341553 0.14137624204158783 0.19379842281341553
-0.19379842281341553 0.1458265483379364 0.7674418687820435
-0.19379842281341553 0.17187011241912842 0.7829457521438599
-0.19379842281341553 0.2059737890958786 0.7984496355056763
-0.19379842281341553 0.23842091858386993 0.8139535188674927
-0.19379842281341553 0.25906962156295776 0.8294574022293091
-0.19379842281341553 0.268612802028656 0.8449612855911255
-0.19379842281341553 0.2706594169139862 0.8604651689529419
-0.19379842281341553 0.272587388753891 0.8759689331054688
-0.19379842281341553 0.2758854925632477 0.8914728164672852
-0.19379842281341553 0.27918189764022827 0.9069766998291016
-0.19379842281341553 0.2822665274143219 0.922480583190918
-0.19379842281341553 0.28550752997398376 0.9379844665527344
-0.19379842281341553 0.3004356920719147 0.9534883499145508
-0.19379842281341553 0.3151780068874359 0.9379844665527344
-0.19379842281341553 0.3038756847381592 0.9534884095191956
-0.19379842281341553 0.33288833498954773 0.8604651689529419
-0.19379842281341553 0.32841864228248596 0.8759689331054688
-0.19379842281341553 0.32529574632644653 0.8914728164672852
-0.19379842281341553 0.322748601436615 0.9069766998291016
-0.19379842281341553 0.3198068141937256 0.9224805235862732
-0.19379842281341553 0.3357700705528259 0.8449612855911255
-0.19379842281341553 0.3552471101284027 -0.9689922332763672
-0.19379842281341553 0.3491496741771698 0.8294574022293091
-0.19379842281341553 0.3747554421424866 0.8139535188674927
-0.19379842281341553 0.39787712693214417 0.7984496355056763
-0.19379842281341553 0.41815876960754395 -0.9534883499145508
-0.19379842281341553 0.41856837272644043 0.7829457521438599
-0.19379842281341553 0.4368656277656555 0.7674418687820435
-0.19379842281341553 0.45268547534942627 0.751937985420227
-0.19379842281341553 0.4578196406364441 -0.9379844665527344
-0.19379842281341553 0.4647541344165802 0.17829453945159912
-0.19379842281341553 0.46056118607521057 0.19379842281341553
-0.19379842281341553 0.467033326625824 0.7364341020584106
-0.19379842281341553 0.4813541769981384 -0.9224806427955627
-0.19379842281341553 0.48203402757644653 0.16279065608978271
-0.19379842281341553 0.47390511631965637 0.20930230617523193
-0.19379842281341553 0.47994911670684814 0.7209302186965942
-0.19379842281341553 0.5031229257583618 -0.9069767594337463
-0.19379842281341553 0.501006007194519 0.1472867727279663
-0.19379842281341553 0.49095404148101807 0.22480618953704834
-0.19379842281341553 0.5017939805984497 0.6899224519729614
-0.19379842281341553 0.49032774567604065 0.7054263353347778
-0.19379842281341553 0.518879771232605 -0.8914728760719299
-0.19379842281341553 0.5185216665267944 0.1317828893661499
-0.19379842281341553 0.5052631497383118 0.24031008780002594
-0.19379842281341553 0.5174405574798584 0.25581395626068115
-0.19379842281341553 0.5127736926078796 0.674418568611145
-0.19379842281341553 0.5340927243232727 -0.8759689927101135
-0.19379842281341553 0.534868061542511 0.11627912521362305
-0.19379842281341553 0.526797890663147 0.27131783962249756
-0.19379842281341553 0.5311180949211121 0.6434108018875122
-0.19379842281341553 0.5203320384025574 0.6589147448539734
-0.19379842281341553 0.5487369894981384 -0.8604651093482971
-0.19379842281341553 0.5477023124694824 0.10077524185180664
-0.19379842281341553 0.5366169810295105 0.28682172298431396
-0.19379842281341553 0.5453851222991943 0.30232560634613037
-0.19379842281341553 0.5481009483337402 0.612403154373169
-0.19379842281341553 0.5393780469894409 0.6279069185256958
-0.19379842281341553 0.5616652965545654 -0.8449612259864807
-0.19379842281341553 0.5597379803657532 0.08527135848999023
-0.19379842281341553 0.5544933080673218 0.3178294897079468
-0.19379842281341553 0.5631829500198364 0.3333333730697632
-0.19379842281341553 0.5638022422790527 0.5813953876495361
-0.19379842281341553 0.5569840669631958 0.5968992710113525
-0.19379842281341553 0.5703312754631042 -0.8294573426246643
-0.19379842281341553 0.5809227824211121 -0.8139535188674927
-0.19379842281341553 0.5799599885940552 0.038759708404541016
-0.19379842281341553 0.5757084488868713 0.05426359176635742
-0.19379842281341553 0.5667317509651184 0.06976747512817383
-0.19379842281341553 0.5712832808494568 0.3488372564315796
-0.19379842281341553 0.5783604979515076 0.364341139793396
-0.19379842281341553 0.58074951171875 0.5348837375640869
-0.19379842281341553 0.5771811008453369 0.5503876209259033
-0.19379842281341553 0.5706906914710999 0.5658915042877197
-0.19379842281341553 0.5911632180213928 -0.7984496355056763
-0.19379842281341553 0.5942512154579163 -0.007751941680908203
-0.19379842281341553 0.59188312292099 0.007751941680908203
-0.19379842281341553 0.5872145295143127 0.02325582504272461
-0.19379842281341553 0.5841092467308044 0.37984490394592285
-0.19379842281341553 0.5897718667984009 0.39534878730773926
-0.19379842281341553 0.5925347208976746 0.41085267066955566
-0.19379842281341553 0.5937833786010742 0.42635655403137207
-0.19379842281341553 0.5940870642662048 0.4418604373931885
-0.19379842281341553 0.5937697887420654 0.4573643207550049
-0.19379842281341553 0.5930395722389221 0.4728682041168213
-0.19379842281341553 0.5916268825531006 0.4883720874786377
-0.19379842281341553 0.5889551639556885 0.5038759708404541
-0.19379842281341553 0.5852147340774536 0.5193798542022705
-0.19379842281341553 0.5969606637954712 -0.7829457521438599
-0.19379842281341553 0.6069419384002686 -0.7674418687820435
-0.19379842281341553 0.611309826374054 -0.751937985420227
-0.19379842281341553 0.6111037135124207 -0.10077518224716187
-0.19379842281341553 0.6090064644813538 -0.08527129888534546
-0.19379842281341553 0.6073402762413025 -0.06976741552352905
-0.19379842281341553 0.604567289352417 -0.05426359176635742
-0.19379843771457672 0.6010634899139404 -0.038759708404541016
-0.19379842281341553 0.5974684953689575 -0.02325582504272461
-0.19379840791225433 0.6171998381614685 -0.7364340424537659
-0.19379842281341553 0.6228618621826172 -0.7209302186965942
-0.19379842281341553 0.6250531077384949 -0.7054263353347778
-0.19379842281341553 0.6273828148841858 -0.6899224519729614
-0.19379842281341553 0.6270675659179688 -0.1782945990562439
-0.19379842281341553 0.6250750422477722 -0.1627907156944275
-0.19379842281341553 0.6234531402587891 -0.14728683233261108
-0.19379842281341553 0.6199730634689331 -0.13178294897079468
-0.19379842281341553 0.6151029467582703 -0.11627906560897827
-0.19379842281341553 0.6301223635673523 -0.674418568611145
-0.19379842281341553 0.6333481073379517 -0.6589146852493286
-0.19379842281341553 0.6363887190818787 -0.643410861492157
-0.19379842281341553 0.6385902166366577 -0.6279069781303406
-0.19379842281341553 0.6396925449371338 -0.6124030947685242
-0.19379842281341553 0.6405202746391296 -0.5968992114067078
-0.19379842281341553 0.6416387557983398 -0.5813953876495361
-0.19379842281341553 0.6425424814224243 -0.5658915042877197
-0.19379842281341553 0.6433166861534119 -0.5503876209259033
-0.19379842281341553 0.6430869698524475 -0.3488371968269348
-0.19379842281341553 0.6422207951545715 -0.3333333134651184
-0.19379842281341553 0.6414788961410522 -0.317829430103302
-0.19379842281341553 0.640739917755127 -0.30232560634613037
-0.19379842281341553 0.6400013566017151 -0.28682172298431396
-0.19379842281341553 0.6394772529602051 -0.27131783962249756
-0.19379842281341553 0.6387239694595337 -0.25581395626068115
-0.19379842281341553 0.637373685836792 -0.24031007289886475
-0.19379842281341553 0.635424017906189 -0.22480618953704834
-0.19379842281341553 0.6326538324356079 -0.20930230617523193
-0.19379842281341553 0.6296243667602539 -0.19379842281341553
-0.19379842281341553 0.6438196897506714 -0.5348837375640869
-0.19379842281341553 0.6442921757698059 -0.5193798542022705
-0.19379842281341553 0.6444870829582214 -0.5038759708404541
-0.19379842281341553 0.6448723673820496 -0.4883720576763153
-0.19379842281341553 0.6451692581176758 -0.4728682041168213
-0.19379842281341553 0.645445704460144 -0.4573643207550049
-0.19379842281341553 0.6455095410346985 -0.4418604373931885
-0.19379842281341553 0.6454087495803833 -0.42635661363601685
-0.19379842281341553 0.645419716835022 -0.41085273027420044
-0.19379842281341553 0.6450968384742737 -0.39534884691238403
-0.19379842281341553 0.6445891857147217 -0.37984499335289
-0.19379842281341553 0.6438406109809875 -0.3643410801887512
-0.1782945990562439 -0.3229527771472931 -0.8914728760719299
-0.1782945990562439 -0.3265448808670044 -0.8759689927101135
-0.1782945990562439 -0.32695043087005615 -0.8604650497436523
-0.1782945990562439 -0.32632380723953247 -0.8449611663818359
-0.1782945990562439 -0.32666170597076416 -0.8294574022293091
-0.1782945990562439 -0.32824400067329407 -0.8139535188674927
-0.1782945990562439 -0.3305087685585022 -0.7984496355056763
-0.1782945990562439 -0.32945141196250916 -0.7829457521438599
-0.1782945990562439 -0.3243691623210907 -0.7674418687820435
-0.1782945990562439 -0.31423547863960266 -0.9069768190383911
-0.1782945990562439 -0.3122888207435608 -0.751937985420227
-0.1782945990562439 -0.2942856252193451 -0.9224806427955627
-0.1782945990562439 -0.29149922728538513 -0.7364341020584106
-0.1782945990562439 -0.25891706347465515 -0.9379844665527344
-0.1782945990562439 -0.2578309178352356 -0.7209302186965942
-0.1782945990562439 -0.2319258749485016 -0.7054263353347778
-0.1782945990562439 -0.21116071939468384 -0.9534883499145508
-0.1782945990562439 -0.21165600419044495 -0.6899224519729614
-0.1782945990562439 -0.19340209662914276 -0.674418568611145
-0.1782945990562439 -0.16737426817417145 -0.9689922332763672
-0.1782945990562439 -0.17802253365516663 -0.6589146256446838
-0.1782945990562439 -0.1659759134054184 -0.643410861492157
-0.1782945990562439 -0.15989844501018524 -0.6279069781303406
-0.1782945990562439 -0.15423952043056488 -0.6124030947685242
-0.1782945990562439 -0.1523505002260208 -0.5968992114067078
-0.1782945990562439 -0.15010641515254974 -0.5813953876495361
-0.1782945990562439 -0.14791853725910187 -0.5658915042877197
-0.1782945990562439 -0.14740413427352905 -0.42635661363601685
-0.1782945990562439 -0.14980734884738922 -0.41085273027420044
-0.1782945990562439 -0.1535901427268982 -0.39534884691238403
-0.1782945990562439 -0.1565859317779541 -0.3798449635505676
-0.1782945990562439 -0.15905779600143433 -0.3643410801887512
-0.1782945990562439 -0.16108006238937378 -0.3488371968269348
-0.1782945990562439 -0.16224586963653564 -0.3333333134651184
-0.1782945990562439 -0.16245678067207336 -0.317829430103302
-0.1782945990562439 -0.16163545846939087 -0.30232560634613037
-0.1782945990562439 -0.15991738438606262 -0.28682172298431396
-0.1782945990562439 -0.15821295976638794 -0.27131783962249756
-0.1782945990562439 -0.15641289949417114 -0.25581395626068115
-0.1782945990562439 -0.1547294557094574 -0.24031007289886475
-0.1782945990562439 -0.1525915265083313 -0.22480618953704834
-0.1782945990562439 -0.14931893348693848 -0.20930230617523193
-0.1782945990562439 -0.14628645777702332 -0.5503876209259033
-0.1782945990562439 -0.1447550654411316 -0.5348837375640869
-0.1782945990562439 -0.14407198131084442 -0.5193798542022705
-0.1782945990562439 -0.14326581358909607 -0.5038759708404541
-0.1782945990562439 -0.1424238085746765 -0.4883720874786377
-0.1782945990562439 -0.14202113449573517 -0.4728682041168213
-0.1782945990562439 -0.14254134893417358 -0.4573643207550049
-0.1782945990562439 -0.14430798590183258 -0.4418604373931885
-0.1782945990562439 -0.14567914605140686 -0.19379842281341553
-0.1782945990562439 -0.14187048375606537 -0.1782945990562439
-0.1782945990562439 -0.13800668716430664 -0.1627907156944275
-0.1782945990562439 -0.13405179977416992 0.39534878730773926
-0.1782945990562439 -0.1411970853805542 0.41085267066955566
-0.1782945990562439 -0.14324194192886353 0.42635655403137207
-0.1782945990562439 -0.141766756772995 0.4418604373931885
-0.1782945990562439 -0.13625207543373108 0.4573643207550049
-0.1782945990562439 -0.13120894134044647 -0.14728683233261108
-0.1782945990562439 -0.12618832290172577 -0.13178294897079468
-0.1782945990562439 -0.12133966386318207 -0.11627906560897827
-0.1782945990562439 -0.12471617013216019 0.37984490394592285
-0.1782945990562439 -0.1294744610786438 0.4728682041168213
-0.1782945990562439 -0.11844746768474579 0.4883720874786377
-0.1782945990562439 -0.11547999083995819 -0.9844960570335388
-0.1782945990562439 -0.11581283807754517 -0.10077518224716187
-0.1782945990562439 -0.11189799755811691 -0.08527129888534546
-0.1782945990562439 -0.10926303267478943 -0.06976741552352905
-0.1782945990562439 -0.10738655924797058 -0.05426359176635742
-0.1782945990562439 -0.10500824451446533 -0.038759708404541016
-0.1782945990562439 -0.10258820652961731 -0.02325582504272461
-0.1782945990562439 -0.11057846248149872 0.364341139793396
-0.1782945990562439 -0.10607686638832092 0.5038759708404541
-0.1782945990562439 -0.0997055396437645 -0.007751941680908203
-0.1782945990562439 -0.09347936511039734 0.007751941680908203
-0.1782945990562439 -0.0858260989189148 0.02325582504272461
-0.1782945990562439 -0.09383761882781982 0.3488372564315796
-0.1782945990562439 -0.0949140265583992 0.5193798542022705
-0.1782945990562439 -0.08539079874753952 0.5348837375640869
-0.1782945990562439 -0.07406578212976456 0.038759708404541016
-0.1782945990562439 -0.07476672530174255 0.3333333730697632
-0.1782945990562439 -0.07678285241127014 0.5503876209259033
-0.1782945990562439 -0.07048341631889343 0.5658915042877197
-0.1782945990562439 -0.05926158279180527 0.05426359176635742
-0.1782945990562439 -0.05511218681931496 0.3178294897079468
-0.1782945990562439 -0.0631541833281517 0.5813953876495361
-0.1782945990562439 -0.05805535614490509 0.5968992710113525
-0.1782945990562439 -0.040794193744659424 0.06976747512817383
-0.1782945841550827 -0.053576722741127014 0.612403154373169
-0.1782945990562439 -0.046096645295619965 0.6279069185256958
-0.1782945990562439 -0.039336614310741425 0.6434108018875122
-0.1782945990562439 -0.035728827118873596 0.30232560634613037
-0.1782945990562439 -0.03022540919482708 0.6589146852493286
-0.1782945990562439 -0.018259523436427116 0.08527135848999023
-0.1782945990562439 -0.007913576439023018 0.27131783962249756
-0.1782946139574051 -0.020992513746023178 0.28682172298431396
-0.1782945990562439 -0.014215919189155102 0.674418568611145
-0.1782945990562439 0.009076346643269062 0.10077523440122604
-0.1782945990562439 0.037712909281253815 0.11627912521362305
-0.1782945990562439 0.031208833679556847 0.25581395626068115
-0.1782945990562439 0.03202832490205765 0.6899224519729614
-0.1782945990562439 0.06360524892807007 0.1317828893661499
-0.1782945990562439 0.05589691549539566 0.24031007289886475
-0.1782945990562439 0.06314633041620255 0.7054263353347778
-0.1782945990562439 0.08384255319833755 0.1472867727279663
-0.1782945990562439 0.07785876840353012 0.22480618953704834
-0.1782945990562439 0.0785299688577652 0.7209302186965942
-0.1782945990562439 0.10072687268257141 0.16279065608978271
-0.1782945990562439 0.09803275763988495 0.20930230617523193
-0.1782945990562439 0.09539570659399033 0.7364341020584106
-0.1782945990562439 0.11422033607959747 0.17829453945159912
-0.1782945990562439 0.11313467472791672 0.19379842281341553
-0.1782945990562439 0.11450571566820145 0.751937985420227
-0.1782945990562439 0.1381593644618988 0.7674418687820435
-0.1782945990562439 0.1638067364692688 0.7829456925392151
-0.1782945990562439 0.1866292953491211 -0.9844961166381836
-0.1782945990562439 0.1956007182598114 0.7984496355056763
-0.1782945990562439 0.23042702674865723 0.8139535188674927
-0.1782945990562439 0.2545126676559448 0.8294574022293091
-0.1782945990562439 0.26912859082221985 0.8449612855911255
-0.1782945990562439 0.27304792404174805 0.8604651689529419
-0.1782945990562439 0.27830684185028076 0.8759689331054688
-0.1782945990562439 0.2816302478313446 0.8914728164672852
-0.1782945990562439 0.2847600281238556 0.9069766998291016
-0.1782945990562439 0.29147884249687195 0.922480583190918
-0.1782945990562439 0.31496599316596985 0.9069766998291016
-0.1782946139574051 0.30666759610176086 0.922480583190918
-0.1782945990562439 0.32595744729042053 0.8604651689529419
-0.1782945990562439 0.3218296766281128 0.8759689331054688
-0.1782945990562439 0.319029837846756 0.8914727568626404
-0.1782945990562439 0.3348798453807831 0.8449612855911255
-0.1782945990562439 0.3560144901275635 0.8294574022293091
-0.1782945990562439 0.3803682029247284 -0.9689922332763672
-0.1782945990562439 0.38735485076904297 0.8139535188674927
-0.1782945990562439 0.4092791676521301 0.7984496355056763
-0.1782945990562439 0.430702805519104 -0.9534883499145508
-0.1782945990562439 0.4290640652179718 0.7829457521438599
-0.1782945990562439 0.4460519552230835 0.7674418687820435
-0.1782945990562439 0.46466904878616333 -0.9379844665527344
-0.1782945990562439 0.4604260325431824 0.751937985420227
-0.1782945990562439 0.48465341329574585 0.17829453945159912
-0.1782945990562439 0.4818040728569031 0.19379842281341553
-0.1782945990562439 0.4859614372253418 0.7209302186965942
-0.1782945841550827 0.4730141758918762 0.7364341020584106
-0.1782945990562439 0.48935461044311523 -0.9224806427955627
-0.1782945990562439 0.495644748210907 0.16279065608978271
-0.1782945990562439 0.49077025055885315 0.20930230617523193
-0.1782945990562439 0.498085081577301 0.7054263353347778
-0.1782946139574051 0.5060772895812988 -0.9069767594337463
-0.1782945990562439 0.5105812549591064 0.1472867727279663
-0.1782945990562439 0.5045351386070251 0.22480620443820953
-0.1782945990562439 0.5152851343154907 0.24031007289886475
-0.1782945990562439 0.5173538327217102 0.674418568611145
-0.1782945990562439 0.5077326893806458 0.6899224519729614
-0.1782945990562439 0.5218470096588135 -0.8914728760719299
-0.1782945990562439 0.526326060295105 0.1317828893661499
-0.1782945990562439 0.5255945920944214 0.25581395626068115
-0.1782945990562439 0.5279406905174255 0.6589146852493286
-0.1782945990562439 0.5368036031723022 -0.8759689927101135
-0.1782945990562439 0.5412957072257996 0.11627912521362305
-0.1782946139574051 0.5360447764396667 0.27131783962249756
-0.1782945990562439 0.54383385181427 0.28682172298431396
-0.1782945990562439 0.5456528663635254 0.6279069185256958
-0.1782945990562439 0.535013735294342 0.6434108018875122
-0.1782945990562439 0.5511263608932495 -0.8604651689529419
-0.1782945990562439 0.5652933716773987 -0.8449612259864807
-0.1782945990562439 0.5625966787338257 0.08527135848999023
-0.1782945990562439 0.5526438355445862 0.10077524185180664
-0.1782946139574051 0.5524582862854004 0.30232560634613037
-0.1782945990562439 0.5605219602584839 0.3178294897079468
-0.1782945990562439 0.5622049570083618 0.5968992710113525
-0.1782945990562439 0.552789032459259 0.612403154373169
-0.1782945990562439 0.5763548016548157 -0.8294573426246643
-0.1782945990562439 0.5778189897537231 0.05426359176635742
-0.1782945990562439 0.5717419385910034 0.06976747512817383
-0.1782945990562439 0.5687065124511719 0.3333333432674408
-0.1782945990562439 0.5763809680938721 0.3488372564315796
-0.1782945990562439 0.580311119556427 0.5503876209259033
-0.1782945990562439 0.5762439370155334 0.5658915042877197
-0.1782945841550827 0.5684317350387573 0.5813953876495361
-0.1782946139574051 0.5838183760643005 -0.8139535188674927
-0.1782945990562439 0.5947352647781372 -0.7984496355056763
-0.1782945990562439 0.5937082171440125 0.007751941680908203
-0.1782945990562439 0.5908003449440002 0.02325582504272461
-0.1782945990562439 0.584334671497345 0.038759708404541016
-0.1782945990562439 0.5831155180931091 0.364341139793396
-0.1782945990562439 0.5898628234863281 0.37984490394592285
-0.1782945990562439 0.5939826369285583 0.39534878730773926
-0.1782945990562439 0.5968803763389587 0.41085267066955566
-0.1782945990562439 0.5966011881828308 0.4728682041168213
-0.1782945990562439 0.594729483127594 0.4883720874786377
-0.1782945990562439 0.592945396900177 0.5038759708404541
-0.1782945990562439 0.5904717445373535 0.5193798542022705
-0.1782945841550827 0.585435152053833 0.5348837375640869
-0.1782945990562439 0.6010730862617493 -0.7829457521438599
-0.1782945990562439 0.609916090965271 -0.7674418687820435
-0.1782945990562439 0.6108052730560303 -0.08527129888534546
-0.1782945990562439 0.6088261604309082 -0.06976741552352905
-0.1782945990562439 0.6072055101394653 -0.05426359176635742
-0.1782945990562439 0.6045029759407043 -0.038759708404541016
-0.1782945990562439 0.6009126901626587 -0.02325582504272461
-0.1782945990562439 0.5971608757972717 -0.007751941680908203
-0.1782945990562439 0.5978031754493713 0.42635655403137207
-0.1782945990562439 0.5979745388031006 0.4418604373931885
-0.1782945990562439 0.5975800156593323 0.4573643207550049
-0.1782945990562439 0.6141453981399536 -0.751937985420227
-0.1782945990562439 0.621005117893219 -0.7364341020584106
-0.1782945990562439 0.6247806549072266 -0.7209302186965942
-0.1782945990562439 0.6267877221107483 -0.7054263353347778
-0.1782945990562439 0.6264578104019165 -0.1627907156944275
-0.1782945990562439 0.6245290040969849 -0.14728683233261108
-0.1782945990562439 0.6223999261856079 -0.13178294897079468
-0.1782945990562439 0.6182882785797119 -0.11627906560897827
-0.1782945990562439 0.6138125061988831 -0.10077518224716187
-0.1782945990562439 0.6297357678413391 -0.6899224519729614
-0.1782945990562439 0.6330140829086304 -0.674418568611145
-0.1782945990562439 0.6363354921340942 -0.6589146852493286
-0.1782945990562439 0.638672411441803 -0.643410861492157
-0.1782945990562439 0.6398106813430786 -0.6279069781303406
-0.1782945990562439 0.6407649517059326 -0.6124030947685242
-0.1782945990562439 0.6419779658317566 -0.5968992114067078
-0.1782945990562439 0.6431475281715393 -0.5813953876495361
-0.1782945990562439 0.642541229724884 -0.317829430103302
-0.1782945990562439 0.6417498588562012 -0.30232560634613037
-0.1782945990562439 0.6411105990409851 -0.28682172298431396
-0.1782945990562439 0.6403586864471436 -0.27131783962249756
-0.1782945990562439 0.6396907567977905 -0.25581395626068115
-0.1782945990562439 0.638979971408844 -0.24031007289886475
-0.1782945990562439 0.6376389265060425 -0.22480618953704834
-0.1782945990562439 0.6353127956390381 -0.20930230617523193
-0.1782945990562439 0.632419764995575 -0.19379842281341553
-0.1782945990562439 0.6291359066963196 -0.1782945990562439
-0.1782945990562439 0.644240140914917 -0.5658915042877197
-0.1782945990562439 0.6452391743659973 -0.5503876209259033
-0.1782945990562439 0.6459208726882935 -0.5348837375640869
-0.1782945990562439 0.6465358138084412 -0.5193798542022705
-0.1782945990562439 0.6467865705490112 -0.5038759708404541
-0.1782945990562439 0.6472671627998352 -0.4883720576763153
-0.1782945990562439 0.6476134061813354 -0.4728682041168213
-0.1782945990562439 0.6479225158691406 -0.4573643207550049
-0.1782945990562439 0.6479685306549072 -0.4418604373931885
-0.1782945990562439 0.647819995880127 -0.42635661363601685
-0.1782945841550827 0.6478028893470764 -0.41085273027420044
-0.1782945990562439 0.6473931074142456 -0.39534884691238403
-0.1782945990562439 0.6467683911323547 -0.3798449635505676
-0.1782945990562439 0.6458037495613098 -0.3643410801887512
-0.1782945990562439 0.6447789669036865 -0.3488371968269348
-0.1782945990562439 0.643572986125946 -0.3333333134651184
-0.1627907156944275 -0.28722164034843445 -0.8759689927101135
-0.1627907156944275 -0.27736663818359375 -0.9069766998291016
-0.1627907156944275 -0.28612667322158813 -0.8914729356765747
-0.1627907156944275 -0.2835279107093811 -0.8604650497436523
-0.1627907156944275 -0.2779200077056885 -0.8449612259864807
-0.1627907156944275 -0.27449336647987366 -0.8294573426246643
-0.1627907156944275 -0.27366650104522705 -0.8139535188674927
-0.1627907156944275 -0.2738690674304962 -0.7984496355056763
-0.1627907156944275 -0.258723646402359 -0.9224806427955627
-0.1627907156944275 -0.2665039300918579 -0.7829457521438599
-0.1627907156944275 -0.25334587693214417 -0.7674418687820435
-0.1627907156944275 -0.2248678356409073 -0.9379844665527344
-0.1627907156944275 -0.2396739274263382 -0.751937985420227
-0.1627907156944275 -0.231236532330513 -0.7364341020584106
-0.1627907156944275 -0.2210681438446045 -0.7209302186965942
-0.1627907156944275 -0.21052202582359314 -0.7054263353347778
-0.1627907156944275 -0.19879275560379028 -0.6899224519729614
-0.1627907156944275 -0.19206789135932922 -0.9534884095191956
-0.1627907156944275 -0.18586300313472748 -0.674418568611145
-0.1627907156944275 -0.17506983876228333 -0.6589146852493286
-0.1627907156944275 -0.1667005866765976 -0.643410861492157
-0.1627907156944275 -0.16398188471794128 -0.6279069781303406
-0.1627907156944275 -0.1628665179014206 -0.3643410801887512
-0.1627907156944275 -0.16443544626235962 -0.3488371968269348
-0.1627907156944275 -0.16538886725902557 -0.3333333134651184
-0.1627907156944275 -0.16554106771945953 -0.317829430103302
-0.1627907156944275 -0.16474086046218872 -0.30232560634613037
-0.1627907156944275 -0.16318273544311523 -0.28682172298431396
-0.1627907156944275 -0.1554427444934845 -0.9689922332763672
-0.1627907007932663 -0.16245684027671814 -0.6124030947685242
-0.1627907156944275 -0.1595652848482132 -0.5968992114067078
-0.1627907156944275 -0.15635403990745544 -0.5813953876495361
-0.1627907156944275 -0.15357229113578796 -0.5658915042877197
-0.1627907156944275 -0.1519785225391388 -0.5503876209259033
-0.1627907156944275 -0.15063366293907166 -0.5348837375640869
-0.1627907156944275 -0.14996536076068878 -0.5193798542022705
-0.1627907156944275 -0.14924673736095428 -0.5038759708404541
-0.1627907156944275 -0.14862218499183655 -0.4883720874786377
-0.1627907156944275 -0.1482766717672348 -0.4728682041168213
-0.1627907156944275 -0.14841169118881226 -0.4573643207550049
-0.1627907156944275 -0.14921393990516663 -0.4418604373931885
-0.1627907156944275 -0.15110966563224792 -0.42635661363601685
-0.1627907156944275 -0.15398472547531128 -0.41085273027420044
-0.1627907156944275 -0.15697750449180603 -0.39534884691238403
-0.1627907156944275 -0.1599455028772354 -0.3798449635505676
-0.1627907156944275 -0.161152184009552 -0.27131783962249756
-0.1627907156944275 -0.15892556309700012 -0.25581395626068115
-0.1627907156944275 -0.15717744827270508 -0.24031007289886475
-0.1627907156944275 -0.15559592843055725 -0.22480618953704834
-0.1627907156944275 -0.1534075140953064 -0.20930230617523193
-0.1627907156944275 -0.14995616674423218 -0.19379842281341553
-0.1627907156944275 -0.14817684888839722 0.39534878730773926
-0.1627907156944275 -0.15519389510154724 0.41085267066955566
-0.1627907156944275 -0.15758295357227325 0.42635655403137207
-0.1627907156944275 -0.15608328580856323 0.44186046719551086
-0.1627907156944275 -0.15135928988456726 0.4573643207550049
-0.1627907156944275 -0.14536403119564056 -0.1782946139574051
-0.1627907156944275 -0.14130277931690216 -0.1627907156944275
-0.1627907156944275 -0.13651251792907715 -0.14728683233261108
-0.1627907156944275 -0.13842959702014923 0.37984490394592285
-0.1627907156944275 -0.14554890990257263 0.4728682041168213
-0.1627907156944275 -0.1348695158958435 0.4883720874786377
-0.1627907156944275 -0.1297716349363327 -0.13178294897079468
-0.1627907156944275 -0.12532290816307068 -0.11627906560897827
-0.1627907156944275 -0.12066419422626495 -0.10077518224716187
-0.1627907156944275 -0.11636041849851608 -0.08527129888534546
-0.1627907156944275 -0.1239822655916214 0.364341139793396
-0.1627907156944275 -0.12277738749980927 0.5038759708404541
-0.1627907156944275 -0.10879801213741302 -0.9844961166381836
-0.1627907156944275 -0.11338423192501068 -0.06976741552352905
-0.1627907156944275 -0.1118626520037651 -0.05426359176635742
-0.1627907156944275 -0.11010657995939255 -0.038759708404541016
-0.1627907156944275 -0.10813403129577637 -0.02325582504272461
-0.1627907156944275 -0.10486561059951782 -0.007751941680908203
-0.1627907156944275 -0.10601449757814407 0.3488372564315796
-0.1627907156944275 -0.10895253717899323 0.5193798542022705
-0.1627907156944275 -0.10025552660226822 0.007751941680908203
-0.1627907156944275 -0.0918394923210144 0.02325582504272461
-0.1627907156944275 -0.08614209294319153 0.3333333730697632
-0.1627907156944275 -0.09394790232181549 0.5348837375640869
-0.1627907156944275 -0.08174582570791245 0.038759708404541016
-0.1627907156944275 -0.08250245451927185 0.5503876209259033
-0.1627907156944275 -0.07376556843519211 0.5658915042877197
-0.1627907156944275 -0.06977079808712006 0.5813953876495361
-0.16279073059558868 -0.06828556209802628 0.05426359549164772
-0.1627907156944275 -0.06528876721858978 0.3178294897079468
-0.1627907156944275 -0.06442148238420486 0.5968992710113525
-0.1627907156944275 -0.059297673404216766 0.612403154373169
-0.1627907156944275 -0.051428988575935364 0.06976747512817383
-0.1627907156944275 -0.04550743103027344 0.30232560634613037
-0.1627907156944275 -0.0517723485827446 0.6279069185256958
-0.1627907156944275 -0.04421912133693695 0.6434108018875122
-0.1627907156944275 -0.029593810439109802 0.08527135848999023
-0.1627907156944275 -0.030244959518313408 0.28682172298431396
-0.1627907156944275 -0.032863274216651917 0.6589146852493286
-0.1627907156944275 -0.016994429752230644 0.27131783962249756
-0.1627907156944275 -0.016431236639618874 0.674418568611145
-0.1627907156944275 -0.0046224696561694145 0.10077524185180664
-0.1627907156944275 0.022128717973828316 0.11627912521362305
-0.1627907156944275 0.011573698371648788 0.25581395626068115
-0.1627907156944275 0.019388679414987564 0.6899224519729614
-0.1627907156944275 0.04984254390001297 0.1317828893661499
-0.1627907156944275 0.04064203426241875 0.24031008780002594
-0.1627907156944275 0.062259577214717865 0.22480618953704834
-0.1627907156944275 0.05472599342465401 0.7054263949394226
-0.1627907156944275 0.07002832740545273 0.1472867876291275
-0.1627907156944275 0.08166790753602982 0.20930230617523193
-0.1627907156944275 0.07033739984035492 0.7209302186965942
-0.1627907156944275 0.08746979385614395 0.16279065608978271
-0.1627907156944275 0.09819769859313965 0.17829453945159912
-0.1627907156944275 0.09548189491033554 0.19379842281341553
-0.16279073059558868 0.08779506385326385 0.7364341616630554
-0.1627907156944275 0.10706663131713867 0.751937985420227
-0.1627907156944275 0.12923957407474518 0.7674418687820435
-0.1627907156944275 0.1562318354845047 0.7829457521438599
-0.1627907156944275 0.18725691735744476 0.7984496355056763
-0.1627907156944275 0.22074148058891296 0.8139535188674927
-0.1627907156944275 0.24988201260566711 0.8294574022293091
-0.1627907156944275 0.2614927887916565 -0.9844961166381836
-0.1627907156944275 0.2699471712112427 0.8449612855911255
-0.1627907156944275 0.2812780737876892 0.8604651689529419
-0.1627907156944275 0.2858622074127197 0.8759689331054688
-0.1627907156944275 0.29954060912132263 0.8914728164672852
-0.1627907156944275 0.31106799840927124 0.8759689331054688
-0.1627907156944275 0.30323392152786255 0.8914728164672852
-0.1627907156944275 0.31936347484588623 0.8604651689529419
-0.1627907007932663 0.3341635465621948 0.8449612855911255
-0.1627907156944275 0.36851388216018677 0.8294574022293091
-0.1627907156944275 0.395175039768219 -0.9689922332763672
-0.1627907156944275 0.3968910276889801 0.8139535188674927
-0.1627907156944275 0.4192420244216919 0.7984496355056763
-0.1627907156944275 0.43742650747299194 0.7829457521438599
-0.16279073059558868 0.44234874844551086 -0.9534884095191956
-0.1627907156944275 0.4533337354660034 0.7674418687820435
-0.1627907156944275 0.4674443006515503 0.751937985420227
-0.1627907156944275 0.473704069852829 -0.9379844665527344
-0.1627907156944275 0.48038822412490845 0.7364341020584106
-0.1627907156944275 0.4931839406490326 -0.9224807024002075
-0.1627907156944275 0.49530482292175293 0.17829453945159912
-0.1627907156944275 0.4937906265258789 0.19379843771457672
-0.1627907156944275 0.5019239783287048 0.20930230617523193
-0.1627907156944275 0.5021074414253235 0.7054263353347778
-0.1627907156944275 0.4913008213043213 0.7209302186965942
-0.1627907156944275 0.5137292146682739 -0.9069768190383911
-0.1627907156944275 0.5182076692581177 0.1472867727279663
-0.1627907156944275 0.5053451657295227 0.16279065608978271
-0.1627907156944275 0.5117929577827454 0.22480618953704834
-0.1627907156944275 0.5138397216796875 0.6899224519729614
-0.1627907156944275 0.5299156904220581 -0.8914728760719299
-0.1627907156944275 0.5322636365890503 0.1317828893661499
-0.1627907156944275 0.5227608680725098 0.24031007289886475
-0.1627907156944275 0.5342193245887756 0.25581395626068115
-0.1627907156944275 0.532317042350769 0.6589146852493286
-0.1627907156944275 0.5221477746963501 0.674418568611145
-0.1627907156944275 0.544152021408081 -0.8759689331054688
-0.1627907156944275 0.5460765361785889 0.11627912521362305
-0.1627907156944275 0.5418276786804199 0.27131783962249756
-0.1627907156944275 0.5488472580909729 0.6279069185256958
-0.1627907156944275 0.5416460037231445 0.6434108018875122
-0.1627907156944275 0.5565924644470215 -0.8604651093482971
-0.1627907156944275 0.5650834441184998 0.08527135848999023
-0.1627907156944275 0.5571509599685669 0.10077524185180664
-0.1627907156944275 0.5507878065109253 0.28682172298431396
-0.1627907156944275 0.5579653978347778 0.30232560634613037
-0.1627907156944275 0.5650009512901306 0.5968992710113525
-0.1627907156944275 0.5589244961738586 0.612403154373169
-0.1627907156944275 0.5669853687286377 -0.8449612259864807
-0.1627907156944275 0.579656720161438 -0.8294573426246643
-0.1627907156944275 0.5797442197799683 0.05426359176635742
-0.1627907156944275 0.5747876167297363 0.06976747512817383
-0.1627907156944275 0.5661251544952393 0.3178294897079468
-0.1627907156944275 0.5737171173095703 0.3333333730697632
-0.1627907156944275 0.5811098217964172 0.3488372564315796
-0.1627907156944275 0.5792133212089539 0.5658915042877197
-0.1627907156944275 0.5739699602127075 0.5813953876495361
-0.1627907156944275 0.5884709358215332 -0.8139535188674927
-0.1627907156944275 0.5959881544113159 -0.7984496355056763
-0.1627907156944275 0.59577476978302 0.007751941680908203
-0.1627907156944275 0.592552125453949 0.02325582504272461
-0.1627907156944275 0.5879424214363098 0.038759708404541016
-0.1627907156944275 0.5880048274993896 0.364341139793396
-0.1627907156944275 0.5934464931488037 0.37984490394592285
-0.1627907156944275 0.5958349108695984 0.5038759708404541
-0.1627907156944275 0.5935985445976257 0.5193798542022705
-0.1627907156944275 0.590333104133606 0.5348837375640869
-0.1627907156944275 0.5846711993217468 0.5503876209259033
-0.1627907156944275 0.605221152305603 -0.7829457521438599
-0.1627907156944275 0.6110090613365173 -0.7674418687820435
-0.1627907156944275 0.6101908683776855 -0.06976741552352905
-0.1627907156944275 0.6085585355758667 -0.05426359176635742
-0.1627907156944275 0.6067793369293213 -0.038759708404541016
-0.1627907156944275 0.6038193702697754 -0.02325582504272461
-0.16279073059558868 0.599951982498169 -0.007751941680908203
-0.1627907156944275 0.5977169871330261 0.39534878730773926
-0.1627907156944275 0.6003701686859131 0.41085267066955566
-0.1627907156944275 0.6017259359359741 0.42635655403137207
-0.1627907156944275 0.6019222736358643 0.4418604373931885
-0.1627907156944275 0.6013491153717041 0.4573643207550049
-0.1627907156944275 0.600142776966095 0.4728682041168213
-0.1627907156944275 0.5982092022895813 0.4883721172809601
-0.1627907156944275 0.6173996329307556 -0.751937985420227
-0.1627907156944275 0.6236984729766846 -0.7364341020584106
-0.1627907156944275 0.6257701516151428 -0.7209302186965942
-0.1627907156944275 0.625503659248352 -0.14728683233261108
-0.1627907156944275 0.6237810850143433 -0.13178294897079468
-0.1627907156944275 0.6206624507904053 -0.11627906560897827
-0.1627907156944275 0.6163961887359619 -0.10077518224716187
-0.1627907156944275 0.6128692030906677 -0.08527130633592606
-0.1627907156944275 0.6288619041442871 -0.7054263353347778
-0.1627907156944275 0.6321884393692017 -0.6899224519729614
-0.1627907156944275 0.6356878280639648 -0.674418568611145
-0.1627907156944275 0.6384409070014954 -0.6589146852493286
-0.1627907156944275 0.6397361755371094 -0.643410861492157
-0.1627907156944275 0.6407355666160583 -0.6279069781303406
-0.1627907156944275 0.642044186592102 -0.6124030947685242
-0.1627907156944275 0.6433087587356567 -0.5968992114067078
-0.1627907156944275 0.6427794098854065 -0.30232560634613037
-0.1627907156944275 0.6420226693153381 -0.28682172298431396
-0.1627907156944275 0.6413668394088745 -0.27131783962249756
-0.1627907156944275 0.6404346823692322 -0.25581395626068115
-0.1627907156944275 0.6398327946662903 -0.24031007289886475
-0.1627907156944275 0.6390345692634583 -0.22480618953704834
-0.1627907156944275 0.6372494101524353 -0.20930230617523193
-0.1627907156944275 0.6346636414527893 -0.19379842281341553
-0.1627907156944275 0.6313543915748596 -0.1782945990562439
-0.1627907156944275 0.627966582775116 -0.1627907156944275
-0.1627907156944275 0.6446785926818848 -0.5813953876495361
-0.1627907156944275 0.6460942029953003 -0.5658915042877197
-0.1627907156944275 0.6473162174224854 -0.5503876209259033
-0.1627907156944275 0.6481173634529114 -0.5348837375640869
-0.1627907156944275 0.6488381028175354 -0.5193798542022705
-0.1627907156944275 0.6491320729255676 -0.5038759708404541
-0.1627907156944275 0.6496692895889282 -0.4883720874786377
-0.1627907156944275 0.6500241756439209 -0.4728682041168213
-0.1627907156944275 0.650314211845398 -0.4573643207550049
-0.1627907156944275 0.6503301858901978 -0.4418604373931885
-0.1627907156944275 0.6501445770263672 -0.42635661363601685
-0.1627907156944275 0.6501061916351318 -0.41085273027420044
-0.1627907156944275 0.6496498584747314 -0.39534884691238403
-0.1627907156944275 0.6489691734313965 -0.3798449635505676
-0.1627907156944275 0.647891104221344 -0.36434105038642883
-0.1627907156944275 0.6467201709747314 -0.3488371968269348
-0.1627907156944275 0.6452221870422363 -0.333333283662796
-0.1627907156944275 0.6438620090484619 -0.317829430103302
-0.14728683233261108 -0.23639439046382904 -0.9069767594337463
-0.14728683233261108 -0.23928658664226532 -0.8914728760719299
-0.14728683233261108 -0.23430168628692627 -0.8759689331054688
-0.14728683233261108 -0.22666263580322266 -0.8604651093482971
-0.14728683233261108 -0.22194093465805054 -0.9224806427955627
-0.14728683233261108 -0.22280552983283997 -0.8449612855911255
-0.14728683233261108 -0.22172433137893677 -0.8294572830200195
-0.14728683233261108 -0.22205621004104614 -0.8139535188674927
-0.14728684723377228 -0.22247052192687988 -0.7984496355056763
-0.14728683233261108 -0.22124411165714264 -0.7829457521438599
-0.14728683233261108 -0.21881181001663208 -0.7674418687820435
-0.14728683233261108 -0.21485601365566254 -0.751937985420227
-0.14728683233261108 -0.21018217504024506 -0.7364341020584106
-0.14728683233261108 -0.20045267045497894 -0.9379844665527344
-0.14728683233261108 -0.2045654058456421 -0.7209302186965942
-0.14728683233261108 -0.19769297540187836 -0.7054263353347778
-0.14728683233261108 -0.18889230489730835 -0.6899224519729614
-0.14728683233261108 -0.18075205385684967 -0.674418568611145
-0.14728683233261108 -0.1756678819656372 -0.9534883499145508
-0.14728683233261108 -0.1734880656003952 -0.6589146852493286
-0.14728683233261108 -0.16747482120990753 -0.643410861492157
-0.14728683233261108 -0.16531436145305634 -0.6279069781303406
-0.14728683233261108 -0.164275124669075 -0.6124030947685242
-0.14728683233261108 -0.16361720860004425 -0.5968992114067078
-0.14728683233261108 -0.1632879078388214 -0.3798449635505676
-0.14728683233261108 -0.1653677225112915 -0.3643410801887512
-0.14728683233261108 -0.1673661470413208 -0.3488371968269348
-0.14728683233261108 -0.16834679245948792 -0.3333333134651184
-0.14728683233261108 -0.1684819459915161 -0.317829430103302
-0.14728683233261108 -0.16761906445026398 -0.30232560634613037
-0.14728683233261108 -0.1655714511871338 -0.28682172298431396
-0.14728683233261108 -0.16370052099227905 -0.27131783962249756
-0.14728683233261108 -0.16788250207901 0.41085267066955566
-0.14728683233261108 -0.17036327719688416 0.42635655403137207
-0.14728683233261108 -0.16920998692512512 0.4418604373931885
-0.14728683233261108 -0.16539284586906433 0.4573643207550049
-0.14728683233261108 -0.1616843342781067 -0.5813953876495361
-0.14728683233261108 -0.15856905281543732 -0.5658915042877197
-0.14728683233261108 -0.15673615038394928 -0.5503876209259033
-0.14728683233261108 -0.15516990423202515 -0.5348837375640869
-0.14728683233261108 -0.1544398069381714 -0.5193798542022705
-0.14728683233261108 -0.15364475548267365 -0.5038759708404541
-0.14728683233261108 -0.15290844440460205 -0.4883720874786377
-0.14728683233261108 -0.15235932171344757 -0.4728682041168213
-0.14728683233261108 -0.15232959389686584 -0.4573643207550049
-0.14728683233261108 -0.15306144952774048 -0.4418604373931885
-0.14728683233261108 -0.15463805198669434 -0.42635661363601685
-0.14728683233261108 -0.15715380012989044 -0.41085273027420044
-0.14728683233261108 -0.16015198826789856 -0.39534884691238403
-0.14728683233261108 -0.16157332062721252 -0.25581395626068115
-0.14728683233261108 -0.15945643186569214 -0.24031007289886475
-0.14728683233261108 -0.15772947669029236 -0.22480618953704834
-0.14728683233261108 -0.15587306022644043 -0.20930230617523193
-0.14728683233261108 -0.15362045168876648 -0.19379842281341553
-0.14728683233261108 -0.14919868111610413 -0.1782945990562439
-0.14728683233261108 -0.15141603350639343 0.37984490394592285
-0.14728683233261108 -0.16148516535758972 0.39534878730773926
-0.14728683233261108 -0.16022081673145294 0.4728682041168213
-0.14728683233261108 -0.1506997048854828 0.4883720874786377
-0.14728683233261108 -0.1450420618057251 -0.9689922332763672
-0.14728683233261108 -0.14421194791793823 -0.1627907156944275
-0.14728683233261108 -0.14006011188030243 -0.14728683233261108
-0.14728683233261108 -0.1342265009880066 -0.13178294897079468
-0.14728683233261108 -0.13705730438232422 0.364341139793396
-0.14728683233261108 -0.13956797122955322 0.5038759708404541
-0.14728683233261108 -0.128297820687294 -0.11627906560897827
-0.14728683233261108 -0.12455273419618607 -0.10077518224716187
-0.14728683233261108 -0.12051056325435638 -0.08527129888534546
-0.14728683233261108 -0.11738310754299164 -0.06976741552352905
-0.14728683233261108 -0.1186220720410347 0.3488372564315796
-0.14728683233261108 -0.12486947327852249 0.5193798542022705
-0.1472868174314499 -0.11624564230442047 -0.05426359176635742
-0.14728683233261108 -0.11442041397094727 -0.038759708404541016
-0.14728683233261108 -0.1124834194779396 -0.02325582504272461
-0.14728683233261108 -0.10952036082744598 -0.00775194214656949
-0.14728683233261108 -0.10471270233392715 0.007751941680908203
-0.14728683233261108 -0.10706636309623718 0.5348837375640869
-0.14728684723377228 -0.10005532205104828 -0.9844961166381836
-0.14728683233261108 -0.0974174290895462 0.02325582504272461
-0.14728683233261108 -0.08724981546401978 0.038759708404541016
-0.14728683233261108 -0.09670732915401459 0.3333333730697632
-0.14728683233261108 -0.08945977687835693 0.5503876209259033
-0.14728683233261108 -0.07432366162538528 0.05426359176635742
-0.14728683233261108 -0.07423259317874908 0.3178294897079468
-0.14728683233261108 -0.07703182101249695 0.5658915042877197
-0.14728683233261108 -0.07085757702589035 0.5813953876495361
-0.14728683233261108 -0.05842144787311554 0.06976747512817383
-0.14728683233261108 -0.05451846122741699 0.30232560634613037
-0.14728683233261108 -0.06621471047401428 0.5968992710113525
-0.14728683233261108 -0.061192795634269714 0.612403154373169
-0.14728683233261108 -0.03886617720127106 0.08527135848999023
-0.14728683233261108 -0.053928881883621216 0.6279069185256958
-0.14728683233261108 -0.04422818869352341 0.6434108018875122
-0.14728683233261108 -0.036281317472457886 0.28682172298431396
-0.14728683233261108 -0.03148888424038887 0.6589146852493286
-0.14728683233261108 -0.01432301290333271 0.10077524185180664
-0.14728683233261108 -0.020784158259630203 0.27131783962249756
-0.14728683233261108 -0.013995405286550522 0.674418568611145
-0.14728683233261108 0.0007615266367793083 0.25581395626068115
-0.14728683233261108 0.011103099212050438 0.11627912521362305
-0.14728683233261108 0.020254623144865036 0.6899224519729614
-0.14728683233261108 0.03778024762868881 0.1317828893661499
-0.14728683233261108 0.02690190263092518 0.24031008780002594
-0.14728683233261108 0.04944511502981186 0.22480618953704834
-0.14728683233261108 0.04768817126750946 0.7054263353347778
-0.14728683233261108 0.060704879462718964 0.1472867727279663
-0.14728683233261108 0.06830036640167236 0.20930230617523193
-0.14728683233261108 0.06403695791959763 0.7209302186965942
-0.14728683233261108 0.07763426750898361 0.16279065608978271
-0.14728683233261108 0.08247609436511993 0.19379842281341553
-0.14728683233261108 0.08049041032791138 0.7364341020584106
-0.14728683233261108 0.08596440404653549 0.17829453945159912
-0.14728683233261108 0.09898437559604645 0.751937985420227
-0.14728683233261108 0.12185919284820557 0.7674418687820435
-0.14728683233261108 0.14838306605815887 0.7829457521438599
-0.14728683233261108 0.1799737513065338 0.7984496355056763
-0.14728683233261108 0.21300221979618073 0.8139535188674927
-0.14728683233261108 0.2406352460384369 0.8294574022293091
-0.14728683233261108 0.2702685594558716 0.8449612855911255
-0.14728683233261108 0.2963574528694153 0.8604651689529419
-0.14728683233261108 0.30499717593193054 0.8604651689529419
-0.14728683233261108 0.3240659832954407 -0.9844961166381836
-0.14728683233261108 0.335396945476532 0.8449612855911255
-0.14728683233261108 0.37726783752441406 0.8294574022293091
-0.14728683233261108 0.4018893837928772 -0.9689922332763672
-0.14728683233261108 0.4052105247974396 0.8139535188674927
-0.14728683233261108 0.4257005751132965 0.7984496355056763
-0.14728683233261108 0.4473378658294678 -0.953488290309906
-0.14728683233261108 0.4431819021701813 0.7829457521438599
-0.14728683233261108 0.4715673625469208 0.751937985420227
-0.14728683233261108 0.4582612216472626 0.7674419283866882
-0.14728683233261108 0.4772322475910187 -0.9379844665527344
-0.14728683233261108 0.4849015474319458 0.7364341020584106
-0.14728683233261108 0.5012922286987305 -0.9224806427955627
-0.14728683233261108 0.5031772255897522 0.19379842281341553
-0.14728683233261108 0.49709662795066833 0.7209302186965942
