0.3095014691352844 -0.007751941680908203 0.42635655403137207
0.3126123249530792 -0.007751941680908203 0.4418604373931885
0.31462228298187256 -0.007751941680908203 0.4573643207550049
0.3149285912513733 -0.007751941680908203 0.4728682041168213
0.3136974573135376 -0.007751941680908203 0.4883720874786377
0.3113871216773987 -0.007751941680908203 0.5038759708404541
0.30816495418548584 -0.007751941680908203 0.5193798542022705
0.30396029353141785 -0.007751941680908203 0.5348837375640869
0.3154444098472595 0.007751941680908203 0.02325582504272461
0.30276456475257874 0.007751941680908203 0.37984493374824524
0.31004059314727783 0.007751941680908203 0.39534878730773926
0.31760287284851074 0.007751941680908203 0.41085267066955566
0.31597059965133667 0.007751941680908203 0.5503876209259033
0.3069874346256256 0.007751941680908203 0.5658915042877197
0.3105112314224243 0.02325582504272461 0.038759708404541016
0.312826931476593 0.02325582504272461 0.37984490394592285
0.3120371699333191 0.02325582504272461 0.5813953876495361
0.3132646083831787 0.038759708404541016 -0.9534883499145508
0.3126334547996521 0.038759708404541016 0.364341139793396
0.3111324906349182 0.038759708404541016 0.5968992710113525
0.307170033454895 0.05426359176635742 -0.9534883499145508
0.3111990690231323 0.05426359176635742 0.05426359176635742
0.3103078603744507 0.05426359176635742 0.3488372564315796
0.3079000413417816 0.05426359176635742 0.612403154373169
0.30281320214271545 0.06976747512817383 -0.9534883499145508
0.30555248260498047 0.06976747512817383 0.3333333730697632
0.3178195357322693 0.06976747512817383 0.3488372564315796
0.30542460083961487 0.06976747512817383 0.6279069185256958
0.3108956217765808 0.08527135848999023 0.06976747512817383
0.31437766551971436 0.08527135848999023 0.3333333730697632
0.30286896228790283 0.08527135103940964 0.6434108018875122
0.3093852996826172 0.10077524185180664 0.3178294897079468
0.31337952613830566 0.10077524185180664 0.6434108018875122
0.3067632019519806 0.11627912521362305 0.08527135848999023
0.3154173493385315 0.11627912521362305 0.3178294897079468
0.3098538815975189 0.11627912521362305 0.6589146852493286
0.31446152925491333 0.1317828893661499 0.08527135848999023
0.30900439620018005 0.1317828893661499 0.30232560634613037
0.30612605810165405 0.1317828893661499 0.674418568611145
0.31622570753097534 0.1472867727279663 -0.9379844665527344
0.3132561147212982 0.1472867727279663 0.30232560634613037
0.31238800287246704 0.1472867727279663 0.674418568611145
0.31088343262672424 0.16279065608978271 -0.9379844665527344
0.30465999245643616 0.16279065608978271 0.28682172298431396
0.3163861930370331 0.16279065608978271 0.30232560634613037
0.30770623683929443 0.16279065608978271 0.6899224519729614
0.30655521154403687 0.17829453945159912 -0.9379844665527344
0.3085644543170929 0.17829453945159912 0.28682172298431396
0.3116275668144226 0.17829453945159912 0.6899224519729614
0.30406737327575684 0.19379843771457672 -0.9379844665527344
0.30435463786125183 0.19379842281341553 0.10077524185180664
0.3114490211009979 0.19379842281341553 0.28682172298431396
0.31438153982162476 0.19379842281341553 0.6899224519729614
0.30480533838272095 0.19379842281341553 0.7054263353347778
0.3025554120540619 0.20930230617523193 -0.9379844665527344
0.30810075998306274 0.20930230617523193 0.10077523440122604
0.31437093019485474 0.20930230617523193 0.28682172298431396
0.31727662682533264 0.20930230617523193 0.6899224519729614
0.3069937229156494 0.20930230617523193 0.7054263353347778
0.31230124831199646 0.22480618953704834 0.10077524185180664
0.3052082657814026 0.22480618953704834 0.27131783962249756
0.3167945444583893 0.22480618953704834 0.28682172298431396
0.30912554264068604 0.22480618953704834 0.7054263353347778
0.30804765224456787 0.24031007289886475 0.27131783962249756
0.3111644387245178 0.24031007289886475 0.7054263353347778
0.3040952682495117 0.24031007289886475 0.7209301590919495
0.31016647815704346 0.25581395626068115 0.27131783962249756
0.31213343143463135 0.25581395626068115 0.7054263353347778
0.3053458333015442 0.25581395626068115 0.7209302186965942
0.3117543160915375 0.27131783962249756 0.27131783962249756
0.3128145635128021 0.27131783962249756 0.7054263353347778
0.3063201606273651 0.27131783962249756 0.7209302186965942
0.3127394914627075 0.28682172298431396 0.27131783962249756
0.3145361542701721 0.28682172298431396 0.7054263353347778
0.30843663215637207 0.28682172298431396 0.7209302186965942
0.3033064603805542 0.28682172298431396 0.7364341020584106
0.3095909357070923 0.28682172298431396 0.8139535188674927
0.3092649579048157 0.30232560634613037 0.11627912521362305
0.3134561777114868 0.30232560634613037 0.27131783962249756
0.31156617403030396 0.30232560634613037 0.7209302186965942
0.3060191869735718 0.30232560634613037 0.7364341020584106
0.30288854241371155 0.30232560634613037 0.751937985420227
0.3082139492034912 0.30232560634613037 0.7984496355056763
0.3152785003185272 0.30232560634613037 0.9844961166381836
0.3114725351333618 0.3178294897079468 0.11627912521362305
0.31318119168281555 0.3178294897079468 0.27131783962249756
0.31355369091033936 0.3178294897079468 0.7209302186965942
0.3082245886325836 0.3178294897079468 0.7364341020584106
0.3044881820678711 0.3178294897079468 0.751937985420227
0.3027312159538269 0.3178294897079468 0.7674418687820435
0.3028112053871155 0.31782951951026917 0.7829458117485046
0.3072558045387268 0.3178294897079468 0.7984496355056763
0.3053717315196991 0.3178294897079468 0.9689922332763672
0.30753928422927856 0.3333333730697632 0.11627912521362305
0.31179675459861755 0.3333333730697632 0.27131783962249756
0.31466904282569885 0.3333333730697632 0.7209302186965942
0.3091433644294739 0.3333333730697632 0.7364341020584106
0.3045923709869385 0.3333333432674408 0.7519379258155823
0.3077532649040222 0.3333333730697632 0.8294574022293091
0.31670016050338745 0.3333333730697632 0.8449612855911255
0.3099079132080078 0.3333333730697632 0.8759689331054688
0.3094051480293274 0.3488372564315796 0.27131783962249756
0.3146844804286957 0.3488372564315796 0.7209302186965942
0.30891215801239014 0.3488372564315796 0.7364341020584106
0.30376696586608887 0.348837286233902 0.751937985420227
0.30690473318099976 0.364341139793396 0.27131783962249756
0.3134059011936188 0.364341139793396 0.7209302186965942
0.3068404793739319 0.364341139793396 0.7364341020584106
0.3031124472618103 0.37984490394592285 0.27131783962249756
0.315339595079422 0.37984490394592285 0.28682172298431396
0.31626132130622864 0.37984490394592285 0.7054263353347778
0.3098154366016388 0.37984490394592285 0.7209302186965942
0.31669044494628906 0.39534878730773926 -0.9224806427955627
0.312033474445343 0.39534878730773926 0.10077524185180664
0.3103022277355194 0.39534878730773926 0.28682172298431396
0.31226521730422974 0.39534878730773926 0.7054263353347778
0.30323803424835205 0.39534878730773926 0.7209302186965942
0.31163281202316284 0.41085267066955566 -0.9224806427955627
0.3059212565422058 0.41085267066955566 0.28682172298431396
0.3149651288986206 0.41085267066955566 0.6899224519729614
0.3052603602409363 0.41085267066955566 0.7054263353347778
0.3056885600090027 0.42635655403137207 -0.9224807024002075
0.31188827753067017 0.42635655403137207 0.30232560634613037
0.3166423738002777 0.42635655403137207 0.674418568611145
0.30877241492271423 0.42635655403137207 0.6899224519729614
0.30829960107803345 0.4418604373931885 0.08527135848999023
0.30705973505973816 0.4418604373931885 0.30232560634613037
0.31053483486175537 0.4418604373931885 0.674418568611145
0.31367164850234985 0.4573643207550049 0.3178294897079468
0.3112512230873108 0.4573643207550049 0.6589146852493286
0.30910569429397583 0.4728682041168213 -0.9069766998291016
0.3129265010356903 0.4728682041168213 0.06976747512817383
0.3076747953891754 0.4728682041168213 0.3178294897079468
0.31012269854545593 0.4728682041168213 0.6434108018875122
0.3031584918498993 0.4883720874786377 0.06976747512817383
0.3117150664329529 0.4883720874786377 0.3333333730697632
0.31601396203041077 0.4883720874786377 0.612403154373169
0.3057830035686493 0.4883720874786377 0.6279069185256958
0.3055570423603058 0.5038759708404541 -0.8914728760719299
0.3087046146392822 0.5038759708404541 0.05426359176635742
0.3033466637134552 0.5038759708404541 0.3333333730697632
0.3140942454338074 0.5038759708404541 0.3488372564315796
0.3130352795124054 0.5038759708404541 0.5968992710113525
0.31294018030166626 0.5193798542022705 -0.8759689927101135
0.30698221921920776 0.5193798542022705 0.038759708404541016
0.30308499932289124 0.5193798542022705 0.3488372564315796
0.31212708353996277 0.5193798542022705 0.364341139793396
0.31393396854400635 0.5193798542022705 0.5658915042877197
0.3057166337966919 0.5193798542022705 0.5813953876495361
0.314405620098114 0.5348837375640869 -0.8604651093482971
0.31152623891830444 0.5348837375640869 0.007751941680908203
0.30775249004364014 0.5348837375640869 0.37984490394592285
0.31336575746536255 0.5348837375640869 0.39534878730773926
0.31498825550079346 0.5348837375640869 0.5193798542022705
0.3113323450088501 0.5348837375640869 0.5348837375640869
0.3044271469116211 0.5348837375640869 0.5503876209259033
0.30920732021331787 0.5503876209259033 -0.8449611663818359
0.30828574299812317 0.5503876209259033 -0.02325582504272461
0.30310407280921936 0.5503876209259033 0.41085267066955566
0.3065938651561737 0.5503876209259033 0.42635655403137207
0.30844613909721375 0.5503876209259033 0.4418604373931885
0.30911320447921753 0.5503876209259033 0.4573643207550049
0.3088489770889282 0.5503876209259033 0.4728682041168213
0.3066553771495819 0.5503876209259033 0.4883720874786377
0.31758764386177063 0.5658915042877197 -0.8139535188674927
0.3109561800956726 0.5658915042877197 -0.06976741552352905
0.3143778443336487 0.5813953876495361 -0.7829457521438599
0.3111042380332947 0.5813953876495361 -0.11627906560897827
0.3121366500854492 0.5968992710113525 -0.7364341020584106
0.317543089389801 0.5968992710113525 -0.1782945990562439
0.30677351355552673 0.5968992710113525 -0.1627907156944275
0.30657637119293213 0.612403154373169 -0.6589146852493286
0.31221503019332886 0.612403154373169 -0.643410861492157
0.31658637523651123 0.612403154373169 -0.27131783962249756
0.30928078293800354 0.612403154373169 -0.25581395626068115
0.3322310149669647 -0.643410861492157 -0.7829457521438599
0.3298240900039673 -0.643410861492157 -0.7674418687820435
0.33152687549591064 -0.6434108018875122 -0.751937985420227
0.3199775218963623 -0.6279069781303406 -0.8604651093482971
0.329658567905426 -0.6279069781303406 -0.6899224519729614
0.3224746584892273 -0.6124030947685242 -0.674418568611145
0.32610780000686646 -0.5968992114067078 -0.6589146852493286
0.31885263323783875 -0.5658915042877197 -0.643410861492157
0.32641902565956116 -0.5503876209259033 -0.9534883499145508
0.3321150541305542 -0.5193798542022705 -0.9689922332763672
0.322965532541275 -0.5193798542022705 -0.6279069781303406
0.31987497210502625 -0.4573643207550049 -0.9844961166381836
0.33231663703918457 -0.4418604373931885 -0.6124030947685242
0.3262779712677002 -0.42635661363601685 -0.6124030947685242
0.32345327734947205 -0.4108527600765228 -0.612403154373169
0.32384878396987915 -0.39534884691238403 -0.6124030947685242
0.3288033604621887 -0.3798449635505676 -0.6124030947685242
0.3235025107860565 -0.24031007289886475 -0.9844961166381836
0.3257797360420227 -0.1782945990562439 -0.6279069781303406
0.33261537551879883 -0.14728683233261108 -0.6124030947685242
0.3260883390903473 -0.13178294897079468 -0.5658915042877197
0.3200070261955261 -0.13178294897079468 -0.5503876209259033
0.32993146777153015 -0.11627906560897827 -0.9689922332763672
0.330471932888031 -0.11627906560897827 -0.5193798542022705
0.3259924054145813 -0.11627906560897827 -0.5038759708404541
0.3232017755508423 -0.11627907305955887 -0.4883720874786377
0.3209735155105591 -0.11627906560897827 -0.4728682041168213
0.3204840123653412 -0.11627906560897827 -0.4573643207550049
0.32073527574539185 -0.11627906560897827 -0.4418604373931885
0.3219611346721649 -0.11627906560897827 -0.42635661363601685
0.3235504925251007 -0.11627906560897827 -0.41085273027420044
0.32426148653030396 -0.11627906560897827 -0.39534884691238403
0.32373714447021484 -0.11627905815839767 -0.3798449635505676
0.3217482268810272 -0.11627907305955887 -0.3643410801887512
0.3182083070278168 -0.11627907305955887 -0.3488371968269348
0.32414546608924866 -0.10077518224716187 -0.9689922332763672
0.3331749439239502 -0.10077518224716187 -0.317829430103302
0.3301401734352112 -0.10077518224716187 -0.30232560634613037
0.32813623547554016 -0.10077518224716187 -0.28682172298431396
0.32655829191207886 -0.10077518224716187 -0.27131783962249756
0.3247358202934265 -0.10077518224716187 -0.25581395626068115
0.32189637422561646 -0.10077518224716187 -0.24031007289886475
0.3179018795490265 -0.10077518224716187 -0.22480618953704834
0.3196123242378235 -0.08527129888534546 -0.9689922332763672
0.3301962912082672 -0.08527129888534546 -0.19379842281341553
0.32372432947158813 -0.08527129888534546 -0.1782945990562439
0.32683706283569336 -0.06976741552352905 -0.14728683233261108
0.32844996452331543 -0.05426359176635742 -0.11627906560897827
0.3323419988155365 -0.038759708404541016 -0.08527129888534546
0.32481831312179565 -0.038759708404541016 -0.06976741552352905
0.3297967314720154 -0.02325582504272461 -0.038759708404541016
0.31996995210647583 -0.02325582504272461 -0.02325582504272461
0.3301761746406555 -0.007751941680908203 -0.9534883499145508
0.3273633122444153 -0.007751941680908203 -0.007751941680908203
0.32284921407699585 0.00775194214656949 -0.9534884095191956
0.3291293978691101 0.007751941680908203 0.007751941680908203
0.3208787441253662 0.007751941680908203 0.42635655403137207
0.3237988352775574 0.007751941680908203 0.4418604373931885
0.32535967230796814 0.007751941680908203 0.4573643207550049
0.3261338472366333 0.007751941680908203 0.4728682041168213
0.3262676000595093 0.007751941680908203 0.4883720874786377
0.3256300389766693 0.007751941680908203 0.5038759708404541
0.32403764128685 0.00775194214656949 0.5193798542022705
0.32047709822654724 0.007751941680908203 0.5348837375640869
0.31889116764068604 0.02325582504272461 -0.9534883499145508
0.3264196515083313 0.02325582504272461 0.02325582504272461
0.31945037841796875 0.02325582504272461 0.39534878730773926
0.32554858922958374 0.02325582504272461 0.41085267066955566
0.32956090569496155 0.02325582504272461 0.42635655403137207
0.33235689997673035 0.02325582504272461 0.4418604373931885
0.33271336555480957 0.02325582504272461 0.5348837375640869
0.329013854265213 0.02325582504272461 0.5503876209259033
0.32222291827201843 0.02325582504272461 0.5658915042877197
0.32088524103164673 0.038759708404541016 0.038759708404541016
0.3222622871398926 0.038759708404541016 0.37984487414360046
0.328718900680542 0.038759708404541016 0.39534878730773926
0.3324075937271118 0.038759708404541016 0.41085267066955566
0.3324865400791168 0.038759708404541016 0.5658915042877197
0.3239215612411499 0.038759708404541016 0.5813953876495361
0.3307993710041046 0.05426359176635742 0.038759708404541016
0.32133859395980835 0.05426359176635742 0.3643411695957184
0.3298746347427368 0.05426359176635742 0.37984490394592285
0.3225432336330414 0.05426359176635742 0.5968992710113525
0.3225589990615845 0.06976747512817383 0.05426359176635742
0.3291608691215515 0.06976747512817383 0.364341139793396
0.3325020670890808 0.06976747512817383 0.5968992710113525
0.32084110379219055 0.06976747512817383 0.612403154373169
0.3329496681690216 0.08527135848999023 -0.9379844665527344
0.3322548270225525 0.08527135848999023 0.05426359176635742
0.3267366886138916 0.08527135848999023 0.3488372564315796
0.3295212984085083 0.08527135848999023 0.612403154373169
0.3184804320335388 0.08527135103940964 0.6279069185256958
0.327525794506073 0.10077524185180664 -0.9379844665527344
0.3222059905529022 0.10077524930238724 0.06976747512817383
0.32246503233909607 0.10077524185180664 0.3333333730697632
0.33199983835220337 0.10077524185180664 0.3488372564315796
0.32636475563049316 0.10077524185180664 0.6279069185256958
0.3223562240600586 0.11627912521362305 -0.9379845261573792
0.33081749081611633 0.11627912521362305 0.06976747512817383
0.3281060457229614 0.11627912521362305 0.3333333730697632
0.3221460282802582 0.11627912521362305 0.6434108018875122
0.319227397441864 0.1317828893661499 -0.9379844665527344
0.32137995958328247 0.1317828893661499 0.3178294897079468
0.33184143900871277 0.1317828893661499 0.3333333730697632
0.3281666040420532 0.1317828893661499 0.6434108018875122
0.3180423080921173 0.1317828893661499 0.6589146256446838
0.3219579756259918 0.1472867727279663 0.08527135848999023
0.3257255554199219 0.1472867727279663 0.3178294897079468
0.3232332468032837 0.1472867727279663 0.6589146852493286
0.32707446813583374 0.16279065608978271 0.08527135848999023
0.32873162627220154 0.16279065608978271 0.3178294897079468
0.32775506377220154 0.16279065608978271 0.6589146852493286
0.31833234429359436 0.16279065608978271 0.6744186282157898
0.33158591389656067 0.17829453945159912 0.08527135848999023
0.3201477527618408 0.17829453945159912 0.302325576543808
0.33111143112182617 0.17829453945159912 0.3178294897079468
0.33108872175216675 0.17829453945159912 0.6589146852493286
0.3215118944644928 0.17829453945159912 0.674418568611145
0.32360902428627014 0.19379842281341553 0.30232560634613037
0.33331483602523804 0.19379842281341553 0.3178294897079468
0.3242543935775757 0.19379842281341553 0.674418568611145
0.3315296173095703 0.20930230617523193 -0.9224806427955627
0.3263068199157715 0.20930230617523193 0.30232560634613037
0.3265269994735718 0.20930230617523193 0.674418568611145
0.32984960079193115 0.22480618953704834 -0.9224806427955627
0.32844147086143494 0.22480618953704834 0.30232560634613037
0.32793518900871277 0.22480618953704834 0.674418568611145
0.3189490735530853 0.22480618953704834 0.6899224519729614
0.3288828134536743 0.24031007289886475 -0.922480583190918
0.32133203744888306 0.24031007289886475 0.10077524185180664
0.31994783878326416 0.24031007289886475 0.28682172298431396
0.3306225836277008 0.24031007289886475 0.30232560634613037
0.32917898893356323 0.24031007289886475 0.674418568611145
0.3202331066131592 0.24031007289886475 0.6899224519729614
0.32826000452041626 0.25581395626068115 -0.9224807024002075
0.322759211063385 0.25581395626068115 0.28682172298431396
0.332600861787796 0.25581395626068115 0.30232560634613037
0.32954561710357666 0.25581395626068115 0.674418568611145
0.3207193911075592 0.25581395626068115 0.6899224519729614
0.32787442207336426 0.27131783962249756 -0.9224807024002075
0.3244173526763916 0.27131783962249756 0.28682172298431396
0.3295575678348541 0.27131783962249756 0.674418568611145
0.3209567070007324 0.27131783962249756 0.6899225115776062
0.3282044231891632 0.28682172298431396 -0.922480583190918
0.3251585364341736 0.28682172298431396 0.28682172298431396
0.33062291145324707 0.28682172298431396 0.674418568611145
0.32229673862457275 0.28682172298431396 0.6899224519729614
0.3289119005203247 0.28682172298431396 0.8294574022293091
0.3274637460708618 0.30232560634613037 -0.9224807024002075
0.32557326555252075 0.30232560634613037 0.28682172298431396
0.32520943880081177 0.30232560634613037 0.6899224519729614
0.3180379271507263 0.30232560634613037 0.7054263353347778
0.32626163959503174 0.30232560634613037 0.8139535188674927
0.3272091746330261 0.3178294897079468 -0.922480583190918
0.32530176639556885 0.3178294897079468 0.28682172298431396
0.32755783200263977 0.3178294897079468 0.6899224519729614
0.3198311924934387 0.3178294599056244 0.7054262757301331
0.3225204348564148 0.3178294897079468 0.8139534592628479
0.3260185420513153 0.3333333730697632 -0.9224806427955627
0.32431572675704956 0.3333333730697632 0.28682172298431396
0.3286861181259155 0.3333333730697632 0.6899224519729614
0.32104259729385376 0.3333333730697632 0.7054263353347778
0.31864404678344727 0.3333333730697632 0.8604651689529419
0.32380542159080505 0.3488372564315796 -0.9224806427955627
0.32229769229888916 0.3488372564315796 0.28682172298431396
0.3324853777885437 0.3488372564315796 0.30232560634613037
0.32907891273498535 0.3488372564315796 0.6899224519729614
0.32134369015693665 0.3488372564315796 0.7054263353347778
0.32097306847572327 0.364341139793396 -0.922480583190918
0.31954509019851685 0.364341139793396 0.2868216931819916
0.3299065828323364 0.364341139793396 0.30232560634613037
0.3281938433647156 0.364341139793396 0.6899224519729614
0.31980133056640625 0.364341139793396 0.7054263353347778
0.31875404715538025 0.37984490394592285 -0.9224806427955627
0.32895877957344055 0.37984490394592285 0.10077524185180664
0.326543390750885 0.37984490394592285 0.30232560634613037
0.3315275311470032 0.37984490394592285 0.674418568611145
0.3250296115875244 0.37984490394592285 0.6899224519729614
0.3231212794780731 0.39534878730773926 0.30232560634613037
0.3285755217075348 0.39534878730773926 0.674418568611145
0.3197822570800781 0.39534878730773926 0.6899224519729614
0.3182274103164673 0.41085267066955566 0.30232560634613037
0.32943886518478394 0.41085267066955566 0.3178294897079468
0.3310237526893616 0.41085267066955566 0.6589146852493286
0.32281267642974854 0.41085267066955566 0.674418568611145
0.33291560411453247 0.42635655403137207 -0.9069767594337463
0.31969931721687317 0.4263565242290497 0.08527135848999023
0.32530543208122253 0.42635655403137207 0.3178294897079468
0.3262849450111389 0.42635655403137207 0.6589146852493286
0.32722270488739014 0.4418604373931885 -0.9069767594337463
0.33333325386047363 0.4418604373931885 0.06976747512817383
0.3206019401550293 0.4418604373931885 0.3178294897079468
0.3304603397846222 0.4418604373931885 0.3333333730697632
0.3286835551261902 0.4418604373931885 0.6434108018875122
0.3182845711708069 0.4418604373931885 0.6589147448539734
0.31889691948890686 0.4573643207550049 -0.9069767594337463
0.3236778974533081 0.4573643207550049 0.06976747512817383
0.32562893629074097 0.4573643207550049 0.3333333730697632
0.3295728862285614 0.4573643207550049 0.6279069185256958
0.3192654848098755 0.4573642909526825 0.6434108018875122
0.33192935585975647 0.4728682041168213 0.05426359176635742
0.32010015845298767 0.4728682041168213 0.3333333730697632
0.32862982153892517 0.4728682041168213 0.3488372564315796
0.32875388860702515 0.4728682041168213 0.612403154373169
0.31818923354148865 0.4728681743144989 0.6279069185256958
0.3215597867965698 0.4883721172809601 -0.8914728760719299
0.3220265507698059 0.4883720874786377 0.05426359176635742
0.3230358362197876 0.4883720874786377 0.3488372564315796
0.329861044883728 0.4883720874786377 0.364341139793396
0.3320213258266449 0.4883720874786377 0.5813953876495361
0.32634955644607544 0.4883720874786377 0.5968992710113525
0.33166661858558655 0.5038759708404541 -0.8759690523147583
0.32408249378204346 0.5038759708404541 0.038759708404541016
0.3232349157333374 0.5038759708404541 0.364341139793396
0.3293505012989044 0.5038759708404541 0.37984490394592285
0.3325926661491394 0.5038759708404541 0.5503876209259033
0.32850509881973267 0.5038759708404541 0.5658915042877197
0.3208620548248291 0.5038759708404541 0.5813953876495361
0.33190733194351196 0.5193798542022705 0.007751941680908203
0.3203843832015991 0.5193798542022705 0.02325582318007946
0.32029989361763 0.5193798542022705 0.37984487414360046
0.32585057616233826 0.5193798542022705 0.39534878730773926
0.32973599433898926 0.5193798542022705 0.41085267066955566
0.33249756693840027 0.5193798542022705 0.42635655403137207
0.3313516676425934 0.5193798542022705 0.5038759708404541
0.32942280173301697 0.5193798542022705 0.5193798542022705
0.3262386918067932 0.5193798542022705 0.5348837375640869
0.3202875554561615 0.5193798542022705 0.5503876209259033
0.3231198787689209 0.5348837375640869 -0.007751941680908203
0.31791239976882935 0.5348837375640869 0.41085267066955566
0.32104888558387756 0.5348837375640869 0.42635655403137207
0.3230786919593811 0.5348837375640869 0.4418604373931885
0.3238676190376282 0.5348837375640869 0.4573642909526825
0.32370662689208984 0.5348837375640869 0.4728682041168213
0.3218075633049011 0.5348837375640869 0.4883720874786377
0.31848418712615967 0.5348837375640869 0.5038759708404541
0.33080577850341797 0.5503876209259033 -0.8294573426246643
0.3304412364959717 0.5503876209259033 -0.05426359176635742
0.3198278248310089 0.5503876209259033 -0.03875970467925072
0.3230494260787964 0.5658915042877197 -0.08527129888534546
0.330361545085907 0.5813953876495361 -0.7674418687820435
0.3239467740058899 0.5813953876495361 -0.13178294897079468
0.3253856897354126 0.5968992710113525 -0.7209302186965942
0.32792994379997253 0.5968992710113525 -0.19379842281341553
0.3181043267250061 0.612403154373169 -0.6279069781303406
0.3223824203014374 0.612403154373169 -0.6124030947685242
0.3264744281768799 0.612403154373169 -0.5968992114067078
0.33077865839004517 0.612403154373169 -0.5813953876495361
0.32868748903274536 0.612403154373169 -0.30232560634613037
0.32255837321281433 0.612403154373169 -0.28682172298431396
0.34030210971832275 -0.6434108018875122 -0.7984496355056763
0.33889997005462646 -0.643410861492157 -0.7364341020584106
0.3368355929851532 -0.6279069781303406 -0.8759689927101135
0.34242987632751465 -0.6124030947685242 -0.9069768190383911
0.33573096990585327 -0.5968992114067078 -0.9224806427955627
0.3401890993118286 -0.5813953876495361 -0.9379844665527344
0.34202271699905396 -0.5813953876495361 -0.643410861492157
0.33685246109962463 -0.5348837375640869 -0.6279069781303406
0.33667415380477905 -0.4728681743144989 -0.9844961166381836
0.34828588366508484 -0.4573643207550049 -0.6124030947685242
0.34459438920021057 -0.28682172298431396 -0.9844961166381836
0.33912333846092224 -0.27131783962249756 -0.9844961166381836
0.33335599303245544 -0.25581395626068115 -0.9844961166381836
0.3396831750869751 -0.20930230617523193 -0.6279069781303406
0.34866228699684143 -0.19379842281341553 -0.9689922332763672
0.34404152631759644 -0.1782945990562439 -0.9689922332763672
0.3382362127304077 -0.1627907156944275 -0.9689922332763672
0.3409667909145355 -0.1627907156944275 -0.6279070377349854
0.3351633846759796 -0.14728683233261108 -0.9689921736717224
0.3333781957626343 -0.13178294897079468 -0.9689922332763672
0.3419424295425415 -0.13178294897079468 -0.5968992114067078
0.3336179256439209 -0.13178294897079468 -0.5813953876495361
0.3478069603443146 -0.11627906560897827 -0.5658915042877197
0.34219032526016235 -0.11627906560897827 -0.5503876209259033
0.33683907985687256 -0.11627906560897827 -0.5348837375640869
0.34513700008392334 -0.10077518224716187 -0.5038759708404541
0.3426187038421631 -0.10077518224716187 -0.4883720874786377
0.34111258387565613 -0.10077518224716187 -0.4728682041168213
0.3409907817840576 -0.10077518224716187 -0.4573643207550049
0.3414340615272522 -0.10077518224716187 -0.4418604373931885
0.3424890637397766 -0.10077518224716187 -0.42635661363601685
0.3438546061515808 -0.10077518224716187 -0.41085273027420044
0.344551682472229 -0.10077518224716187 -0.39534884691238403
0.3443242311477661 -0.10077518224716187 -0.3798449635505676
0.3432403802871704 -0.10077518224716187 -0.3643410801887512
0.34144264459609985 -0.10077518224716187 -0.3488371968269348
0.33806464076042175 -0.10077518224716187 -0.3333333134651184
0.3473244607448578 -0.08527129888534546 -0.27131783962249756
0.3460114896297455 -0.08527129888534546 -0.25581395626068115
0.3446406424045563 -0.08527129888534546 -0.24031007289886475
0.3427969813346863 -0.08527129888534546 -0.22480618953704834
0.3380247950553894 -0.08527129888534546 -0.20930230617523193
0.34545302391052246 -0.06976741552352905 -0.1782945990562439
0.33716002106666565 -0.06976741552352905 -0.1627907156944275
0.34643471240997314 -0.05426359176635742 -0.9534883499145508
0.3483821153640747 -0.05426359176635742 -0.14728683233261108
0.33972275257110596 -0.05426359176635742 -0.13178294897079468
0.3391149640083313 -0.038759708404541016 -0.9534884095191956
0.3424590229988098 -0.038759708404541016 -0.10077518224716187
0.33453449606895447 -0.02325582690536976 -0.9534884095191956
0.3462737202644348 -0.02325582504272461 -0.06976741552352905
0.3384439945220947 -0.02325582504272461 -0.05426358804106712
0.3479035794734955 -0.007751941680908203 -0.038759708404541016
0.3380347490310669 -0.007751941680908203 -0.02325582504272461
0.3409504294395447 0.007751941680908203 -0.007751941680908203
0.3401583731174469 0.02325582504272461 0.007751941680908203
0.3339105248451233 0.02325582504272461 0.4573643207550049
0.3350028395652771 0.02325582504272461 0.4728682339191437
0.3357861638069153 0.02325582504272461 0.4883720874786377
0.33588001132011414 0.02325582504272461 0.5038759708404541
0.3348880112171173 0.02325582504272461 0.5193798542022705
0.34617722034454346 0.038759708404541016 -0.9379844665527344
0.33661726117134094 0.038759708404541016 0.02325582504272461
0.3365359604358673 0.038759708404541016 0.42635655403137207
0.3402792811393738 0.038759708404541016 0.4418604373931885
0.34211474657058716 0.038759708404541016 0.4573643207550049
0.34331873059272766 0.038759708404541016 0.4728682041168213
0.344168484210968 0.038759708404541016 0.4883720874786377
0.3444098234176636 0.038759708404541016 0.5038759708404541
0.3438899517059326 0.038759708404541016 0.5193798542022705
0.34235721826553345 0.038759708404541016 0.5348837375640869
0.3383234143257141 0.038759708404541016 0.5503876209259033
0.34041258692741394 0.05426359176635742 -0.9379844665527344
0.34597402811050415 0.05426359176635742 0.02325582504272461
0.3352583050727844 0.05426359176635742 0.39534878730773926
0.3417402505874634 0.05426359176635742 0.41085267066955566
0.3439629375934601 0.05426359176635742 0.42635655403137207
0.3457777202129364 0.05426359176635742 0.4418604373931885
0.3469802141189575 0.05426359176635742 0.4573643207550049
0.3481280505657196 0.05426359176635742 0.4728682041168213
0.3480520248413086 0.05426359176635742 0.5348837375640869
0.3451557755470276 0.05426359176635742 0.5503876209259033
0.34043216705322266 0.05426359176635742 0.5658915042877197
0.3333379924297333 0.05426359176635742 0.5813953876495361
0.3359014689922333 0.06976747512817383 -0.9379844665527344
0.3403988182544708 0.06976747512817383 0.038759708404541016
0.33628490567207336 0.06976747512817383 0.37984490394592285
0.3430163264274597 0.06976747512817383 0.39534878730773926
0.3462417721748352 0.06976747512817383 0.41085267066955566
0.3480255901813507 0.06976747512817383 0.42635655403137207
0.3469752371311188 0.06976747512817383 0.5658915042877197
0.3407062292098999 0.06976747512817383 0.5813953876495361
0.3344932496547699 0.08527135848999023 0.364341139793396
0.34290021657943726 0.08527135848999023 0.37984490394592285
0.347088098526001 0.08527135848999023 0.39534878730773926
0.3471188247203827 0.08527135848999023 0.5813953876495361
0.3394043445587158 0.08527135848999023 0.5968992710113525
0.3420354127883911 0.10077524185180664 0.05426359176635742
0.3415170907974243 0.10077524185180664 0.364341139793396
0.347084641456604 0.10077524185180664 0.37984490394592285
0.34515637159347534 0.10077524185180664 0.5968992710113525
0.3367871940135956 0.10077524185180664 0.612403154373169
0.338015615940094 0.11627912521362305 0.3488372564315796
0.34558266401290894 0.11627912521362305 0.364341139793396
0.3426678776741028 0.11627912521362305 0.612403154373169
0.33369606733322144 0.11627911776304245 0.6279069185256958
0.3400518000125885 0.1317828893661499 0.06976747512817383
0.3421734571456909 0.1317828893661499 0.3488372564315796
0.34833940863609314 0.1317828893661499 0.364341139793396
0.3476792275905609 0.1317828893661499 0.612403154373169
0.33858752250671387 0.1317828893661499 0.6279069185256958
0.3443763554096222 0.1472867727279663 -0.922480583190918
0.3465067446231842 0.1472867727279663 0.06976747512817383
0.3359590172767639 0.1472867727279663 0.3333333730697632
0.3452865481376648 0.1472867727279663 0.3488372564315796
0.3432081341743469 0.1472867727279663 0.6279069185256958
0.33411484956741333 0.1472867727279663 0.6434108018875122
0.3389524519443512 0.16279065608978271 -0.9224807024002075
0.33961254358291626 0.16279065608978271 0.3333333730697632
0.34738022089004517 0.16279065608978271 0.3488372564315796
0.3466656506061554 0.16279065608978271 0.6279069185256958
0.33773571252822876 0.16279065608978271 0.6434108018875122
0.33568668365478516 0.17829453945159912 -0.9224806427955627
0.3419537842273712 0.17829453945159912 0.3333333730697632
0.3409164547920227 0.17829453945159912 0.6434108018875122
0.33375275135040283 0.19379843771457672 -0.9224807024002075
0.3374645709991455 0.19379840791225433 0.08527135848999023
0.3439757823944092 0.19379842281341553 0.3333333730697632
0.34334683418273926 0.19379842281341553 0.6434108018875122
0.33431658148765564 0.19379842281341553 0.6589146852493286
0.3428885340690613 0.20930230617523193 0.08527135848999023
0.33706992864608765 0.20930230617523193 0.3178294897079468
0.3462491035461426 0.20930230617523193 0.3333333730697632
0.3449464440345764 0.20930230617523193 0.6434108018875122
0.33612096309661865 0.20930230617523193 0.6589146852493286
0.3397154211997986 0.22480618953704834 0.3178294897079468
0.3479624092578888 0.22480618953704834 0.3333333730697632
0.34666723012924194 0.22480618953704834 0.6434108018875122
0.33755195140838623 0.22480618953704834 0.6589146852493286
0.3415786027908325 0.24031007289886475 0.3178294897079468
0.3484377861022949 0.24031007289886475 0.6434108018875122
0.3388823866844177 0.24031007289886475 0.6589146852493286
0.3335644602775574 0.25581395626068115 0.10077524185180664
0.34295400977134705 0.25581395626068115 0.3178294897079468
0.3487439751625061 0.25581395626068115 0.6434108018875122
0.33917033672332764 0.25581395626068115 0.6589146852493286
0.34448176622390747 0.27131783962249756 0.10077524185180664
0.3341909646987915 0.27131783962249756 0.30232560634613037
0.343980073928833 0.27131783962249756 0.3178294897079468
0.34837284684181213 0.27131783962249756 0.6434108018875122
0.33898109197616577 0.27131783962249756 0.6589146852493286
0.3350089192390442 0.2868216931819916 0.30232560634613037
0.34441521763801575 0.28682172298431396 0.3178294897079468
0.3488069176673889 0.28682172298431396 0.6434108018875122
0.33972182869911194 0.28682172298431396 0.6589146852493286
0.3473653197288513 0.28682172298431396 0.8449612855911255
0.3371652662754059 0.28682172298431396 0.9689922332763672
0.33567672967910767 0.30232560634613037 0.30232560634613037
0.34480178356170654 0.30232560634613037 0.3178294897079468
0.341646671295166 0.30232560634613037 0.6589146852493286
0.33341801166534424 0.30232560634613037 0.674418568611145
0.33540695905685425 0.3178294897079468 0.30232560634613037
0.34454506635665894 0.3178294897079468 0.3178294897079468
0.3429732322692871 0.3178294897079468 0.6589146852493286
0.3348392844200134 0.3178294897079468 0.674418568611145
0.34320974349975586 0.3178294897079468 0.8294574022293091
0.3358246088027954 0.3178294897079468 0.9534883499145508
0.3343309462070465 0.3333333730697632 0.30232560634613037
0.34369441866874695 0.3333333730697632 0.3178294897079468
0.34362977743148804 0.3333333730697632 0.6589146852493286
0.33567729592323303 0.3333333730697632 0.674418568611145
0.34852439165115356 0.3488372564315796 -0.9069767594337463
0.34245532751083374 0.3488372564315796 0.3178294897079468
0.34379225969314575 0.3488372564315796 0.6589146852493286
0.33588090538978577 0.3488372564315796 0.674418568611145
0.34638160467147827 0.364341139793396 -0.9069766998291016
0.34378549456596375 0.364341139793396 0.10077524185180664
0.34103256464004517 0.364341139793396 0.3178294897079468
0.3487033545970917 0.364341139793396 0.6434108018875122
0.3425077795982361 0.364341139793396 0.6589146852493286
0.33451730012893677 0.3643411695957184 0.674418568611145
0.34321221709251404 0.37984490394592285 -0.9069767594337463
0.3382953107357025 0.37984490394592285 0.3178294897079468
0.3464149236679077 0.37984490394592285 0.3333333730697632
0.3461829125881195 0.37984490394592285 0.6434108018875122
0.33939558267593384 0.37984490394592285 0.6589146852493286
0.33900347352027893 0.39534878730773926 -0.9069767594337463
0.33430343866348267 0.39534878730773926 0.3178294897079468
0.34298256039619446 0.39534878730773926 0.3333333730697632
0.34362727403640747 0.39534878730773926 0.6434108018875122
0.3351700007915497 0.39534878730773926 0.6589146852493286
0.3352312445640564 0.41085267066955566 -0.9069767594337463
0.33561742305755615 0.41085267066955566 0.08527135848999023
0.3402261734008789 0.41085267066955566 0.3333333730697632
0.34764978289604187 0.41085267066955566 0.3488372564315796
0.3461191654205322 0.41085267066955566 0.6279069185256958
0.33868077397346497 0.41085267066955566 0.6434108018875122
0.346758633852005 0.42635655403137207 0.06976747512817383
0.3358178436756134 0.42635655403137207 0.3333333432674408
0.34321844577789307 0.42635655403137207 0.3488372564315796
0.3473137617111206 0.42635655403137207 0.612403154373169
0.34185874462127686 0.42635655403137207 0.6279069185256958
0.3333826959133148 0.42635655403137207 0.6434108018875122
0.3398898243904114 0.4418604075908661 0.3488372564315796
0.3454570472240448 0.4418604373931885 0.364341139793396
0.34804385900497437 0.4418604373931885 0.5968992710113525
0.343420147895813 0.4418604373931885 0.612403154373169
0.3352399468421936 0.4418604373931885 0.6279069185256958
0.3426778018474579 0.4573643207550049 -0.8914728760719299
0.34309840202331543 0.4573643207550049 0.05426359176635742
0.3350364863872528 0.4573643207550049 0.3488372564315796
0.3418210744857788 0.4573643207550049 0.364341139793396
0.3475823700428009 0.4573643207550049 0.37984490394592285
0.34789764881134033 0.4573643207550049 0.5813953876495361
0.34370455145835876 0.4573643207550049 0.5968992710113525
0.3359282910823822 0.4573643207550049 0.612403154373169
0.3336954414844513 0.4728681743144989 -0.8914728760719299
0.3473941385746002 0.4728682041168213 0.038759708404541016
0.33688822388648987 0.4728682041168213 0.364341139793396
0.3428668975830078 0.4728682041168213 0.37984490394592285
0.34827131032943726 0.4728682041168213 0.39534878730773926
0.3464573323726654 0.4728682041168213 0.5658915042877197
0.34239983558654785 0.4728682041168213 0.5813953876495361
0.3346131443977356 0.4728682041168213 0.5968992710113525
0.34607061743736267 0.4883720874786377 -0.8759689331054688
0.3375353515148163 0.4883720874786377 0.038759708404541016
0.3373056948184967 0.4883720874786377 0.37984490394592285
0.3426085412502289 0.4883720874786377 0.39534878730773926
0.34645015001296997 0.4883720874786377 0.41085267066955566
0.34845027327537537 0.4883720874786377 0.5193798542022705
0.3459894061088562 0.4883720874786377 0.5348837375640869
0.3433806598186493 0.4883720874786377 0.5503876209259033
0.3384556174278259 0.4883720874786377 0.5658915042877197
0.3475017249584198 0.5038759708404541 0.007751941680908203
0.3372505009174347 0.5038759708404541 0.02325582504272461
0.33559170365333557 0.5038759708404541 0.39534878730773926
0.34000563621520996 0.5038759708404541 0.41085267066955566
0.34300950169563293 0.5038759708404541 0.42635655403137207
0.3446632921695709 0.5038759708404541 0.4418604373931885
0.3452540934085846 0.5038759708404541 0.4573643207550049
0.34530404210090637 0.5038759708404541 0.4728682041168213
0.3446490466594696 0.5038759708404541 0.4883720874786377
0.34316641092300415 0.5038759708404541 0.5038759708404541
0.34120112657546997 0.5038759708404541 0.5193798542022705
0.33727455139160156 0.5038759708404541 0.5348837375640869
0.33418795466423035 0.5193798542022705 -0.8604651093482971
0.34251639246940613 0.5193798542022705 -0.007751941680908203
0.33446869254112244 0.5193798542022705 0.4418604373931885
0.3352399170398712 0.5193798542022705 0.4573643207550049
0.33503785729408264 0.5193798542022705 0.4728682041168213
0.33348768949508667 0.5193798542022705 0.4883720874786377
0.33519816398620605 0.5348837375640869 -0.8449612855911255
0.3434056341648102 0.5348837375640869 -0.038759708404541016
0.3335052728652954 0.5348837375640869 -0.02325582318007946
0.3411960005760193 0.5503876209259033 -0.06976741552352905
0.33474797010421753 0.5658915042877197 -0.7984496355056763
0.3466936945915222 0.5658915042877197 -0.11627906560897827
0.3352453112602234 0.5658915042877197 -0.10077518224716187
0.34533458948135376 0.5813953876495361 -0.751937985420227
0.3475334942340851 0.5813953876495361 -0.1627907156944275
0.33645108342170715 0.5813953876495361 -0.14728683233261108
0.3352380692958832 0.5968992114067078 -0.7054262757301331
0.3432375192642212 0.5968992710113525 -0.6899224519729614
0.3443588614463806 0.5968992710113525 -0.22480618953704834
0.33621832728385925 0.5968992710113525 -0.20930230617523193
0.3349565863609314 0.612403154373169 -0.5658915042877197
0.33806711435317993 0.612403154373169 -0.5503876209259033
0.3403334617614746 0.612403154373169 -0.5348837375640869
0.3424180746078491 0.612403154373169 -0.5193798542022705
0.3431166410446167 0.612403154373169 -0.5038759708404541
0.3443748652935028 0.612403154373169 -0.4883720874786377
0.3449230194091797 0.612403154373169 -0.4728682041168213
0.34562045335769653 0.612403154373169 -0.4573643207550049
0.34611067175865173 0.612403154373169 -0.4418604373931885
0.3464817702770233 0.612403154373169 -0.42635661363601685
0.3471665382385254 0.612403154373169 -0.41085273027420044
0.3472127318382263 0.612403154373169 -0.39534884691238403
0.3468027710914612 0.612403154373169 -0.3798449635505676
0.3454514145851135 0.612403154373169 -0.3643410801887512
0.3430543541908264 0.612403154373169 -0.3488371968269348
0.33909091353416443 0.612403154373169 -0.3333333134651184
0.33367282152175903 0.612403154373169 -0.317829430103302
0.35094988346099854 -0.6434108018875122 -0.8139535188674927
0.3546271324157715 -0.643410861492157 -0.7209302186965942
0.3616878092288971 -0.6124030947685242 -0.6589146852493286
0.3640638589859009 -0.5658915042877197 -0.9534883499145508
0.3619222640991211 -0.3798449635505676 -0.612403154373169
0.3611724376678467 -0.3488371968269348 -0.9844961166381836
0.3574695289134979 -0.3333333134651184 -0.9844961166381836
0.35372403264045715 -0.317829430103302 -0.9844961166381836
0.34965988993644714 -0.302325576543808 -0.9844961166381836
0.3626270294189453 -0.22480618953704834 -0.9689922332763672
0.35438695549964905 -0.22480617463588715 -0.6279069185256958
0.3541702330112457 -0.20930230617523193 -0.9689922332763672
0.3580138683319092 -0.14728683233261108 -0.6279069781303406
0.3559337854385376 -0.13178294897079468 -0.6124030947685242
0.36324065923690796 -0.11627906560897827 -0.9534883499145508
0.3557986319065094 -0.11627905815839767 -0.5813953876495361
0.35986921191215515 -0.10077518224716187 -0.9534883499145508
0.36147183179855347 -0.10077518224716187 -0.5503876209259033
0.35645055770874023 -0.10077518224716187 -0.5348837375640869
0.3501074016094208 -0.10077518224716187 -0.5193798542022705
0.3534437417984009 -0.08527129888534546 -0.9534883499145508
0.36381956934928894 -0.08527129888534546 -0.5038759708404541
0.360603392124176 -0.08527129888534546 -0.4883720874786377
0.3590356707572937 -0.08527129888534546 -0.4728682041168213
0.3589647710323334 -0.08527129888534546 -0.4573643207550049
0.3594408631324768 -0.08527129888534546 -0.4418604373931885
0.36043691635131836 -0.08527129888534546 -0.42635661363601685
0.3617688715457916 -0.08527129888534546 -0.41085273027420044
0.362493634223938 -0.08527129888534546 -0.39534884691238403
0.3624526858329773 -0.08527129888534546 -0.3798449635505676
0.3617419898509979 -0.08527129888534546 -0.3643410801887512
0.3604361414909363 -0.08527129888534546 -0.3488371968269348
0.35859012603759766 -0.08527129888534546 -0.3333333134651184
0.3563629388809204 -0.08527129888534546 -0.317829430103302
0.3526795506477356 -0.08527129888534546 -0.30232560634613037
0.3489692807197571 -0.08527129888534546 -0.28682172298431396
0.34999048709869385 -0.06976741552352905 -0.9534883499145508
0.3640272915363312 -0.06976741552352905 -0.24031007289886475
0.3622347116470337 -0.06976741552352905 -0.22480618953704834
0.3596572279930115 -0.06976741552352905 -0.20930230617523193
0.3533287048339844 -0.06976741552352905 -0.19379842281341553
0.35940268635749817 -0.05426359176635742 -0.1627907156944275
0.3610093295574188 -0.038759708404541016 -0.13178294897079468
0.3516330420970917 -0.038759708404541016 -0.11627906560897827
0.3632763624191284 -0.02325582504272461 -0.9379844665527344
0.3623186945915222 -0.02325582504272461 -0.10077518224716187
0.35432836413383484 -0.02325582504272461 -0.08527129888534546
0.3575551211833954 -0.007751941680908203 -0.9379844665527344
0.3636951446533203 -0.007751941680908203 -0.06976741552352905
0.35635367035865784 -0.007751941680908203 -0.05426359176635742
0.35252416133880615 0.007751941680908203 -0.9379845261573792
0.36173519492149353 0.007751941680908203 -0.038759708404541016
0.3520442247390747 0.007751941680908203 -0.02325582504272461
0.3497171998023987 0.02325582504272461 -0.9379844665527344
0.36337950825691223 0.02325582504272461 -0.02325582504272461
0.3524095118045807 0.02325582504272461 -0.007751941680908203
0.3622238039970398 0.038759708404541016 -0.007751941680908203
0.35038918256759644 0.038759708404541016 0.007751941680908203
0.35872888565063477 0.05426359176635742 0.007751941680908203
0.3490670621395111 0.05426359176635742 0.4883720874786377
0.3494420647621155 0.05426359176635742 0.5038759708404541
0.3492032289505005 0.05426358804106712 0.5193798542022705
0.35456690192222595 0.06976747512817383 0.02325582504272461
0.3505995571613312 0.06976747512817383 0.4418604373931885
0.3528553247451782 0.06976747512817383 0.4573643207550049
0.35463106632232666 0.06976747512817383 0.4728682041168213
0.3556128740310669 0.06976747512817383 0.4883720874786377
0.3559192419052124 0.06976747512817383 0.5038759708404541
0.3555358648300171 0.06976747512817383 0.5193798542022705
0.3538277745246887 0.06976747512817383 0.5348837375640869
0.35068297386169434 0.06976747512817383 0.5503876209259033
0.3595137596130371 0.08527135848999023 -0.9224807024002075
0.3625718355178833 0.08527135848999023 0.02325582504272461
0.34908533096313477 0.08527135103940964 0.03875970467925072
0.3505980372428894 0.08527135848999023 0.41085267066955566
0.3547521233558655 0.08527135848999023 0.42635655403137207
0.3573738932609558 0.08527135848999023 0.4418604373931885
0.3585161864757538 0.08527135848999023 0.4573643207550049
0.35946229100227356 0.08527135848999023 0.4728682041168213
0.360026091337204 0.08527135848999023 0.4883720874786377
0.36022353172302246 0.08527135848999023 0.5038759708404541
0.36006584763526917 0.08527135848999023 0.5193798542022705
0.35909920930862427 0.08527135848999023 0.5348837375640869
0.35696643590927124 0.08527135848999023 0.5503876209259033
0.35232165455818176 0.08527135848999023 0.5658915042877197
0.35469919443130493 0.10077524185180664 -0.922480583190918
0.35789769887924194 0.10077524185180664 0.038759708404541016
0.3518165349960327 0.10077524185180664 0.39534878730773926
0.3568803071975708 0.10077524185180664 0.41085267066955566
0.3592626452445984 0.10077524185180664 0.42635655403137207
0.3612268567085266 0.10077524185180664 0.4418604373931885
0.3623926341533661 0.10077524185180664 0.4573643207550049
0.3633911907672882 0.10077524185180664 0.4728682041168213
0.3640996515750885 0.10077524185180664 0.4883720874786377
0.36368703842163086 0.10077524185180664 0.5348837375640869
0.3611718416213989 0.10077524185180664 0.5503876209259033
0.35806310176849365 0.10077524185180664 0.5658915042877197
0.3520631790161133 0.10077524930238724 0.5813953876495361
0.3511733412742615 0.11627912521362305 -0.9224806427955627
0.35108959674835205 0.11627912521362305 0.05426359176635742
0.35084834694862366 0.11627912521362305 0.37984490394592285
0.3568681478500366 0.11627912521362305 0.39534878730773926
0.36046817898750305 0.11627912521362305 0.41085267066955566
0.362636923789978 0.11627912521362305 0.42635655403137207
0.3641665279865265 0.11627912521362305 0.4418604373931885
0.3619868755340576 0.11627912521362305 0.5658915042877197
0.35743069648742676 0.11627912521362305 0.5813953876495361
0.35038453340530396 0.11627913266420364 0.5968992710113525
0.3488748371601105 0.1317828893661499 -0.9224807024002075
