-0.019643621519207954 -0.14728683233261108 0.16279065608978271
-0.01518180686980486 -0.14728683233261108 0.17829453945159912
-0.012561190873384476 -0.14728683233261108 0.19379842281341553
-0.010734692215919495 -0.14728683233261108 0.20930230617523193
-0.009251486510038376 -0.14728683233261108 0.22480618953704834
-0.008440222591161728 -0.14728683233261108 0.24031007289886475
-0.008102207444608212 -0.14728683233261108 0.25581395626068115
-0.008042115718126297 -0.14728683233261108 0.27131783962249756
-0.008079878985881805 -0.14728683233261108 0.28682172298431396
-0.008090740069746971 -0.14728683233261108 0.30232560634613037
-0.008009189739823341 -0.14728683233261108 0.3178294897079468
-0.00784708745777607 -0.14728683233261108 0.3333333730697632
-0.021520297974348068 -0.13178294897079468 -0.3333333134651184
-0.0198683962225914 -0.13178294897079468 0.16279065608978271
-0.015658723190426826 -0.13178294897079468 0.17829453945159912
-0.013119911774992943 -0.13178294897079468 0.19379842281341553
-0.011313052847981453 -0.13178294897079468 0.20930230617523193
-0.009701704606413841 -0.13178294897079468 0.22480618953704834
-0.0087252426892519 -0.13178294897079468 0.24031007289886475
-0.008320672437548637 -0.13178294897079468 0.25581395626068115
-0.008288268931210041 -0.13178294897079468 0.27131783962249756
-0.008390333503484726 -0.13178294897079468 0.28682172298431396
-0.008434845134615898 -0.13178294897079468 0.30232560634613037
-0.008349411189556122 -0.13178294897079468 0.3178294897079468
-0.008170265704393387 -0.13178294897079468 0.3333333730697632
-0.008014119230210781 -0.13178294897079468 0.3488372564315796
-0.007867759093642235 -0.13178294897079468 0.364341139793396
-0.0077952551655471325 -0.13178294897079468 0.37984490394592285
-0.0204426571726799 -0.11627906560897827 0.16279065608978271
-0.016499865800142288 -0.11627906560897827 0.17829453945159912
-0.013909653760492802 -0.11627906560897827 0.19379842281341553
-0.011960029602050781 -0.11627906560897827 0.20930230617523193
-0.010096782818436623 -0.11627906560897827 0.22480618953704834
-0.00882655754685402 -0.11627906560897827 0.24031007289886475
-0.008225323632359505 -0.11627906560897827 0.25581395626068115
-0.008145471103489399 -0.11627906560897827 0.27131783962249756
-0.00829501636326313 -0.11627906560897827 0.28682172298431396
-0.008420910686254501 -0.11627906560897827 0.30232560634613037
-0.00841301865875721 -0.11627906560897827 0.3178294897079468
-0.00829358585178852 -0.11627906560897827 0.3333333730697632
-0.008170682936906815 -0.11627906560897827 0.3488372564315796
-0.008030455559492111 -0.11627906560897827 0.364341139793396
-0.007938050664961338 -0.11627906560897827 0.37984490394592285
-0.00784171000123024 -0.11627906560897827 0.39534878730773926
-0.012470262125134468 -0.10077518224716187 -0.3488371968269348
-0.021701263263821602 -0.10077517479658127 0.16279065608978271
-0.01787555404007435 -0.10077518224716187 0.17829453945159912
-0.01509769819676876 -0.10077518224716187 0.19379842281341553
-0.012828141450881958 -0.10077518224716187 0.20930230617523193
-0.010689761489629745 -0.10077518224716187 0.22480618953704834
-0.009008562192320824 -0.10077518224716187 0.24031007289886475
-0.008093142881989479 -0.10077518224716187 0.25581395626068115
-0.007872266694903374 -0.10077518224716187 0.27131783962249756
-0.007994665764272213 -0.10077518224716187 0.28682172298431396
-0.008182528428733349 -0.10077518224716187 0.30232560634613037
-0.008286075666546822 -0.10077518224716187 0.3178294897079468
-0.008281026035547256 -0.10077518224716187 0.3333333730697632
-0.008245998993515968 -0.10077518224716187 0.3488372564315796
-0.008169014006853104 -0.10077518224716187 0.364341139793396
-0.008114953525364399 -0.10077518224716187 0.37984490394592285
-0.008005216717720032 -0.10077518224716187 0.39534878730773926
-0.007896150462329388 -0.10077518224716187 0.41085267066955566
-0.007778830360621214 -0.08527129888534546 -0.3643410801887512
-0.01599288173019886 -0.08527129888534546 -0.3488371968269348
-0.023254962638020515 -0.08527129888534546 0.16279065608978271
-0.019344165921211243 -0.08527130633592606 0.17829453945159912
-0.016506938263773918 -0.08527129888534546 0.19379842281341553
-0.013840897008776665 -0.08527129888534546 0.20930230617523193
-0.011501694098114967 -0.08527129888534546 0.22480618953704834
-0.009476234205067158 -0.08527129888534546 0.24031007289886475
-0.00820076558738947 -0.08527129888534546 0.25581395626068115
-0.007810975890606642 -0.08527129888534546 0.27131783962249756
-0.007856710813939571 -0.08527129888534546 0.28682172298431396
-0.008032409474253654 -0.08527129888534546 0.30232560634613037
-0.008190200664103031 -0.08527129888534546 0.3178294897079468
-0.00826563686132431 -0.08527129888534546 0.3333333730697632
-0.008305579423904419 -0.08527129888534546 0.3488372564315796
-0.008293285965919495 -0.08527129888534546 0.364341139793396
-0.008287694305181503 -0.08527129888534546 0.37984490394592285
-0.0081971799954772 -0.08527129888534546 0.39534878730773926
-0.008079994469881058 -0.08527129888534546 0.41085267066955566
-0.008037061430513859 -0.08527129888534546 0.42635655403137207
-0.008132237941026688 -0.08527129888534546 0.4418604373931885
-0.008197454735636711 -0.08527129888534546 0.4573643207550049
-0.007952174171805382 -0.06976741552352905 -0.3798449635505676
-0.01117836032062769 -0.06976741552352905 -0.3643410801887512
-0.018596770241856575 -0.06976741552352905 -0.3488371968269348
-0.020642349496483803 -0.06976741552352905 0.17829453945159912
-0.017761725932359695 -0.06976741552352905 0.19379842281341553
-0.014876998960971832 -0.06976741552352905 0.20930230617523193
-0.012433843687176704 -0.06976741552352905 0.22480618953704834
-0.010259727016091347 -0.06976741552352905 0.24031007289886475
-0.008694572374224663 -0.06976741552352905 0.25581395626068115
-0.008085465058684349 -0.06976741552352905 0.27131783962249756
-0.00801930297166109 -0.06976741552352905 0.28682172298431396
-0.008131938986480236 -0.06976741552352905 0.30232560634613037
-0.008286427706480026 -0.06976741552352905 0.3178294897079468
-0.008398897014558315 -0.06976741552352905 0.3333333730697632
-0.008483673445880413 -0.06976741552352905 0.3488372564315796
-0.008509933948516846 -0.06976741552352905 0.364341139793396
-0.008534401655197144 -0.06976741552352905 0.37984490394592285
-0.008448660373687744 -0.06976741552352905 0.39534878730773926
-0.008273083716630936 -0.06976741552352905 0.41085267066955566
-0.008183391764760017 -0.06976741552352905 0.42635655403137207
-0.008334209211170673 -0.06976741552352905 0.4418604373931885
-0.008068877272307873 -0.06976741552352905 0.4573643207550049
-0.007798686623573303 -0.05426359176635742 -0.41085273027420044
-0.008715095929801464 -0.05426359176635742 -0.39534884691238403
-0.009697234258055687 -0.05426359176635742 -0.3798449635505676
-0.013168226927518845 -0.05426359176635742 -0.3643410801887512
-0.02020234800875187 -0.05426359176635742 -0.3488371968269348
-0.02151857130229473 -0.05426358804106712 0.17829453945159912
-0.01855393499135971 -0.05426359176635742 0.19379842281341553
-0.015612266957759857 -0.05426359176635742 0.20930230617523193
-0.013135755434632301 -0.05426359176635742 0.22480618953704834
-0.010952338576316833 -0.05426359176635742 0.24031007289886475
-0.00926763191819191 -0.05426359176635742 0.25581395626068115
-0.008469651453197002 -0.05426359176635742 0.27131783962249756
-0.008300510235130787 -0.05426359176635742 0.28682172298431396
-0.008356839418411255 -0.05426359176635742 0.30232560634613037
-0.008508004248142242 -0.05426359176635742 0.3178294897079468
-0.008640049956738949 -0.05426359176635742 0.3333333730697632
-0.00874753575772047 -0.05426359176635742 0.3488372564315796
-0.008785377256572247 -0.05426359176635742 0.364341139793396
-0.008812228217720985 -0.05426359176635742 0.37984490394592285
-0.008715324103832245 -0.05426359176635742 0.39534878730773926
-0.008484438993036747 -0.05426359176635742 0.41085267066955566
-0.008285731077194214 -0.05426359176635742 0.42635655403137207
-0.008076601661741734 -0.05426359176635742 0.4418604373931885
-0.00868748314678669 -0.038759708404541016 -0.41085273027420044
-0.009591027162969112 -0.038759708404541016 -0.39534884691238403
-0.01080593653023243 -0.038759708404541016 -0.3798449635505676
-0.014045871794223785 -0.038759708404541016 -0.3643410801887512
-0.021024206653237343 -0.038759708404541016 -0.3488371968269348
-0.021887464448809624 -0.038759712129831314 0.17829455435276031
-0.018898457288742065 -0.038759708404541016 0.19379842281341553
-0.015993449836969376 -0.038759708404541016 0.20930230617523193
-0.013566176407039165 -0.038759708404541016 0.22480618953704834
-0.0114760622382164 -0.038759708404541016 0.24031007289886475
-0.009777720086276531 -0.038759708404541016 0.25581395626068115
-0.008861519396305084 -0.038759708404541016 0.27131783962249756
-0.008586455136537552 -0.038759708404541016 0.28682172298431396
-0.008572258055210114 -0.038759708404541016 0.30232560634613037
-0.00868808664381504 -0.038759708404541016 0.3178294897079468
-0.008800777606666088 -0.038759708404541016 0.3333333730697632
-0.008891780860722065 -0.038759708404541016 0.3488372564315796
-0.008902741596102715 -0.038759708404541016 0.364341139793396
-0.00889265350997448 -0.038759708404541016 0.37984490394592285
-0.008748943917453289 -0.038759708404541016 0.39534878730773926
-0.008494731970131397 -0.038759708404541016 0.41085267066955566
-0.008036790415644646 -0.038759708404541016 0.42635655403137207
-0.008291395381093025 -0.02325582504272461 -0.42635661363601685
-0.00900349859148264 -0.02325582504272461 -0.41085273027420044
-0.009999405592679977 -0.02325582504272461 -0.39534884691238403
-0.011328494176268578 -0.02325582504272461 -0.3798449635505676
-0.014348854310810566 -0.02325582504272461 -0.3643410801887512
-0.02111065946519375 -0.02325582504272461 -0.3488371968269348
-0.02171318233013153 -0.02325582318007946 0.17829453945159912
-0.018825901672244072 -0.02325582504272461 0.19379842281341553
-0.016017206013202667 -0.02325582504272461 0.20930230617523193
-0.013712262734770775 -0.02325582504272461 0.22480618953704834
-0.011765607632696629 -0.02325582504272461 0.24031007289886475
-0.010117525234818459 -0.02325582504272461 0.25581395626068115
-0.009190022014081478 -0.02325582504272461 0.27131783962249756
-0.008847648277878761 -0.02325582504272461 0.28682172298431396
-0.008758130483329296 -0.02325582504272461 0.30232560634613037
-0.00879580993205309 -0.02325582504272461 0.3178294897079468
-0.00883143488317728 -0.02325582504272461 0.3333333730697632
-0.008855110965669155 -0.02325582504272461 0.3488372564315796
-0.008802521973848343 -0.02325582504272461 0.364341139793396
-0.008737940341234207 -0.02325582504272461 0.37984490394592285
-0.008559077978134155 -0.02325582504272461 0.39534878730773926
-0.008044610731303692 -0.02325582504272461 0.41085267066955566
-0.00853857770562172 -0.007751941680908203 -0.42635661363601685
-0.009017928503453732 -0.007751941680908203 -0.41085273027420044
-0.01002020575106144 -0.007751941680908203 -0.39534884691238403
-0.011402297765016556 -0.007751941680908203 -0.3798449635505676
-0.014302588999271393 -0.007751941680908203 -0.3643410801887512
-0.020616957917809486 -0.007751941680908203 -0.3488371968269348
-0.023005617782473564 -0.00775194214656949 -0.27131786942481995
-0.02242816612124443 -0.007751941215246916 -0.25581395626068115
-0.020771140232682228 -0.007751941680908203 0.17829453945159912
-0.01818268373608589 -0.007751941680908203 0.19379842281341553
-0.015571337193250656 -0.007751941680908203 0.20930230617523193
-0.013415463268756866 -0.007751941680908203 0.22480618953704834
-0.011596018448472023 -0.007751941680908203 0.24031007289886475
-0.010068143717944622 -0.007751941680908203 0.25581395626068115
-0.009209961630403996 -0.007751941680908203 0.27131783962249756
-0.00886207353323698 -0.007751941680908203 0.28682172298431396
-0.008737051859498024 -0.007751941680908203 0.30232560634613037
-0.008735911920666695 -0.007751941680908203 0.3178294897079468
-0.008715605363249779 -0.007751941680908203 0.3333333730697632
-0.008669497445225716 -0.007751941680908203 0.3488372564315796
-0.008571533486247063 -0.007751941680908203 0.364341139793396
-0.008494958281517029 -0.007751941680908203 0.37984490394592285
-0.008500647731125355 0.007751941680908203 -0.42635661363601685
-0.008873223327100277 0.007751941680908203 -0.41085273027420044
-0.009768998250365257 0.007751941680908203 -0.39534884691238403
-0.011209825053811073 0.007751941680908203 -0.3798449635505676
-0.014143792912364006 0.007751941680908203 -0.3643410801887512
-0.02010221593081951 0.007751941680908203 -0.3488371968269348
-0.021486833691596985 0.007751941680908203 -0.27131783962249756
-0.020905615761876106 0.007751941680908203 -0.25581395626068115
-0.0219676923006773 0.007751941680908203 -0.24031007289886475
-0.02237834595143795 0.007751941680908203 0.16279065608978271
-0.019788620993494987 0.007751941680908203 0.17829453945159912
-0.017363226041197777 0.00775194214656949 0.19379842281341553
-0.014918971806764603 0.007751941680908203 0.20930230617523193
-0.012840645387768745 0.007751941680908203 0.22480618953704834
-0.011074604466557503 0.007751941680908203 0.24031007289886475
-0.009720835834741592 0.007751941680908203 0.25581395626068115
-0.008968863636255264 0.007751941680908203 0.27131783962249756
-0.008595655672252178 0.007751941680908203 0.28682172298431396
-0.00842069648206234 0.007751941680908203 0.30232560634613037
-0.00843406468629837 0.007751941680908203 0.3178294897079468
-0.008498312905430794 0.007751941680908203 0.3333333730697632
-0.008492644876241684 0.007751941680908203 0.3488372564315796
-0.007901335135102272 0.007751941680908203 0.364341139793396
-0.008287766948342323 0.02325582504272461 -0.42635661363601685
-0.008640465326607227 0.02325582504272461 -0.41085273027420044
-0.009422095492482185 0.02325582504272461 -0.39534884691238403
-0.010866785421967506 0.02325582504272461 -0.3798449635505676
-0.013892704620957375 0.02325582504272461 -0.3643410801887512
-0.019542034715414047 0.02325582690536976 -0.3488371968269348
-0.022160205990076065 0.02325582690536976 -0.28682172298431396
-0.02012707106769085 0.02325582504272461 -0.27131783962249756
-0.01941009797155857 0.02325582504272461 -0.25581395626068115
-0.020209383219480515 0.02325582504272461 -0.24031007289886475
-0.022278519347310066 0.02325582504272461 -0.22480618953704834
-0.020841849967837334 0.02325582504272461 0.16279065608978271
-0.018690669909119606 0.02325582504272461 0.17829453945159912
-0.016421398147940636 0.02325582504272461 0.19379842281341553
-0.014156397432088852 0.02325582504272461 0.20930230617523193
-0.012110548093914986 0.02325582504272461 0.22480618953704834
-0.01050209067761898 0.02325582504272461 0.24031007289886475
-0.009395908564329147 0.02325582504272461 0.25581395626068115
-0.0087150689214468 0.02325582504272461 0.27131783962249756
-0.00830907840281725 0.02325582504272461 0.28682172298431396
-0.0081428037956357 0.02325582504272461 0.30232560634613037
-0.008245814591646194 0.02325582504272461 0.3178294897079468
-0.00784322153776884 0.02325582504272461 0.3333333730697632
-0.00791069958359003 0.038759708404541016 -0.42635661363601685
-0.008322502486407757 0.038759708404541016 -0.41085273027420044
-0.008983010426163673 0.038759708404541016 -0.39534884691238403
-0.01044196542352438 0.038759708404541016 -0.3798449635505676
-0.013621779158711433 0.038759708404541016 -0.3643410801887512
-0.018906766548752785 0.038759708404541016 -0.3488371968269348
-0.02093416079878807 0.038759708404541016 -0.28682172298431396
-0.01877295970916748 0.038759708404541016 -0.27131783962249756
-0.017878875136375427 0.038759708404541016 -0.25581395626068115
-0.018485726788640022 0.038759708404541016 -0.24031007289886475
-0.02004856802523136 0.038759708404541016 -0.22480618953704834
-0.022166075184941292 0.038759712129831314 -0.20930230617523193
-0.022061457857489586 0.038759708404541016 0.1472867727279663
-0.019380997866392136 0.038759708404541016 0.16279065608978271
-0.017316607758402824 0.038759708404541016 0.17829453945159912
-0.015235064551234245 0.038759708404541016 0.19379842281341553
-0.013167761266231537 0.038759708404541016 0.20930230617523193
-0.011096503585577011 0.038759708404541016 0.22480618953704834
-0.009721117094159126 0.038759708404541016 0.24031007289886475
-0.008853165432810783 0.038759708404541016 0.25581395626068115
-0.008313335478305817 0.038759708404541016 0.27131783962249756
-0.008054177276790142 0.038759708404541016 0.28682172298431396
-0.007831037975847721 0.038759708404541016 0.30232560634613037
-0.007995698601007462 0.05426359176635742 -0.41085273027420044
-0.008621877990663052 0.05426359176635742 -0.39534884691238403
-0.010149441659450531 0.05426359176635742 -0.3798449635505676
-0.013490032404661179 0.05426359176635742 -0.3643410801887512
-0.01848827302455902 0.05426359176635742 -0.3488371968269348
-0.02023250237107277 0.05426359176635742 -0.28682172298431396
-0.017948634922504425 0.05426359176635742 -0.27131783962249756
-0.016861114650964737 0.05426359176635742 -0.25581395626068115
-0.01720862276852131 0.05426359176635742 -0.24031007289886475
-0.018181724473834038 0.05426359176635742 -0.22480617463588715
-0.01926163025200367 0.05426359176635742 -0.20930230617523193
-0.02049177512526512 0.05426359176635742 0.1472867727279663
-0.01797812432050705 0.05426359176635742 0.16279065608978271
-0.016076156869530678 0.05426359176635742 0.17829453945159912
-0.014241347089409828 0.05426359176635742 0.19379842281341553
-0.012148970738053322 0.05426359176635742 0.20930230617523193
-0.009979680180549622 0.05426359176635742 0.22480618953704834
-0.008761683478951454 0.05426359176635742 0.24031007289886475
-0.008117001503705978 0.05426359176635742 0.25581395626068115
-0.007883785292506218 0.05426359176635742 0.27131783962249756
-0.007765369955450296 0.06976747512817383 -0.41085273027420044
-0.008467188104987144 0.06976747512817383 -0.39534884691238403
-0.010211028158664703 0.06976747512817383 -0.3798449635505676
-0.013634437695145607 0.06976747512817383 -0.3643410801887512
-0.018365241587162018 0.06976747512817383 -0.3488371968269348
-0.01996505819261074 0.06976747512817383 -0.28682172298431396
-0.017680766060948372 0.06976747512817383 -0.27131783962249756
-0.016465164721012115 0.06976747512817383 -0.25581395626068115
-0.016489017754793167 0.06976747512817383 -0.24031008780002594
-0.0167954433709383 0.06976747512817383 -0.22480618953704834
-0.016815561801195145 0.06976747512817383 -0.20930230617523193
-0.02044682390987873 0.06976747512817383 -0.19379842281341553
-0.019589712843298912 0.06976747512817383 0.1472867727279663
-0.017066624015569687 0.06976747512817383 0.16279065608978271
-0.015275109559297562 0.06976747512817383 0.17829453945159912
-0.013553233817219734 0.06976747512817383 0.19379842281341553
-0.011233605444431305 0.06976747512817383 0.20930230617523193
-0.009078281000256538 0.06976747512817383 0.22480618953704834
-0.007889499887824059 0.06976747512817383 0.24031007289886475
-0.008517337962985039 0.08527135848999023 -0.39534884691238403
-0.010593308135867119 0.08527135848999023 -0.3798449635505676
-0.014010765589773655 0.08527135848999023 -0.3643410801887512
-0.01850602775812149 0.08527135848999023 -0.3488371968269348
-0.020049965009093285 0.08527135848999023 -0.28682172298431396
-0.01777048222720623 0.08527135848999023 -0.27131783962249756
-0.016373759135603905 0.08527135848999023 -0.25581395626068115
-0.015847712755203247 0.08527135848999023 -0.24031007289886475
-0.015163075178861618 0.08527135848999023 -0.22480618953704834
-0.01383521780371666 0.08527135848999023 -0.20930230617523193
-0.01630713976919651 0.08527135848999023 -0.19379842281341553
-0.022809868678450584 0.08527135848999023 0.1317828893661499
-0.019147563725709915 0.08527135848999023 0.1472867727279663
-0.01660972647368908 0.08527135848999023 0.16279065608978271
-0.014821631833910942 0.08527135848999023 0.17829453945159912
-0.013032283633947372 0.08527135848999023 0.19379842281341553
-0.01057119108736515 0.08527135848999023 0.20930230617523193
-0.008635139092803001 0.08527135848999023 0.22480618953704834
-0.008664573542773724 0.10077524185180664 -0.39534884691238403
-0.011041960678994656 0.10077524185180664 -0.3798449635505676
-0.01439175009727478 0.10077524185180664 -0.3643410801887512
-0.018679192289710045 0.10077524185180664 -0.3488371968269348
-0.020382776856422424 0.10077524185180664 -0.28682172298431396
-0.01811656542122364 0.10077524185180664 -0.27131783962249756
-0.016524668782949448 0.10077524185180664 -0.25581395626068115
-0.015326160937547684 0.10077524185180664 -0.24031007289886475
-0.013357769697904587 0.10077524185180664 -0.22480618953704834
-0.010570138692855835 0.10077524185180664 -0.20930230617523193
-0.011685268953442574 0.10077524185180664 -0.19379842281341553
-0.021725336089730263 0.10077524185180664 -0.1782945990562439
-0.022738542407751083 0.10077524185180664 0.1317828893661499
-0.01898743398487568 0.10077524185180664 0.1472867727279663
-0.01632571779191494 0.10077524185180664 0.16279065608978271
-0.014434117823839188 0.10077524185180664 0.17829453945159912
-0.012536764144897461 0.10077524185180664 0.19379842281341553
-0.010069113224744797 0.10077524185180664 0.20930230617523193
-0.008342128247022629 0.10077524185180664 0.22480618953704834
-0.00885788630694151 0.11627912521362305 -0.39534884691238403
-0.011498577892780304 0.11627912521362305 -0.3798449635505676
-0.014787299558520317 0.11627912521362305 -0.3643410801887512
-0.019026702269911766 0.11627912521362305 -0.3488371968269348
-0.021278349682688713 0.11627912521362305 -0.28682172298431396
-0.018963949754834175 0.11627912521362305 -0.27131783962249756
-0.017128247767686844 0.11627912521362305 -0.25581395626068115
-0.01523490808904171 0.11627912521362305 -0.24031007289886475
-0.011857237666845322 0.11627912521362305 -0.22480618953704834
-0.016051650047302246 0.11627912521362305 -0.1782945990562439
-0.02246938645839691 0.11627912521362305 0.1317828893661499
-0.018569346517324448 0.11627912521362305 0.1472867727279663
-0.015753505751490593 0.11627912521362305 0.16279065608978271
-0.013836247846484184 0.11627912521362305 0.17829453945159912
-0.011793788522481918 0.11627912521362305 0.19379842281341553
-0.009482575580477715 0.11627912521362305 0.20930230617523193
-0.007963324896991253 0.11627912521362305 0.22480618953704834
-0.00897490419447422 0.1317828893661499 -0.39534884691238403
-0.011808378621935844 0.1317828893661499 -0.3798449635505676
-0.015085272490978241 0.1317828893661499 -0.3643410801887512
-0.019407598301768303 0.1317828893661499 -0.3488371968269348
-0.022230371832847595 0.1317828893661499 -0.28682172298431396
-0.01980576664209366 0.1317828893661499 -0.27131783962249756
-0.017562538385391235 0.1317828893661499 -0.25581395626068115
-0.01482340693473816 0.1317828893661499 -0.24031007289886475
-0.009957448579370975 0.1317828893661499 -0.22480618953704834
-0.008787480182945728 0.1317828893661499 -0.1782945990562439
-0.02051720581948757 0.1317828893661499 0.1317828893661499
-0.01701510138809681 0.1317828893661499 0.1472867727279663
-0.014354793354868889 0.1317828893661499 0.16279065608978271
-0.012556247413158417 0.1317828893661499 0.17829453945159912
-0.010347845032811165 0.1317828893661499 0.19379842281341553
-0.008548766374588013 0.1317828893661499 0.20930230617523193
-0.008959518745541573 0.1472867727279663 -0.39534884691238403
-0.011917820200324059 0.1472867727279663 -0.3798449635505676
-0.015206221491098404 0.1472867727279663 -0.3643410801887512
-0.01960287243127823 0.1472867727279663 -0.3488371968269348
-0.023057619109749794 0.1472867727279663 -0.28682172298431396
-0.020430095493793488 0.1472867727279663 -0.27131783962249756
-0.017557919025421143 0.1472867727279663 -0.25581395626068115
-0.013722721487283707 0.1472867727279663 -0.24031007289886475
-0.02290528640151024 0.1472867727279663 -0.1627907156944275
-0.02301054820418358 0.14728675782680511 0.11627912521362305
-0.017565779387950897 0.1472867727279663 0.1317828893661499
-0.01457812637090683 0.1472867727279663 0.1472867727279663
-0.012434706091880798 0.1472867727279663 0.16279065608978271
-0.01043768972158432 0.1472867727279663 0.17829453945159912
-0.008710906840860844 0.1472867727279663 0.19379842281341553
-0.008656543679535389 0.16279065608978271 -0.39534884691238403
-0.011607695370912552 0.16279065608978271 -0.3798449635505676
-0.014906078577041626 0.16279065608978271 -0.3643410801887512
-0.019133435562253 0.16279065608978271 -0.3488371968269348
-0.020475612953305244 0.16279065608978271 -0.27131783962249756
-0.016943536698818207 0.16279065608978271 -0.25581395626068115
-0.011872576549649239 0.16279065608978271 -0.24031007289886475
-0.011272246018052101 0.16279065608978271 -0.1627907156944275
-0.01853177323937416 0.16279065608978271 0.11627912521362305
-0.014007877558469772 0.16279065608978271 0.1317828893661499
-0.01159149594604969 0.16279065608978271 0.1472867727279663
-0.009622195735573769 0.16279065608978271 0.16279065608978271
-0.008273920975625515 0.16279065608978271 0.17829453945159912
-0.008074643090367317 0.17829453945159912 -0.39534884691238403
-0.010887270793318748 0.17829453945159912 -0.3798449635505676
-0.014240749180316925 0.17829453945159912 -0.3643410801887512
-0.018068848177790642 0.17829453945159912 -0.3488371968269348
-0.022972749546170235 0.17829453945159912 -0.3333333134651184
-0.02276148833334446 0.17829455435276031 -0.28682172298431396
-0.019810480996966362 0.17829453945159912 -0.27131783962249756
-0.01592426933348179 0.17829453945159912 -0.25581395626068115
-0.009639561176300049 0.17829453945159912 -0.24031007289886475
-0.022778932005167007 0.17829453945159912 0.10077524185180664
-0.0148673877120018 0.17829453945159912 0.11627912521362305
-0.010372065007686615 0.17829453945159912 0.1317828893661499
-0.008684705942869186 0.17829453945159912 0.1472867727279663
-0.009806781075894833 0.19379842281341553 -0.3798449635505676
-0.01318463496863842 0.19379842281341553 -0.3643410801887512
-0.016718104481697083 0.19379842281341553 -0.3488371968269348
-0.02086891606450081 0.19379842281341553 -0.3333333134651184
-0.021354826167225838 0.19379842281341553 -0.28682172298431396
-0.018529178574681282 0.19379843771457672 -0.27131783962249756
-0.014524473808705807 0.19379842281341553 -0.25581395626068115
-0.019624343141913414 0.19379842281341553 0.10077524185180664
-0.012392856180667877 0.19379842281341553 0.11627912521362305
-0.008622589521110058 0.19379842281341553 0.1317828893661499
-0.008495451882481575 0.20930230617523193 -0.3798449635505676
-0.011409072205424309 0.20930230617523193 -0.3643410801887512
-0.014832137152552605 0.20930230617523193 -0.3488371968269348
-0.01842016726732254 0.20930230617523193 -0.3333333134651184
-0.020820729434490204 0.20930230617523193 -0.317829430103302
-0.020759327337145805 0.20930230617523193 -0.30232560634613037
-0.01917256973683834 0.20930232107639313 -0.28682172298431396
-0.016932576894760132 0.20930230617523193 -0.27131783962249756
-0.013001450337469578 0.20930230617523193 -0.25581395626068115
-0.016833577305078506 0.20930230617523193 0.10077524185180664
-0.01032750029116869 0.20930230617523193 0.11627912521362305
-0.009480686858296394 0.22480618953704834 -0.3643410801887512
-0.012966597452759743 0.22480618953704834 -0.3488371968269348
-0.01609165593981743 0.22480618953704834 -0.3333333134651184
-0.018148038536310196 0.22480618953704834 -0.317829430103302
-0.018202923238277435 0.22480618953704834 -0.30232560634613037
-0.01712612621486187 0.22480618953704834 -0.28682172298431396
-0.015428408980369568 0.22480618953704834 -0.27131783962249756
-0.01225282996892929 0.22480618953704834 -0.25581395626068115
-0.01418127492070198 0.22480618953704834 0.10077524185180664
-0.008895592764019966 0.22480618953704834 0.11627912521362305
-0.008151547983288765 0.24031007289886475 -0.3643410801887512
-0.010867031291127205 0.24031007289886475 -0.3488371968269348
-0.013753705658018589 0.24031007289886475 -0.3333333134651184
-0.015525801107287407 0.24031007289886475 -0.317829430103302
-0.015943516045808792 0.24031005799770355 -0.30232560634613037
-0.015154898166656494 0.24031007289886475 -0.28682172298431396
-0.014056345447897911 0.24031007289886475 -0.27131783962249756
-0.01251430157572031 0.24031007289886475 -0.25581395626068115
-0.02060852013528347 0.24031007289886475 0.08527135848999023
-0.012073090299963951 0.24031007289886475 0.10077524185180664
-0.00915219821035862 0.25581395626068115 -0.3488371968269348
-0.011778028681874275 0.25581395626068115 -0.3333333134651184
-0.013194747269153595 0.25581395626068115 -0.317829430103302
-0.013834837824106216 0.25581395626068115 -0.30232560634613037
-0.013565199449658394 0.25581395626068115 -0.28682172298431396
-0.013331422582268715 0.25581395626068115 -0.27131783962249756
-0.013155896216630936 0.25581395626068115 -0.25581395626068115
-0.008659910410642624 0.25581395626068115 -0.24031007289886475
-0.020396504551172256 0.25581395626068115 -0.13178294897079468
-0.01744621992111206 0.25581395626068115 0.08527135848999023
-0.009953980334103107 0.25581395626068115 0.10077524185180664
-0.008232112973928452 0.27131783962249756 -0.3488371968269348
-0.010278040543198586 0.27131783962249756 -0.3333333134651184
-0.01173015870153904 0.27131783962249756 -0.317829430103302
-0.012274563312530518 0.27131783962249756 -0.30232560634613037
-0.012350661680102348 0.27131783962249756 -0.28682172298431396
-0.01284409686923027 0.27131783962249756 -0.27131783962249756
-0.013412531465291977 0.27131783962249756 -0.25581395626068115
-0.009025262668728828 0.27131783962249756 -0.24031007289886475
-0.014625661075115204 0.27131783962249756 0.08527135848999023
-0.008156427182257175 0.27131783962249756 0.10077524185180664
-0.009095338173210621 0.28682172298431396 -0.3333333134651184
-0.010742022655904293 0.28682172298431396 -0.317829430103302
-0.01127815805375576 0.28682172298431396 -0.30232560634613037
-0.011395115405321121 0.28682172298431396 -0.28682172298431396
-0.012369658797979355 0.28682172298431396 -0.27131783962249756
-0.012877793982625008 0.28682172298431396 -0.25581395626068115
-0.007922982797026634 0.28682172298431396 -0.24031007289886475
-0.01192429568618536 0.28682172298431396 0.08527135848999023
-0.008077533915638924 0.30232560634613037 -0.3333333134651184
-0.009749799966812134 0.30232560634613037 -0.317829430103302
-0.010847333818674088 0.30232560634613037 -0.30232560634613037
-0.011132603511214256 0.30232560634613037 -0.28682172298431396
-0.012133549898862839 0.30232560634613037 -0.27131783962249756
-0.011683858931064606 0.30232560634613037 -0.25581395626068115
-0.021568534895777702 0.30232560634613037 0.06976747512817383
-0.009214728139340878 0.30232560634613037 0.08527135848999023
-0.008516588248312473 0.3178294897079468 -0.317829430103302
-0.010349533520638943 0.3178294897079468 -0.30232560634613037
-0.011207414790987968 0.3178294897079468 -0.28682172298431396
-0.01189253106713295 0.3178294897079468 -0.27131783962249756
-0.009991645812988281 0.3178294897079468 -0.25581395626068115
-0.020740747451782227 0.3178294897079468 0.06976747512817383
-0.0095614492893219 0.3333333730697632 -0.30232560634613037
-0.011023547500371933 0.3333333730697632 -0.28682172298431396
-0.011118452996015549 0.3333333730697632 -0.27131783962249756
-0.020156729966402054 0.3333333730697632 0.06976747512817383
-0.009060949087142944 0.3488372564315796 -0.30232560634613037
-0.010633433237671852 0.3488372564315796 -0.28682172298431396
-0.009983100928366184 0.3488372564315796 -0.27131783962249756
-0.01951645500957966 0.3488372564315796 0.06976747512817383
-0.009097134694457054 0.364341139793396 -0.30232560634613037
-0.010589167475700378 0.364341139793396 -0.28682172298431396
-0.009274719282984734 0.364341139793396 -0.27131783962249756
-0.01836491748690605 0.364341139793396 0.06976747512817383
-0.009008677676320076 0.37984490394592285 -0.30232560634613037
-0.01039741188287735 0.37984490394592285 -0.28682172298431396
-0.008127565495669842 0.37984490394592285 -0.27131783962249756
-0.016289664432406425 0.37984490394592285 0.06976747512817383
-0.008879473432898521 0.39534878730773926 -0.28682172298431396
-0.014361139386892319 0.39534878730773926 0.06976747512817383
-0.01238089706748724 0.41085267066955566 0.06976747512817383
-0.009971416555345058 0.42635655403137207 0.06976747512817383
-0.022269168868660927 0.4418604373931885 -0.11627906560897827
-0.022370509803295135 0.4418604075908661 0.05426359176635742
-0.021679824218153954 0.4573643207550049 -0.11627906560897827
-0.017213325947523117 0.4573643207550049 0.05426359549164772
-0.022746717557311058 0.4728682041168213 -0.11627906560897827
-0.010627539828419685 0.4728682041168213 0.05426359176635742
-0.01814986765384674 0.4883720874786377 0.038759708404541016
-0.01787874847650528 0.5193798542022705 0.02325582504272461
-0.009445229545235634 0.5348837375640869 0.02325582504272461
-0.02264249697327614 0.5968992114067078 0.007751941680908203
-0.021015426144003868 0.612403154373169 0.007751941680908203
-0.007870319299399853 0.612403154373169 0.02325582504272461
-0.0077627054415643215 0.6279069185256958 -0.13178294897079468
-0.01930864341557026 0.6279069185256958 0.007751941680908203
-0.011241231113672256 0.6279069185256958 0.02325582504272461
-0.009260950610041618 0.6434108018875122 -0.13178294897079468
-0.01921747252345085 0.6434108018875122 0.007751941680908203
-0.015130912885069847 0.6434108018875122 0.02325582504272461
-0.009802659973502159 0.6434108018875122 0.038759708404541016
-0.010940272361040115 0.6589146852493286 -0.13178294897079468
-0.020798826590180397 0.6589146852493286 -0.11627906560897827
-0.021347614005208015 0.6589146852493286 -0.007751941215246916
-0.01964305154979229 0.6589146852493286 0.007751941680908203
-0.01796330325305462 0.6589146852493286 0.02325582504272461
-0.014259091578423977 0.6589146852493286 0.038759708404541016
-0.009047233499586582 0.6589146852493286 0.05426359176635742
-0.012982629239559174 0.674418568611145 -0.13178294897079468
-0.018821462988853455 0.674418568611145 -0.11627906560897827
-0.02215706557035446 0.674418568611145 -0.038759708404541016
-0.019861524924635887 0.674418568611145 -0.02325582504272461
-0.018935279920697212 0.674418568611145 -0.007751941680908203
-0.018965288996696472 0.674418568611145 0.007751941215246916
-0.01838156022131443 0.674418568611145 0.02325582504272461
-0.016046980395913124 0.674418568611145 0.038759708404541016
-0.012127621099352837 0.674418568611145 0.05426359176635742
-0.01114535890519619 0.6899224519729614 -0.14728683233261108
-0.014935378916561604 0.6899224519729614 -0.13178294897079468
-0.017699815332889557 0.6899224519729614 -0.11627906560897827
-0.019865592941641808 0.6899224519729614 -0.10077518224716187
-0.021057145670056343 0.6899224519729614 -0.08527129888534546
-0.020940301939845085 0.6899224519729614 -0.06976741552352905
-0.019665885716676712 0.6899224519729614 -0.05426359176635742
-0.018249796703457832 0.6899224519729614 -0.038759708404541016
-0.017033081501722336 0.6899224519729614 -0.02325582504272461
-0.016614997759461403 0.6899224519729614 -0.007751941680908203
-0.01698843389749527 0.6899224519729614 0.007751941215246916
-0.016984038054943085 0.6899224519729614 0.02325582504272461
-0.015887383371591568 0.6899224519729614 0.038759708404541016
-0.013633053749799728 0.6899224519729614 0.05426359176635742
-0.010120486840605736 0.6899224519729614 0.06976747512817383
-0.009769081138074398 0.7054263353347778 -0.1627907156944275
-0.014297494664788246 0.7054263353347778 -0.14728683233261108
-0.016261102631688118 0.7054263353347778 -0.13178294897079468
-0.017138050869107246 0.7054263353347778 -0.11627906560897827
-0.017670556902885437 0.7054263353347778 -0.10077518224716187
-0.0182028841227293 0.7054263353347778 -0.08527129888534546
-0.01812773011624813 0.7054263353347778 -0.06976741552352905
-0.017221583053469658 0.7054263353347778 -0.05426359176635742
-0.01593172922730446 0.7054263353347778 -0.038759708404541016
-0.014753596857190132 0.7054263353347778 -0.02325582504272461
-0.014449488371610641 0.7054263353347778 -0.007751941680908203
-0.014814760535955429 0.7054263353347778 0.007751941680908203
-0.015131086111068726 0.7054263353347778 0.02325582504272461
-0.015006845816969872 0.7054263353347778 0.038759708404541016
-0.014033661223948002 0.7054263353347778 0.05426359176635742
-0.011912479065358639 0.7054263353347778 0.06976747512817383
-0.008096466772258282 0.7054263353347778 0.08527135848999023
-0.012989144772291183 0.7209302186965942 -0.1627907156944275
-0.015543745830655098 0.7209302186965942 -0.14728683233261108
-0.016483942046761513 0.7209302186965942 -0.13178294897079468
-0.016506604850292206 0.7209302186965942 -0.11627906560897827
-0.01602761633694172 0.7209302186965942 -0.10077518224716187
-0.015943175181746483 0.7209302186965942 -0.08527129888534546
-0.01572282984852791 0.7209302186965942 -0.06976741552352905
-0.01476717833429575 0.7209302186965942 -0.05426359176635742
-0.013780752196907997 0.7209302186965942 -0.038759708404541016
-0.013047566637396812 0.7209302186965942 -0.02325582504272461
-0.012826301157474518 0.7209302186965942 -0.007751941680908203
-0.013067261315882206 0.7209302186965942 0.007751941680908203
-0.013447495177388191 0.7209302186965942 0.02325582504272461
-0.013816224411129951 0.7209302186965942 0.038759708404541016
-0.01361856609582901 0.7209302186965942 0.05426359176635742
-0.012405335903167725 0.7209302186965942 0.06976747512817383
-0.009350353851914406 0.7209302186965942 0.08527135848999023
-0.010587623342871666 0.7364341020584106 -0.1782945990562439
-0.014011073857545853 0.7364341020584106 -0.1627907156944275
-0.015441203489899635 0.7364341020584106 -0.14728683233261108
-0.015794040635228157 0.7364341020584106 -0.13178294897079468
-0.015336899086833 0.7364341020584106 -0.11627906560897827
-0.014285565353929996 0.7364341020584106 -0.10077518224716187
-0.01371762715280056 0.7364341020584106 -0.08527129888534546
-0.013373324647545815 0.7364341020584106 -0.06976741552352905
-0.01279409322887659 0.7364341020584106 -0.05426359176635742
-0.012250995263457298 0.7364341020584106 -0.038759708404541016
-0.01179942674934864 0.7364341020584106 -0.02325582504272461
-0.011673612520098686 0.7364341020584106 -0.007751941680908203
-0.01191068533807993 0.7364341020584106 0.007751941680908203
-0.012256687507033348 0.7364341020584106 0.02325582504272461
-0.012692619115114212 0.7364341020584106 0.038759708404541016
-0.012776177376508713 0.7364341020584106 0.05426359176635742
-0.01203448511660099 0.7364341020584106 0.06976747512817383
-0.009758378379046917 0.7364341020584106 0.08527135848999023
-0.00784547533839941 0.7364341020584106 0.10077524185180664
-0.012271245941519737 0.751937985420227 -0.1782945990562439
-0.014096587896347046 0.751937985420227 -0.1627907156944275
-0.014796707779169083 0.751937985420227 -0.14728683233261108
-0.014655004255473614 0.751937985420227 -0.13178294897079468
-0.013940519653260708 0.751937985420227 -0.11627906560897827
-0.012987609952688217 0.751937985420227 -0.10077518224716187
-0.012126913294196129 0.751937985420227 -0.08527129888534546
-0.011261793784797192 0.751937985420227 -0.06976741552352905
-0.010416669771075249 0.751937985420227 -0.05426359176635742
-0.009941883385181427 0.751937985420227 -0.038759708404541016
-0.009790279902517796 0.751937985420227 -0.02325582504272461
-0.009917594492435455 0.751937985420227 -0.007751941680908203
-0.010335774160921574 0.751937985420227 0.007751941680908203
-0.010834550485014915 0.751937985420227 0.02325582504272461
-0.011349964886903763 0.751937985420227 0.038759708404541016
-0.011538343504071236 0.751937985420227 0.05426359176635742
-0.01109094824641943 0.751937985420227 0.06976747512817383
-0.009577563963830471 0.751937985420227 0.08527135848999023
-0.00837083999067545 0.751937985420227 0.10077524185180664
-0.009888594038784504 0.7674418687820435 -0.19379842281341553
-0.013009188696742058 0.7674418687820435 -0.1782945990562439
-0.014037391170859337 0.7674418687820435 -0.1627907156944275
-0.014400485903024673 0.7674418687820435 -0.14728683233261108
-0.014047186821699142 0.7674418687820435 -0.13178294897079468
-0.013214092701673508 0.7674418687820435 -0.11627906560897827
-0.01171024702489376 0.7674418687820435 -0.10077518224716187
-0.009883556514978409 0.7674418687820435 -0.08527129888534546
-0.00901467353105545 0.7674418687820435 -0.06976741552352905
-0.008710836991667747 0.7674418687820435 -0.05426359176635742
-0.008532591164112091 0.7674418687820435 -0.038759708404541016
-0.00871274620294571 0.7674418687820435 -0.02325582504272461
-0.009072287939488888 0.7674418687820435 -0.007751941680908203
-0.00917075201869011 0.7674418687820435 0.007751941680908203
-0.009333801455795765 0.7674418687820435 0.02325582504272461
-0.009705504402518272 0.7674418687820435 0.038759708404541016
-0.010034285485744476 0.7674418687820435 0.05426359176635742
-0.009996123611927032 0.7674418687820435 0.06976747512817383
-0.00930554699152708 0.7674418687820435 0.08527135848999023
-0.00865670945495367 0.7674418687820435 0.10077524185180664
-0.008189079351723194 0.7674418687820435 0.11627912521362305
-0.011870184913277626 0.7829457521438599 -0.19379842281341553
-0.013447996228933334 0.7829457521438599 -0.1782945990562439
-0.014364421367645264 0.7829457521438599 -0.1627907156944275
-0.014924008399248123 0.7829457521438599 -0.14728683233261108
-0.014184962958097458 0.7829457521438599 -0.13178294897079468
-0.012105857022106647 0.7829457521438599 -0.11627906560897827
-0.00971940252929926 0.7829457521438599 -0.10077518224716187
-0.008503209799528122 0.7829457521438599 0.02325582504272461
-0.00906350277364254 0.7829457521438599 0.038759708404541016
-0.009260829538106918 0.7829457521438599 0.05426359176635742
-0.009410198777914047 0.7829457521438599 0.06976747512817383
-0.009259306825697422 0.7829457521438599 0.08527135848999023
-0.009041666984558105 0.7829457521438599 0.10077524185180664
-0.0087751355022192 0.7829457521438599 0.11627912521362305
-0.008410760201513767 0.7829457521438599 0.1317828893661499
-0.007897264324128628 0.7829457521438599 0.1472867727279663
-0.009959652088582516 0.7984496355056763 -0.20930230617523193
-0.012930354103446007 0.7984496355056763 -0.19379842281341553
-0.013949255459010601 0.7984496355056763 -0.1782945990562439
-0.015095843002200127 0.7984496355056763 -0.1627907156944275
-0.014936128631234169 0.7984496355056763 -0.14728683233261108
-0.012389389798045158 0.7984496355056763 -0.13178294897079468
-0.00808525737375021 0.7984496355056763 -0.11627906560897827
-0.009216371923685074 0.7984496355056763 0.05426359176635742
-0.009327053092420101 0.7984496355056763 0.06976747512817383
-0.009309493005275726 0.7984496355056763 0.08527135848999023
-0.009339278563857079 0.7984496355056763 0.10077524185180664
-0.009282492101192474 0.7984496355056763 0.11627912521362305
-0.009035495109856129 0.7984496355056763 0.1317828893661499
-0.008650981821119785 0.7984496355056763 0.1472867727279663
-0.008087857626378536 0.7984496355056763 0.16279065608978271
-0.012539120391011238 0.8139535188674927 -0.20930230617523193
-0.01381717249751091 0.8139535188674927 -0.19379842281341553
-0.014724208042025566 0.8139535188674927 -0.1782945990562439
-0.014674970880150795 0.8139535188674927 -0.1627907156944275
-0.011642664670944214 0.8139535188674927 -0.14728683233261108
-0.009297057054936886 0.8139535188674927 0.06976747512817383
-0.009481287561357021 0.8139535188674927 0.08527135848999023
-0.00948007870465517 0.8139535188674927 0.10077524185180664
-0.00949672982096672 0.8139535188674927 0.11627912521362305
-0.009410912171006203 0.8139535188674927 0.1317828893661499
-0.00916958786547184 0.8139535188674927 0.1472867727279663
-0.008691358380019665 0.8139535188674927 0.16279065608978271
-0.008155510760843754 0.8139535188674927 0.17829453945159912
-0.01105421967804432 0.8294574022293091 -0.22480618953704834
-0.014160564169287682 0.8294574022293091 -0.20930230617523193
-0.014850694686174393 0.8294574022293091 -0.19379842281341553
-0.014315498992800713 0.8294574022293091 -0.1782945990562439
-0.009815037250518799 0.8294574022293091 -0.1627907156944275
-0.009004075080156326 0.8294574022293091 0.08527135848999023
-0.009685346856713295 0.8294574022293091 0.10077524185180664
-0.009670520201325417 0.8294574022293091 0.11627912521362305
-0.009572569280862808 0.8294574022293091 0.1317828893661499
-0.009461594745516777 0.8294574022293091 0.1472867727279663
-0.009104276075959206 0.8294574022293091 0.16279065608978271
-0.008627424016594887 0.8294574022293091 0.17829453945159912
-0.007969831116497517 0.8294574022293091 0.19379842281341553
-0.007911083288490772 0.8449612855911255 -0.24031007289886475
-0.014002503827214241 0.8449612855911255 -0.22480618953704834
-0.01522240974009037 0.8449612855911255 -0.20930230617523193
-0.014415481127798557 0.8449612855911255 -0.19379842281341553
-0.008571455255150795 0.8449612855911255 -0.1782945990562439
-0.007872027345001698 0.8449612855911255 0.10077524185180664
-0.009696358814835548 0.8449612855911255 0.11627912521362305
-0.009748928248882294 0.8449612855911255 0.1317828893661499
-0.009645653888583183 0.8449612855911255 0.1472867727279663
-0.009356838651001453 0.8449612855911255 0.16279065608978271
-0.00894225761294365 0.8449612855911255 0.17829453945159912
-0.008284577168524265 0.8449612855911255 0.19379842281341553
-0.012790678068995476 0.8604651689529419 -0.24031007289886475
-0.01531144231557846 0.8604651689529419 -0.22480618953704834
-0.01505943201482296 0.8604651689529419 -0.20930230617523193
-0.007873643189668655 0.8604651689529419 -0.19379842281341553
-0.008952341973781586 0.8604651689529419 0.1317828893661499
-0.009887704625725746 0.8604651689529419 0.1472867727279663
-0.009670697152614594 0.8604651689529419 0.16279065608978271
-0.009227937087416649 0.8604651689529419 0.17829453945159912
-0.008600751869380474 0.8604651689529419 0.19379842281341553
-0.008026741445064545 0.8604651689529419 0.20930230617523193
-0.009366958402097225 0.8759689331054688 -0.25581395626068115
-0.014553658664226532 0.8759689331054688 -0.24031007289886475
-0.015405482612550259 0.8759689331054688 -0.22480618953704834
-0.009493615478277206 0.8759689331054688 -0.20930230617523193
-0.009228838607668877 0.8759689331054688 0.16279065608978271
-0.009676609188318253 0.8759689331054688 0.17829453945159912
-0.009034501388669014 0.8759689331054688 0.19379842281341553
-0.008497925475239754 0.8759689331054688 0.20930230617523193
-0.007967893965542316 0.8759689331054688 0.22480618953704834
-0.012816352769732475 0.8914728164672852 -0.25581395626068115
-0.015098555013537407 0.8914728164672852 -0.24031007289886475
-0.011297015473246574 0.8914728164672852 -0.22480618953704834
-0.009688695892691612 0.8914728164672852 0.19379842281341553
-0.00918156374245882 0.8914728164672852 0.20930230617523193
-0.00863779429346323 0.8914728164672852 0.22480618953704834
-0.008147183805704117 0.8914728164672852 0.24031007289886475
-0.010031313635408878 0.9069766998291016 -0.27131783962249756
-0.014090399257838726 0.9069766998291016 -0.25581395626068115
-0.011842630803585052 0.9069766998291016 -0.24031007289886475
-0.009780414402484894 0.9069766998291016 0.20930230617523193
-0.009528815746307373 0.9069766998291016 0.22480618953704834
-0.008819054812192917 0.9069766998291016 0.24031007289886475
-0.008208788000047207 0.9069766998291016 0.25581395626068115
-0.012531017884612083 0.922480583190918 -0.27131783962249756
-0.011332418769598007 0.922480583190918 -0.25581395626068115
-0.009623887948691845 0.922480583190918 0.22480618953704834
-0.009730118326842785 0.922480583190918 0.24031007289886475
-0.008640746586024761 0.922480583190918 0.25581395626068115
-0.008038649335503578 0.922480583190918 0.27131783962249756
-0.01097507867962122 0.9379844665527344 -0.28682172298431396
-0.010162475518882275 0.9379844665527344 -0.27131783962249756
-0.00897532794624567 0.9379844665527344 0.24031007289886475
-0.009802592918276787 0.9379844665527344 0.25581395626068115
-0.008459385484457016 0.9379844665527344 0.27131783962249756
