0.06976747512817383 -0.24031007289886475 0.1842460334300995
0.06976747512817383 -0.22480618953704834 -0.3911058306694031
0.06976747512817383 -0.22480618953704834 0.18428266048431396
0.06976747512817383 -0.20930230617523193 -0.3927542567253113
0.06976747512817383 -0.20930230617523193 0.18392276763916016
0.06976747512817383 -0.19379842281341553 -0.39460721611976624
0.06976747512817383 -0.19379842281341553 0.1836869716644287
0.06976747512817383 -0.1782945990562439 -0.39561623334884644
0.06976747512817383 -0.1782945990562439 0.18299010396003723
0.06976747512817383 -0.1627907156944275 -0.3962307870388031
0.06976747512817383 -0.1627907156944275 0.18166986107826233
0.06976747512817383 -0.14728683233261108 -0.3962894082069397
0.06976747512817383 -0.14728683233261108 0.18025030195713043
0.06976747512817383 -0.13178294897079468 -0.3962428867816925
0.06976747512817383 -0.13178294897079468 0.1789579689502716
0.06976747512817383 -0.11627906560897827 -0.3960829973220825
0.06976747512817383 -0.11627906560897827 0.17761433124542236
0.06976747512817383 -0.10077518224716187 -0.3957965075969696
0.06976747512817383 -0.10077518224716187 0.17564551532268524
0.06976747512817383 -0.08527129888534546 -0.39561405777931213
0.06976747512817383 -0.08527129888534546 0.17342619597911835
0.06976747512817383 -0.06976741552352905 -0.39520400762557983
0.06976747512817383 -0.06976741552352905 0.1710851788520813
0.06976747512817383 -0.05426359176635742 -0.39437854290008545
0.06976747512817383 -0.05426359176635742 0.16878138482570648
0.06976747512817383 -0.038759708404541016 -0.3929632902145386
0.06976747512817383 -0.038759708404541016 0.16588516533374786
0.06976747512817383 -0.02325582504272461 -0.3912767767906189
0.06976747512817383 -0.02325582690536976 0.1628592163324356
0.06976747512817383 -0.007751941680908203 -0.38727888464927673
0.06976747512817383 -0.007751941680908203 0.15866757929325104
0.06976747512817383 0.007751941680908203 -0.3823414146900177
0.06976747512817383 0.007751941215246916 0.15431177616119385
0.06976747512817383 0.02325582504272461 -0.3765495717525482
0.06976747512817383 0.02325582690536976 0.15031254291534424
0.06976747512817383 0.038759708404541016 -0.3683933615684509
0.06976747512817383 0.038759708404541016 0.14631862938404083
0.06976747512817383 0.05426359176635742 -0.3613026738166809
0.06976747512817383 0.05426359176635742 0.1417686641216278
0.06976747512817383 0.06976747512817383 -0.35333356261253357
0.06976747512817383 0.06976747512817383 0.13738317787647247
0.06976747512817383 0.08527135848999023 -0.34613853693008423
0.06976747512817383 0.08527135848999023 0.13321664929389954
0.06976747512817383 0.10077524185180664 -0.337571918964386
0.06976747512817383 0.10077524185180664 0.12881653010845184
0.06976747512817383 0.11627912521362305 -0.3297848701477051
0.06976747512817383 0.11627912521362305 0.12431478500366211
0.06976747512817383 0.1317828893661499 -0.31996408104896545
0.06976747512817383 0.1317828893661499 0.12042980641126633
0.06976747512817383 0.1472867727279663 -0.31023234128952026
0.06976747512817383 0.1472867727279663 0.11638075113296509
0.06976747512817383 0.16279065608978271 -0.29846251010894775
0.06976747512817383 0.16279065608978271 0.11170562356710434
0.06976747512817383 0.17829453945159912 -0.28317776322364807
0.06976747512817383 0.17829453945159912 0.1061011254787445
0.06976747512817383 0.19379842281341553 -0.26540708541870117
0.06976747512817383 0.19379842281341553 0.09876226633787155
0.06976747512817383 0.20930230617523193 -0.24275323748588562
0.06976747512817383 0.20930230617523193 0.09063955396413803
0.06976747512817383 0.22480618953704834 -0.2203531563282013
0.06976747512817383 0.22480618953704834 0.08133302628993988
0.06976747512817383 0.24031005799770355 -0.20352059602737427
0.06976747512817383 0.24031007289886475 0.07142489403486252
0.06976747512817383 0.25581395626068115 -0.19102156162261963
0.06976747512817383 0.25581395626068115 0.06049484759569168
0.06976747512817383 0.27131783962249756 -0.1804426908493042
0.06976747512817383 0.27131783962249756 0.05047642067074776
0.06976747512817383 0.28682172298431396 -0.1703261137008667
0.06976747512817383 0.28682172298431396 0.039829131215810776
0.06976747512817383 0.30232560634613037 -0.16310232877731323
0.06976747512817383 0.30232560634613037 0.0303209125995636
0.06976747512817383 0.3178294897079468 -0.15540093183517456
0.06976747512817383 0.3178294897079468 0.022009963169693947
0.06976747512817383 0.3333333730697632 -0.14960536360740662
0.06976747512817383 0.3333333730697632 0.013458307832479477
0.06976747512817383 0.3488372564315796 -0.1440233737230301
0.06976747512817383 0.3488372564315796 0.00479400809854269
0.06976747512817383 0.364341139793396 -0.13749390840530396
0.06976747512817383 0.364341139793396 -0.005053275264799595
0.06976748257875443 0.37984490394592285 -0.1305384337902069
0.06976747512817383 0.37984490394592285 -0.017554543912410736
0.06976747512817383 0.39534878730773926 -0.12039487063884735
0.06976747512817383 0.39534878730773926 -0.03169604018330574
0.06976747512817383 0.41085267066955566 -0.10738004744052887
0.06976747512817383 0.41085267066955566 -0.047859542071819305
0.08527135848999023 -0.9379844665527344 -0.09654247760772705
0.08527135848999023 -0.9379844665527344 -0.03530964255332947
0.08527135103940964 -0.922480583190918 -0.13063935935497284
0.08527135848999023 -0.9224806427955627 -0.015801316127181053
0.08527135103940964 -0.9069766998291016 -0.15902328491210938
0.08527135848999023 -0.9069768190383911 -0.0007647047750651836
0.08527135848999023 -0.8914729356765747 -0.18386518955230713
0.08527135848999023 -0.8914728760719299 0.011803785338997841
0.08527135848999023 -0.8759689927101135 -0.20216038823127747
0.08527135848999023 -0.8759689927101135 0.01936941407620907
0.08527135848999023 -0.8604651093482971 -0.21773752570152283
0.08527135848999023 -0.8604650497436523 0.029465606436133385
0.08527135848999023 -0.8449612259864807 -0.2316066026687622
0.08527135848999023 -0.8449612259864807 0.039149705320596695
0.08527135848999023 -0.8294573426246643 -0.24310128390789032
0.08527135848999023 -0.8294573426246643 0.046726591885089874
0.08527135848999023 -0.8139535188674927 -0.25287461280822754
0.08527135848999023 -0.8139535188674927 0.05687857046723366
0.08527135848999023 -0.7984496355056763 -0.26311206817626953
0.08527135848999023 -0.7984496355056763 0.0625857338309288
0.08527135103940964 -0.7829457521438599 -0.2704859972000122
0.08527135848999023 -0.7829457521438599 0.07074739784002304
0.08527135848999023 -0.7674418687820435 -0.27905529737472534
0.08527135848999023 -0.7674418687820435 0.07640290260314941
0.08527135103940964 -0.751937985420227 -0.28578558564186096
0.08527135848999023 -0.751937985420227 0.0819048136472702
0.08527135848999023 -0.7364341020584106 -0.29391270875930786
0.08527135848999023 -0.7364341020584106 0.08822855353355408
0.08527135848999023 -0.7209302186965942 -0.3004894554615021
0.08527135848999023 -0.7209302186965942 0.09281773865222931
0.08527135848999023 -0.7054263353347778 -0.30864495038986206
0.08527135848999023 -0.7054263353347778 0.09806524217128754
0.08527135848999023 -0.6899224519729614 -0.3143693208694458
0.08527135848999023 -0.6899224519729614 0.10396784543991089
0.08527135848999023 -0.674418568611145 -0.3215453326702118
0.08527135848999023 -0.674418568611145 0.10855206847190857
0.08527135848999023 -0.6589146852493286 -0.3272492289543152
0.08527135848999023 -0.6589146852493286 0.11471414566040039
0.08527135848999023 -0.6434108018875122 -0.3316686153411865
0.08527135848999023 -0.643410861492157 0.1202593743801117
0.08527135848999023 -0.6279069781303406 -0.33747801184654236
0.08527135848999023 -0.6279069781303406 0.1247369647026062
0.08527135848999023 -0.6124030947685242 -0.3424932360649109
0.08527135848999023 -0.6124030351638794 0.13064074516296387
0.08527135848999023 -0.5968992114067078 -0.345380961894989
0.08527135848999023 -0.5968992114067078 0.13477084040641785
0.08527135848999023 -0.5813953876495361 -0.34929877519607544
0.08527135848999023 -0.5813953876495361 0.1380854845046997
0.08527135848999023 -0.5658915042877197 -0.35217297077178955
0.08527135848999023 -0.5658915042877197 0.14045150578022003
0.08527135848999023 -0.5503876209259033 -0.35517650842666626
0.08527135848999023 -0.5503876209259033 0.14342011511325836
0.08527135848999023 -0.5348837375640869 -0.35753750801086426
0.08527135848999023 -0.5348837375640869 0.1462939977645874
0.08527135848999023 -0.5193798542022705 -0.35930371284484863
0.08527135848999023 -0.5193798542022705 0.1479482650756836
0.08527135848999023 -0.5038759708404541 -0.36142104864120483
0.08527135848999023 -0.5038759708404541 0.14926394820213318
0.08527135848999023 -0.4883720874786377 -0.36439040303230286
0.08527135848999023 -0.4883720874786377 0.1508178859949112
0.08527135848999023 -0.4728682041168213 -0.3662019968032837
0.08527135848999023 -0.4728682041168213 0.15240424871444702
0.08527135848999023 -0.4573643207550049 -0.3687899112701416
0.08527135848999023 -0.4573643207550049 0.15406470000743866
0.08527135848999023 -0.4418604373931885 -0.3714561462402344
0.08527135848999023 -0.4418604373931885 0.15603038668632507
0.08527135848999023 -0.42635661363601685 -0.37332865595817566
0.08527135848999023 -0.42635661363601685 0.158730149269104
0.08527135848999023 -0.41085273027420044 -0.37442731857299805
0.08527135848999023 -0.41085273027420044 0.161418154835701
0.08527135848999023 -0.39534884691238403 -0.37534910440444946
0.08527135848999023 -0.39534884691238403 0.1631733477115631
0.08527135848999023 -0.3798449635505676 -0.37583065032958984
0.08527135848999023 -0.3798449635505676 0.16402287781238556
0.08527135848999023 -0.3643410801887512 -0.37545812129974365
0.08527135848999023 -0.3643410801887512 0.16463151574134827
0.08527135848999023 -0.3488371968269348 -0.3744121193885803
0.08527136594057083 -0.3488371968269348 0.16508848965168
0.08527135848999023 -0.3333333134651184 -0.37313133478164673
0.08527135848999023 -0.3333333134651184 0.16549080610275269
0.08527135848999023 -0.317829430103302 -0.37165167927742004
0.08527135848999023 -0.317829430103302 0.16620990633964539
0.08527135848999023 -0.30232560634613037 -0.37039288878440857
0.08527135848999023 -0.30232560634613037 0.1673014611005783
0.08527135848999023 -0.28682172298431396 -0.369170606136322
0.08527135848999023 -0.28682172298431396 0.16848425567150116
0.08527135848999023 -0.27131783962249756 -0.36815911531448364
0.08527135848999023 -0.27131783962249756 0.16933593153953552
0.08527135848999023 -0.25581395626068115 -0.36738747358322144
0.08527135848999023 -0.25581395626068115 0.17007043957710266
0.08527135848999023 -0.24031007289886475 -0.3670242726802826
0.08527135848999023 -0.24031007289886475 0.17044536769390106
0.08527135848999023 -0.22480618953704834 -0.3669270873069763
0.08527135848999023 -0.22480618953704834 0.17061847448349
0.08527135848999023 -0.20930230617523193 -0.3671504557132721
0.08527135848999023 -0.20930230617523193 0.17027635872364044
0.08527135848999023 -0.19379842281341553 -0.36748701333999634
0.08527135848999023 -0.19379842281341553 0.17003534734249115
0.08527135848999023 -0.1782945990562439 -0.3669642210006714
0.08527135848999023 -0.1782945990562439 0.16943055391311646
0.08527135848999023 -0.1627907156944275 -0.3662024736404419
0.08527135848999023 -0.1627907156944275 0.16823428869247437
0.08527135848999023 -0.14728683233261108 -0.3649798035621643
0.08527135848999023 -0.14728683233261108 0.16694803535938263
0.08527135848999023 -0.13178294897079468 -0.3636149764060974
0.08527136594057083 -0.13178294897079468 0.16562160849571228
0.08527135848999023 -0.11627906560897827 -0.361624538898468
0.08527135848999023 -0.11627906560897827 0.16444635391235352
0.08527135848999023 -0.10077518969774246 -0.3597646653652191
0.08527135848999023 -0.10077518969774246 0.16326262056827545
0.08527135848999023 -0.08527129888534546 -0.35818976163864136
0.08527135848999023 -0.08527129888534546 0.16186153888702393
0.08527135848999023 -0.06976741552352905 -0.35584235191345215
0.08527135848999023 -0.06976741552352905 0.1603117436170578
0.08527135848999023 -0.05426359176635742 -0.3535389304161072
0.08527135848999023 -0.05426359176635742 0.15853917598724365
0.08527135848999023 -0.038759708404541016 -0.3508252203464508
0.08527135848999023 -0.038759708404541016 0.15610015392303467
0.08527135848999023 -0.02325582504272461 -0.3482600450515747
0.08527135848999023 -0.02325582504272461 0.15326806902885437
0.08527135848999023 -0.007751941680908203 -0.343313992023468
0.08527135848999023 -0.007751941680908203 0.14966383576393127
0.08527135848999023 0.007751941680908203 -0.3368558883666992
0.08527135848999023 0.007751941680908203 0.14558930695056915
0.08527135848999023 0.02325582504272461 -0.330119252204895
0.08527135848999023 0.02325582504272461 0.14056816697120667
0.08527135848999023 0.038759708404541016 -0.3210615813732147
0.08527135848999023 0.038759708404541016 0.13577671349048615
0.08527135848999023 0.05426359549164772 -0.3137441873550415
0.08527135848999023 0.05426359176635742 0.13140952587127686
0.08527135848999023 0.06976747512817383 -0.3051769733428955
0.08527135848999023 0.06976747512817383 0.1263602375984192
0.08527135848999023 0.08527135848999023 -0.2973673641681671
0.08527135848999023 0.08527135848999023 0.12087810039520264
0.08527135848999023 0.10077524185180664 -0.2867327630519867
0.08527135848999023 0.10077524185180664 0.11661085486412048
0.08527135848999023 0.11627912521362305 -0.2774461805820465
0.08527135848999023 0.11627912521362305 0.11240490525960922
0.08527135848999023 0.1317828893661499 -0.26755499839782715
0.08527135848999023 0.1317828893661499 0.10807769745588303
0.08527135848999023 0.1472867727279663 -0.25602060556411743
0.08527135848999023 0.1472867727279663 0.10379321873188019
0.08527135848999023 0.16279065608978271 -0.24488332867622375
0.08527135848999023 0.16279065608978271 0.09821543097496033
0.08527135848999023 0.17829453945159912 -0.23044386506080627
0.08527135848999023 0.17829453945159912 0.09131366014480591
0.08527135848999023 0.19379842281341553 -0.21289807558059692
0.08527135848999023 0.19379842281341553 0.08273224532604218
0.08527136594057083 0.20930230617523193 -0.19342230260372162
0.08527135848999023 0.20930229127407074 0.07165414094924927
0.08527135848999023 0.22480620443820953 -0.17464396357536316
0.08527135848999023 0.22480618953704834 0.058537669479846954
0.08527135103940964 0.24031005799770355 -0.1605682671070099
0.08527135848999023 0.24031007289886475 0.0440145842730999
0.08527135848999023 0.25581395626068115 -0.14894388616085052
0.08527135848999023 0.25581395626068115 0.0275583378970623
0.08527135848999023 0.27131783962249756 -0.13813632726669312
0.08527135848999023 0.27131783962249756 0.010657881386578083
0.08527135848999023 0.28682172298431396 -0.12595239281654358
0.08527136594057083 0.28682172298431396 -0.007035868242383003
0.08527135848999023 0.30232560634613037 -0.11373168230056763
0.08527135848999023 0.30232560634613037 -0.025060761719942093
0.08527135848999023 0.3178294897079468 -0.09618629515171051
0.08527135848999023 0.3178294897079468 -0.05110626667737961
0.10077524185180664 -0.922480583190918 -0.07420173287391663
0.10077524185180664 -0.9224807024002075 -0.0639817863702774
0.10077524185180664 -0.9069767594337463 -0.12488655745983124
0.10077524185180664 -0.9069767594337463 -0.024432629346847534
0.10077524185180664 -0.8914728760719299 -0.15532666444778442
0.10077524185180664 -0.8914728164672852 -0.006462640129029751
0.10077524185180664 -0.8759689927101135 -0.177636057138443
0.10077524185180664 -0.8759689927101135 0.006851500831544399
0.10077524185180664 -0.8604651093482971 -0.1981547772884369
0.10077524185180664 -0.8604651093482971 0.01599201373755932
0.10077524185180664 -0.8449612259864807 -0.21411317586898804
0.10077524185180664 -0.8449611663818359 0.0267210453748703
0.10077524185180664 -0.8294573426246643 -0.22746768593788147
0.10077524185180664 -0.8294573426246643 0.035904303193092346
0.10077524185180664 -0.8139535188674927 -0.23824180662631989
0.10077524185180664 -0.8139535188674927 0.04453829675912857
0.10077524185180664 -0.7984496355056763 -0.24887773394584656
0.10077524185180664 -0.7984496355056763 0.05444175377488136
0.10077524185180664 -0.7829457521438599 -0.257856547832489
0.10077524185180664 -0.7829457521438599 0.06010519713163376
0.10077524185180664 -0.7674418687820435 -0.2655274271965027
0.10077524185180664 -0.7674418687820435 0.06691247969865799
0.10077524185180664 -0.751937985420227 -0.2740153968334198
0.10077524185180664 -0.751937985420227 0.0736793503165245
0.10077524185180664 -0.7364341020584106 -0.2809126377105713
0.10077524185180664 -0.7364341020584106 0.07800118625164032
0.10077524185180664 -0.7209302186965942 -0.2893748879432678
0.10077524185180664 -0.7209302186965942 0.08552981168031693
0.10077524185180664 -0.7054263353347778 -0.2962121069431305
0.10077524185180664 -0.7054263353347778 0.08987976610660553
0.10077524185180664 -0.6899224519729614 -0.3034968376159668
0.10077524185180664 -0.6899224519729614 0.0939527228474617
0.10077524185180664 -0.674418568611145 -0.3100895285606384
0.10077524185180664 -0.674418568611145 0.10095342993736267
0.10077524185180664 -0.6589146852493286 -0.3151569366455078
0.10077524185180664 -0.6589146852493286 0.10534658282995224
0.10077524185180664 -0.643410861492157 -0.3214404582977295
0.10077524185180664 -0.643410861492157 0.10974378883838654
0.10077524185180664 -0.6279069781303406 -0.3265618085861206
0.10077524185180664 -0.6279069185256958 0.11687413603067398
0.10077524185180664 -0.6124030947685242 -0.3307672441005707
0.10077524185180664 -0.6124030947685242 0.12123018503189087
0.10077524185180664 -0.5968992114067078 -0.3356741666793823
0.10077524185180664 -0.5968992114067078 0.12481501698493958
0.10077524185180664 -0.5813953876495361 -0.33970147371292114
0.10077524185180664 -0.5813953876495361 0.13016359508037567
0.10077524185180664 -0.5658915042877197 -0.34229832887649536
0.10077524185180664 -0.5658915042877197 0.13370920717716217
0.10077524185180664 -0.5503876209259033 -0.34384629130363464
0.10077524185180664 -0.5503876209259033 0.13607946038246155
0.10077524185180664 -0.5348837375640869 -0.3456190526485443
0.10077524185180664 -0.5348837375640869 0.1375785917043686
0.10077524185180664 -0.5193798542022705 -0.3478933870792389
0.10077524185180664 -0.5193798542022705 0.13879305124282837
0.10077524185180664 -0.5038759708404541 -0.3499000072479248
0.10077524185180664 -0.5038759708404541 0.14013029634952545
0.10077524185180664 -0.4883720874786377 -0.35200488567352295
0.10077524185180664 -0.4883720874786377 0.1420539766550064
0.10077524185180664 -0.4728682041168213 -0.35416460037231445
0.10077524185180664 -0.4728682041168213 0.14467903971672058
0.10077524185180664 -0.4573643207550049 -0.35590413212776184
0.10077524185180664 -0.4573643207550049 0.14752358198165894
0.10077524185180664 -0.4418604373931885 -0.35724133253097534
0.10077523440122604 -0.4418604373931885 0.14897964894771576
0.10077524185180664 -0.42635661363601685 -0.3583420217037201
0.10077524185180664 -0.42635661363601685 0.15047845244407654
0.10077524185180664 -0.41085273027420044 -0.35913804173469543
0.10077524185180664 -0.41085273027420044 0.1516404002904892
0.10077524185180664 -0.39534884691238403 -0.35909080505371094
0.10077524185180664 -0.39534884691238403 0.15261943638324738
0.10077524185180664 -0.3798449635505676 -0.35772132873535156
0.10077524185180664 -0.3798449635505676 0.15349996089935303
0.10077524185180664 -0.3643410801887512 -0.3551126718521118
0.10077524185180664 -0.3643410801887512 0.15389157831668854
0.10077524185180664 -0.3488371968269348 -0.3521653115749359
0.10077524185180664 -0.3488371968269348 0.1539992094039917
0.10077524185180664 -0.3333333134651184 -0.3495164215564728
0.10077524185180664 -0.3333333134651184 0.15378668904304504
0.10077524930238724 -0.3178294599056244 -0.3468230366706848
0.10077524185180664 -0.317829430103302 0.15364669263362885
0.10077524185180664 -0.30232560634613037 -0.3444509208202362
0.10077524185180664 -0.30232560634613037 0.15363450348377228
0.10077524185180664 -0.28682172298431396 -0.3422001004219055
0.10077524185180664 -0.28682172298431396 0.1536298394203186
0.10077524185180664 -0.27131783962249756 -0.3401848077774048
0.10077524185180664 -0.27131783962249756 0.15352484583854675
0.10077524185180664 -0.25581395626068115 -0.33836397528648376
0.10077524185180664 -0.25581395626068115 0.1537700891494751
0.10077524185180664 -0.24031007289886475 -0.3368862271308899
0.10077524185180664 -0.24031007289886475 0.1540304720401764
0.10077524185180664 -0.22480618953704834 -0.33565691113471985
0.10077524185180664 -0.22480618953704834 0.15424314141273499
0.10077524185180664 -0.20930230617523193 -0.3348272740840912
0.10077524185180664 -0.20930230617523193 0.15404124557971954
0.10077524185180664 -0.19379842281341553 -0.33360153436660767
0.10077524185180664 -0.19379842281341553 0.15398019552230835
0.10077524185180664 -0.1782945990562439 -0.33110618591308594
0.10077524185180664 -0.1782945990562439 0.15348763763904572
0.10077524185180664 -0.1627907156944275 -0.3284579813480377
0.10077524185180664 -0.1627907156944275 0.1523004025220871
0.10077524185180664 -0.14728683233261108 -0.32510894536972046
0.10077524185180664 -0.14728683233261108 0.150951087474823
0.10077524185180664 -0.13178294897079468 -0.32127243280410767
0.10077524185180664 -0.13178294897079468 0.1495678722858429
0.10077524185180664 -0.11627906560897827 -0.3171965777873993
0.10077524185180664 -0.11627907305955887 0.1483834981918335
0.10077524185180664 -0.10077518224716187 -0.31422895193099976
0.10077523440122604 -0.10077517479658127 0.1472921371459961
0.10077524185180664 -0.08527129888534546 -0.311355322599411
0.10077524185180664 -0.08527129888534546 0.14584748446941376
0.10077524185180664 -0.06976741552352905 -0.3076828718185425
0.10077524185180664 -0.06976741552352905 0.14432600140571594
0.10077524185180664 -0.05426359176635742 -0.3049704134464264
0.10077524185180664 -0.05426359176635742 0.1426418125629425
0.10077524185180664 -0.038759708404541016 -0.30213284492492676
0.10077524185180664 -0.038759708404541016 0.1403147131204605
0.10077524185180664 -0.02325582504272461 -0.2990286946296692
0.10077524185180664 -0.02325582504272461 0.1371566504240036
0.10077524185180664 -0.007751941680908203 -0.2937811613082886
0.10077524185180664 -0.007751941680908203 0.1333656907081604
0.10077524185180664 0.007751941680908203 -0.28791242837905884
0.10077524185180664 0.007751941680908203 0.1292717456817627
0.10077524185180664 0.02325582504272461 -0.281669557094574
0.10077524185180664 0.02325582504272461 0.12360591441392899
0.10077524185180664 0.038759708404541016 -0.27299395203590393
0.10077524185180664 0.038759708404541016 0.11780040711164474
0.10077524185180664 0.05426359176635742 -0.2650337815284729
0.10077524185180664 0.05426359176635742 0.11316343396902084
0.10077524185180664 0.06976747512817383 -0.25481829047203064
0.10077524185180664 0.06976747512817383 0.10804231464862823
0.10077524185180664 0.08527135848999023 -0.24571382999420166
0.10077524185180664 0.08527135848999023 0.10262438654899597
0.10077524930238724 0.10077524930238724 -0.23559291660785675
0.10077524185180664 0.10077524185180664 0.09786561876535416
0.10077524185180664 0.11627912521362305 -0.22522708773612976
0.10077524185180664 0.11627912521362305 0.09221233427524567
0.10077524185180664 0.1317828893661499 -0.2147088348865509
0.10077524185180664 0.1317828893661499 0.08642438054084778
0.10077524185180664 0.1472867727279663 -0.20097529888153076
0.10077524185180664 0.1472867727279663 0.08009307831525803
0.10077524185180664 0.16279065608978271 -0.18257321417331696
0.10077524185180664 0.16279065608978271 0.07094582915306091
0.10077524185180664 0.17829453945159912 -0.16195222735404968
0.10077524185180664 0.17829453945159912 0.05820305645465851
0.10077524185180664 0.19379842281341553 -0.14420701563358307
0.10077524185180664 0.19379842281341553 0.04073379188776016
0.10077524185180664 0.20930230617523193 -0.1286565512418747
0.10077524185180664 0.20930230617523193 0.018351372331380844
0.10077524185180664 0.22480618953704834 -0.11107902228832245
0.10077524185180664 0.22480618953704834 -0.008055074140429497
0.11627912521362305 -0.8914728760719299 -0.10208916664123535
0.11627912521362305 -0.8914729356765747 -0.052404507994651794
0.11627912521362305 -0.8759689331054688 -0.13700488209724426
0.11627912521362305 -0.8759689927101135 -0.02789982780814171
0.11627912521362305 -0.8604651093482971 -0.1630392074584961
0.11627912521362305 -0.8604651093482971 -0.005694084335118532
0.11627912521362305 -0.8449612259864807 -0.18319648504257202
0.11627912521362305 -0.8449612259864807 0.009430918842554092
0.11627912521362305 -0.8294573426246643 -0.19996410608291626
0.11627912521362305 -0.8294572830200195 0.019528869539499283
0.11627912521362305 -0.8139535188674927 -0.2141893208026886
0.11627912521362305 -0.8139535188674927 0.028375862166285515
0.11627912521362305 -0.7984496355056763 -0.22624416649341583
0.11627912521362305 -0.7984496355056763 0.03687948361039162
0.11627912521362305 -0.7829457521438599 -0.23622775077819824
0.11627912521362305 -0.7829457521438599 0.043370336294174194
0.11627912521362305 -0.7674418687820435 -0.246448814868927
0.11627912521362305 -0.7674418687820435 0.05205601826310158
0.11627913266420364 -0.751937985420227 -0.25498852133750916
0.11627911776304245 -0.751937985420227 0.058352354913949966
0.11627912521362305 -0.7364341020584106 -0.26338034868240356
0.11627912521362305 -0.7364341020584106 0.06380307674407959
0.11627912521362305 -0.7209302186965942 -0.27248263359069824
0.11627912521362305 -0.7209302186965942 0.07159944623708725
0.11627912521362305 -0.7054263353347778 -0.2799198627471924
0.11627912521362305 -0.7054263353347778 0.07543756067752838
0.11627912521362305 -0.6899224519729614 -0.28808629512786865
0.11627912521362305 -0.6899224519729614 0.08093733340501785
0.11627912521362305 -0.674418568611145 -0.2947860360145569
0.11627912521362305 -0.674418568611145 0.08713643252849579
0.11627912521362305 -0.6589146852493286 -0.3007658123970032
0.11627912521362305 -0.6589146852493286 0.09098824113607407
0.11627912521362305 -0.643410861492157 -0.30680567026138306
0.11627912521362305 -0.643410861492157 0.09628652036190033
0.11627912521362305 -0.6279069781303406 -0.3115374445915222
0.11627912521362305 -0.6279069781303406 0.10253873467445374
0.11627912521362305 -0.6124030947685242 -0.31650087237358093
0.11627912521362305 -0.6124030947685242 0.10674204677343369
0.11627912521362305 -0.5968992114067078 -0.32135719060897827
0.11627912521362305 -0.5968992114067078 0.11141219735145569
0.11627912521362305 -0.5813953876495361 -0.3247104287147522
0.11627912521362305 -0.5813953876495361 0.11727863550186157
0.11627912521362305 -0.5658915042877197 -0.32665175199508667
0.11627912521362305 -0.5658915042877197 0.1203726977109909
0.11627912521362305 -0.5503876209259033 -0.32805299758911133
0.11627912521362305 -0.5503876209259033 0.1227884292602539
0.11627912521362305 -0.5348837375640869 -0.32925713062286377
0.11627912521362305 -0.5348837375640869 0.12446974962949753
0.11627912521362305 -0.5193798542022705 -0.33033013343811035
0.11627912521362305 -0.5193798542022705 0.12638774514198303
0.11627912521362305 -0.5038759708404541 -0.3315783143043518
0.11627912521362305 -0.5038759708404541 0.12846386432647705
0.11627911776304245 -0.4883720874786377 -0.3328477740287781
0.11627912521362305 -0.4883720874786377 0.13046620786190033
0.11627912521362305 -0.4728682041168213 -0.33413195610046387
0.11627912521362305 -0.4728682041168213 0.13221080601215363
0.11627912521362305 -0.4573643207550049 -0.3351513743400574
0.11627912521362305 -0.4573643207550049 0.13345454633235931
0.11627912521362305 -0.4418604373931885 -0.33599457144737244
0.11627912521362305 -0.4418604373931885 0.13474611937999725
0.11627912521362305 -0.42635661363601685 -0.3359661400318146
0.11627912521362305 -0.42635661363601685 0.1359802484512329
0.11627912521362305 -0.41085273027420044 -0.33498167991638184
0.11627912521362305 -0.41085273027420044 0.13708791136741638
0.11627912521362305 -0.39534884691238403 -0.3328745365142822
0.11627912521362305 -0.39534884691238403 0.138244166970253
0.11627912521362305 -0.3798449635505676 -0.3287871479988098
0.11627912521362305 -0.3798449635505676 0.13914942741394043
0.11627912521362305 -0.3643410801887512 -0.32254746556282043
0.11627912521362305 -0.3643410801887512 0.13910061120986938
0.11627912521362305 -0.3488371968269348 -0.31707268953323364
0.11627912521362305 -0.3488371968269348 0.13838577270507812
0.11627912521362305 -0.3333333134651184 -0.3131024241447449
0.11627912521362305 -0.3333333134651184 0.1369161754846573
0.11627912521362305 -0.317829430103302 -0.30898046493530273
0.11627912521362305 -0.317829430103302 0.13557174801826477
0.11627912521362305 -0.30232560634613037 -0.305184930562973
0.11627912521362305 -0.30232560634613037 0.1345503181219101
0.11627912521362305 -0.28682172298431396 -0.3019549548625946
0.11627912521362305 -0.28682172298431396 0.13372690975666046
0.11627912521362305 -0.27131783962249756 -0.29927945137023926
0.11627912521362305 -0.27131783962249756 0.13317109644412994
0.11627912521362305 -0.25581395626068115 -0.29676365852355957
0.11627912521362305 -0.25581395626068115 0.13345564901828766
0.11627912521362305 -0.24031007289886475 -0.2944301962852478
0.11627912521362305 -0.24031005799770355 0.1340068131685257
0.11627912521362305 -0.22480618953704834 -0.29254454374313354
0.11627912521362305 -0.22480618953704834 0.13444766402244568
0.11627912521362305 -0.20930230617523193 -0.29082274436950684
0.11627912521362305 -0.20930229127407074 0.13450253009796143
0.11627912521362305 -0.19379842281341553 -0.28751489520072937
0.11627912521362305 -0.19379842281341553 0.13458958268165588
0.11627912521362305 -0.1782945990562439 -0.28291454911231995
0.11627912521362305 -0.1782946139574051 0.13402362167835236
0.11627912521362305 -0.1627907156944275 -0.27861660718917847
0.11627912521362305 -0.1627907156944275 0.13256904482841492
0.11627912521362305 -0.14728683233261108 -0.2741706967353821
0.11627912521362305 -0.14728683233261108 0.13049910962581635
0.11627912521362305 -0.13178294897079468 -0.2698288857936859
0.11627912521362305 -0.13178294897079468 0.12812763452529907
0.11627912521362305 -0.11627906560897827 -0.26517215371131897
0.11627912521362305 -0.11627906560897827 0.12557072937488556
0.11627912521362305 -0.10077518224716187 -0.2608003318309784
0.11627912521362305 -0.10077518224716187 0.12301450967788696
0.11627912521362305 -0.08527129888534546 -0.2572138011455536
0.11627912521362305 -0.08527129888534546 0.12046682089567184
0.11627912521362305 -0.06976741552352905 -0.25415465235710144
0.11627912521362305 -0.06976741552352905 0.11796741932630539
0.11627912521362305 -0.05426359176635742 -0.25272414088249207
0.11627912521362305 -0.05426359176635742 0.11600275337696075
0.11627912521362305 -0.038759708404541016 -0.25101345777511597
0.11627912521362305 -0.038759708404541016 0.11375705897808075
0.11627912521362305 -0.02325582504272461 -0.24855124950408936
0.11627912521362305 -0.02325582504272461 0.11083889752626419
0.11627912521362305 -0.007751941680908203 -0.24468994140625
0.11627912521362305 -0.007751941680908203 0.1064896360039711
0.11627912521362305 0.007751941680908203 -0.23966480791568756
0.11627912521362305 0.007751941680908203 0.1018778383731842
0.11627912521362305 0.02325582504272461 -0.23294971883296967
0.11627912521362305 0.02325582504272461 0.09678006917238235
0.11627912521362305 0.038759708404541016 -0.22312195599079132
0.11627911776304245 0.038759708404541016 0.09052690863609314
0.11627912521362305 0.05426359176635742 -0.21323251724243164
0.11627912521362305 0.05426359176635742 0.0842166543006897
0.11627912521362305 0.06976747512817383 -0.20122790336608887
0.11627912521362305 0.06976747512817383 0.07719828188419342
0.11627912521362305 0.08527135848999023 -0.18760281801223755
0.11627912521362305 0.08527135848999023 0.06941501796245575
0.11627912521362305 0.10077524185180664 -0.17176470160484314
0.11627912521362305 0.10077524185180664 0.05933487042784691
0.11627913266420364 0.11627913266420364 -0.15572147071361542
0.11627912521362305 0.11627912521362305 0.0457756444811821
0.11627912521362305 0.1317828893661499 -0.13852965831756592
0.11627912521362305 0.1317828893661499 0.027442190796136856
0.11627912521362305 0.1472867727279663 -0.11830971390008926
0.11627912521362305 0.1472867727279663 0.0038065901026129723
0.11627912521362305 0.16279065608978271 -0.07795816659927368
0.11627912521362305 0.16279065608978271 -0.043188706040382385
0.1317828893661499 -0.8449612259864807 -0.1268942654132843
0.1317828893661499 -0.8449612855911255 -0.04463179036974907
0.1317828893661499 -0.8294572830200195 -0.1520894169807434
0.1317828893661499 -0.8294573426246643 -0.009676016867160797
0.1317828893661499 -0.8139535188674927 -0.17120924592018127
0.1317828893661499 -0.8139535188674927 0.004671723581850529
0.1317828893661499 -0.7984496355056763 -0.18707168102264404
0.1317828893661499 -0.7984496355056763 0.013657885603606701
0.1317828893661499 -0.7829457521438599 -0.20066270232200623
0.1317828893661499 -0.7829457521438599 0.020953314378857613
0.1317828893661499 -0.7674418687820435 -0.21360450983047485
0.1317828893661499 -0.7674418687820435 0.02607298456132412
0.1317828893661499 -0.751937985420227 -0.22612795233726501
0.1317828893661499 -0.751937985420227 0.03242383524775505
0.1317828893661499 -0.7364341020584106 -0.23637551069259644
0.1317828893661499 -0.7364341020584106 0.04023024067282677
0.1317828893661499 -0.7209302186965942 -0.24626368284225464
0.1317828893661499 -0.7209302186965942 0.04603125900030136
0.1317828893661499 -0.7054263353347778 -0.2562903165817261
0.1317828893661499 -0.7054263353347778 0.054303281009197235
0.1317828893661499 -0.6899224519729614 -0.2644411325454712
0.1317828893661499 -0.6899224519729614 0.05835447460412979
0.1317828893661499 -0.674418568611145 -0.27313584089279175
0.1317828893661499 -0.674418568611145 0.06428460776805878
0.1317828893661499 -0.6589146852493286 -0.2795315980911255
0.1317828893661499 -0.6589146852493286 0.07059656083583832
0.1317828893661499 -0.643410861492157 -0.28678908944129944
0.1317828893661499 -0.643410861492157 0.07474187016487122
0.1317828893661499 -0.6279069781303406 -0.29224902391433716
0.1317828893661499 -0.6279069781303406 0.08044260740280151
0.1317828893661499 -0.6124030947685242 -0.29686760902404785
0.1317828893661499 -0.612403154373169 0.08619421720504761
0.1317828893661499 -0.5968992114067078 -0.3014695644378662
0.1317828893661499 -0.5968992114067078 0.08926037698984146
0.1317828893661499 -0.5813953876495361 -0.3048384189605713
0.1317828893661499 -0.5813953876495361 0.0931723341345787
0.1317828893661499 -0.5658915042877197 -0.3066554665565491
0.1317828893661499 -0.5658915042877197 0.09795396029949188
0.1317828893661499 -0.5503876209259033 -0.3076220452785492
0.1317828893661499 -0.5503876209259033 0.10134850442409515
0.1317828893661499 -0.5348837375640869 -0.30779963731765747
0.1317828893661499 -0.5348837375640869 0.10265729576349258
0.1317828893661499 -0.5193798542022705 -0.30747807025909424
0.1317828893661499 -0.5193798542022705 0.10348081588745117
0.1317828893661499 -0.5038759708404541 -0.3072701394557953
0.1317828893661499 -0.5038759708404541 0.10410408675670624
0.1317828893661499 -0.4883720874786377 -0.30737191438674927
0.1317828893661499 -0.4883720874786377 0.10448652505874634
0.1317828893661499 -0.4728682041168213 -0.30740001797676086
0.1317828893661499 -0.4728682041168213 0.1048499047756195
0.1317828893661499 -0.4573643207550049 -0.30707061290740967
0.1317828893661499 -0.4573643207550049 0.10525240004062653
0.1317828893661499 -0.4418604373931885 -0.30675041675567627
0.1317828893661499 -0.4418604373931885 0.10551716387271881
0.1317828893661499 -0.42635661363601685 -0.30526912212371826
0.1317828893661499 -0.42635661363601685 0.10518184304237366
0.1317828893661499 -0.41085273027420044 -0.30270591378211975
0.1317828893661499 -0.41085273027420044 0.10403533279895782
0.1317828893661499 -0.39534884691238403 -0.29954150319099426
0.1317828893661499 -0.39534881711006165 0.10291621088981628
0.1317828893661499 -0.3798449635505676 -0.2942500412464142
0.1317828893661499 -0.37984493374824524 0.10161726921796799
0.1317828893661499 -0.3643410801887512 -0.2873050272464752
0.1317828893661499 -0.3643410801887512 0.10007890313863754
0.1317828893661499 -0.3488371968269348 -0.2803897559642792
0.1317828893661499 -0.3488371968269348 0.09836181253194809
0.1317828893661499 -0.3333333134651184 -0.2733563482761383
0.1317828893661499 -0.3333333134651184 0.0964282900094986
0.1317828893661499 -0.317829430103302 -0.26582086086273193
0.1317828893661499 -0.317829430103302 0.09546813368797302
0.1317828893661499 -0.30232560634613037 -0.25899744033813477
0.1317828893661499 -0.30232560634613037 0.09574628621339798
0.1317828893661499 -0.28682175278663635 -0.2545739710330963
0.1317828893661499 -0.28682172298431396 0.0965939536690712
0.1317828893661499 -0.27131783962249756 -0.25191518664360046
0.1317828893661499 -0.27131783962249756 0.0978764221072197
0.1317828893661499 -0.25581395626068115 -0.249124214053154
0.1317828893661499 -0.25581395626068115 0.10035437345504761
0.1317828893661499 -0.24031007289886475 -0.2455213963985443
0.1317828893661499 -0.24031007289886475 0.10218896716833115
0.1317828893661499 -0.22480618953704834 -0.24316886067390442
0.1317828893661499 -0.22480618953704834 0.10358117520809174
0.1317828893661499 -0.20930230617523193 -0.24099507927894592
0.1317828893661499 -0.20930230617523193 0.1040850281715393
0.1317828893661499 -0.19379842281341553 -0.23531056940555573
0.1317828893661499 -0.19379842281341553 0.10422836244106293
0.1317828893661499 -0.1782945990562439 -0.2268936038017273
0.1317828893661499 -0.1782945990562439 0.10309436172246933
0.1317828893661499 -0.1627907156944275 -0.21818691492080688
0.1317828893661499 -0.1627907156944275 0.10071945935487747
0.1317828893661499 -0.14728683233261108 -0.21107614040374756
0.1317828893661499 -0.14728683233261108 0.09695934504270554
0.1317828893661499 -0.13178294897079468 -0.204951673746109
0.1317828893661499 -0.13178294897079468 0.09288434684276581
0.1317828893661499 -0.11627906560897827 -0.19981104135513306
0.1317828893661499 -0.11627906560897827 0.08873017132282257
0.1317828893661499 -0.10077518224716187 -0.19577190279960632
0.1317828893661499 -0.10077518224716187 0.08522674441337585
0.1317828893661499 -0.08527129888534546 -0.1927783340215683
0.1317828893661499 -0.08527129888534546 0.08136028796434402
0.1317828893661499 -0.06976741552352905 -0.1890476942062378
0.1317828893661499 -0.06976741552352905 0.07730124890804291
0.1317828893661499 -0.05426359176635742 -0.1869598627090454
0.1317828893661499 -0.05426359549164772 0.07378830760717392
0.1317828893661499 -0.038759708404541016 -0.18394017219543457
0.1317828893661499 -0.038759708404541016 0.06999432295560837
0.1317828893661499 -0.02325582504272461 -0.17906475067138672
0.1317828893661499 -0.02325582504272461 0.06592944264411926
0.1317828893661499 -0.007751941680908203 -0.17368102073669434
0.1317828893661499 -0.007751941680908203 0.06072034686803818
0.1317828893661499 0.007751941680908203 -0.1667713224887848
0.1317828893661499 0.007751941680908203 0.05499329790472984
0.1317828893661499 0.02325582504272461 -0.15734761953353882
0.1317828893661499 0.02325582504272461 0.04624876379966736
0.1317828893661499 0.038759708404541016 -0.14530079066753387
0.1317828893661499 0.038759708404541016 0.034988753497600555
0.1317828893661499 0.05426359176635742 -0.1330343782901764
0.1317828893661499 0.05426359176635742 0.02043289504945278
0.1317828893661499 0.06976747512817383 -0.11435240507125854
0.1317828893661499 0.06976747512817383 -0.0013913614675402641
0.1472867727279663 -0.7984496355056763 -0.1184224933385849
0.1472867727279663 -0.7984496355056763 -0.06935610622167587
0.14728675782680511 -0.7829457521438599 -0.1463603526353836
0.1472867727279663 -0.7829457521438599 -0.04090070351958275
0.1472867727279663 -0.7674418687820435 -0.1650363951921463
0.1472867727279663 -0.7674418687820435 -0.017109571024775505
0.1472867727279663 -0.751937985420227 -0.18006442487239838
0.1472867727279663 -0.7519380450248718 -0.0067138378508389
0.1472867727279663 -0.7364341020584106 -0.19442540407180786
0.1472867727279663 -0.7364341020584106 -0.0006019510328769684
0.1472867727279663 -0.7209302186965942 -0.20758268237113953
0.1472867727279663 -0.7209302186965942 0.004359967075288296
0.1472867727279663 -0.7054263353347778 -0.2183058261871338
0.1472867876291275 -0.7054263353347778 0.008994043804705143
0.1472867727279663 -0.6899224519729614 -0.2287188172340393
0.1472867727279663 -0.6899224519729614 0.015803953632712364
0.1472867727279663 -0.674418568611145 -0.23916298151016235
0.1472867727279663 -0.674418568611145 0.023211514577269554
0.1472867727279663 -0.6589146852493286 -0.2472168505191803
0.1472867727279663 -0.6589146852493286 0.03115098550915718
0.1472867727279663 -0.643410861492157 -0.2567029893398285
0.1472867727279663 -0.6434109210968018 0.03927789255976677
0.1472867727279663 -0.6279069781303406 -0.26455217599868774
0.1472867727279663 -0.6279069185256958 0.044758640229701996
0.1472867727279663 -0.6124030947685242 -0.2723487317562103
0.1472867727279663 -0.6124030947685242 0.050400350242853165
0.1472867727279663 -0.5968992114067078 -0.2772067189216614
0.1472867727279663 -0.5968992114067078 0.05401889234781265
0.1472867727279663 -0.5813953876495361 -0.28141602873802185
0.1472867727279663 -0.5813953876495361 0.05641302466392517
0.1472867727279663 -0.5658915042877197 -0.28408822417259216
0.1472867727279663 -0.5658915042877197 0.05888332426548004
0.1472867727279663 -0.5503876209259033 -0.28537046909332275
0.1472867727279663 -0.5503876209259033 0.06052100658416748
0.1472867876291275 -0.5348837375640869 -0.28542307019233704
0.1472867727279663 -0.5348837375640869 0.060472238808870316
0.1472867876291275 -0.5193798542022705 -0.28472277522087097
0.1472867727279663 -0.5193798542022705 0.05976627767086029
0.1472867727279663 -0.5038759708404541 -0.283825159072876
0.1472867727279663 -0.5038759708404541 0.05929666757583618
0.1472867727279663 -0.4883720874786377 -0.28287163376808167
0.1472867727279663 -0.4883720874786377 0.05903518199920654
0.1472867727279663 -0.4728682041168213 -0.28140103816986084
0.1472867727279663 -0.4728681743144989 0.05813297629356384
0.1472867727279663 -0.4573643207550049 -0.27928680181503296
0.1472867727279663 -0.4573643207550049 0.05667726695537567
0.1472867727279663 -0.4418604373931885 -0.27718305587768555
0.1472867727279663 -0.4418604373931885 0.05367027223110199
0.1472867727279663 -0.42635661363601685 -0.27434247732162476
0.1472867727279663 -0.42635661363601685 0.045877180993556976
0.1472867727279663 -0.41085273027420044 -0.270609974861145
0.1472867727279663 -0.41085273027420044 0.035042375326156616
0.1472867727279663 -0.39534884691238403 -0.2646781802177429
0.1472867727279663 -0.39534884691238403 0.02263707108795643
0.1472867727279663 -0.3798449635505676 -0.2572987675666809
0.1472867727279663 -0.3798449635505676 0.012346489354968071
0.1472867727279663 -0.3643410801887512 -0.2477269470691681
0.1472867727279663 -0.3643410801887512 0.005326567217707634
0.1472867727279663 -0.3488371968269348 -0.23848503828048706
0.1472867727279663 -0.3488371968269348 -0.00037752301432192326
0.1472867727279663 -0.3333333134651184 -0.2284487932920456
0.1472867727279663 -0.3333333134651184 -0.005407840944826603
0.1472867727279663 -0.317829430103302 -0.22145609557628632
0.1472867727279663 -0.317829430103302 -0.006223136559128761
0.1472867727279663 -0.30232560634613037 -0.2157168686389923
0.1472867727279663 -0.30232560634613037 -0.004684574902057648
0.1472867727279663 -0.28682172298431396 -0.21003775298595428
0.1472867727279663 -0.28682172298431396 -0.0025746095925569534
0.1472867727279663 -0.27131783962249756 -0.20272424817085266
0.1472867727279663 -0.27131783962249756 0.0013437222223728895
0.1472867727279663 -0.25581395626068115 -0.19479350745677948
0.1472867727279663 -0.25581395626068115 0.0065397582948207855
0.1472867727279663 -0.24031007289886475 -0.18539603054523468
0.1472867727279663 -0.24031007289886475 0.00954568013548851
0.1472867727279663 -0.22480618953704834 -0.1785673350095749
0.1472867727279663 -0.22480618953704834 0.011883892118930817
0.1472867727279663 -0.20930230617523193 -0.1714727282524109
0.1472867727279663 -0.20930230617523193 0.012317094951868057
0.1472867727279663 -0.19379842281341553 -0.16360600292682648
0.1472867727279663 -0.19379842281341553 0.013517560437321663
0.1472867727279663 -0.1782945990562439 -0.15496224164962769
0.1472867727279663 -0.1782945990562439 0.012438300997018814
0.1472867727279663 -0.1627907156944275 -0.14798738062381744
0.1472867727279663 -0.1627907156944275 0.008277129381895065
0.1472867727279663 -0.14728683233261108 -0.14167732000350952
0.1472867727279663 -0.14728683233261108 -5.3549883887171745e-05
0.1472867727279663 -0.13178294897079468 -0.13605554401874542
0.1472867727279663 -0.13178294897079468 -0.012460514903068542
0.1472867727279663 -0.11627906560897827 -0.13067609071731567
0.1472867727279663 -0.11627906560897827 -0.027720008045434952
0.1472867727279663 -0.10077518224716187 -0.12332482635974884
0.1472867727279663 -0.10077518224716187 -0.041796471923589706
0.1472867727279663 -0.08527129888534546 -0.11681894958019257
0.1472867727279663 -0.08527129888534546 -0.055668339133262634
0.1472867727279663 -0.06976741552352905 -0.09002189338207245
0.1472867727279663 -0.06976741552352905 -0.08356250822544098
0.16279065608978271 -0.7054263353347778 -0.15233644843101501
0.16279065608978271 -0.7054263353347778 -0.12054137885570526
0.16279065608978271 -0.6899224519729614 -0.17372272908687592
0.16279065608978271 -0.6899224519729614 -0.10479225963354111
0.16279065608978271 -0.674418568611145 -0.1863650232553482
0.16279065608978271 -0.674418568611145 -0.097771555185318
0.16279065608978271 -0.6589146852493286 -0.19640065729618073
0.16279065608978271 -0.6589146852493286 -0.09314214438199997
0.16279065608978271 -0.6434109210968018 -0.2070378214120865
0.16279065608978271 -0.643410861492157 -0.08870295435190201
0.16279065608978271 -0.6279069781303406 -0.2167547643184662
0.16279065608978271 -0.6279070377349854 -0.08379298448562622
0.16279065608978271 -0.6279069781303406 -0.05646877735853195
0.16279065608978271 -0.6279069781303406 -0.020176108926534653
0.16279065608978271 -0.6124030947685242 -0.22809451818466187
0.16279065608978271 -0.6124030947685242 -0.011592508293688297
0.16279065608978271 -0.5968992114067078 -0.2388361394405365
0.16279065608978271 -0.5968992114067078 -0.006123712286353111
0.16279065608978271 -0.5813953876495361 -0.2462148219347
0.16279065608978271 -0.5813953876495361 -0.0030303802341222763
0.16279065608978271 -0.5658915042877197 -0.2516632676124573
0.16279065608978271 -0.5658915042877197 -0.003853296861052513
0.16279065608978271 -0.5503876209259033 -0.25517183542251587
0.16279065608978271 -0.5503876209259033 -0.007854985073208809
0.16279065608978271 -0.5348837375640869 -0.25593456625938416
0.16279065608978271 -0.5348837375640869 -0.01538747176527977
0.16279065608978271 -0.5193798542022705 -0.25506752729415894
0.16279065608978271 -0.5193798542022705 -0.09325799345970154
0.16279065608978271 -0.5193798542022705 -0.06481222063302994
0.16279065608978271 -0.5193798542022705 -0.025656087324023247
0.16279064118862152 -0.5038759708404541 -0.25346970558166504
0.16279065608978271 -0.5038759708404541 -0.09202712774276733
0.16279065608978271 -0.4883720874786377 -0.25129562616348267
0.16279065608978271 -0.4883720874786377 -0.08533892035484314
0.16279065608978271 -0.4728682041168213 -0.24818801879882812
0.16279065608978271 -0.4728682041168213 -0.07693284749984741
0.16279065608978271 -0.4573643207550049 -0.2443818300962448
0.16279065608978271 -0.4573643207550049 -0.07133076339960098
0.16279065608978271 -0.4418604373931885 -0.24045757949352264
0.16279065608978271 -0.4418604373931885 -0.0698300451040268
0.16279065608978271 -0.42635661363601685 -0.2329203486442566
0.16279065608978271 -0.42635661363601685 -0.0728658139705658
