-0.5038759708404541 -0.19615855813026428 -0.08527129888534546
-0.5038759708404541 -0.19502142071723938 -0.06976741552352905
-0.5038759708404541 -0.19418251514434814 -0.05426359176635742
-0.5038759708404541 -0.18514464795589447 -0.30232560634613037
-0.5038759708404541 -0.18799197673797607 -0.22480618953704834
-0.5038759708404541 -0.1850578784942627 -0.20930230617523193
-0.5038759708404541 -0.18485790491104126 -0.19379842281341553
-0.5038759708404541 -0.1865173876285553 -0.1782945990562439
-0.5038759708404541 -0.19022905826568604 -0.1627907156944275
-0.5038759708404541 -0.19320769608020782 -0.038759708404541016
-0.5038759708404541 -0.19062688946723938 -0.02325582504272461
-0.5038759708404541 -0.18955598771572113 -0.007751941680908203
-0.5038759708404541 -0.18811197578907013 0.00775194214656949
-0.5038759708404541 -0.18604230880737305 0.02325582504272461
-0.5038759708404541 -0.18383394181728363 0.038759708404541016
-0.5038759708404541 -0.18126727640628815 0.05426359176635742
-0.5038759708404541 -0.17921976745128632 0.06976747512817383
-0.5038759708404541 -0.17180819809436798 -0.317829430103302
-0.5038759708404541 -0.1756102442741394 0.08527135848999023
-0.5038759708404541 -0.17184755206108093 0.10077524185180664
-0.5038759708404541 -0.16853517293930054 0.11627912521362305
-0.5038759708404541 -0.16604778170585632 0.1317828893661499
-0.5038759708404541 -0.16357898712158203 0.1472867727279663
-0.5038759708404541 -0.15781977772712708 -0.3333333134651184
-0.5038759708404541 -0.1588469296693802 0.16279065608978271
-0.5038759708404541 -0.15439748764038086 0.17829453945159912
-0.5038759708404541 -0.1518561691045761 0.19379842281341553
-0.5038759708404541 -0.14916877448558807 0.20930230617523193
-0.5038759708404541 -0.13475126028060913 -0.3643410801887512
-0.5038759708404541 -0.1451403796672821 -0.3488371968269348
-0.5038759708404541 -0.14376413822174072 0.22480618953704834
-0.5038759708404541 -0.13878220319747925 0.24031007289886475
-0.5038759708404541 -0.13349030911922455 0.25581395626068115
-0.5038759708404541 -0.11842361092567444 -0.39534884691238403
-0.5038759708404541 -0.1252596229314804 -0.3798449635505676
-0.5038759708404541 -0.11891364306211472 -0.05426359176635742
-0.5038759708404541 -0.12003901600837708 -0.038759708404541016
-0.5038759708404541 -0.11643717437982559 -0.02325582504272461
-0.5038759708404541 -0.12580038607120514 0.27131783962249756
-0.5038759708404541 -0.1193484216928482 0.28682172298431396
-0.5038759708404541 -0.10232190042734146 -0.42635661363601685
-0.5038759708404541 -0.10916298627853394 -0.41085273027420044
-0.5038759708404541 -0.10764500498771667 -0.08527129888534546
-0.5038759708404541 -0.11418545246124268 -0.06976741552352905
-0.5038759708404541 -0.10221794992685318 -0.007751941680908203
-0.5038759708404541 -0.11132285743951797 0.30232560634613037
-0.5038759708404541 -0.10405366122722626 0.3178294897079468
-0.5038759708404541 -0.08768101036548615 -0.4728682041168213
-0.5038759708404541 -0.09146775305271149 -0.4573643207550049
-0.5038759708404541 -0.09505046904087067 -0.4418604373931885
-0.5038759708404541 -0.0945427268743515 -0.10077518224716187
-0.5038759708404541 -0.0944269672036171 0.3333333730697632
-0.5038759708404541 -0.08726683259010315 0.3488372564315796
-0.5038759708404541 -0.0763903483748436 -0.5038759708404541
-0.5038759708404541 -0.08150344341993332 -0.4883720874786377
-0.5038759708404541 -0.07504260540008545 -0.10077518224716187
-0.5038759708404541 -0.07862278819084167 0.364341139793396
-0.5038759708404541 -0.07387171685695648 0.37984490394592285
-0.5038759708404541 -0.059353139251470566 -0.5348837375640869
-0.5038759708404541 -0.06730064004659653 -0.5193798542022705
-0.5038759708404541 -0.06268120557069778 -0.08527129888534546
-0.5038759708404541 -0.057921379804611206 -0.06976741552352905
-0.5038759708404541 -0.055966950953006744 -0.05426359176635742
-0.5038759708404541 -0.0573151595890522 -0.038759708404541016
-0.5038759708404541 -0.060436733067035675 -0.02325582504272461
-0.5038759708404541 -0.06948202848434448 -0.007751941680908203
-0.5038759708404541 -0.06574887782335281 0.39534878730773926
-0.5038759708404541 -0.06152740865945816 0.41085267066955566
-0.5038759708404541 -0.057590682059526443 0.42635655403137207
-0.5038759708404541 -0.04783113673329353 -0.5503876209259033
-0.5038759708404541 -0.05039260908961296 0.4418604373931885
-0.5038759708404541 -0.046538468450307846 0.4573643207550049
-0.5038759708404541 -0.04164032265543938 0.4728682041168213
-0.5038759708404541 -0.03436141088604927 -0.5658915042877197
-0.5038759708404541 -0.03632586449384689 0.4883720874786377
-0.5038759708404541 -0.02963562309741974 0.5038759708404541
-0.5038759708404541 -0.018630772829055786 -0.5813953876495361
-0.5038759708404541 -0.01961692050099373 0.5193798542022705
-0.5038759708404541 0.00719986017793417 -0.10077518224716187
-0.5038759708404541 0.0020286962389945984 -0.08527129888534546
-0.5038759708404541 9.824614971876144e-05 -0.06976741552352905
-0.5038759708404541 0.000766874523833394 -0.05426359176635742
-0.5038759708404541 0.0043445611372590065 -0.038759708404541016
-0.5038759708404541 0.01938093639910221 -0.5813953876495361
-0.5038759708404541 0.008545083925127983 -0.10077518224716187
-0.5038759708404541 0.015819987282156944 -0.08527129888534546
-0.5038759708404541 0.017679329961538315 -0.06976741552352905
-0.5038759708404541 0.015631649643182755 -0.05426359176635742
-0.5038759708404541 0.010658005252480507 -0.038759708404541016
-0.5038759708404541 0.020479923114180565 0.5193798542022705
-0.5038759708404541 0.032603248953819275 -0.5658915042877197
-0.5038759708404541 0.03268802538514137 0.5038759708404541
-0.5038759708404541 0.04493474215269089 -0.5503876209259033
-0.5038759708404541 0.05146864801645279 -0.08527129888534546
-0.5038759708404541 0.05037638545036316 -0.06976741552352905
-0.5038759708404541 0.04953250288963318 0.4573643207550049
-0.5038759708404541 0.04535689204931259 0.4728682041168213
-0.5038759708404541 0.038896072655916214 0.4883720874786377
-0.5038760304450989 0.05429229512810707 -0.5348837971687317
-0.5038759708404541 0.06414695084095001 -0.5193798542022705
-0.5038759708404541 0.0685538724064827 -0.14728683233261108
-0.5038759708404541 0.06501471996307373 -0.13178294897079468
-0.5038759708404541 0.061111584305763245 -0.11627906560897827
-0.5038759708404541 0.055810630321502686 -0.10077518224716187
-0.5038759708404541 0.054635897278785706 -0.05426359176635742
-0.5038759708404541 0.06533834338188171 0.41085267066955566
-0.5038759708404541 0.06115349382162094 0.42635655403137207
-0.5038759708404541 0.05566377937793732 0.4418604373931885
-0.5038759708404541 0.07562658190727234 -0.5038759708404541
-0.5038759708404541 0.08333901315927505 -0.4883720874786377
-0.5038759708404541 0.07779370248317719 -0.1627907156944275
-0.5038759708404541 0.08060474693775177 0.364341139793396
-0.5038759708404541 0.0765974372625351 0.37984490394592285
-0.5038759708404541 0.07174041122198105 0.39534878730773926
-0.5038759708404541 0.09240168333053589 -0.4728682041168213
-0.5038759708404541 0.09838556498289108 0.3178294897079468
-0.5038759708404541 0.09261579811573029 0.3333333730697632
-0.5038759708404541 0.08701475709676743 0.3488372564315796
-0.5038759708404541 0.10150077939033508 -0.4573643207550049
-0.5038759708404541 0.11174239218235016 -0.4418604373931885
-0.5038759708404541 0.11148712038993835 0.28682172298431396
-0.5038759708404541 0.10619639605283737 0.30232560634613037
-0.5038759708404541 0.12329773604869843 -0.42635661363601685
-0.5038759708404541 0.13027507066726685 -0.41085273027420044
-0.5038759708404541 0.11893816292285919 -0.1627907156944275
-0.5038759708404541 0.1241508424282074 -0.14728683233261108
-0.5038759708404541 0.13000372052192688 -0.13178294897079468
-0.5038759708404541 0.12477293610572815 -0.05426359176635742
-0.5038759708404541 0.1258106529712677 0.25581395626068115
-0.5038759708404541 0.11956292390823364 0.27131783962249756
-0.5038759708404541 0.13994356989860535 -0.39534884691238403
-0.5038759708404541 0.14579707384109497 -0.3798449635505676
-0.5038759708404541 0.13459503650665283 -0.11627906560897827
-0.5038759708404541 0.13961657881736755 -0.10077518224716187
-0.5038759708404541 0.14635375142097473 -0.08527129888534546
-0.5038759708404541 0.14326035976409912 -0.06976741552352905
-0.5038759708404541 0.1448637843132019 0.20930230617523193
-0.5038759708404541 0.13972242176532745 0.22480618953704834
-0.5038759708404541 0.1331932693719864 0.24031007289886475
-0.5038759708404541 0.155565083026886 -0.3643410801887512
-0.5038759708404541 0.16237957775592804 0.16279065608978271
-0.5038759708404541 0.15641888976097107 0.17829453945159912
-0.5038759708404541 0.15130533277988434 0.19379842281341553
-0.5038759708404541 0.16406038403511047 -0.3488371968269348
-0.5038759708404541 0.17278426885604858 -0.3333333134651184
-0.5038759708404541 0.17459121346473694 0.1317828893661499
-0.5038759708404541 0.16968446969985962 0.1472867727279663
-0.5038759708404541 0.1828751116991043 -0.317829430103302
-0.5038759708404541 0.18959960341453552 -0.30232560634613037
-0.5038759708404541 0.19338731467723846 0.06976747512817383
-0.5038759708404541 0.18955305218696594 0.08527135848999023
-0.5038759708404541 0.18612268567085266 0.10077524185180664
-0.5038759708404541 0.18052393198013306 0.11627911776304245
-0.5038759708404541 0.19784608483314514 -0.28682172298431396
-0.5038759708404541 0.204024538397789 -0.27131783962249756
-0.5038759708404541 0.20739717781543732 -0.038759708404541016
-0.5038759708404541 0.20500896871089935 -0.02325582504272461
-0.5038759708404541 0.20296958088874817 -0.007751941680908203
-0.5038759708404541 0.20094382762908936 0.007751941215246916
-0.5038759708404541 0.19927509129047394 0.02325582504272461
-0.5038759708404541 0.19769352674484253 0.038759708404541016
-0.5038759708404541 0.19569194316864014 0.05426359176635742
-0.5038759708404541 0.2099618762731552 -0.25581395626068115
-0.5038759708404541 0.2136709988117218 -0.24031007289886475
-0.5038759708404541 0.21550104022026062 -0.22480618953704834
-0.5038759708404541 0.21454113721847534 -0.20930230617523193
-0.5038759708404541 0.21436339616775513 -0.19379842281341553
-0.5038759708404541 0.21534684300422668 -0.1782945990562439
-0.5038759708404541 0.21717672049999237 -0.1627907156944275
-0.5038759708404541 0.2181035280227661 -0.14728683233261108
-0.5038759708404541 0.2181931436061859 -0.13178294897079468
-0.5038759708404541 0.21761314570903778 -0.11627906560897827
-0.5038759708404541 0.21579638123512268 -0.10077518224716187
-0.5038759708404541 0.21300916373729706 -0.08527129888534546
-0.5038759708404541 0.21105830371379852 -0.06976741552352905
-0.5038759708404541 0.20976515114307404 -0.05426359176635742
-0.5038759708404541 0.2736920714378357 -0.20930230617523193
-0.5038759708404541 0.2837507724761963 -0.19379842281341553
-0.5038759708404541 0.2928394377231598 -0.1782945990562439
-0.5038759708404541 0.3098090589046478 -0.20930230617523193
-0.5038759708404541 0.3032349646091461 -0.1627907156944275
-0.5038759708404541 0.32745081186294556 -0.14728683233261108
-0.5038759708404541 0.3368335962295532 -0.19379842281341553
-0.5038759708404541 0.361150324344635 -0.1782945990562439
-0.5038759708404541 0.3502865135669708 -0.13178294897079468
-0.5038759708404541 0.37076711654663086 -0.11627906560897827
-0.5038759708404541 0.3815714418888092 -0.1627907156944275
-0.5038759708404541 0.3898927569389343 -0.10077518224716187
-0.5038759708404541 0.39993858337402344 -0.14728683233261108
-0.5038759708404541 0.40911170840263367 -0.08527129888534546
-0.5038759708404541 0.4157784581184387 -0.13178294897079468
-0.5038759708404541 0.42990782856941223 -0.11627906560897827
-0.5038759708404541 0.42845088243484497 -0.06976741552352905
-0.5038759708404541 0.44273436069488525 -0.10077518224716187
-0.5038759708404541 0.45405226945877075 -0.08527129888534546
-0.5038759708404541 0.4441181421279907 -0.05426359176635742
-0.5038759708404541 0.4571438431739807 -0.038759708404541016
-0.5038759708404541 0.46660345792770386 -0.06976741552352905
-0.5038759708404541 0.47054311633110046 -0.02325582504272461
-0.5038759708404541 0.478780061006546 -0.05426359176635742
-0.5038759708404541 0.48366495966911316 -0.007751941680908203
-0.5038759708404541 0.49054789543151855 -0.038759708404541016
-0.5038759708404541 0.4997168481349945 -0.02325582504272461
-0.5038759708404541 0.5024309158325195 0.007751941680908203
-0.5038759708404541 0.5083864331245422 -0.007751941680908203
-0.5038759708404541 0.5047394633293152 0.007751941680908203
-0.4883720874786377 -0.5067538619041443 -0.038759708404541016
-0.4883720874786377 -0.5125095844268799 -0.02325582504272461
-0.4883720874786377 -0.5157667398452759 -0.007751941680908203
-0.4883720874786377 -0.48903754353523254 -0.06976741552352905
-0.4883720874786377 -0.497625470161438 -0.05426359176635742
-0.4883720874786377 -0.4777015447616577 -0.08527129888534546
-0.4883720874786377 -0.4829365909099579 -0.02325582504272461
-0.4883720874786377 -0.48662230372428894 -0.007751941680908203
-0.4883720874786377 -0.4640236794948578 -0.10077518224716187
-0.4883720576763153 -0.4654275178909302 -0.05426359176635742
-0.4883720576763153 -0.47267842292785645 -0.038759708404541016
-0.4883720874786377 -0.4496164619922638 -0.11627906560897827
-0.4883720874786377 -0.4526005983352661 -0.06976741552352905
-0.4883720874786377 -0.43504762649536133 -0.13178294897079468
-0.4883720874786377 -0.4382767081260681 -0.08527129888534546
-0.4883720874786377 -0.4185790419578552 -0.14728683233261108
-0.4883720874786377 -0.42225104570388794 -0.10077518224716187
-0.4883720874786377 -0.4016270935535431 -0.1627907156944275
-0.4883720874786377 -0.4042544364929199 -0.11627906560897827
-0.4883720874786377 -0.38377970457077026 -0.1782945990562439
-0.4883720874786377 -0.3867299258708954 -0.13178294897079468
-0.4883720874786377 -0.365411639213562 -0.19379842281341553
-0.4883720874786377 -0.3704562485218048 -0.14728683233261108
-0.4883720874786377 -0.3568413257598877 -0.1627907156944275
-0.4883720874786377 -0.3466726243495941 -0.20930230617523193
-0.4883720874786377 -0.3427201807498932 -0.1782945990562439
-0.4883720874786377 -0.32696980237960815 -0.22480618953704834
-0.4883720874786377 -0.32670319080352783 -0.19379842281341553
-0.4883720874786377 -0.30513718724250793 -0.24031007289886475
-0.4883720874786377 -0.30180391669273376 -0.20930232107639313
-0.4883720874786377 -0.26775413751602173 -0.22480618953704834
-0.4883720874786377 -0.25510331988334656 -0.24031007289886475
-0.4883720874786377 -0.19404548406600952 -0.30232560634613037
-0.4883720874786377 -0.20236894488334656 -0.28682172298431396
-0.4883720874786377 -0.2054583877325058 -0.27131783962249756
-0.4883720874786377 -0.2011231780052185 -0.25581395626068115
-0.4883720874786377 -0.19628870487213135 -0.24031007289886475
-0.4883720874786377 -0.19418402016162872 -0.22480618953704834
-0.4883720874786377 -0.1946706622838974 -0.1627907156944275
-0.4883720874786377 -0.19662421941757202 -0.14728683233261108
-0.4883720874786377 -0.19945260882377625 -0.13178294897079468
-0.4883720874786377 -0.20176076889038086 -0.11627906560897827
-0.4883720874786377 -0.2022249847650528 -0.10077518224716187
-0.4883720874786377 -0.19997522234916687 -0.08527129888534546
-0.4883720874786377 -0.19748365879058838 -0.06976741552352905
-0.4883720874786377 -0.19556155800819397 -0.05426359176635742
-0.4883720874786377 -0.19467197358608246 -0.038759708404541016
-0.4883720874786377 -0.19415390491485596 -0.02325582504272461
-0.4883720874786377 -0.19389328360557556 -0.007751941680908203
-0.4883720874786377 -0.18213589489459991 -0.317829430103302
-0.4883720874786377 -0.1912514865398407 -0.20930230617523193
-0.4883720874786377 -0.19100962579250336 -0.19379842281341553
-0.4883720874786377 -0.19315950572490692 -0.1782945841550827
-0.4883720576763153 -0.19169694185256958 0.007751941215246916
-0.4883720874786377 -0.1885726898908615 0.02325582504272461
-0.4883720874786377 -0.18598923087120056 0.038759708404541016
-0.4883720874786377 -0.18280494213104248 0.05426359176635742
-0.4883720874786377 -0.1802968978881836 0.06976747512817383
-0.4883720874786377 -0.17849718034267426 0.08527135848999023
-0.4883720874786377 -0.16887293756008148 -0.3333333134651184
-0.4883720874786377 -0.1745459884405136 0.10077524185180664
-0.4883720874786377 -0.17077110707759857 0.11627912521362305
-0.4883720874786377 -0.16816914081573486 0.1317828893661499
-0.4883720874786377 -0.16540224850177765 0.1472867727279663
-0.4883720874786377 -0.15451768040657043 -0.3488371968269348
-0.4883721172809601 -0.1627768576145172 0.16279065608978271
-0.4883721172809601 -0.1572115421295166 0.17829453945159912
-0.4883720874786377 -0.15426819026470184 0.19379842281341553
-0.4883720874786377 -0.15192164480686188 0.20930230617523193
-0.4883720874786377 -0.14798566699028015 0.22480618953704834
-0.4883720874786377 -0.13205812871456146 -0.3798449635505676
-0.4883720874786377 -0.1417287439107895 -0.3643410801887512
-0.4883720874786377 -0.1411897838115692 0.24031007289886475
-0.4883720874786377 -0.13618822395801544 0.25581395626068115
-0.4883720874786377 -0.12309172004461288 -0.39534884691238403
-0.4883720874786377 -0.11919541656970978 -0.05426359176635742
-0.4883720874786377 -0.12068614363670349 -0.038759708404541016
-0.4883720874786377 -0.11763399839401245 -0.02325582504272461
-0.4883720874786377 -0.1286720633506775 0.27131783962249756
-0.4883720874786377 -0.12170320749282837 0.28682172298431396
-0.4883720874786377 -0.10643887519836426 -0.42635661363601685
-0.4883720874786377 -0.11398313194513321 -0.41085273027420044
-0.4883720874786377 -0.10789242386817932 -0.08527129888534546
-0.4883720874786377 -0.11433747410774231 -0.06976741552352905
-0.4883720874786377 -0.10601534694433212 -0.007751941680908203
-0.4883720874786377 -0.11399227380752563 0.30232560634613037
-0.4883720874786377 -0.10610117018222809 0.3178294897079468
-0.4883720874786377 -0.08584301173686981 -0.4883720874786377
-0.4883720874786377 -0.0911962240934372 -0.4728682041168213
-0.4883720874786377 -0.09450414031744003 -0.4573643207550049
-0.4883720576763153 -0.09987112134695053 -0.4418604373931885
-0.4883721172809601 -0.09620534628629684 -0.10077518224716187
-0.4883720874786377 -0.09613209217786789 0.3333333730697632
-0.4883720874786377 -0.08902321010828018 0.3488372564315796
-0.4883720874786377 -0.07195126265287399 -0.5193798542022705
-0.4883720874786377 -0.07927907258272171 -0.5038759708404541
-0.4883720874786377 -0.07983148843050003 0.364341139793396
-0.4883720874786377 -0.0751178041100502 0.37984490394592285
-0.4883720576763153 -0.06335781514644623 -0.5348837375640869
-0.4883720874786377 -0.06727790087461472 -0.10077518969774246
-0.4883720874786377 -0.05684327334165573 -0.08527129888534546
-0.4883720874786377 -0.06264647096395493 -0.007751941680908203
-0.4883720874786377 -0.0681692510843277 0.39534878730773926
-0.4883720874786377 -0.06237427517771721 0.41085267066955566
-0.4883720874786377 -0.05923543870449066 0.42635655403137207
-0.4883720874786377 -0.03954952582716942 -0.5658915042877197
-0.4883720874786377 -0.05189801752567291 -0.5503876209259033
-0.4883720874786377 -0.05125916004180908 -0.06976741552352905
-0.4883720874786377 -0.04904807358980179 -0.05426359176635742
-0.4883720874786377 -0.05033492296934128 -0.038759708404541016
-0.4883720576763153 -0.05358853563666344 -0.02325582504272461
-0.4883720874786377 -0.05347442626953125 0.4418604373931885
-0.4883720874786377 -0.04748324304819107 0.4573643207550049
-0.4883720874786377 -0.04394884407520294 0.4728682041168213
-0.4883720874786377 -0.03930811956524849 0.4883720874786377
-0.4883720874786377 -0.024650990962982178 -0.5813953876495361
-0.4883720874786377 -0.03406553342938423 0.5038759708404541
-0.4883720874786377 -0.02737526223063469 0.5193798542022705
-0.4883720874786377 -0.011488082818686962 -0.5968992114067078
-0.4883720874786377 -0.008030449971556664 -0.05426359176635742
-0.4883720874786377 -0.018446169793605804 0.5348837375640869
-0.4883720874786377 0.003875784343108535 -0.10077518224716187
-0.4883720874786377 -0.0031807199120521545 -0.08527129888534546
-0.4883720874786377 -0.007095137145370245 -0.06976741552352905
-0.4883720874786377 -0.006072258576750755 -0.038759708404541016
-0.4883720874786377 -0.001747756963595748 -0.02325582504272461
-0.4883720874786377 0.013799358159303665 -0.5968992114067078
-0.4883720874786377 0.012463115155696869 -0.10077518224716187
-0.4883720874786377 0.020601876080036163 -0.08527129888534546
-0.4883720874786377 0.02194533683359623 -0.05426359176635742
-0.4883720874786377 0.016970980912446976 -0.038759708404541016
-0.4883720874786377 0.01268585491925478 -0.02325582504272461
-0.4883720874786377 0.019596591591835022 0.5348837375640869
-0.4883720874786377 0.024826085194945335 -0.5813953876495361
-0.4883720874786377 0.03675452992320061 -0.5658915042877197
-0.4883720576763153 0.023553291335701942 -0.06976741552352905
-0.4883720874786377 0.03686113283038139 0.5038759708404541
-0.4883720874786377 0.03148769214749336 0.5193798542022705
-0.4883720874786377 0.04885181784629822 -0.5503876209259033
-0.4883720874786377 0.05141373723745346 -0.10077518224716187
-0.4883720874786377 0.04539630562067032 -0.08527129888534546
-0.4883720874786377 0.04338045418262482 -0.06976741552352905
-0.4883720874786377 0.046392105519771576 -0.05426359176635742
-0.4883720874786377 0.05133732780814171 0.4573643207550049
-0.4883720874786377 0.04728735610842705 0.4728682041168213
-0.4883720874786377 0.04265090450644493 0.4883720874786377
-0.4883720874786377 0.06018519029021263 -0.5348837375640869
-0.4883720874786377 0.06790662556886673 -0.14728683233261108
-0.4883720874786377 0.06361979246139526 -0.13178294897079468
-0.4883720874786377 0.058766864240169525 -0.11627906560897827
-0.4883720874786377 0.06679047644138336 0.41085267066955566
-0.4883720874786377 0.06232636421918869 0.42635655403137207
-0.4883720874786377 0.057778459042310715 0.4418604373931885
-0.4883720874786377 0.07054847478866577 -0.5193798542022705
-0.4883720874786377 0.07970017194747925 -0.5038759708404541
-0.4883720874786377 0.07882852852344513 -0.1627907156944275
-0.4883720874786377 0.08199694752693176 0.364341139793396
-0.4883720874786377 0.07778584212064743 0.37984490394592285
-0.4883720874786377 0.07335996627807617 0.39534878730773926
-0.4883720874786377 0.08949772268533707 -0.4883720874786377
-0.4883720874786377 0.09682091325521469 -0.4728682041168213
-0.4883720874786377 0.10019111633300781 0.3178294897079468
-0.4883720874786377 0.09377327561378479 0.3333333730697632
-0.4883720874786377 0.0886247456073761 0.3488372564315796
-0.4883720874786377 0.10875983536243439 -0.4573643207550049
-0.4883720874786377 0.10838867723941803 -0.1627907156944275
-0.4883720874786377 0.11490875482559204 -0.05426359176635742
-0.4883720874786377 0.1124117523431778 0.28682172298431396
-0.4883720874786377 0.10739514231681824 0.30232560634613037
-0.4883720874786377 0.1196301132440567 -0.4418604373931885
-0.4883720874786377 0.12789203226566315 -0.42635661363601685
-0.4883720874786377 0.11668982356786728 -0.14728683233261108
-0.4883720874786377 0.12253078818321228 -0.13178294897079468
-0.4883720874786377 0.1275225579738617 -0.11627906560897827
-0.4883720874786377 0.13096114993095398 -0.10077518224716187
-0.4883720874786377 0.1296030431985855 -0.06976741552352905
-0.4883720874786377 0.12683254480361938 0.25581395626068115
-0.4883720874786377 0.12102499604225159 0.27131783962249756
-0.4883720874786377 0.1381434053182602 -0.41085273027420044
-0.4883720874786377 0.14409282803535461 -0.39534884691238403
-0.4883720874786377 0.13495147228240967 -0.08527129888534546
-0.4883720874786377 0.14109891653060913 0.22480618953704834
-0.4883720874786377 0.13526809215545654 0.24031007289886475
-0.4883721172809601 0.15353845059871674 -0.3798449635505676
-0.4883720874786377 0.16000230610370636 -0.3643410801887512
-0.4883720874786377 0.1580895632505417 0.17829453945159912
-0.4883720874786377 0.15366283059120178 0.19379842281341553
-0.4883720874786377 0.14772312343120575 0.20930230617523193
-0.4883720874786377 0.17113131284713745 -0.3488371968269348
-0.4883720874786377 0.17674694955348969 0.1317828893661499
-0.4883720874786377 0.17153708636760712 0.1472867727279663
-0.4883720874786377 0.16519248485565186 0.16279065608978271
-0.4883720874786377 0.18084163963794708 -0.3333333134651184
-0.4883720874786377 0.18839982151985168 -0.317829430103302
-0.4883720874786377 0.19160500168800354 0.08527135848999023
-0.4883720874786377 0.18792542815208435 0.10077524185180664
-0.4883720874786377 0.18328242003917694 0.11627912521362305
-0.4883720874786377 0.19807486236095428 -0.30232560634613037
-0.4883720874786377 0.20461387932300568 -0.28682172298431396
-0.4883720874786377 0.2084592580795288 -0.02325582504272461
-0.4883720874786377 0.20627202093601227 -0.007751941680908203
-0.4883720874786377 0.20452845096588135 0.007751941680908203
-0.4883720874786377 0.2028283178806305 0.02325582504272461
-0.4883720874786377 0.2010527104139328 0.038759708404541016
-0.4883720874786377 0.19852691888809204 0.05426359176635742
-0.4883720874786377 0.19543039798736572 0.06976747512817383
-0.4883720874786377 0.2108098417520523 -0.27131783962249756
-0.4883720874786377 0.21688267588615417 -0.25581395626068115
-0.4883720874786377 0.22132296860218048 -0.24031007289886475
-0.4883720874786377 0.22058510780334473 -0.22480618953704834
-0.4883720874786377 0.21807880699634552 -0.20930230617523193
-0.4883720874786377 0.2177877426147461 -0.19379842281341553
-0.4883720874786377 0.21919697523117065 -0.1782945990562439
-0.4883720874786377 0.22163327038288116 -0.1627907156944275
-0.4883720874786377 0.2226458638906479 -0.14728683233261108
-0.4883720874786377 0.22261950373649597 -0.13178294897079468
-0.4883720874786377 0.2218533158302307 -0.11627906560897827
-0.4883720874786377 0.21982061862945557 -0.10077518224716187
-0.4883720874786377 0.21666550636291504 -0.08527129888534546
-0.4883720576763153 0.21351787447929382 -0.06976741552352905
-0.4883720874786377 0.21137836575508118 -0.05426359176635742
-0.4883720874786377 0.21000204980373383 -0.038759708404541016
-0.4883720874786377 0.26085084676742554 -0.24031007289886475
-0.4883720874786377 0.26449519395828247 -0.22480618953704834
-0.4883720874786377 0.27935898303985596 -0.24031007289886475
-0.4883720874786377 0.27569708228111267 -0.20930230617523193
-0.4883720874786377 0.2895241677761078 -0.19379842281341553
-0.4883720874786377 0.3110883831977844 -0.22480618953704834
-0.4883720874786377 0.30798566341400146 -0.1782945990562439
-0.4883720874786377 0.3316185474395752 -0.1627907156944275
-0.4883720874786377 0.34019601345062256 -0.20930230617523193
-0.4883720874786377 0.35540521144866943 -0.14728683233261108
-0.4883720576763153 0.3651166558265686 -0.19379842281341553
-0.4883720874786377 0.37578701972961426 -0.13178294897079468
-0.4883720874786377 0.3859793245792389 -0.1782945990562439
-0.4883720874786377 0.39516571164131165 -0.11627906560897827
-0.4883720874786377 0.4031027853488922 -0.1627907156944275
-0.4883720874786377 0.4194555878639221 -0.14728683233261108
-0.4883720874786377 0.41612979769706726 -0.10077518224716187
-0.4883720874786377 0.43449893593788147 -0.13178294897079468
-0.4883720874786377 0.4360899329185486 -0.08527129888534546
-0.4883720874786377 0.4478919506072998 -0.11627906560897827
-0.4883720874786377 0.453077495098114 -0.06976741552352905
-0.4883720874786377 0.46131008863449097 -0.10077518224716187
-0.4883720874786377 0.46849238872528076 -0.05426359176635742
-0.4883720874786377 0.47411954402923584 -0.08527129888534546
-0.4883720874786377 0.4874485433101654 -0.06976741552352905
-0.4883720874786377 0.48265737295150757 -0.038759708404541016
-0.4883720874786377 0.4997612237930298 -0.05426359176635742
-0.4883720874786377 0.4945739507675171 -0.02325582504272461
-0.4883720874786377 0.5036321878433228 -0.007751941680908203
-0.4883720874786377 0.5124080777168274 -0.038759708404541016
-0.4883720576763153 0.5224252939224243 -0.02325582504272461
-0.4883720874786377 0.52720046043396 -0.007751941680908203
-0.4728682041168213 -0.5386727452278137 -0.02325582504272461
-0.4728682041168213 -0.5218087434768677 -0.05426359176635742
-0.4728682041168213 -0.5298140645027161 -0.038759708404541016
-0.4728681743144989 -0.5313708782196045 -0.007751941680908203
-0.4728682041168213 -0.510927140712738 -0.06976741552352905
-0.4728682041168213 -0.5113459825515747 -0.007751941680908203
-0.4728682041168213 -0.4990706443786621 -0.08527129888534546
-0.4728682041168213 -0.4888375699520111 -0.05426359176635742
-0.4728682041168213 -0.4994755983352661 -0.038759708404541016
-0.4728682041168213 -0.5029888153076172 -0.02325582504272461
-0.4728682041168213 -0.4735702872276306 -0.11627906560897827
-0.4728682041168213 -0.4870661199092865 -0.10077518224716187
-0.4728682041168213 -0.4799187481403351 -0.06976741552352905
-0.4728682041168213 -0.4582172632217407 -0.13178294897079468
-0.4728682041168213 -0.46520325541496277 -0.08527129888534546
-0.4728682041168213 -0.44908663630485535 -0.10077518224716187
-0.4728682339191437 -0.4416368007659912 -0.14728683233261108
-0.4728682041168213 -0.43202292919158936 -0.11627906560897827
-0.4728682041168213 -0.42509984970092773 -0.1627907156944275
-0.4728682041168213 -0.4134543538093567 -0.13178294897079468
-0.4728681743144989 -0.40739235281944275 -0.1782945990562439
-0.4728682041168213 -0.3899647295475006 -0.19379842281341553
-0.4728682041168213 -0.39487263560295105 -0.14728683233261108
-0.4728682041168213 -0.37181028723716736 -0.20930230617523193
-0.4728682041168213 -0.37896183133125305 -0.1627907156944275
-0.4728682041168213 -0.35258007049560547 -0.22480618953704834
-0.4728682041168213 -0.3635486364364624 -0.1782945990562439
-0.4728682041168213 -0.34848877787590027 -0.19379843771457672
-0.4728682041168213 -0.3313200771808624 -0.24031007289886475
-0.4728682041168213 -0.33239123225212097 -0.20930230617523193
-0.4728682041168213 -0.3062267303466797 -0.25581395626068115
-0.4728682041168213 -0.31230175495147705 -0.22480618953704834
-0.4728682041168213 -0.2586296796798706 -0.27131783962249756
-0.4728682041168213 -0.25149568915367126 -0.27131783962249756
-0.4728682041168213 -0.2462838888168335 -0.25581395626068115
-0.4728682041168213 -0.25538644194602966 -0.24031007289886475
-0.4728682041168213 -0.21394817531108856 -0.28682172298431396
-0.4728682041168213 -0.21750003099441528 -0.27131783962249756
-0.4728682041168213 -0.20981205999851227 -0.25581395626068115
-0.4728682041168213 -0.20389555394649506 -0.30232560634613037
-0.4728682041168213 -0.20062865316867828 -0.24031007289886475
-0.4728682041168213 -0.1964282989501953 -0.22480618953704834
-0.4728682041168213 -0.194982647895813 -0.20930230617523193
-0.4728682041168213 -0.19481997191905975 -0.19379842281341553
-0.4728682041168213 -0.19535525143146515 -0.1782945990562439
-0.4728682041168213 -0.1971564143896103 -0.1627907156944275
-0.4728682041168213 -0.20080456137657166 -0.14728683233261108
-0.4728682041168213 -0.20442689955234528 -0.13178294897079468
-0.4728682041168213 -0.20664097368717194 -0.11627905815839767
-0.4728682041168213 -0.20672261714935303 -0.10077518224716187
-0.4728682041168213 -0.20402002334594727 -0.08527129888534546
-0.4728682041168213 -0.2008378803730011 -0.06976741552352905
-0.4728682041168213 -0.19749097526073456 -0.05426359176635742
-0.4728682041168213 -0.19570757448673248 -0.038759708404541016
-0.4728682041168213 -0.19483314454555511 -0.02325582504272461
-0.4728682041168213 -0.19442744553089142 -0.007751941680908203
-0.4728682041168213 -0.19399909675121307 0.007751941680908203
-0.4728682041168213 -0.17857550084590912 -0.3333333134651184
-0.4728682041168213 -0.1912243515253067 -0.317829430103302
-0.4728682041168213 -0.19105380773544312 0.02325582504272461
-0.4728682041168213 -0.18796296417713165 0.038759708404541016
-0.4728682041168213 -0.1846187263727188 0.05426359176635742
-0.4728682041168213 -0.18170268833637238 0.06976747512817383
-0.4728682041168213 -0.17952783405780792 0.08527135848999023
-0.4728682041168213 -0.165351003408432 -0.3488371968269348
-0.4728682041168213 -0.17746219038963318 0.10077524185180664
-0.4728682041168213 -0.17294912040233612 0.11627912521362305
-0.4728682041168213 -0.16994209587574005 0.1317828893661499
-0.4728682041168213 -0.16713201999664307 0.1472867727279663
-0.4728682041168213 -0.16407333314418793 0.16279065608978271
-0.4728682041168213 -0.15160010755062103 -0.3643410801887512
-0.4728682041168213 -0.15935367345809937 0.17829453945159912
-0.4728682041168213 -0.15564793348312378 0.19379842281341553
-0.4728682041168213 -0.15307724475860596 0.20930230617523193
-0.4728682041168213 -0.14953352510929108 0.22480618953704834
-0.4728682041168213 -0.13899138569831848 -0.3798449635505676
-0.4728682339191437 -0.14258122444152832 0.24031008780002594
-0.4728682041168213 -0.13741850852966309 0.25581395626068115
-0.4728682041168213 -0.12021467089653015 -0.41085273027420044
-0.4728682041168213 -0.12931528687477112 -0.39534884691238403
-0.4728682041168213 -0.12012741714715958 -0.05426359176635742
-0.4728682041168213 -0.12154467403888702 -0.038759708404541016
-0.4728682041168213 -0.11872038245201111 -0.02325582504272461
-0.4728682041168213 -0.13079123198986053 0.27131783962249756
-0.4728682041168213 -0.1231306865811348 0.28682172298431396
-0.4728682041168213 -0.10565061867237091 -0.4418604373931885
-0.4728682041168213 -0.11164858937263489 -0.42635661363601685
-0.4728681743144989 -0.10908317565917969 -0.08527129888534546
-0.4728682041168213 -0.11531266570091248 -0.06976741552352905
-0.4728682041168213 -0.10826537013053894 -0.007751941680908203
-0.4728682041168213 -0.11621773988008499 0.30232560634613037
-0.4728682041168213 -0.10742400586605072 0.3178294897079468
-0.4728682041168213 -0.08980430662631989 -0.4883720874786377
-0.4728682041168213 -0.09445859491825104 -0.4728682041168213
-0.4728682041168213 -0.09964649379253387 -0.4573643207550049
-0.4728682041168213 -0.09902909398078918 -0.10077518224716187
-0.4728682041168213 -0.0975697785615921 0.3333333730697632
-0.4728682041168213 -0.09014928340911865 0.3488372564315796
-0.4728682041168213 -0.07598057389259338 -0.5193798542022705
-0.4728682339191437 -0.08222060650587082 -0.5038759708404541
-0.4728682041168213 -0.08092192560434341 0.364341139793396
-0.4728682041168213 -0.075934499502182 0.37984490394592285
-0.4728682041168213 -0.07046237587928772 0.39534878730773926
-0.4728682041168213 -0.05702363699674606 -0.5503876209259033
-0.4728681743144989 -0.06639610975980759 -0.5348837375640869
-0.4728682041168213 -0.062408894300460815 -0.10077518224716187
-0.4728682041168213 -0.06019517034292221 -0.007751941680908203
-0.4728682041168213 -0.06320206075906754 0.41085267066955566
-0.4728682041168213 -0.06038200855255127 0.42635655403137207
-0.4728682041168213 -0.05566306784749031 0.4418604373931885
-0.4728682041168213 -0.045052774250507355 -0.5658915042877197
-0.4728682041168213 -0.05236705765128136 -0.08527129888534546
-0.4728682041168213 -0.0470995157957077 -0.06976741552352905
-0.4728682041168213 -0.04537917301058769 -0.05426359176635742
-0.4728682041168213 -0.047221243381500244 -0.038759708404541016
-0.4728682041168213 -0.05111216753721237 -0.02325582504272461
-0.4728682041168213 -0.048574723303318024 0.4573642909526825
-0.4728682041168213 -0.04561438411474228 0.4728682041168213
-0.4728682041168213 -0.04122896492481232 0.4883720874786377
-0.4728682041168213 -0.030781231820583344 -0.5813953876495361
-0.4728682041168213 -0.03572523593902588 0.5038759708404541
-0.4728682041168213 -0.03157733380794525 0.5193798542022705
-0.4728682041168213 -0.025124814361333847 0.5348837375640869
-0.4728682041168213 -0.01970982551574707 -0.5968992114067078
-0.4728682041168213 -0.010720722377300262 -0.06976741552352905
-0.4728682041168213 -0.011430950835347176 -0.05426359176635742
-0.4728682041168213 -0.010058368556201458 -0.038759708404541016
-0.4728682041168213 -0.007982502691447735 -0.02325582504272461
-0.4728682041168213 -0.01565508358180523 0.5503876209259033
-0.4728682041168213 0.0008284042123705149 -0.10077518224716187
-0.4728682041168213 -0.007557868957519531 -0.08527129888534546
-0.4728682041168213 0.004141293466091156 -0.007751941680908203
-0.4728682041168213 0.021546104922890663 -0.5968992114067078
-0.4728682339191437 0.014862258918583393 -0.10077518224716187
-0.4728682041168213 0.022580351680517197 -0.08527129888534546
-0.4728682041168213 0.01885155588388443 -0.038759708404541016
-0.4728682041168213 0.014382142573595047 -0.02325582504272461
-0.4728682041168213 0.008852836675941944 -0.007751941680908203
-0.4728682041168213 0.0175151564180851 0.5503876209259033
-0.4728682041168213 0.029723286628723145 -0.5813953876495361
-0.4728682041168213 0.030641071498394012 -0.06976741552352905
-0.4728682041168213 0.02522178366780281 -0.05426359176635742
-0.4728682041168213 0.034758079797029495 0.5193798542022705
-0.4728682041168213 0.029027650132775307 0.5348837375640869
-0.4728682041168213 0.04145056754350662 -0.5658915042877197
-0.4728682041168213 0.0530129075050354 -0.5503876209259033
-0.4728682041168213 0.04894974082708359 -0.10077518224716187
-0.4728682041168213 0.042912621051073074 -0.08527129888534546
-0.4728682041168213 0.04088107496500015 -0.06976741552352905
-0.4728682041168213 0.0442032590508461 -0.05426359176635742
-0.4728682041168213 0.052909959107637405 0.4573643207550049
-0.4728682041168213 0.04824238270521164 0.4728682041168213
-0.4728681743144989 0.04490624740719795 0.4883720874786377
-0.4728682041168213 0.03998446837067604 0.5038759708404541
-0.4728682041168213 0.063601553440094 -0.5348837375640869
-0.4728682041168213 0.06706298142671585 -0.14728683233261108
-0.4728682041168213 0.06245242431759834 -0.13178294897079468
-0.4728682041168213 0.05722532793879509 -0.11627906560897827
-0.4728682041168213 0.06765558570623398 0.41085267066955566
-0.4728682041168213 0.06286449730396271 0.42635655403137207
-0.4728682041168213 0.05902697890996933 0.4418604373931885
-0.4728682041168213 0.0753227174282074 -0.5193798542022705
-0.4728682041168213 0.08458313345909119 -0.5038759708404541
-0.4728682041168213 0.07754102349281311 -0.1627907156944275
-0.4728682041168213 0.08268541097640991 0.364341139793396
-0.4728682041168213 0.07823582738637924 0.37984490394592285
-0.4728682041168213 0.07409535348415375 0.39534878730773926
-0.4728682041168213 0.09388937801122665 -0.4883720874786377
-0.4728682041168213 0.09429009258747101 0.3333333730697632
-0.4728682041168213 0.08943276107311249 0.348837286233902
-0.4728682041168213 0.10356685519218445 -0.4728682041168213
-0.4728682041168213 0.11387978494167328 -0.4573643207550049
-0.4728682041168213 0.1075449138879776 -0.1627907156944275
-0.4728682041168213 0.1156204417347908 -0.14728683233261108
-0.4728682041168213 0.10650823265314102 -0.05426359176635742
-0.4728682041168213 0.11275164783000946 0.28682172298431396
-0.4728682041168213 0.10789911448955536 0.30232560634613037
-0.4728682041168213 0.10110058635473251 0.3178294897079468
-0.4728682041168213 0.12559381127357483 -0.4418604373931885
-0.4728682041168213 0.12073452770709991 -0.13178294897079468
-0.4728682041168213 0.12456213682889938 -0.11627906560897827
-0.4728682041168213 0.1271323263645172 -0.10077518224716187
-0.4728682041168213 0.12919804453849792 -0.08527129888534546
-0.4728682041168213 0.12346479296684265 -0.06976741552352905
-0.4728682041168213 0.12717057764530182 0.25581395626068115
-0.4728682041168213 0.12155583500862122 0.27131783962249756
-0.4728682041168213 0.13505834341049194 -0.42635661363601685
-0.4728682041168213 0.1425010710954666 -0.41085273027420044
-0.4728682041168213 0.14175115525722504 0.22480618953704834
-0.4728682041168213 0.1361335813999176 0.24031005799770355
-0.4728682041168213 0.15155747532844543 -0.39534884691238403
-0.4728682041168213 0.15779882669448853 -0.3798449635505676
-0.4728682041168213 0.15961392223834991 0.17829453945159912
-0.4728682041168213 0.1549191176891327 0.19379842281341553
-0.4728682041168213 0.14927464723587036 0.20930232107639313
-0.4728682041168213 0.1679595410823822 -0.3643410801887512
-0.4728682041168213 0.17674119770526886 -0.3488371968269348
-0.4728682041168213 0.1729556918144226 0.1472867727279663
-0.4728682041168213 0.16770775616168976 0.16279065608978271
-0.4728682041168213 0.18745532631874084 -0.3333333134651184
-0.4728682041168213 0.1895187646150589 0.10077524185180664
-0.4728682041168213 0.1855965405702591 0.11627912521362305
-0.4728682041168213 0.17925740778446198 0.1317828893661499
-0.4728682041168213 0.19745956361293793 -0.317829430103302
-0.4728682041168213 0.20540456473827362 -0.30232560634613037
-0.4728682041168213 0.20745399594306946 0.007751941680908203
-0.4728682041168213 0.2055692970752716 0.02325582504272461
-0.4728682041168213 0.20382815599441528 0.038759708404541016
-0.4728682041168213 0.2015925645828247 0.05426359176635742
-0.4728682041168213 0.19840022921562195 0.06976747512817383
-0.4728682041168213 0.19400697946548462 0.08527135848999023
-0.4728682041168213 0.2130805402994156 -0.28682172298431396
-0.4728682041168213 0.22155794501304626 -0.27131783962249756
-0.4728682041168213 0.22158785164356232 -0.20930230617523193
-0.4728682041168213 0.22154507040977478 -0.19379842281341553
-0.4728682041168213 0.22358344495296478 -0.1782945990562439
-0.4728682041168213 0.2246827781200409 -0.10077518224716187
-0.4728682041168213 0.2212112843990326 -0.08527129888534546
-0.4728682041168213 0.2180362492799759 -0.06976741552352905
-0.4728682041168213 0.2147221565246582 -0.05426359176635742
-0.4728682041168213 0.21225833892822266 -0.038759708404541016
-0.4728682041168213 0.21055516600608826 -0.02325582504272461
-0.4728682041168213 0.2094021737575531 -0.007751941680908203
-0.4728682041168213 0.23858243227005005 -0.24031007289886475
-0.4728682041168213 0.22515542805194855 -0.22480618953704834
-0.4728682041168213 0.22501230239868164 -0.16279073059558868
-0.4728682041168213 0.22514402866363525 -0.14728683233261108
-0.4728682041168213 0.2251528650522232 -0.13178294897079468
-0.4728682041168213 0.22507406771183014 -0.11627907305955887
-0.4728682041168213 0.24142563343048096 -0.24031007289886475
-0.4728682041168213 0.26542094349861145 -0.22480618953704834
-0.4728682339191437 0.2777358591556549 -0.25581395626068115
-0.4728682041168213 0.286689817905426 -0.20930230617523193
-0.4728682041168213 0.3120437264442444 -0.24031007289886475
-0.4728682041168213 0.31363728642463684 -0.19379842281341553
-0.4728682041168213 0.34105435013771057 -0.22480618953704834
-0.4728682041168213 0.3381894528865814 -0.1782945990562439
-0.4728682041168213 0.36074742674827576 -0.1627907156944275
-0.4728682041168213 0.36820319294929504 -0.20930230617523193
-0.4728682041168213 0.37936171889305115 -0.14728683233261108
-0.4728682041168213 0.3897404372692108 -0.19379842281341553
-0.4728682041168213 0.406705766916275 -0.1782945990562439
-0.4728682041168213 0.4001263380050659 -0.13178294897079468
-0.4728682041168213 0.42245712876319885 -0.1627907156944275
-0.4728682041168213 0.42167428135871887 -0.11627906560897827
-0.4728682041168213 0.4379786252975464 -0.14728683233261108
-0.4728682041168213 0.4415305554866791 -0.10077518224716187
-0.4728682041168213 0.4526140093803406 -0.13178294897079468
-0.4728682041168213 0.46630048751831055 -0.11627906560897827
-0.4728682041168213 0.4596138000488281 -0.08527129888534546
-0.4728682041168213 0.48062214255332947 -0.10077518224716187
-0.4728682339191437 0.4765845239162445 -0.06976741552352905
-0.4728682041168213 0.49504685401916504 -0.08527129888534546
-0.4728682041168213 0.4916135370731354 -0.05426359176635742
-0.4728682041168213 0.5036569237709045 -0.038759708404541016
-0.4728682041168213 0.5095199942588806 -0.06976741552352905
-0.4728682041168213 0.5168284773826599 -0.02325582504272461
-0.4728682041168213 0.5224754214286804 -0.05426359176635742
-0.4728682041168213 0.534134566783905 -0.038759708404541016
-0.4728682041168213 0.53190016746521 -0.007751941680908203
-0.4728682041168213 0.5443910956382751 -0.02325582504272461
-0.4728682041168213 0.5405350923538208 -0.007751941680908203
-0.4573643207550049 -0.55620938539505 -0.038759708404541016
-0.4573643207550049 -0.5554090142250061 -0.02325582504272461
-0.4573643207550049 -0.5448753237724304 -0.05426359176635742
-0.4573643207550049 -0.5212246179580688 -0.08527129888534546
-0.4573643207550049 -0.5329140424728394 -0.06976741552352905
-0.4573643207550049 -0.5286151170730591 -0.02325582504272461
-0.4573643207550049 -0.5088926553726196 -0.10077518224716187
-0.4573643207550049 -0.5147881507873535 -0.05426359176635742
-0.45736435055732727 -0.5193297863006592 -0.038759712129831314
-0.4573643207550049 -0.4954754114151001 -0.11627906560897827
-0.4573643207550049 -0.5017951130867004 -0.06976741552352905
-0.4573643207550049 -0.48152923583984375 -0.13178294897079468
-0.4573643207550049 -0.4875923991203308 -0.08527129888534546
-0.4573643207550049 -0.46598297357559204 -0.14728683233261108
-0.4573643207550049 -0.4725308120250702 -0.10077518224716187
-0.4573643207550049 -0.4498497247695923 -0.1627907156944275
-0.4573642909526825 -0.4565035402774811 -0.11627905815839767
-0.4573643207550049 -0.4325237274169922 -0.1782945990562439
-0.4573643207550049 -0.4404138922691345 -0.13178294897079468
-0.4573643207550049 -0.41329309344291687 -0.19379842281341553
-0.4573643207550049 -0.422094464302063 -0.14728683233261108
-0.4573643207550049 -0.40327638387680054 -0.1627907156944275
-0.4573643207550049 -0.39301541447639465 -0.20930230617523193
-0.4573643207550049 -0.3857635259628296 -0.1782945990562439
-0.4573643207550049 -0.3740021884441376 -0.22480618953704834
-0.4573643207550049 -0.36980414390563965 -0.19379842281341553
-0.4573643207550049 -0.35529637336730957 -0.24031007289886475
-0.4573643207550049 -0.3547216057777405 -0.20930230617523193
-0.4573643207550049 -0.33854788541793823 -0.22480618953704834
-0.4573643207550049 -0.3321678340435028 -0.25581395626068115
-0.4573643207550049 -0.30367374420166016 -0.27131783962249756
-0.4573643207550049 -0.3171175420284271 -0.24031007289886475
-0.4573643207550049 -0.24834375083446503 -0.28682172298431396
-0.4573643207550049 -0.24472491443157196 -0.25581395626068115
-0.4573643207550049 -0.2149634063243866 -0.30232560634613037
-0.4573643207550049 -0.214299738407135 -0.25581395626068115
-0.4573643207550049 -0.2095469832420349 -0.11627906560897827
-0.4573643207550049 -0.20950289070606232 -0.10077518224716187
-0.4573643207550049 -0.20072956383228302 -0.317829430103302
-0.4573643207550049 -0.2061491310596466 -0.24031007289886475
-0.4573643207550049 -0.19948559999465942 -0.22480618953704834
-0.4573643207550049 -0.1970423012971878 -0.20930230617523193
-0.4573643207550049 -0.19675348699092865 -0.19379842281341553
-0.4573643207550049 -0.19780023396015167 -0.1782945990562439
-0.4573643207550049 -0.20104965567588806 -0.1627907156944275
-0.4573643207550049 -0.20562446117401123 -0.14728683233261108
-0.4573642909526825 -0.20898903906345367 -0.13178293406963348
-0.4573643207550049 -0.20745573937892914 -0.08527129888534546
-0.4573643207550049 -0.2038288116455078 -0.06976741552352905
-0.4573643207550049 -0.19977980852127075 -0.05426359176635742
-0.4573643207550049 -0.19693005084991455 -0.038759708404541016
-0.4573643207550049 -0.19547170400619507 -0.02325582504272461
-0.4573643207550049 -0.19488541781902313 -0.007751941680908203
-0.4573643207550049 -0.1943967193365097 0.007751941680908203
-0.4573643207550049 -0.19381554424762726 0.02325582504272461
-0.4573643207550049 -0.1873517632484436 -0.3333333134651184
-0.4573642909526825 -0.1897224485874176 0.038759708404541016
-0.4573643207550049 -0.18614330887794495 0.05426359176635742
-0.4573643207550049 -0.1831921935081482 0.06976747512817383
-0.4573643207550049 -0.18061602115631104 0.08527135848999023
-0.4573643207550049 -0.17885757982730865 0.10077524185180664
-0.4573643207550049 -0.17366522550582886 -0.3488371968269348
-0.4573643207550049 -0.17466098070144653 0.11627912521362305
-0.4573643207550049 -0.171174094080925 0.1317828893661499
-0.4573643207550049 -0.16823053359985352 0.1472867727279663
-0.4573643207550049 -0.16506004333496094 0.16279065608978271
-0.4573643207550049 -0.14904269576072693 -0.3798449635505676
