-0.1627907156944275 0.15929557383060455 -0.4418604373931885
-0.1627907156944275 0.15616737306118011 0.25581395626068115
-0.1627907007932663 0.14873984456062317 0.27131783962249756
-0.1627907156944275 0.1696852147579193 -0.42635661363601685
-0.1627907156944275 0.1714472770690918 0.22480618953704834
-0.1627907007932663 0.1645769327878952 0.24031007289886475
-0.1627907156944275 0.17920364439487457 -0.41085273027420044
-0.1627907156944275 0.1882733404636383 -0.39534884691238403
-0.1627907156944275 0.19056960940361023 0.17829453945159912
-0.1627907156944275 0.18598470091819763 0.19379842281341553
-0.1627907156944275 0.17863954603672028 0.20930230617523193
-0.1627907156944275 0.19800998270511627 -0.3798449635505676
-0.1627907156944275 0.20597264170646667 -0.3643410801887512
-0.1627907156944275 0.20513816177845 0.1317828893661499
-0.1627907156944275 0.20196518301963806 0.1472867727279663
-0.1627907156944275 0.19722051918506622 0.16279065608978271
-0.1627907156944275 0.21297848224639893 -0.3488371968269348
-0.1627907156944275 0.2201184630393982 -0.3333333134651184
-0.1627907156944275 0.2234392613172531 -0.05426359176635742
-0.1627907156944275 0.22122538089752197 -0.038759708404541016
-0.1627907156944275 0.22030699253082275 -0.02325582504272461
-0.1627907156944275 0.2197038233280182 -0.007751941680908203
-0.1627907156944275 0.21947365999221802 0.007751941680908203
-0.1627907156944275 0.2194729447364807 0.02325582504272461
-0.1627907156944275 0.21944886445999146 0.038759708404541016
-0.1627907156944275 0.21927107870578766 0.05426359176635742
-0.1627907156944275 0.21879439055919647 0.06976747512817383
-0.1627907156944275 0.21771693229675293 0.08527135848999023
-0.1627907156944275 0.21531832218170166 0.10077524185180664
-0.1627907156944275 0.21035437285900116 0.11627912521362305
-0.1627907156944275 0.22551491856575012 -0.317829430103302
-0.1627907156944275 0.22652827203273773 -0.30232560634613037
-0.1627907156944275 0.2274143099784851 -0.28682172298431396
-0.1627907156944275 0.2277919501066208 -0.27131783962249756
-0.1627907156944275 0.2277962863445282 -0.25581395626068115
-0.1627907156944275 0.2273588478565216 -0.24031007289886475
-0.1627907156944275 0.22687987983226776 -0.22480618953704834
-0.1627907156944275 0.22677722573280334 -0.20930232107639313
-0.1627907156944275 0.22708149254322052 -0.19379842281341553
-0.1627907156944275 0.22755461931228638 -0.1782945990562439
-0.1627907156944275 0.22799716889858246 -0.1627907156944275
-0.1627907156944275 0.22833958268165588 -0.14728683233261108
-0.1627907156944275 0.22836026549339294 -0.13178294897079468
-0.1627907156944275 0.2285028100013733 -0.11627906560897827
-0.1627907156944275 0.22807352244853973 -0.10077518224716187
-0.1627907156944275 0.22748374938964844 -0.08527129888534546
-0.1627907156944275 0.22608457505702972 -0.06976741552352905
-0.1627907156944275 0.4828404486179352 -0.3333333134651184
-0.1627907156944275 0.5010582208633423 -0.317829430103302
-0.1627907156944275 0.5077202320098877 -0.3333333134651184
-0.1627907156944275 0.5324754118919373 -0.30232560634613037
-0.1627907156944275 0.5360766053199768 -0.317829430103302
-0.1627907156944275 0.5584185123443604 -0.30232560634613037
-0.14728683233261108 -0.5555867552757263 -0.30232560634613037
-0.14728683233261108 -0.5411561727523804 -0.317829430103302
-0.14728683233261108 -0.546447217464447 -0.30232560634613037
-0.14728683233261108 -0.5176486968994141 -0.3333333134651184
-0.14728683233261108 -0.5122876763343811 -0.317829430103302
-0.14728683233261108 -0.485866516828537 -0.3333333134651184
-0.14728683233261108 -0.21250653266906738 -0.317829430103302
-0.14728683233261108 -0.21649354696273804 -0.30232560634613037
-0.14728683233261108 -0.2194380760192871 -0.28682172298431396
-0.14728683233261108 -0.22130471467971802 -0.27131783962249756
-0.14728683233261108 -0.22218014299869537 -0.25581395626068115
-0.14728683233261108 -0.22234363853931427 -0.24031007289886475
-0.14728683233261108 -0.2221776694059372 -0.22480618953704834
-0.14728683233261108 -0.22244681417942047 -0.20930230617523193
-0.14728683233261108 -0.22346186637878418 -0.19379842281341553
-0.14728683233261108 -0.224138543009758 -0.1782946139574051
-0.14728683233261108 -0.22468410432338715 -0.1627907156944275
-0.14728683233261108 -0.22450754046440125 -0.14728683233261108
-0.14728683233261108 -0.2232361137866974 -0.13178294897079468
-0.14728683233261108 -0.2213934361934662 -0.11627906560897827
-0.14728683233261108 -0.21911752223968506 -0.10077518224716187
-0.14728683233261108 -0.21697348356246948 -0.08527129888534546
-0.14728683233261108 -0.21407294273376465 -0.06976741552352905
-0.14728683233261108 -0.21049362421035767 -0.05426359176635742
-0.14728683233261108 -0.19464002549648285 -0.3643410801887512
-0.14728683233261108 -0.20191136002540588 -0.3488371968269348
-0.14728683233261108 -0.2089446485042572 -0.3333333134651184
-0.14728683233261108 -0.20627132058143616 -0.038759708404541016
-0.14728683233261108 -0.20414406061172485 -0.02325582504272461
-0.14728683233261108 -0.20353880524635315 -0.007751941680908203
-0.14728683233261108 -0.20408791303634644 0.007751941680908203
-0.14728683233261108 -0.20498046278953552 0.02325582504272461
-0.14728683233261108 -0.2060099095106125 0.038759708404541016
-0.14728683233261108 -0.20589351654052734 0.05426359176635742
-0.14728683233261108 -0.20533807575702667 0.06976747512817383
-0.14728683233261108 -0.20346806943416595 0.08527135848999023
-0.14728683233261108 -0.20117780566215515 0.10077524185180664
-0.14728683233261108 -0.19840846955776215 0.11627912521362305
-0.14728683233261108 -0.19436335563659668 0.1317828893661499
-0.14728683233261108 -0.18525230884552002 -0.3798449635505676
-0.14728683233261108 -0.18746215105056763 0.1472867727279663
-0.14728683233261108 -0.18292219936847687 0.16279065608978271
-0.14728683233261108 -0.16390390694141388 -0.41085273027420044
-0.14728683233261108 -0.17345000803470612 -0.39534884691238403
-0.14728683233261108 -0.1782689392566681 0.17829452455043793
-0.14728683233261108 -0.17195869982242584 0.19379842281341553
-0.14728683233261108 -0.16741248965263367 0.20930230617523193
-0.14728683233261108 -0.14947347342967987 -0.4418604373931885
-0.14728683233261108 -0.15588559210300446 -0.42635661363601685
-0.14728683233261108 -0.16178461909294128 0.22480618953704834
-0.14728683233261108 -0.15561513602733612 0.24031007289886475
-0.14728683233261108 -0.1500563621520996 0.25581395626068115
-0.14728683233261108 -0.1326570361852646 -0.4728682041168213
-0.14728683233261108 -0.1411496102809906 -0.4573643207550049
-0.14728683233261108 -0.142162024974823 0.27131783962249756
-0.14728683233261108 -0.13516391813755035 0.28682172298431396
-0.14728683233261108 -0.12297346442937851 -0.4883720874786377
-0.14728683233261108 -0.12520845234394073 0.30232560634613037
-0.14728683233261108 -0.11032240837812424 -0.5038759708404541
-0.14728683233261108 -0.1140749454498291 0.3178294897079468
-0.14728683233261108 -0.10300065577030182 0.3333333730697632
-0.14728683233261108 -0.09577829390764236 -0.5193798542022705
-0.14728683233261108 -0.0916203111410141 0.3488372564315796
-0.14728683233261108 -0.07998667657375336 -0.5348837375640869
-0.14728683233261108 -0.07938216626644135 0.364341139793396
-0.14728683233261108 -0.07016366720199585 0.37984490394592285
-0.14728683233261108 -0.06403960287570953 -0.5503876209259033
-0.14728683233261108 -0.061017073690891266 0.39534878730773926
-0.14728683233261108 -0.0408952496945858 -0.5813953876495361
-0.14728683233261108 -0.05070401728153229 -0.5658915042877197
-0.14728683233261108 -0.05338318645954132 0.41085267066955566
-0.14728683233261108 -0.04715011268854141 0.42635655403137207
-0.14728683233261108 -0.04238200932741165 0.4418604373931885
-0.14728683233261108 -0.024633562192320824 -0.6279070377349854
-0.14728683233261108 -0.02913873828947544 -0.6124030947685242
-0.14728683233261108 -0.033882081508636475 -0.5968992114067078
-0.14728683233261108 -0.038531333208084106 0.4573643207550049
-0.14728683233261108 -0.033997565507888794 0.4728682041168213
-0.14728683233261108 -0.03131003677845001 0.4883720874786377
-0.14728683233261108 -0.029080521315336227 0.5038759708404541
-0.14728683233261108 -0.027111660689115524 0.5193798542022705
-0.14728683233261108 -0.025757484138011932 0.5348837375640869
-0.14728683233261108 -0.02480584755539894 0.5503876209259033
-0.14728683233261108 -0.023987501859664917 0.5658915042877197
-0.14728683233261108 -0.01053253747522831 -0.674418568611145
-0.14728683233261108 -0.01620885729789734 -0.6589146852493286
-0.14728683233261108 -0.020337071269750595 -0.643410861492157
-0.14728683233261108 -0.021241622045636177 0.5813953876495361
-0.14728683233261108 -0.018118470907211304 0.5968992710113525
-0.14728683233261108 -0.01632538065314293 0.612403154373169
-0.14728683233261108 -0.014925319701433182 0.6279069185256958
-0.14728683233261108 -0.013393836095929146 0.6434108018875122
-0.14728683233261108 -0.01197037659585476 0.6589146852493286
-0.14728683233261108 -0.010673214681446552 0.674418568611145
-0.14728683233261108 -0.008654517121613026 0.6899224519729614
-0.14728683233261108 0.013568529859185219 -0.674418568611145
-0.14728683233261108 0.019447624683380127 0.6434108018875122
-0.14728683233261108 0.01651221513748169 0.6589146852493286
-0.14728683233261108 0.013201436027884483 0.674418568611145
-0.14728683233261108 0.008536795154213905 0.6899224519729614
-0.14728683233261108 0.02349402755498886 -0.6589146852493286
-0.14728683233261108 0.028749004006385803 -0.643410861492157
-0.14728683233261108 0.03608516976237297 -0.6279069781303406
-0.14728683233261108 0.037427615374326706 0.5348837375640869
-0.14728683233261108 0.03361488878726959 0.5503876209259033
-0.14728683233261108 0.03171733021736145 0.5658915042877197
-0.14728683233261108 0.030423827469348907 0.5813953876495361
-0.14728683233261108 0.0289284847676754 0.5968992710113525
-0.14728683233261108 0.026750337332487106 0.612403154373169
-0.1472868174314499 0.02421727403998375 0.627906858921051
-0.14728683233261108 0.040846023708581924 -0.612403154373169
-0.14728683233261108 0.047024041414260864 -0.5968992114067078
-0.14728683233261108 0.053590305149555206 -0.5813953876495361
-0.14728683233261108 0.05145403370261192 0.4418604373931885
-0.14728683233261108 0.04819491133093834 0.4573643207550049
-0.14728683233261108 0.04613047093153 0.4728682041168213
-0.14728683233261108 0.044353753328323364 0.4883721172809601
-0.14728683233261108 0.04253401234745979 0.5038759708404541
-0.14728683233261108 0.04051879793405533 0.5193798542022705
-0.14728683233261108 0.06620475649833679 -0.5658915042877197
-0.14728683233261108 0.06441599875688553 0.39534878730773926
-0.14728683233261108 0.05932353436946869 0.41085267066955566
-0.14728683233261108 0.055584345012903214 0.42635655403137207
-0.14728683233261108 0.07923677563667297 -0.5503876209259033
-0.14728683233261108 0.07542181015014648 0.37984490394592285
-0.14728683233261108 0.09233557432889938 -0.5348837375640869
-0.14728683233261108 0.09659658372402191 0.3488372564315796
-0.14728683233261108 0.08584753423929214 0.364341139793396
-0.14728683233261108 0.10596778988838196 -0.5193798542022705
-0.14728683233261108 0.10879680514335632 0.3333333730697632
-0.14728683233261108 0.11874891072511673 -0.5038759708404541
-0.14728683233261108 0.12968645989894867 -0.4883720874786377
-0.14728683233261108 0.13108958303928375 0.30232560634613037
-0.14728683233261108 0.12107940018177032 0.3178294897079468
-0.14728683233261108 0.14029400050640106 -0.4728682041168213
-0.14728683233261108 0.14037084579467773 0.28682172298431396
-0.14728683233261108 0.15063166618347168 -0.4573643207550049
-0.14728683233261108 0.15935896337032318 -0.4418604373931885
-0.14728683233261108 0.15654490888118744 0.25581395626068115
-0.14728683233261108 0.14958013594150543 0.27131783962249756
-0.14728683233261108 0.16965709626674652 -0.42635661363601685
-0.14728683233261108 0.17169779539108276 0.22480618953704834
-0.14728683233261108 0.16515102982521057 0.24031007289886475
-0.14728683233261108 0.1791287660598755 -0.41085273027420044
-0.14728683233261108 0.1880093514919281 -0.39534884691238403
-0.14728683233261108 0.19070500135421753 0.17829453945159912
-0.14728683233261108 0.18613509833812714 0.19379842281341553
-0.1472868174314499 0.17897051572799683 0.20930230617523193
-0.14728683233261108 0.19762681424617767 -0.3798449635505676
-0.14728683233261108 0.20531383156776428 -0.3643410801887512
-0.14728683233261108 0.2051101177930832 0.1317828893661499
-0.14728683233261108 0.20196528732776642 0.1472867727279663
-0.14728683233261108 0.19730624556541443 0.16279065608978271
-0.14728683233261108 0.2125723958015442 -0.3488371968269348
-0.14728683233261108 0.2192063182592392 -0.3333333134651184
-0.14728683233261108 0.2231217920780182 -0.05426359176635742
-0.14728683233261108 0.22104504704475403 -0.038759708404541016
-0.14728683233261108 0.22016479074954987 -0.02325582504272461
-0.14728683233261108 0.2196042239665985 -0.007751941680908203
-0.14728683233261108 0.21942654252052307 0.007751941680908203
-0.14728683233261108 0.21948379278182983 0.02325582504272461
-0.14728683233261108 0.21951797604560852 0.038759708404541016
-0.14728683233261108 0.21936391294002533 0.05426359176635742
-0.14728683233261108 0.2188728004693985 0.06976747512817383
-0.14728683233261108 0.2177463173866272 0.08527135848999023
-0.14728683233261108 0.21531552076339722 0.10077524185180664
-0.14728683233261108 0.21033376455307007 0.11627912521362305
-0.14728683233261108 0.22543571889400482 -0.317829430103302
-0.14728683233261108 0.22651804983615875 -0.30232560634613037
-0.14728683233261108 0.2273283153772354 -0.28682172298431396
-0.14728683233261108 0.2276257872581482 -0.27131783962249756
-0.14728683233261108 0.22758923470973969 -0.25581395626068115
-0.14728683233261108 0.22711081802845 -0.24031007289886475
-0.14728683233261108 0.22659073770046234 -0.22480618953704834
-0.14728683233261108 0.2264811396598816 -0.20930230617523193
-0.14728683233261108 0.226810023188591 -0.19379842281341553
-0.14728683233261108 0.22734680771827698 -0.1782946139574051
-0.14728683233261108 0.2278524935245514 -0.1627907156944275
-0.14728683233261108 0.22825278341770172 -0.14728683233261108
-0.14728683233261108 0.2282957136631012 -0.13178294897079468
-0.14728683233261108 0.2284184694290161 -0.11627907305955887
-0.14728683233261108 0.227935791015625 -0.10077518224716187
-0.14728683233261108 0.227280855178833 -0.08527129888534546
-0.14728683233261108 0.22585567831993103 -0.06976741552352905
-0.13178294897079468 -0.22488543391227722 -0.1782945990562439
-0.13178294897079468 -0.2250087559223175 -0.1627907156944275
-0.13178294897079468 -0.22500425577163696 -0.14728683233261108
-0.13178294897079468 -0.20946602523326874 -0.3333333134651184
-0.13178294897079468 -0.21279489994049072 -0.317829430103302
-0.13178294897079468 -0.21681101620197296 -0.30232560634613037
-0.13178294897079468 -0.21982799470424652 -0.28682172298431396
-0.13178294897079468 -0.2218116819858551 -0.27131783962249756
-0.13178294897079468 -0.2226518839597702 -0.25581395626068115
-0.13178294897079468 -0.2227274775505066 -0.24031007289886475
-0.13178294897079468 -0.2225310355424881 -0.22480618953704834
-0.13178294897079468 -0.22292430698871613 -0.20930230617523193
-0.13178294897079468 -0.22424669563770294 -0.19379842281341553
-0.13178294897079468 -0.22467249631881714 -0.13178294897079468
-0.13178294897079468 -0.22251221537590027 -0.11627906560897827
-0.13178294897079468 -0.21981874108314514 -0.10077518224716187
-0.13178294897079468 -0.21759483218193054 -0.08527129888534546
-0.13178294897079468 -0.2149553745985031 -0.06976741552352905
-0.13178294897079468 -0.2117668241262436 -0.05426359176635742
-0.13178294897079468 -0.19517531991004944 -0.3643410801887512
-0.13178294897079468 -0.20230773091316223 -0.3488371968269348
-0.13178294897079468 -0.20890791714191437 -0.038759708404541016
-0.13178294897079468 -0.20601698756217957 -0.02325582504272461
-0.13178294897079468 -0.2052217423915863 -0.007751941680908203
-0.13178294897079468 -0.20583269000053406 0.007751941680908203
-0.13178294897079468 -0.20687665045261383 0.02325582318007946
-0.13178294897079468 -0.20818984508514404 0.038759708404541016
-0.13178294897079468 -0.20794250071048737 0.05426359176635742
-0.13178294897079468 -0.20701535046100616 0.06976747512817383
-0.13178294897079468 -0.20450416207313538 0.08527135848999023
-0.13178294897079468 -0.20175406336784363 0.10077524185180664
-0.13178294897079468 -0.19890612363815308 0.11627912521362305
-0.13178294897079468 -0.19497309625148773 0.1317828893661499
-0.13178294897079468 -0.18590912222862244 -0.3798449635505676
-0.13178294897079468 -0.1881306767463684 0.1472867727279663
-0.13178294897079468 -0.18342435359954834 0.16279065608978271
-0.13178294897079468 -0.17886827886104584 0.17829453945159912
-0.13178294897079468 -0.1652550995349884 -0.41085273027420044
-0.13178294897079468 -0.1746663600206375 -0.3953488767147064
-0.13178294897079468 -0.17252932488918304 0.19379842281341553
-0.13178294897079468 -0.16778293251991272 0.20930230617523193
-0.13178294897079468 -0.15070012211799622 -0.4418604373931885
-0.13178294897079468 -0.15681268274784088 -0.42635661363601685
-0.13178294897079468 -0.16236378252506256 0.22480618953704834
-0.13178294897079468 -0.1558694839477539 0.24031007289886475
-0.13178294897079468 -0.15034151077270508 0.25581395626068115
-0.13178294897079468 -0.13402661681175232 -0.4728682041168213
-0.13178294897079468 -0.14208413660526276 -0.4573643207550049
-0.13178294897079468 -0.14244094491004944 0.27131783962249756
-0.13178294897079468 -0.13550737500190735 0.28682172298431396
-0.13178294897079468 -0.12406151741743088 -0.4883720874786377
-0.13178294897079468 -0.12558570504188538 0.30232560634613037
-0.13178294897079468 -0.11144183576107025 -0.5038759708404541
-0.13178294897079468 -0.11478740721940994 0.31782951951026917
-0.13178294897079468 -0.1037353128194809 0.3333333730697632
-0.13178294897079468 -0.09705545753240585 -0.5193798542022705
-0.13178294897079468 -0.09214182943105698 0.3488372564315796
-0.13178294897079468 -0.08095744252204895 -0.5348837375640869
-0.13178294897079468 -0.0798189640045166 0.364341139793396
-0.13178294897079468 -0.07072301208972931 0.37984490394592285
-0.13178294897079468 -0.0645550936460495 -0.5503876209259033
-0.13178294897079468 -0.06124718487262726 0.39534878730773926
-0.13178294897079468 -0.04116658866405487 -0.5813953876495361
-0.13178294897079468 -0.05107715353369713 -0.5658915042877197
-0.13178294897079468 -0.05343349650502205 0.41085267066955566
-0.13178294897079468 -0.047109995037317276 0.42635655403137207
-0.13178294897079468 -0.042382970452308655 0.4418604373931885
-0.13178294897079468 -0.024994991719722748 -0.6279069781303406
-0.13178294897079468 -0.029403943568468094 -0.6124030947685242
-0.13178294897079468 -0.03405138477683067 -0.5968992114067078
-0.13178294897079468 -0.038441579788923264 0.4573643207550049
-0.13178294897079468 -0.03401748836040497 0.4728682041168213
-0.13178294897079468 -0.03137889876961708 0.4883720874786377
-0.13178294897079468 -0.029191909357905388 0.5038759708404541
-0.13178294897079468 -0.02724432572722435 0.5193798542022705
-0.13178294897079468 -0.02586449310183525 0.5348837375640869
-0.13178294897079468 -0.02492593601346016 0.5503876209259033
-0.13178294897079468 -0.024195872247219086 0.5658915042877197
-0.13178294897079468 -0.01195303164422512 -0.674418568611145
-0.13178294897079468 -0.017477907240390778 -0.6589146852493286
-0.13178294897079468 -0.02107234112918377 -0.643410861492157
-0.13178294897079468 -0.022365257143974304 0.5813953876495361
-0.13178294897079468 -0.018888438120484352 0.5968992710113525
-0.13178294897079468 -0.016914432868361473 0.612403154373169
-0.13178294897079468 -0.015418926253914833 0.6279069185256958
-0.13178294897079468 -0.01393755991011858 0.6434108018875122
-0.13178294897079468 -0.012440536171197891 0.6589146852493286
-0.13178294897079468 -0.011161614209413528 0.674418568611145
-0.13178294897079468 -0.009665442630648613 0.6899224519729614
-0.13178294897079468 0.0038513520266860723 -0.6899224519729614
-0.13178294897079468 0.008100727573037148 -0.6899224519729614
-0.13178294897079468 0.016002805903553963 -0.674418568611145
-0.13178294897079468 0.02033410593867302 0.6434108018875122
-0.13178294897079468 0.016853470355272293 0.6589146852493286
-0.13178294897079468 0.014175208285450935 0.674418568611145
-0.13178294897079468 0.009596623480319977 0.6899224519729614
-0.13178294897079468 0.02394254133105278 -0.6589146852493286
-0.13178294897079468 0.029566213488578796 -0.6434108018875122
-0.13178294897079468 0.036361463367938995 -0.6279069781303406
-0.13178294897079468 0.038409214466810226 0.5348837375640869
-0.13178294897079468 0.03402004390954971 0.5503876209259033
-0.13178294897079468 0.03188900649547577 0.5658915042877197
-0.13178294897079468 0.030552834272384644 0.5813953876495361
-0.13178294897079468 0.02922266535460949 0.5968992710113525
-0.13178294897079468 0.027248192578554153 0.612403154373169
-0.13178294897079468 0.02478504180908203 0.6279069185256958
-0.13178294897079468 0.04132263362407684 -0.6124030947685242
-0.13178294897079468 0.047566551715135574 -0.5968992114067078
-0.13178294897079468 0.05213157832622528 0.4418604373931885
-0.13178294897079468 0.04864509031176567 0.4573643207550049
-0.13178294897079468 0.046508945524692535 0.4728682041168213
-0.13178294897079468 0.04470405727624893 0.4883720874786377
-0.13178294897079468 0.0429019071161747 0.5038759708404541
-0.13178294897079468 0.040945153683423996 0.5193798542022705
-0.13178294897079468 0.05444348603487015 -0.5813953876495361
-0.13178294897079468 0.06775113940238953 -0.5658915042877197
-0.13178294897079468 0.06489039212465286 0.39534878730773926
-0.13178294897079468 0.05973334610462189 0.41085267066955566
-0.13178294897079468 0.05601811781525612 0.42635655403137207
-0.13178294897079468 0.0809057205915451 -0.5503876209259033
-0.13178294897079468 0.07588472962379456 0.37984490394592285
-0.13178294897079468 0.09387853741645813 -0.5348837375640869
-0.13178294897079468 0.09695429354906082 0.3488372564315796
-0.13178294897079468 0.08652983605861664 0.364341139793396
-0.13178294897079468 0.10731181502342224 -0.5193798542022705
-0.13178294897079468 0.1091400757431984 0.3333333730697632
-0.13178294897079468 0.11994890868663788 -0.5038759708404541
-0.13178294897079468 0.13087406754493713 -0.4883720874786377
-0.13178294897079468 0.1216428130865097 0.3178294897079468
-0.13178294897079468 0.14100807905197144 -0.4728682041168213
-0.13178294897079468 0.14084076881408691 0.28682172298431396
-0.13178294897079468 0.13209277391433716 0.30232560634613037
-0.13178294897079468 0.15131138265132904 -0.4573643207550049
-0.13178294897079468 0.15990981459617615 -0.4418604373931885
-0.13178294897079468 0.15695258975028992 0.25581395626068115
-0.13178294897079468 0.15033495426177979 0.27131783962249756
-0.13178294897079468 0.17003558576107025 -0.42635661363601685
-0.13178294897079468 0.1720726490020752 0.22480618953704834
-0.13178294897079468 0.1658819168806076 0.24031007289886475
-0.13178294897079468 0.1795421838760376 -0.41085273027420044
-0.13178294897079468 0.18813234567642212 -0.39534884691238403
-0.13178294897079468 0.19133278727531433 0.17829453945159912
-0.13178294897079468 0.18650788068771362 0.19379842281341553
-0.13178294897079468 0.17964303493499756 0.20930230617523193
-0.13178294897079468 0.197574183344841 -0.3798449635505676
-0.13178294897079468 0.2049744427204132 -0.3643410801887512
-0.13178294897079468 0.20558315515518188 0.1317828893661499
-0.13178294897079468 0.20235423743724823 0.1472867727279663
-0.13178294897079468 0.1979963481426239 0.16279065608978271
-0.13178294897079468 0.2122674286365509 -0.3488371968269348
-0.13178294897079468 0.21841192245483398 -0.3333333134651184
-0.13178294897079468 0.22391578555107117 -0.05426359176635742
-0.13178294897079468 0.22166940569877625 -0.038759708404541016
-0.13178294897079468 0.22068177163600922 -0.02325582504272461
-0.13178294897079468 0.22010381519794464 -0.007751941680908203
-0.13178294897079468 0.2199493646621704 0.007751941680908203
-0.13178294897079468 0.2200145423412323 0.02325582504272461
-0.13178294897079468 0.22002866864204407 0.038759708404541016
-0.13178294897079468 0.21981991827487946 0.05426359176635742
-0.13178294897079468 0.219267338514328 0.06976747512817383
-0.13178294897079468 0.21811440587043762 0.08527135848999023
-0.13178294897079468 0.21581342816352844 0.10077524185180664
-0.13178294897079468 0.21117717027664185 0.11627912521362305
-0.13178294897079468 0.22536486387252808 -0.317829430103302
-0.13178294897079468 0.22646796703338623 -0.30232560634613037
-0.13178294897079468 0.22720707952976227 -0.28682172298431396
-0.13178294897079468 0.22745352983474731 -0.27131783962249756
-0.13178294897079468 0.22738640010356903 -0.25581395626068115
-0.13178294897079468 0.22689051926136017 -0.24031007289886475
-0.13178294897079468 0.22635504603385925 -0.22480620443820953
-0.13178294897079468 0.22624604403972626 -0.20930230617523193
-0.13178294897079468 0.22659273445606232 -0.19379842281341553
-0.13178294897079468 0.22717690467834473 -0.1782945990562439
-0.13178294897079468 0.22774362564086914 -0.1627907156944275
-0.13178294897079468 0.22822709381580353 -0.14728683233261108
-0.13178294897079468 0.2283334881067276 -0.13178294897079468
-0.13178294897079468 0.22849294543266296 -0.11627905815839767
-0.13178294897079468 0.2280479073524475 -0.10077518224716187
-0.13178294897079468 0.22747096419334412 -0.08527129888534546
-0.13178294897079468 0.22619952261447906 -0.06976740807294846
-0.11627906560897827 -0.22498318552970886 -0.19379842281341553
-0.11627906560897827 -0.2251722663640976 -0.1782945990562439
-0.11627906560897827 -0.2253159135580063 -0.1627907156944275
-0.11627906560897827 -0.2253219187259674 -0.14728683233261108
-0.11627906560897827 -0.22512851655483246 -0.13178294897079468
-0.11627906560897827 -0.2098405659198761 -0.3333333134651184
-0.11627906560897827 -0.21323835849761963 -0.317829430103302
-0.11627906560897827 -0.21737992763519287 -0.30232560634613037
-0.11627906560897827 -0.22065989673137665 -0.28682172298431396
-0.11627906560897827 -0.22297127544879913 -0.27131783962249756
-0.11627906560897827 -0.2238089144229889 -0.25581395626068115
-0.11627906560897827 -0.22381490468978882 -0.24031007289886475
-0.11627906560897827 -0.22357651591300964 -0.22480618953704834
-0.11627906560897827 -0.2241109162569046 -0.20930230617523193
-0.11627906560897827 -0.2244904637336731 -0.11627906560897827
-0.11627906560897827 -0.2210363745689392 -0.10077518224716187
-0.11627906560897827 -0.21843186020851135 -0.08527129888534546
-0.11627906560897827 -0.2159845232963562 -0.06976741552352905
-0.11627906560897827 -0.21320882439613342 -0.05426359176635742
-0.11627906560897827 -0.21082912385463715 -0.038759708404541016
-0.11627906560897827 -0.20933428406715393 -0.02325582504272461
-0.11627906560897827 -0.20948219299316406 0.02325582504272461
-0.11627906560897827 -0.20992137491703033 0.038759708404541016
-0.11627906560897827 -0.20973177254199982 0.05426359176635742
-0.11627906560897827 -0.19594353437423706 -0.3643410801887512
-0.11627906560897827 -0.20290836691856384 -0.3488371968269348
-0.11627906560897827 -0.20808126032352448 -0.007751941680908203
-0.11627906560897827 -0.2086714506149292 0.007751941680908203
-0.11627907305955887 -0.20917263627052307 0.06976747512817383
-0.11627906560897827 -0.205686554312706 0.08527135848999023
-0.11627906560897827 -0.20231828093528748 0.10077524185180664
-0.11627906560897827 -0.1993105709552765 0.11627912521362305
-0.11627906560897827 -0.19552895426750183 0.1317828893661499
-0.11627906560897827 -0.18682169914245605 -0.3798449635505676
-0.11627906560897827 -0.1888645887374878 0.1472867727279663
-0.11627906560897827 -0.18393996357917786 0.16279065608978271
-0.11627906560897827 -0.179433673620224 0.17829453945159912
-0.11627906560897827 -0.16705533862113953 -0.41085273027420044
-0.11627906560897827 -0.1766068935394287 -0.39534884691238403
-0.11627906560897827 -0.1730314940214157 0.19379842281341553
-0.11627906560897827 -0.16795358061790466 0.20930230617523193
-0.11627906560897827 -0.1523485779762268 -0.4418604373931885
-0.11627906560897827 -0.15831512212753296 -0.42635661363601685
-0.11627906560897827 -0.16244633495807648 0.22480620443820953
-0.11627906560897827 -0.15573875606060028 0.24031007289886475
-0.11627906560897827 -0.15013614296913147 0.25581395626068115
-0.11627906560897827 -0.13563792407512665 -0.4728682041168213
-0.11627906560897827 -0.14342665672302246 -0.4573643207550049
-0.11627906560897827 -0.14213243126869202 0.27131783962249756
-0.11627906560897827 -0.13532550632953644 0.28682172298431396
-0.11627906560897827 -0.12520964443683624 -0.4883721172809601
-0.11627906560897827 -0.12541493773460388 0.30232560634613037
-0.11627906560897827 -0.11282823979854584 -0.5038759708404541
-0.11627906560897827 -0.11464834213256836 0.3178294897079468
-0.11627906560897827 -0.10361877083778381 0.3333333730697632
-0.11627905815839767 -0.09887557476758957 -0.5193798542022705
-0.11627906560897827 -0.0919637382030487 0.3488372564315796
-0.11627906560897827 -0.0826493352651596 -0.5348837375640869
-0.11627906560897827 -0.07961242645978928 0.364341139793396
-0.11627906560897827 -0.07041992247104645 0.37984490394592285
-0.11627907305955887 -0.06580647826194763 -0.5503876209259033
-0.11627906560897827 -0.06090409308671951 0.39534878730773926
-0.11627906560897827 -0.04236050695180893 -0.5813953876495361
-0.11627906560897827 -0.052381448447704315 -0.5658915042877197
-0.11627906560897827 -0.05255214497447014 0.41085267066955566
-0.11627906560897827 -0.04656536504626274 0.42635655403137207
-0.11627906560897827 -0.041846614331007004 0.4418604373931885
-0.11627906560897827 -0.025635860860347748 -0.6279069781303406
-0.11627906560897827 -0.0300418920814991 -0.6124030947685242
-0.11627906560897827 -0.034621529281139374 -0.5968992114067078
-0.11627906560897827 -0.037545278668403625 0.4573643207550049
-0.11627906560897827 -0.033538926392793655 0.4728682041168213
-0.11627906560897827 -0.031051427125930786 0.4883720874786377
-0.11627906560897827 -0.02891457825899124 0.5038759708404541
-0.11627906560897827 -0.02696920931339264 0.5193798542022705
-0.11627906560897827 -0.025593824684619904 0.5348837375640869
-0.11627906560897827 -0.024698439985513687 0.5503876209259033
-0.11627906560897827 -0.0240602046251297 0.5658915042877197
-0.11627906560897827 -0.008169211447238922 -0.6899224519729614
-0.11627906560897827 -0.01386134885251522 -0.674418568611145
-0.11627906560897827 -0.018746893852949142 -0.6589146852493286
-0.11627906560897827 -0.02224532887339592 -0.643410861492157
-0.11627907305955887 -0.02214954048395157 0.5813954472541809
-0.11627906560897827 -0.01894105225801468 0.5968992710113525
-0.11627906560897827 -0.01716402918100357 0.612403154373169
-0.11627906560897827 -0.01569305546581745 0.6279069185256958
-0.11627906560897827 -0.014221670106053352 0.6434108018875122
-0.11627906560897827 -0.012739820405840874 0.6589146852493286
-0.11627906560897827 -0.01148911938071251 0.674418568611145
-0.11627906560897827 -0.010203768499195576 0.6899224519729614
-0.11627906560897827 0.009802932851016521 -0.6899224519729614
-0.11627906560897827 0.018736405298113823 -0.674418568611145
-0.11627906560897827 0.021394304931163788 0.6434108018875122
-0.11627906560897827 0.017278840765357018 0.6589146852493286
-0.11627906560897827 0.01496282871812582 0.674418568611145
-0.11627907305955887 0.010845709592103958 0.6899224519729614
-0.11627906560897827 0.024918772280216217 -0.6589147448539734
-0.11627906560897827 0.03110625594854355 -0.643410861492157
-0.11627906560897827 0.037445295602083206 -0.6279069781303406
-0.11627906560897827 0.03447752445936203 0.5503876209259033
-0.11627906560897827 0.03206748887896538 0.5658915042877197
-0.11627906560897827 0.03063161112368107 0.5813953876495361
-0.11627906560897827 0.02939993143081665 0.5968992710113525
-0.11627906560897827 0.02760152705013752 0.612403154373169
-0.11627906560897827 0.02528522163629532 0.6279069185256958
-0.11627906560897827 0.04296160489320755 -0.6124030947685242
-0.11627906560897827 0.049186453223228455 -0.5968992114067078
-0.11627906560897827 0.052607037127017975 0.4418604373931885
-0.11627906560897827 0.048963502049446106 0.4573643207550049
-0.11627906560897827 0.04678000509738922 0.4728682041168213
-0.11627906560897827 0.044954366981983185 0.4883721172809601
-0.11627906560897827 0.04317161440849304 0.5038759708404541
-0.11627906560897827 0.04128721356391907 0.5193798542022705
-0.11627907305955887 0.039006683975458145 0.5348837971687317
-0.11627906560897827 0.056611139327287674 -0.5813953876495361
-0.11627906560897827 0.06514173746109009 0.39534878730773926
-0.11627905815839767 0.05994267016649246 0.41085267066955566
-0.11627906560897827 0.056269191205501556 0.42635655403137207
-0.11627906560897827 0.07019607722759247 -0.5658915638923645
-0.11627906560897827 0.08346448838710785 -0.5503876209259033
-0.11627907305955887 0.0760757327079773 0.37984490394592285
-0.11627906560897827 0.09605254977941513 -0.5348837375640869
-0.11627906560897827 0.09695116430521011 0.3488372564315796
-0.11627907305955887 0.08673038333654404 0.364341139793396
-0.11627906560897827 0.10897620767354965 -0.5193798542022705
-0.11627906560897827 0.10915211588144302 0.3333333730697632
-0.11627907305955887 0.12139047682285309 -0.5038759708404541
-0.11627906560897827 0.12173719704151154 0.3178294897079468
-0.11627906560897827 0.1321989744901657 -0.4883720874786377
-0.11627906560897827 0.14186689257621765 -0.4728682041168213
-0.11627906560897827 0.1409609466791153 0.28682172298431396
-0.11627906560897827 0.13237333297729492 0.30232560634613037
-0.11627905815839767 0.15213024616241455 -0.4573643207550049
-0.11627906560897827 0.1606297641992569 -0.4418604373931885
-0.11627906560897827 0.1570878028869629 0.25581395626068115
-0.11627905815839767 0.15052799880504608 0.27131783962249756
-0.11627906560897827 0.17050933837890625 -0.42635661363601685
-0.11627906560897827 0.17222294211387634 0.22480618953704834
-0.11627906560897827 0.166127547621727 0.24031007289886475
-0.11627905815839767 0.18008987605571747 -0.41085273027420044
-0.11627906560897827 0.18841689825057983 -0.39534884691238403
-0.11627906560897827 0.1919366419315338 0.17829453945159912
-0.11627906560897827 0.1867566704750061 0.19379842281341553
-0.11627906560897827 0.17998631298542023 0.20930230617523193
-0.11627906560897827 0.1976674199104309 -0.3798449635505676
-0.11627906560897827 0.20480315387248993 -0.3643410801887512
-0.11627906560897827 0.20617812871932983 0.1317828893661499
-0.11627906560897827 0.20277586579322815 0.1472867727279663
-0.11627906560897827 0.1986270248889923 0.16279065608978271
-0.11627906560897827 0.21200445294380188 -0.3488371968269348
-0.11627906560897827 0.21764758229255676 -0.3333333134651184
-0.11627906560897827 0.22283995151519775 -0.038759708404541016
-0.11627906560897827 0.2217065393924713 -0.02325582504272461
-0.11627906560897827 0.22103072702884674 -0.007751941680908203
-0.11627906560897827 0.22086185216903687 0.007751941680908203
-0.11627906560897827 0.2208976000547409 0.02325582504272461
-0.11627906560897827 0.22080883383750916 0.038759708404541016
-0.11627906560897827 0.22045311331748962 0.05426359176635742
-0.11627906560897827 0.21972814202308655 0.06976747512817383
-0.11627906560897827 0.2185135781764984 0.08527135848999023
-0.11627906560897827 0.2162775695323944 0.10077524185180664
-0.11627906560897827 0.2120090126991272 0.11627912521362305
-0.11627906560897827 0.22527313232421875 -0.317829430103302
-0.11627905815839767 0.22641749680042267 -0.30232560634613037
-0.11627906560897827 0.22714118659496307 -0.28682172298431396
-0.11627906560897827 0.2273569405078888 -0.27131783962249756
-0.11627907305955887 0.22724977135658264 -0.25581395626068115
-0.11627906560897827 0.22674071788787842 -0.24031007289886475
-0.11627907305955887 0.22620369493961334 -0.22480618953704834
-0.11627906560897827 0.2260926365852356 -0.20930230617523193
-0.11627907305955887 0.22645752131938934 -0.19379842281341553
-0.11627906560897827 0.22706878185272217 -0.1782945990562439
-0.11627906560897827 0.2277034968137741 -0.1627907156944275
-0.11627906560897827 0.22825148701667786 -0.14728683233261108
-0.11627906560897827 0.22842592000961304 -0.13178294897079468
-0.11627906560897827 0.22862553596496582 -0.11627906560897827
-0.11627906560897827 0.22821906208992004 -0.10077518224716187
-0.11627906560897827 0.22775307297706604 -0.08527129888534546
-0.11627906560897827 0.22669970989227295 -0.06976741552352905
-0.11627906560897827 0.22508184611797333 -0.05426359176635742
-0.10077518224716187 -0.22484873235225677 -0.25581395626068115
-0.10077518224716187 -0.22484000027179718 -0.24031007289886475
-0.10077518224716187 -0.22489437460899353 -0.20930230617523193
-0.10077518224716187 -0.22520247101783752 -0.19379842281341553
-0.10077518224716187 -0.22539815306663513 -0.1782945990562439
-0.10077518224716187 -0.22556103765964508 -0.1627907156944275
-0.10077518224716187 -0.22557760775089264 -0.14728683233261108
-0.10077518224716187 -0.22540290653705597 -0.13178294897079468
-0.10077518224716187 -0.22507618367671967 -0.11627906560897827
-0.10077518224716187 -0.21009895205497742 -0.3333333134651184
-0.10077518224716187 -0.2135516256093979 -0.317829430103302
-0.10077518224716187 -0.21780186891555786 -0.30232560634613037
-0.10077518224716187 -0.22147561609745026 -0.28682172298431396
-0.10077518224716187 -0.22420960664749146 -0.27131783962249756
-0.10077518224716187 -0.22471734881401062 -0.22480618953704834
-0.10077518224716187 -0.22247399389743805 -0.10077518224716187
-0.10077518224716187 -0.219268798828125 -0.08527129888534546
-0.10077518224716187 -0.21681171655654907 -0.06976741552352905
-0.10077518224716187 -0.21426863968372345 -0.05426359176635742
-0.10077518224716187 -0.21211418509483337 -0.038759708404541016
-0.10077518224716187 -0.21063339710235596 -0.02325582504272461
-0.10077518224716187 -0.21001139283180237 -0.007751941680908203
-0.10077518224716187 -0.21013036370277405 0.007751941680908203
-0.10077518224716187 -0.21038506925106049 0.02325582504272461
-0.10077518224716187 -0.210702046751976 0.038759708404541016
-0.10077518224716187 -0.21037381887435913 0.05426359176635742
-0.10077518224716187 -0.20975035429000854 0.06976747512817383
-0.10077518224716187 -0.19636470079421997 -0.3643410801887512
-0.10077518224716187 -0.20322559773921967 -0.3488371968269348
-0.10077518224716187 -0.20656582713127136 0.08527135848999023
-0.10077518224716187 -0.20265653729438782 0.10077524185180664
-0.10077518224716187 -0.19947247207164764 0.11627912521362305
-0.10077518224716187 -0.19576343894004822 0.1317828893661499
-0.10077518224716187 -0.1873544454574585 -0.3798449635505676
-0.10077518224716187 -0.18921200931072235 0.1472867727279663
-0.10077518224716187 -0.18415391445159912 0.16279065608978271
-0.10077518224716187 -0.17966341972351074 0.17829453945159912
-0.10077518224716187 -0.1681477278470993 -0.41085273027420044
-0.10077518224716187 -0.17802950739860535 -0.39534884691238403
-0.10077518224716187 -0.17317312955856323 0.19379842281341553
-0.10077518224716187 -0.1678427755832672 0.20930230617523193
-0.10077518224716187 -0.15337854623794556 -0.4418604373931885
-0.10077518224716187 -0.15949463844299316 -0.42635658383369446
-0.10077518224716187 -0.16202187538146973 0.22480618953704834
-0.10077518224716187 -0.15529575943946838 0.24031007289886475
-0.10077518224716187 -0.1495639979839325 0.25581395626068115
-0.10077518224716187 -0.13660657405853271 -0.4728682041168213
-0.10077517479658127 -0.14444078505039215 -0.4573643207550049
-0.10077518224716187 -0.14146791398525238 0.27131783962249756
-0.10077518224716187 -0.13475744426250458 0.28682172298431396
-0.10077518969774246 -0.12593390047550201 -0.4883720874786377
-0.10077518224716187 -0.12487897276878357 0.30232560634613037
-0.10077518224716187 -0.11386926472187042 -0.5038759708404541
-0.10077518224716187 -0.11393006891012192 0.3178294897079468
-0.10077518224716187 -0.10307030379772186 0.3333333730697632
-0.10077518224716187 -0.10054220259189606 -0.5193798542022705
-0.10077518224716187 -0.09155294299125671 0.3488372564315796
-0.10077518224716187 -0.08448036015033722 -0.5348837375640869
-0.10077518224716187 -0.07923239469528198 0.364341139793396
-0.10077518224716187 -0.06984177231788635 0.37984490394592285
-0.10077518224716187 -0.0672484040260315 -0.5503876209259033
-0.10077518224716187 -0.06038534641265869 0.39534878730773926
-0.10077518224716187 -0.04353515803813934 -0.5813953876495361
-0.10077518224716187 -0.053961850702762604 -0.5658915042877197
-0.10077518224716187 -0.05168251693248749 0.41085267066955566
-0.10077518224716187 -0.04600692167878151 0.42635655403137207
-0.10077518224716187 -0.04123299941420555 0.4418604373931885
-0.10077518224716187 -0.023441188037395477 -0.643410861492157
-0.10077518224716187 -0.026271216571331024 -0.6279069781303406
-0.10077518224716187 -0.03061399981379509 -0.6124030947685242
-0.10077518224716187 -0.0352252721786499 -0.5968992114067078
-0.10077518224716187 -0.03665914386510849 0.4573643207550049
-0.10077518224716187 -0.03301895409822464 0.4728682339191437
-0.10077518224716187 -0.030645787715911865 0.4883720874786377
-0.10077518224716187 -0.028524791821837425 0.5038759708404541
-0.10077518224716187 -0.026572590693831444 0.5193798542022705
-0.10077518224716187 -0.02524702437222004 0.5348837375640869
-0.10077518224716187 -0.024436313658952713 0.5503876209259033
-0.10077518224716187 -0.02390657551586628 0.5658915042877197
-0.10077518224716187 -0.0094135208055377 -0.6899224519729614
-0.10077518224716187 -0.015737712383270264 -0.674418568611145
-0.10077517479658127 -0.01988523080945015 -0.6589146852493286
-0.10077518224716187 -0.021936379373073578 0.5813953876495361
-0.10077518224716187 -0.01903449185192585 0.5968992710113525
-0.10077518224716187 -0.01739949733018875 0.612403154373169
-0.10077518224716187 -0.016019422560930252 0.6279069185256958
-0.10077518224716187 -0.014553533867001534 0.6434108018875122
-0.10077518224716187 -0.013066435232758522 0.6589146852493286
-0.10077518224716187 -0.01178455725312233 0.674418568611145
-0.10077518224716187 -0.01061641238629818 0.6899224519729614
-0.10077518224716187 -0.007928299717605114 0.7054263353347778
-0.10077518224716187 0.0006574578583240509 0.7054263353347778
-0.10077518224716187 0.011712860316038132 -0.6899224519729614
-0.10077518224716187 0.021246029064059258 -0.674418568611145
-0.10077518224716187 0.02255086414515972 0.6434108018875122
-0.10077518224716187 0.01779160648584366 0.6589146852493286
-0.10077518224716187 0.015508560463786125 0.674418568611145
-0.10077518224716187 0.011958982795476913 0.6899224519729614
-0.10077518224716187 0.026160530745983124 -0.6589146852493286
-0.10077518224716187 0.032330065965652466 -0.643410861492157
-0.10077518224716187 0.03839157894253731 -0.6279069781303406
-0.10077518224716187 0.03462781012058258 0.5503876209259033
-0.10077518224716187 0.03212977200746536 0.5658915042877197
-0.10077518224716187 0.03067861869931221 0.5813953876495361
-0.10077518224716187 0.029529094696044922 0.5968992710113525
-0.10077518224716187 0.02788272127509117 0.612403154373169
-0.10077518969774246 0.025689557194709778 0.6279069781303406
-0.10077518224716187 0.044104382395744324 -0.6124030947685242
-0.10077518224716187 0.0502537339925766 -0.5968992114067078
-0.10077518224716187 0.0524556003510952 0.4418604373931885
-0.10077518224716187 0.04888974130153656 0.4573643207550049
-0.10077518224716187 0.046750329434871674 0.4728682041168213
-0.10077518224716187 0.04495152831077576 0.4883720874786377
-0.10077518224716187 0.0431978739798069 0.5038759708404541
-0.10077518224716187 0.04135645180940628 0.5193798542022705
-0.10077518969774246 0.039111871272325516 0.5348837375640869
-0.10077518224716187 0.058557987213134766 -0.5813953876495361
-0.10077518224716187 0.06500519812107086 0.39534878730773926
-0.10077518224716187 0.05981610715389252 0.41085267066955566
-0.10077518224716187 0.056167639791965485 0.42635655403137207
-0.10077517479658127 0.07166357338428497 -0.5658915042877197
-0.10077518224716187 0.0759972557425499 0.37984490394592285
-0.10077517479658127 0.08561559021472931 -0.5503876209259033
-0.10077518224716187 0.09817225486040115 -0.5348837375640869
-0.10077518224716187 0.09652116894721985 0.3488372564315796
-0.10077518224716187 0.0863838642835617 0.364341139793396
-0.10077518224716187 0.11053046584129333 -0.5193798542022705
-0.10077518224716187 0.10870324075222015 0.3333333730697632
-0.10077518224716187 0.12266821414232254 -0.5038759708404541
-0.10077518224716187 0.13160036504268646 0.30232560634613037
-0.10077518224716187 0.12119380384683609 0.3178294897079468
-0.10077518224716187 0.13328009843826294 -0.4883720874786377
-0.10077518224716187 0.14271262288093567 -0.4728682041168213
-0.10077518224716187 0.14052832126617432 0.28682172298431396
-0.10077518224716187 0.15287204086780548 -0.4573643207550049
-0.10077518224716187 0.16131658852100372 -0.4418604373931885
-0.10077518224716187 0.15662939846515656 0.25581395626068115
-0.10077518224716187 0.14979195594787598 0.27131783962249756
-0.10077518224716187 0.17083993554115295 -0.42635661363601685
-0.10077518224716187 0.17181572318077087 0.22480618953704834
-0.10077518224716187 0.16539597511291504 0.24031007289886475
-0.10077518224716187 0.18034596741199493 -0.41085273027420044
-0.10077518224716187 0.1884072870016098 -0.39534884691238403
-0.10077518224716187 0.19164466857910156 0.17829453945159912
-0.10077518224716187 0.18646647036075592 0.19379842281341553
-0.10077518224716187 0.17929039895534515 0.20930230617523193
-0.10077518224716187 0.19736620783805847 -0.3798449635505676
-0.10077518224716187 0.20416268706321716 -0.3643410801887512
-0.10077518224716187 0.20641273260116577 0.1317828893661499
-0.10077518224716187 0.20285408198833466 0.1472867727279663
-0.10077518224716187 0.1985604465007782 0.16279065608978271
-0.10077518224716187 0.21145975589752197 -0.3488371968269348
-0.10077518224716187 0.21650530397891998 -0.3333333134651184
-0.10077518224716187 0.22396552562713623 -0.038759708404541016
-0.10077518224716187 0.22278529405593872 -0.02325582504272461
-0.10077518224716187 0.2220437228679657 -0.007751941680908203
-0.10077518224716187 0.22185850143432617 0.007751941680908203
-0.10077518224716187 0.22181802988052368 0.02325582504272461
-0.10077518224716187 0.22156965732574463 0.038759708404541016
-0.10077518224716187 0.2209990918636322 0.05426359176635742
-0.10077518224716187 0.22006072103977203 0.06976747512817383
-0.10077518224716187 0.21874481439590454 0.08527135848999023
-0.10077518224716187 0.21647754311561584 0.10077524185180664
-0.10077518224716187 0.21232463419437408 0.11627912521362305
-0.10077518224716187 0.2249956578016281 -0.317829430103302
-0.10077518224716187 0.226238414645195 -0.30232560634613037
-0.10077518224716187 0.22696897387504578 -0.28682172298431396
-0.10077518224716187 0.22717638313770294 -0.27131783962249756
-0.10077518224716187 0.22704723477363586 -0.25581395626068115
-0.10077518224716187 0.22653870284557343 -0.24031007289886475
-0.10077517479658127 0.2260008156299591 -0.22480617463588715
-0.10077518224716187 0.22587168216705322 -0.20930229127407074
-0.10077517479658127 0.22621779143810272 -0.19379842281341553
-0.10077518224716187 0.22682824730873108 -0.1782945990562439
-0.10077518224716187 0.22750219702720642 -0.1627907156944275
-0.10077518224716187 0.2281026393175125 -0.14728683233261108
-0.10077518224716187 0.22833669185638428 -0.13178294897079468
-0.10077518224716187 0.2285776138305664 -0.11627906560897827
-0.10077518224716187 0.22821789979934692 -0.10077518224716187
-0.10077518969774246 0.22783401608467102 -0.08527129888534546
-0.10077518969774246 0.22696265578269958 -0.06976741552352905
-0.10077518224716187 0.22561681270599365 -0.05426359176635742
-0.08527129888534546 -0.22496142983436584 -0.27131783962249756
-0.08527129888534546 -0.2250857651233673 -0.25581395626068115
-0.08527129888534546 -0.22506940364837646 -0.24031007289886475
