-0.08527129888534546 0.7209302186965942 -0.15152931213378906
-0.08527129888534546 0.7209302186965942 -0.1016979068517685
-0.08527129888534546 0.7209302186965942 0.112952321767807
-0.08527129888534546 0.7209302186965942 0.1721297800540924
-0.08527129888534546 0.7364341020584106 -0.14033815264701843
-0.08527129888534546 0.7364341020584106 -0.09295086562633514
-0.08527129888534546 0.7364341020584106 0.10429958254098892
-0.08527129143476486 0.7364341020584106 0.165541872382164
-0.08527129888534546 0.751937985420227 -0.13329777121543884
-0.08527129888534546 0.751937985420227 -0.08752128481864929
-0.08527129888534546 0.751937985420227 0.0883389562368393
-0.08527129888534546 0.751937985420227 0.16051386296749115
-0.08527129888534546 0.7674418687820435 -0.12521786987781525
-0.08527129888534546 0.7674418687820435 -0.08104357123374939
-0.08527129888534546 0.7674418687820435 0.06812431663274765
-0.08527129888534546 0.7674418687820435 0.1551406979560852
-0.08527129888534546 0.7829457521438599 -0.1188715398311615
-0.08527129888534546 0.7829457521438599 -0.07276375591754913
-0.08527129888534546 0.7829457521438599 0.05529027432203293
-0.08527129888534546 0.7829457521438599 0.14828968048095703
-0.08527129888534546 0.7984496355056763 -0.1130625531077385
-0.08527129888534546 0.7984496355056763 -0.06260247528553009
-0.08527129888534546 0.7984496355056763 0.042368702590465546
-0.08527129888534546 0.7984496355056763 0.14313967525959015
-0.08527129888534546 0.8139535188674927 -0.10544534027576447
-0.08527129888534546 0.8139535188674927 -0.050202153623104095
-0.08527129888534546 0.8139535188674927 0.026950988918542862
-0.08527129888534546 0.8139535188674927 0.13541409373283386
-0.08527129888534546 0.8294574022293091 -0.09938383102416992
-0.08527129888534546 0.8294574022293091 -0.026179203763604164
-0.08527129888534546 0.8294574022293091 -0.0018707739654928446
-0.08527129888534546 0.8294574022293091 0.1300520896911621
-0.08527129888534546 0.8449612855911255 -0.09106291830539703
-0.08527129888534546 0.8449612855911255 0.12433786690235138
-0.08527129888534546 0.8604651689529419 -0.08297513425350189
-0.08527129888534546 0.8604651689529419 0.11812034994363785
-0.08527129888534546 0.8759689331054688 -0.0721682608127594
-0.08527129888534546 0.8759689331054688 0.11298860609531403
-0.08527129888534546 0.8914728164672852 -0.060709401965141296
-0.08527129888534546 0.8914727568626404 0.10213961452245712
-0.08527129888534546 0.9069766998291016 -0.045720115303993225
-0.08527129888534546 0.9069766998291016 0.08914969116449356
-0.08527129888534546 0.922480583190918 -0.02327011711895466
-0.08527129888534546 0.922480583190918 0.06986726820468903
-0.06976741552352905 -0.9844961166381836 -0.1668228805065155
-0.06976741552352905 -0.9844961166381836 -0.16200034320354462
-0.06976741552352905 -0.9689922332763672 -0.2424161732196808
-0.06976741552352905 -0.9689922332763672 -0.1217857301235199
-0.06976741552352905 -0.9534883499145508 -0.3316044211387634
-0.06976741552352905 -0.9534883499145508 -0.07718133181333542
-0.06976741552352905 -0.9379844665527344 -0.3755245804786682
-0.06976741552352905 -0.9379844665527344 -0.03648213669657707
-0.06976741552352905 -0.9224806427955627 -0.41176116466522217
-0.06976741552352905 -0.9224806427955627 -0.006231941282749176
-0.06976741552352905 -0.9069766998291016 -0.4480622410774231
-0.06976741552352905 -0.9069767594337463 0.022258786484599113
-0.06976741552352905 -0.8914728164672852 -0.47736120223999023
-0.06976741552352905 -0.8914728760719299 -0.28847527503967285
-0.06976741552352905 -0.8914729356765747 -0.06527034938335419
-0.06976741552352905 -0.8914728760719299 0.050906725227832794
-0.06976741552352905 -0.8759689927101135 -0.49633097648620605
-0.06976741552352905 -0.8759690523147583 -0.3127695918083191
-0.06976741552352905 -0.8759689927101135 -0.035443015396595
-0.06976741552352905 -0.8759689927101135 0.07823009788990021
-0.06976741552352905 -0.8604651093482971 -0.5108214616775513
-0.06976741552352905 -0.8604651093482971 -0.3254963755607605
-0.06976741552352905 -0.8604651093482971 -0.016743464395403862
-0.06976741552352905 -0.8604651689529419 0.10335491597652435
-0.06976741552352905 -0.8449612259864807 -0.5225334763526917
-0.06976741552352905 -0.8449612855911255 -0.3364757299423218
-0.06976741552352905 -0.8449611663818359 -0.0028866606298834085
-0.06976741552352905 -0.8449612259864807 0.12769445776939392
-0.06976741552352905 -0.8294573426246643 -0.5332489609718323
-0.06976741552352905 -0.8294573426246643 -0.35112497210502625
-0.06976741552352905 -0.8294573426246643 0.006729564629495144
-0.06976741552352905 -0.8294573426246643 0.14843200147151947
-0.06976741552352905 -0.8139535188674927 -0.5399025678634644
-0.06976741552352905 -0.8139535188674927 -0.3809353709220886
-0.06976741552352905 -0.8139535188674927 0.013843974098563194
-0.06976741552352905 -0.8139535188674927 0.17075499892234802
-0.06976741552352905 -0.7984496355056763 -0.545383095741272
-0.06976741552352905 -0.798449695110321 -0.42153096199035645
-0.06976741552352905 -0.7984496355056763 0.017985569313168526
-0.06976741552352905 -0.7984496355056763 0.19009053707122803
-0.06976741552352905 -0.7829457521438599 -0.547065258026123
-0.06976741552352905 -0.7829457521438599 -0.44495442509651184
-0.06976741552352905 -0.7829457521438599 0.02280217595398426
-0.06976741552352905 -0.7829457521438599 0.20656582713127136
-0.06976741552352905 -0.7674418687820435 -0.5474005341529846
-0.06976741552352905 -0.7674418687820435 -0.46047836542129517
-0.06976741552352905 -0.7674418687820435 0.036673836410045624
-0.06976741552352905 -0.7674418687820435 0.22320936620235443
-0.06976741552352905 -0.751937985420227 -0.5475323796272278
-0.06976741552352905 -0.751937985420227 -0.4712367057800293
-0.06976741552352905 -0.751937985420227 0.07014971226453781
-0.06976741552352905 -0.751937985420227 0.2389935702085495
-0.06976741552352905 -0.7364341020584106 -0.5473361611366272
-0.06976741552352905 -0.7364341020584106 -0.47763410210609436
-0.06976741552352905 -0.7364341020584106 0.16349713504314423
-0.06976741552352905 -0.7364341020584106 0.25499147176742554
-0.06976741552352905 -0.7209302186965942 -0.5470717549324036
-0.06976741552352905 -0.7209302186965942 -0.4827433228492737
-0.06976741552352905 -0.7209302186965942 0.1869071125984192
-0.06976741552352905 -0.7209302186965942 0.27087268233299255
-0.06976741552352905 -0.7054263353347778 -0.5469555854797363
-0.06976741552352905 -0.7054263353347778 -0.48555389046669006
-0.06976741552352905 -0.7054263353347778 0.20593227446079254
-0.06976741552352905 -0.7054263353347778 0.28729262948036194
-0.06976741552352905 -0.6899224519729614 -0.5469582080841064
-0.06976741552352905 -0.6899224519729614 -0.4841564893722534
-0.06976741552352905 -0.6899224519729614 0.2223179191350937
-0.06976741552352905 -0.6899224519729614 0.30445486307144165
-0.06976741552352905 -0.674418568611145 -0.5469697117805481
-0.06976741552352905 -0.674418568611145 -0.48113077878952026
-0.06976741552352905 -0.674418568611145 0.2349587082862854
-0.06976741552352905 -0.674418568611145 0.31929218769073486
-0.06976741552352905 -0.6589146852493286 -0.5467327237129211
-0.06976741552352905 -0.6589146852493286 -0.47921502590179443
-0.06976741552352905 -0.6589146852493286 0.2461397349834442
-0.06976741552352905 -0.6589146852493286 0.33298203349113464
-0.06976741552352905 -0.643410861492157 -0.5459413528442383
-0.06976741552352905 -0.643410861492157 -0.4751352071762085
-0.06976741552352905 -0.643410861492157 0.25260573625564575
-0.06976741552352905 -0.643410861492157 0.346292108297348
-0.06976741552352905 -0.6279069781303406 -0.5441467761993408
-0.06976741552352905 -0.6279069781303406 -0.46314311027526855
-0.06976741552352905 -0.6279070377349854 0.2550712525844574
-0.06976741552352905 -0.6279069781303406 0.3580514192581177
-0.06976741552352905 -0.6124030947685242 -0.5390651822090149
-0.06976741552352905 -0.6124030947685242 -0.429923415184021
-0.06976741552352905 -0.6124030947685242 0.2529194951057434
-0.06976741552352905 -0.6124030947685242 0.368663489818573
-0.06976741552352905 -0.5968992114067078 -0.5304052233695984
-0.06976741552352905 -0.5968992114067078 -0.38804566860198975
-0.06976741552352905 -0.5968992114067078 0.24844610691070557
-0.06976741552352905 -0.5968992114067078 0.3797455132007599
-0.06976741552352905 -0.5813953876495361 -0.521145761013031
-0.06976741552352905 -0.5813953876495361 -0.35755276679992676
-0.06976741552352905 -0.5813953876495361 0.2423090636730194
-0.06976741552352905 -0.5813953876495361 0.39326339960098267
-0.06976741552352905 -0.5658915042877197 -0.5113806128501892
-0.06976741552352905 -0.5658915042877197 -0.32993245124816895
-0.06976741552352905 -0.5658915042877197 0.23678377270698547
-0.06976741552352905 -0.5658915042877197 0.40712544322013855
-0.06976741552352905 -0.5503876209259033 -0.5033679604530334
-0.06976741552352905 -0.5503876209259033 -0.32287830114364624
-0.06976741552352905 -0.5503876209259033 0.23166288435459137
-0.06976741552352905 -0.5503876209259033 0.41870883107185364
-0.06976741552352905 -0.5348837375640869 -0.4926336407661438
-0.06976741552352905 -0.5348837375640869 -0.3182103633880615
-0.06976740807294846 -0.5348837375640869 0.2253124713897705
-0.06976741552352905 -0.5348837375640869 0.4259139597415924
-0.06976741552352905 -0.5193798542022705 -0.48605817556381226
-0.06976741552352905 -0.5193798542022705 -0.3178459107875824
-0.06976741552352905 -0.5193798542022705 0.21888911724090576
-0.06976741552352905 -0.5193798542022705 0.4314503073692322
-0.06976741552352905 -0.5038759708404541 -0.4821215271949768
-0.06976741552352905 -0.5038759708404541 -0.365694135427475
-0.06976741552352905 -0.5038759708404541 0.21374386548995972
-0.06976741552352905 -0.5038759708404541 0.436592698097229
-0.06976741552352905 -0.4883720576763153 -0.48326635360717773
-0.06976741552352905 -0.4883720874786377 -0.3938707411289215
-0.06976741552352905 -0.4883720874786377 0.2126850038766861
-0.06976741552352905 -0.4883720576763153 0.4420658349990845
-0.06976741552352905 -0.4728682041168213 -0.4868534207344055
-0.06976741552352905 -0.4728682041168213 -0.40976017713546753
-0.06976741552352905 -0.4728681743144989 0.21636243164539337
-0.06976741552352905 -0.4728682041168213 0.45026516914367676
-0.06976741552352905 -0.4573643207550049 -0.48928579688072205
-0.06976741552352905 -0.4573643207550049 -0.4199300706386566
-0.06976741552352905 -0.4573643207550049 0.2238655686378479
-0.06976741552352905 -0.4573643207550049 0.4583679735660553
-0.06976741552352905 -0.4418604373931885 -0.49222415685653687
-0.06976741552352905 -0.4418604075908661 -0.42317110300064087
-0.06976741552352905 -0.4418604373931885 0.23951227962970734
-0.06976741552352905 -0.4418604373931885 0.4679045081138611
-0.06976741552352905 -0.42635661363601685 -0.5005792379379272
-0.06976741552352905 -0.42635661363601685 -0.4226599931716919
-0.06976741552352905 -0.42635661363601685 0.3209456205368042
-0.06976741552352905 -0.42635661363601685 0.4787404537200928
-0.06976741552352905 -0.41085273027420044 -0.5072683691978455
-0.06976741552352905 -0.41085273027420044 -0.4181241989135742
-0.06976741552352905 -0.41085273027420044 0.3399629294872284
-0.06976741552352905 -0.41085273027420044 0.4887199103832245
-0.06976741552352905 -0.39534884691238403 -0.5145986080169678
-0.06976741552352905 -0.39534881711006165 -0.4090232849121094
-0.06976741552352905 -0.39534884691238403 0.35463154315948486
-0.06976741552352905 -0.39534884691238403 0.4990957975387573
-0.06976741552352905 -0.3798449635505676 -0.5197581648826599
-0.06976741552352905 -0.3798449635505676 -0.39782020449638367
-0.06976741552352905 -0.3798449635505676 0.36874884366989136
-0.06976741552352905 -0.3798449635505676 0.5081322193145752
-0.06976741552352905 -0.3643410801887512 -0.5211887955665588
-0.06976741552352905 -0.3643410801887512 -0.31726232171058655
-0.06976741552352905 -0.3643410801887512 0.3822399377822876
-0.06976741552352905 -0.3643410801887512 0.5141937732696533
-0.06976741552352905 -0.3488371968269348 -0.521756112575531
-0.06976741552352905 -0.3488371968269348 -0.31486383080482483
-0.06976740807294846 -0.3488371670246124 0.3962816894054413
-0.06976741552352905 -0.3488372266292572 0.5196055173873901
-0.06976741552352905 -0.3333333134651184 -0.5216764211654663
-0.06976741552352905 -0.3333333134651184 -0.32053035497665405
-0.06976741552352905 -0.3333333134651184 0.410402774810791
-0.06976741552352905 -0.3333333134651184 0.5239132642745972
-0.06976741552352905 -0.317829430103302 -0.5211370587348938
-0.06976741552352905 -0.317829430103302 -0.32946550846099854
-0.06976741552352905 -0.317829430103302 0.42188403010368347
-0.06976741552352905 -0.317829430103302 0.5275148153305054
-0.06976741552352905 -0.30232560634613037 -0.5206273198127747
-0.06976741552352905 -0.30232560634613037 -0.3344694972038269
-0.06976741552352905 -0.30232560634613037 0.4296102225780487
-0.06976741552352905 -0.30232560634613037 0.5305118560791016
-0.06976741552352905 -0.28682172298431396 -0.5204394459724426
-0.06976741552352905 -0.28682172298431396 -0.3339596390724182
-0.06976741552352905 -0.28682172298431396 0.4338894784450531
-0.06976741552352905 -0.28682172298431396 0.5323961973190308
-0.06976741552352905 -0.27131783962249756 -0.5201979279518127
-0.06976741552352905 -0.27131783962249756 -0.3348747193813324
-0.06976741552352905 -0.27131783962249756 0.43499597907066345
-0.06976741552352905 -0.27131783962249756 0.5351995825767517
-0.06976741552352905 -0.25581395626068115 -0.5197001099586487
-0.06976741552352905 -0.25581395626068115 -0.34104859828948975
-0.06976741552352905 -0.25581395626068115 0.4333530068397522
-0.06976741552352905 -0.25581395626068115 0.5375739336013794
-0.06976741552352905 -0.24031007289886475 -0.5180290341377258
-0.06976741552352905 -0.24031007289886475 -0.34718969464302063
-0.06976741552352905 -0.24031007289886475 0.4300249516963959
-0.06976741552352905 -0.24031008780002594 0.5401321053504944
-0.06976741552352905 -0.22480618953704834 -0.5141092538833618
-0.06976741552352905 -0.22480618953704834 -0.3489597737789154
-0.06976741552352905 -0.22480618953704834 0.42547503113746643
-0.06976741552352905 -0.22480618953704834 0.5420714616775513
-0.06976741552352905 -0.20930230617523193 -0.513159990310669
-0.06976741552352905 -0.20930230617523193 -0.3488936126232147
-0.06976741552352905 -0.20930230617523193 0.42040660977363586
-0.06976741552352905 -0.20930230617523193 0.5429902076721191
-0.06976741552352905 -0.19379840791225433 -0.5188944935798645
-0.06976741552352905 -0.19379842281341553 -0.35176706314086914
-0.06976741552352905 -0.19379842281341553 0.4183266758918762
-0.06976741552352905 -0.19379842281341553 0.5430700182914734
-0.06976741552352905 -0.1782945990562439 -0.5220763683319092
-0.06976741552352905 -0.1782945990562439 -0.35527923703193665
-0.06976741552352905 -0.1782945990562439 0.4197229743003845
-0.06976741552352905 -0.1782945990562439 0.5420417785644531
-0.06976741552352905 -0.1627907156944275 -0.525833010673523
-0.06976741552352905 -0.1627907156944275 -0.36137527227401733
-0.06976741552352905 -0.1627907156944275 0.4225268065929413
-0.06976741552352905 -0.1627907156944275 0.5407429933547974
-0.06976741552352905 -0.14728683233261108 -0.5290681719779968
-0.06976741552352905 -0.14728683233261108 -0.3674613833427429
-0.06976741552352905 -0.14728683233261108 0.4257577955722809
-0.06976741552352905 -0.14728683233261108 0.5394508242607117
-0.06976741552352905 -0.13178294897079468 -0.5309627652168274
-0.06976741552352905 -0.13178294897079468 -0.3697012662887573
-0.06976741552352905 -0.13178294897079468 0.4277290999889374
-0.06976741552352905 -0.13178294897079468 0.5384921431541443
-0.06976741552352905 -0.11627906560897827 -0.5319501161575317
-0.06976741552352905 -0.11627906560897827 -0.37058746814727783
-0.06976741552352905 -0.11627906560897827 0.43002885580062866
-0.06976741552352905 -0.11627906560897827 0.5382822751998901
-0.06976741552352905 -0.10077518224716187 -0.5319640636444092
-0.06976741552352905 -0.10077518224716187 -0.3710082173347473
-0.06976741552352905 -0.10077518224716187 0.43002671003341675
-0.06976741552352905 -0.10077518224716187 0.5386962890625
-0.06976741552352905 -0.08527129888534546 -0.5320141911506653
-0.06976741552352905 -0.08527129888534546 -0.373237669467926
-0.06976741552352905 -0.08527129143476486 0.428455650806427
-0.06976741552352905 -0.08527129888534546 0.5395650267601013
-0.06976741552352905 -0.06976741552352905 -0.5327174663543701
-0.06976741552352905 -0.06976741552352905 -0.3765767514705658
-0.06976741552352905 -0.06976741552352905 0.42663702368736267
-0.06976741552352905 -0.06976741552352905 0.5409352779388428
-0.06976741552352905 -0.05426358804106712 -0.5335269570350647
-0.06976741552352905 -0.05426359176635742 -0.382016658782959
-0.06976741552352905 -0.05426359176635742 0.42583540081977844
-0.06976741552352905 -0.05426359176635742 0.5422520637512207
-0.06976741552352905 -0.038759708404541016 -0.5343847274780273
-0.06976741552352905 -0.038759708404541016 -0.38900262117385864
-0.06976741552352905 -0.038759708404541016 0.4273667633533478
-0.06976741552352905 -0.038759708404541016 0.5429115891456604
-0.06976741552352905 -0.02325582504272461 -0.5350310206413269
-0.06976741552352905 -0.02325582504272461 -0.3946487009525299
-0.06976741552352905 -0.02325582504272461 0.43201136589050293
-0.06976741552352905 -0.02325582504272461 0.5434374213218689
-0.06976741552352905 -0.007751941680908203 -0.5352104902267456
-0.06976741552352905 -0.007751941680908203 -0.39742788672447205
-0.06976741552352905 -0.007751941680908203 0.4349186420440674
-0.06976741552352905 -0.007751941680908203 0.5438086986541748
-0.06976741552352905 0.007751941680908203 -0.5351441502571106
-0.06976741552352905 0.007751941680908203 -0.3982214033603668
-0.06976741552352905 0.007751941680908203 0.4355889558792114
-0.06976741552352905 0.007751941680908203 0.5441875457763672
-0.06976741552352905 0.02325582504272461 -0.5349265933036804
-0.06976741552352905 0.02325582504272461 -0.3931572735309601
-0.06976741552352905 0.02325582504272461 0.43417924642562866
-0.06976741552352905 0.02325582504272461 0.5447263121604919
-0.06976741552352905 0.038759708404541016 -0.5342534780502319
-0.06976741552352905 0.038759708404541016 -0.38483160734176636
-0.06976741552352905 0.038759708404541016 0.4312472939491272
-0.06976741552352905 0.038759708404541016 0.5454234480857849
-0.06976741552352905 0.05426359176635742 -0.5339160561561584
-0.06976741552352905 0.05426359176635742 -0.3747340440750122
-0.06976741552352905 0.05426359176635742 0.4298112690448761
-0.06976741552352905 0.05426359176635742 0.5464587807655334
-0.06976741552352905 0.06976747512817383 -0.5333502888679504
-0.06976741552352905 0.06976747512817383 -0.36901968717575073
-0.06976741552352905 0.06976747512817383 0.42807286977767944
-0.06976741552352905 0.06976747512817383 0.548114538192749
-0.06976741552352905 0.08527135848999023 -0.5328006744384766
-0.06976741552352905 0.08527135848999023 -0.3748432695865631
-0.06976741552352905 0.08527135848999023 0.42685139179229736
-0.06976741552352905 0.08527135848999023 0.5502466559410095
-0.06976741552352905 0.10077523440122604 -0.5328337550163269
-0.06976741552352905 0.10077524185180664 -0.423788845539093
-0.06976741552352905 0.10077524185180664 0.4252093434333801
-0.06976742297410965 0.10077524185180664 0.5515568256378174
-0.06976741552352905 0.11627912521362305 -0.5329052209854126
-0.06976741552352905 0.11627912521362305 -0.43772709369659424
-0.06976741552352905 0.11627912521362305 0.4239619970321655
-0.06976741552352905 0.11627912521362305 0.5523917078971863
-0.06976741552352905 0.1317828893661499 -0.5324133634567261
-0.06976741552352905 0.1317828893661499 -0.4331096410751343
-0.06976741552352905 0.1317828893661499 0.42250388860702515
-0.06976741552352905 0.1317828893661499 0.5527254343032837
-0.06976741552352905 0.1472867727279663 -0.5320844054222107
-0.06976741552352905 0.1472867727279663 -0.40385574102401733
-0.06976741552352905 0.1472867727279663 0.42106983065605164
-0.06976741552352905 0.1472867727279663 0.5528246760368347
-0.06976741552352905 0.16279065608978271 -0.532013475894928
-0.06976741552352905 0.16279065608978271 -0.36970025300979614
-0.06976741552352905 0.16279065608978271 0.417522132396698
-0.06976741552352905 0.16279065608978271 0.5527751445770264
-0.06976741552352905 0.17829453945159912 -0.5322529077529907
-0.06976741552352905 0.17829453945159912 -0.3650069832801819
-0.06976741552352905 0.17829453945159912 0.4063619375228882
-0.06976741552352905 0.17829453945159912 0.5524871349334717
-0.06976741552352905 0.19379842281341553 -0.5325667858123779
-0.06976741552352905 0.19379842281341553 -0.3692138195037842
-0.06976741552352905 0.19379840791225433 0.39592245221138
-0.06976741552352905 0.19379842281341553 0.5520554780960083
-0.06976741552352905 0.20930230617523193 -0.5328583717346191
-0.06976741552352905 0.20930230617523193 -0.37303900718688965
-0.06976741552352905 0.20930230617523193 0.3828776180744171
-0.06976741552352905 0.20930230617523193 0.5513463020324707
-0.06976741552352905 0.22480618953704834 -0.5333086848258972
-0.06976741552352905 0.22480618953704834 -0.3753066956996918
-0.06976741552352905 0.22480618953704834 0.36407214403152466
-0.06976741552352905 0.22480618953704834 0.550024688243866
-0.06976741552352905 0.24031007289886475 -0.5335801243782043
-0.06976741552352905 0.24031007289886475 -0.3750626742839813
-0.06976741552352905 0.24031007289886475 0.3471924066543579
-0.06976741552352905 0.24031007289886475 0.5473456978797913
-0.06976741552352905 0.25581395626068115 -0.5337352752685547
-0.06976741552352905 0.25581395626068115 -0.372278094291687
-0.06976741552352905 0.25581395626068115 0.33428826928138733
-0.06976741552352905 0.25581395626068115 0.5452332496643066
-0.06976741552352905 0.27131783962249756 -0.5340578556060791
-0.06976741552352905 0.27131783962249756 -0.36918905377388
-0.06976741552352905 0.27131783962249756 0.32822680473327637
-0.06976741552352905 0.27131783962249756 0.5426479578018188
-0.06976741552352905 0.28682172298431396 -0.5345048904418945
-0.06976741552352905 0.28682172298431396 -0.3662485182285309
-0.06976741552352905 0.28682172298431396 0.3244338631629944
-0.06976741552352905 0.28682172298431396 0.5397068858146667
-0.06976741552352905 0.30232560634613037 -0.5351040363311768
-0.06976741552352905 0.30232560634613037 -0.3615313172340393
-0.06976741552352905 0.30232560634613037 0.3141334652900696
-0.06976741552352905 0.30232560634613037 0.5365444421768188
-0.06976741552352905 0.3178294897079468 -0.5361047387123108
-0.06976741552352905 0.3178294897079468 -0.3578019440174103
-0.06976741552352905 0.3178294897079468 0.30769622325897217
-0.06976741552352905 0.3178294897079468 0.5330699682235718
-0.06976741552352905 0.3333333730697632 -0.5374357104301453
-0.06976741552352905 0.3333333730697632 -0.3519793152809143
-0.06976741552352905 0.3333333730697632 0.2948252558708191
-0.06976741552352905 0.3333333730697632 0.5298975110054016
-0.06976741552352905 0.3488372564315796 -0.5383570790290833
-0.06976741552352905 0.3488372564315796 -0.34022778272628784
-0.06976741552352905 0.3488372564315796 0.2737535834312439
-0.06976741552352905 0.3488372564315796 0.5249209403991699
-0.06976741552352905 0.364341139793396 -0.5377378463745117
-0.06976741552352905 0.364341139793396 -0.321541428565979
-0.06976741552352905 0.3643411695957184 0.2564505934715271
-0.06976741552352905 0.364341139793396 0.5191256403923035
-0.06976741552352905 0.37984490394592285 -0.5343958735466003
-0.06976741552352905 0.37984490394592285 -0.3012188673019409
-0.06976741552352905 0.37984490394592285 0.24536915123462677
-0.06976741552352905 0.37984490394592285 0.5132138133049011
-0.06976741552352905 0.39534878730773926 -0.5233932733535767
-0.06976741552352905 0.39534878730773926 -0.2814134955406189
-0.06976741552352905 0.39534878730773926 0.2399049997329712
-0.06976741552352905 0.39534878730773926 0.5055122971534729
-0.06976741552352905 0.41085267066955566 -0.4888722896575928
-0.06976741552352905 0.41085267066955566 -0.26472407579421997
-0.06976741552352905 0.41085267066955566 0.23640257120132446
-0.06976741552352905 0.41085267066955566 0.49923861026763916
-0.06976741552352905 0.42635655403137207 -0.3745043873786926
-0.06976741552352905 0.4263565242290497 -0.25303465127944946
-0.06976741552352905 0.42635655403137207 0.23172931373119354
-0.06976741552352905 0.4263565242290497 0.4907611012458801
-0.06976741552352905 0.4418604373931885 -0.33511731028556824
-0.06976741552352905 0.4418604373931885 -0.24444687366485596
-0.06976741552352905 0.4418604373931885 0.2220849245786667
-0.06976741552352905 0.4418604373931885 0.4841959476470947
-0.06976741552352905 0.4573643207550049 -0.3185241222381592
-0.06976741552352905 0.4573643207550049 -0.23927941918373108
-0.06976741552352905 0.4573643207550049 0.20911578834056854
-0.06976741552352905 0.4573643207550049 0.47500693798065186
-0.06976741552352905 0.4728682041168213 -0.3112204670906067
-0.06976741552352905 0.4728682041168213 -0.23469063639640808
-0.06976741552352905 0.4728682041168213 0.18901732563972473
-0.06976741552352905 0.4728682041168213 0.4669419229030609
-0.06976741552352905 0.4883720874786377 -0.3097494840621948
-0.06976741552352905 0.4883720874786377 -0.2358381748199463
-0.06976741552352905 0.4883720874786377 0.1725090742111206
-0.06976741552352905 0.4883720874786377 0.4565069079399109
-0.06976741552352905 0.5038759708404541 -0.31167227029800415
-0.06976741552352905 0.5038759708404541 -0.24022118747234344
-0.06976741552352905 0.5038759708404541 0.15968090295791626
-0.06976741552352905 0.5038759708404541 0.4467269778251648
-0.06976741552352905 0.5193798542022705 -0.31430497765541077
-0.06976741552352905 0.5193798542022705 -0.24439066648483276
-0.06976741552352905 0.5193798542022705 0.14927169680595398
-0.06976741552352905 0.5193798542022705 0.4355733394622803
-0.06976741552352905 0.5348837375640869 -0.3166652023792267
-0.06976741552352905 0.5348837375640869 -0.24718157947063446
-0.06976741552352905 0.5348837375640869 0.1395280361175537
-0.06976741552352905 0.5348837375640869 0.42276284098625183
-0.06976741552352905 0.5503876209259033 -0.31515535712242126
-0.06976741552352905 0.5503876209259033 -0.24845004081726074
-0.06976741552352905 0.5503876209259033 0.13607554137706757
-0.06976741552352905 0.5503876209259033 0.40726539492607117
-0.06976741552352905 0.5658915042877197 -0.30756860971450806
-0.06976741552352905 0.5658915042877197 -0.2412749081850052
-0.06976741552352905 0.5658915042877197 0.1344698965549469
-0.06976741552352905 0.5658915042877197 0.3899466395378113
-0.06976741552352905 0.5813953876495361 -0.29872533679008484
-0.06976741552352905 0.5813953876495361 -0.16919487714767456
-0.06976741552352905 0.5813953876495361 0.1391209065914154
-0.06976741552352905 0.5813953876495361 0.37072664499282837
-0.06976741552352905 0.5968992710113525 -0.289867639541626
-0.06976741552352905 0.5968992710113525 -0.1512831449508667
-0.06976741552352905 0.5968992710113525 0.1448526382446289
-0.06976741552352905 0.5968992710113525 0.35020768642425537
-0.06976741552352905 0.612403154373169 -0.28618258237838745
-0.06976741552352905 0.612403154373169 -0.15295441448688507
-0.06976741552352905 0.612403154373169 0.14784884452819824
-0.06976741552352905 0.612403154373169 0.33075153827667236
-0.06976741552352905 0.6279069185256958 -0.2829042375087738
-0.06976741552352905 0.6279069185256958 -0.15628725290298462
-0.06976741552352905 0.6279069185256958 0.14729423820972443
-0.06976741552352905 0.6279069185256958 0.3111688494682312
-0.06976741552352905 0.6434108018875122 -0.27588343620300293
-0.06976741552352905 0.6434108018875122 -0.15448924899101257
-0.06976741552352905 0.6434108018875122 0.14316383004188538
-0.06976741552352905 0.6434108018875122 0.28767943382263184
-0.06976741552352905 0.6589146852493286 -0.26524728536605835
-0.06976741552352905 0.6589146852493286 -0.14870864152908325
-0.06976741552352905 0.6589146852493286 0.13880902528762817
-0.06976741552352905 0.6589146852493286 0.2606655955314636
-0.06976741552352905 0.674418568611145 -0.24686968326568604
-0.06976741552352905 0.674418568611145 -0.1373581737279892
-0.06976741552352905 0.6744185090065002 0.1344645768404007
-0.06976741552352905 0.674418568611145 0.2306801974773407
-0.06976741552352905 0.6899224519729614 -0.20511691272258759
-0.06976741552352905 0.6899224519729614 -0.12652596831321716
-0.06976741552352905 0.6899224519729614 0.13123562932014465
-0.06976741552352905 0.6899224519729614 0.20526815950870514
-0.06976741552352905 0.7054263353347778 -0.17543500661849976
-0.06976741552352905 0.7054263353347778 -0.11646968126296997
-0.06976741552352905 0.7054263353347778 0.1257586032152176
-0.06976741552352905 0.7054263353347778 0.18946047127246857
-0.06976741552352905 0.7209302186965942 -0.15670326352119446
-0.06976741552352905 0.7209302186965942 -0.10503330826759338
-0.06976741552352905 0.7209302186965942 0.1214086189866066
-0.06976741552352905 0.7209302186965942 0.17922087013721466
-0.06976741552352905 0.7364341020584106 -0.14525704085826874
-0.06976741552352905 0.7364341020584106 -0.09690112620592117
-0.06976741552352905 0.7364341020584106 0.11750558018684387
-0.06976741552352905 0.7364341020584106 0.17456917464733124
-0.06976741552352905 0.751937985420227 -0.13573676347732544
-0.06976741552352905 0.751937985420227 -0.09051486849784851
-0.06976741552352905 0.751937985420227 0.1070772111415863
-0.06976741552352905 0.751937985420227 0.1677655726671219
-0.06976741552352905 0.7674418687820435 -0.1292244791984558
-0.06976741552352905 0.7674418687820435 -0.08575747907161713
-0.06976741552352905 0.7674418687820435 0.08377707004547119
-0.06976741552352905 0.7674418687820435 0.16113409399986267
-0.06976741552352905 0.7829457521438599 -0.12141795456409454
-0.06976741552352905 0.7829457521438599 -0.0769612193107605
-0.06976741552352905 0.7829457521438599 0.06268597394227982
-0.06976741552352905 0.7829457521438599 0.1558443009853363
-0.06976741552352905 0.7984496355056763 -0.1170966699719429
-0.06976741552352905 0.7984496355056763 -0.07007019221782684
-0.06976741552352905 0.7984496355056763 0.04914293438196182
-0.06976741552352905 0.7984496355056763 0.14869529008865356
-0.06976741552352905 0.8139535188674927 -0.11045016348361969
-0.06976741552352905 0.8139535188674927 -0.05772794038057327
-0.06976741552352905 0.8139535188674927 0.03474590554833412
-0.06976741552352905 0.8139535188674927 0.1437126100063324
-0.06976741552352905 0.8294574022293091 -0.10385843366384506
-0.06976741552352905 0.8294574022293091 -0.04277004301548004
-0.06976741552352905 0.8294574022293091 0.01467561163008213
-0.06976741552352905 0.8294574022293091 0.1370932161808014
-0.06976741552352905 0.8449612855911255 -0.09796084463596344
-0.06976741552352905 0.8449612855911255 0.13232265412807465
-0.06976741552352905 0.8604651689529419 -0.09012310206890106
-0.06976741552352905 0.8604651689529419 0.1289445459842682
-0.06976741552352905 0.8759689331054688 -0.0821341872215271
-0.06976741552352905 0.8759689331054688 0.12351822853088379
-0.06976741552352905 0.8914728164672852 -0.07123184204101562
-0.06976741552352905 0.8914728164672852 0.11652825027704239
-0.06976741552352905 0.9069766998291016 -0.05969228968024254
-0.06976741552352905 0.9069766998291016 0.10786260664463043
-0.06976741552352905 0.922480583190918 -0.04395235329866409
-0.06976741552352905 0.922480583190918 0.09471236169338226
-0.06976741552352905 0.9379844665527344 -0.016777604818344116
-0.06976741552352905 0.9379844665527344 0.07245903462171555
-0.05426359176635742 -0.9844961166381836 -0.18373826146125793
-0.05426359176635742 -0.9844961166381836 -0.15044346451759338
-0.05426359176635742 -0.9689922332763672 -0.25718235969543457
-0.05426359176635742 -0.9689922332763672 -0.11589556932449341
-0.05426359176635742 -0.953488290309906 -0.34205472469329834
-0.05426359176635742 -0.9534883499145508 -0.06848250329494476
-0.05426359176635742 -0.9379844665527344 -0.38333383202552795
-0.05426359176635742 -0.9379844665527344 -0.030115768313407898
-0.05426359176635742 -0.922480583190918 -0.4208250641822815
-0.05426359176635742 -0.9224806427955627 -0.001176001038402319
-0.05426359176635742 -0.9069767594337463 -0.4569670557975769
-0.05426359176635742 -0.9069766998291016 -0.24652493000030518
-0.05426358804106712 -0.9069766998291016 -0.20404991507530212
-0.05426359176635742 -0.9069767594337463 0.02664848044514656
-0.05426359176635742 -0.8914728760719299 -0.48261594772338867
-0.05426359176635742 -0.8914728760719299 -0.2890157997608185
-0.05426359176635742 -0.8914728760719299 -0.0572541244328022
-0.05426359176635742 -0.8914728760719299 0.05604114755988121
-0.05426359176635742 -0.8759689927101135 -0.499991774559021
-0.05426359176635742 -0.8759689331054688 -0.3120635449886322
-0.05426359176635742 -0.8759689927101135 -0.030972549691796303
-0.05426359176635742 -0.8759689927101135 0.085161492228508
-0.05426359176635742 -0.8604651689529419 -0.5140335559844971
-0.05426359176635742 -0.8604651093482971 -0.3245489299297333
-0.05426359176635742 -0.8604650497436523 -0.013682921417057514
-0.05426359176635742 -0.8604651689529419 0.11022239923477173
-0.05426359176635742 -0.8449612259864807 -0.5253757238388062
-0.05426359176635742 -0.8449612259864807 -0.3347381055355072
-0.05426359176635742 -0.8449612259864807 -0.0006418053526431322
-0.05426359549164772 -0.8449612855911255 0.13226965069770813
-0.05426359176635742 -0.8294573426246643 -0.5348789691925049
-0.05426359176635742 -0.8294573426246643 -0.347578763961792
-0.05426359176635742 -0.8294573426246643 0.008906965143978596
-0.05426359176635742 -0.8294572830200195 0.15426507592201233
-0.05426359176635742 -0.8139535188674927 -0.5417598485946655
-0.05426359176635742 -0.8139535188674927 -0.3744557499885559
-0.05426359176635742 -0.8139535188674927 0.015616505406796932
-0.05426359176635742 -0.8139535188674927 0.17591728270053864
-0.05426359176635742 -0.7984496355056763 -0.5462509989738464
-0.05426359176635742 -0.7984496355056763 -0.41435733437538147
-0.05426359176635742 -0.7984496355056763 0.018936749547719955
-0.05426359176635742 -0.7984496355056763 0.19329862296581268
-0.05426359176635742 -0.7829457521438599 -0.5473703145980835
-0.05426359176635742 -0.7829457521438599 -0.44326454401016235
-0.05426359176635742 -0.7829457521438599 0.02306842990219593
-0.05426359176635742 -0.7829457521438599 0.21124720573425293
-0.05426359176635742 -0.7674418687820435 -0.5477332472801208
-0.05426359176635742 -0.7674418687820435 -0.46005070209503174
-0.05426359176635742 -0.7674418687820435 0.037926580756902695
-0.05426359176635742 -0.7674418687820435 0.22887322306632996
-0.05426359176635742 -0.751937985420227 -0.5478103756904602
-0.05426359176635742 -0.7519379258155823 -0.47166794538497925
-0.05426359176635742 -0.751937985420227 0.13635197281837463
-0.05426359176635742 -0.751937985420227 0.2447798103094101
-0.05426359176635742 -0.7364341020584106 -0.5475418567657471
-0.05426359176635742 -0.7364341020584106 -0.478760302066803
-0.05426359176635742 -0.7364341020584106 0.17057117819786072
-0.05426359549164772 -0.7364341020584106 0.2610287070274353
-0.05426359176635742 -0.7209302186965942 -0.5472138524055481
-0.05426359549164772 -0.720930278301239 -0.4854520857334137
-0.05426359176635742 -0.7209302186965942 0.1932639628648758
-0.05426359176635742 -0.7209302186965942 0.2772786319255829
-0.05426359176635742 -0.7054263353347778 -0.5470478534698486
-0.05426359176635742 -0.7054263353347778 -0.4890804588794708
-0.05426359176635742 -0.7054263949394226 0.2108762413263321
-0.05426359176635742 -0.7054263353347778 0.2938963770866394
-0.05426359176635742 -0.6899224519729614 -0.5470157861709595
-0.05426359176635742 -0.6899224519729614 -0.48863932490348816
-0.05426359176635742 -0.6899224519729614 0.22672851383686066
-0.05426359176635742 -0.6899224519729614 0.31035616993904114
-0.05426359176635742 -0.674418568611145 -0.5470091700553894
-0.05426359176635742 -0.674418568611145 -0.48501303791999817
-0.05426359176635742 -0.674418568611145 0.23932693898677826
-0.05426359176635742 -0.674418568611145 0.32508477568626404
-0.05426359176635742 -0.6589146852493286 -0.5467448830604553
-0.05426359176635742 -0.6589146852493286 -0.4822480082511902
-0.05426359176635742 -0.6589146852493286 0.25038018822669983
-0.05426359176635742 -0.6589146852493286 0.3383976221084595
-0.05426359176635742 -0.643410861492157 -0.5459502935409546
-0.05426359176635742 -0.643410861492157 -0.47744178771972656
-0.05426359176635742 -0.643410861492157 0.25666144490242004
-0.05426359549164772 -0.643410861492157 0.3493383228778839
-0.05426359176635742 -0.6279069781303406 -0.5441641211509705
-0.05426359176635742 -0.6279069781303406 -0.46681299805641174
-0.05426359176635742 -0.6279069781303406 0.25909626483917236
-0.05426359176635742 -0.6279069781303406 0.3609303832054138
-0.05426359176635742 -0.6124030947685242 -0.539228081703186
-0.05426359176635742 -0.6124030947685242 -0.4315948486328125
-0.05426358804106712 -0.6124030351638794 0.2572943866252899
-0.05426359176635742 -0.612403154373169 0.37162286043167114
-0.05426359176635742 -0.5968992114067078 -0.5310250520706177
-0.05426359176635742 -0.5968992114067078 -0.3888949155807495
-0.05426359176635742 -0.5968992114067078 0.25339946150779724
-0.05426359176635742 -0.5968992114067078 0.38271239399909973
-0.05426359176635742 -0.5813953876495361 -0.521665632724762
-0.05426359176635742 -0.5813953876495361 -0.36143356561660767
-0.05426359176635742 -0.5813953876495361 0.2483978271484375
-0.05426358804106712 -0.5813953876495361 0.39550119638442993
-0.05426359176635742 -0.5658915042877197 -0.5121106505393982
-0.05426359176635742 -0.5658915042877197 -0.33228081464767456
-0.05426358804106712 -0.5658915042877197 0.24376584589481354
-0.05426359176635742 -0.5658915042877197 0.40968167781829834
-0.05426359176635742 -0.5503876209259033 -0.5041056871414185
-0.05426359176635742 -0.5503876209259033 -0.3260158896446228
-0.05426359176635742 -0.5503876209259033 0.23939694464206696
-0.05426359176635742 -0.5503876209259033 0.4229568839073181
-0.05426359176635742 -0.5348837375640869 -0.49320173263549805
-0.05426359176635742 -0.5348837375640869 -0.3218662142753601
-0.05426359176635742 -0.5348837375640869 0.2342057079076767
-0.05426359176635742 -0.5348837375640869 0.4305717945098877
-0.05426359176635742 -0.5193798542022705 -0.48702049255371094
-0.05426359176635742 -0.5193798542022705 -0.32157066464424133
-0.05426359176635742 -0.5193798542022705 0.2283189296722412
-0.05426359176635742 -0.5193798542022705 0.43624943494796753
-0.05426359176635742 -0.5038759708404541 -0.4841762185096741
-0.05426359176635742 -0.5038759708404541 -0.3569321632385254
-0.05426359176635742 -0.5038759708404541 0.2234923392534256
-0.05426359176635742 -0.5038759708404541 0.4404979646205902
-0.05426359176635742 -0.4883720874786377 -0.4857289493083954
-0.05426359176635742 -0.4883720874786377 -0.392021507024765
-0.05426359176635742 -0.4883720874786377 0.22262386977672577
-0.05426359176635742 -0.4883720874786377 0.4466972351074219
-0.05426359176635742 -0.4728682041168213 -0.48864319920539856
-0.05426359176635742 -0.4728682041168213 -0.4094574749469757
-0.05426359176635742 -0.4728681743144989 0.22568657994270325
-0.05426359176635742 -0.4728682041168213 0.454342782497406
-0.05426359176635742 -0.4573643207550049 -0.48999258875846863
-0.05426359176635742 -0.4573643207550049 -0.4189484119415283
-0.05426359176635742 -0.4573643207550049 0.23386967182159424
-0.05426359176635742 -0.4573643207550049 0.4632245898246765
-0.05426359176635742 -0.4418604373931885 -0.4925271272659302
-0.05426359176635742 -0.4418604373931885 -0.4202880561351776
-0.05426359176635742 -0.4418604373931885 0.2507522702217102
-0.05426359176635742 -0.4418604373931885 0.47205519676208496
-0.05426359176635742 -0.42635661363601685 -0.49991345405578613
-0.05426359176635742 -0.42635661363601685 -0.4187030792236328
-0.05426359176635742 -0.42635661363601685 0.2837315499782562
-0.05426359176635742 -0.42635661363601685 0.48334354162216187
-0.05426359176635742 -0.41085273027420044 -0.5065640807151794
-0.05426359176635742 -0.41085273027420044 -0.413939893245697
-0.05426359176635742 -0.41085273027420044 0.32876813411712646
-0.05426359176635742 -0.41085273027420044 0.4944682717323303
-0.05426359176635742 -0.39534884691238403 -0.5128151178359985
-0.05426359176635742 -0.39534884691238403 -0.4046326279640198
-0.05426359176635742 -0.39534884691238403 0.3454314172267914
-0.05426359176635742 -0.39534884691238403 0.5044649839401245
-0.05426359176635742 -0.3798449635505676 -0.5184604525566101
-0.05426359176635742 -0.37984493374824524 -0.39267775416374207
-0.05426359176635742 -0.3798449635505676 0.35894259810447693
-0.05426359176635742 -0.3798449635505676 0.5131157636642456
-0.05426359176635742 -0.3643410801887512 -0.5198695659637451
-0.05426359176635742 -0.3643410801887512 -0.3186693787574768
-0.05426359176635742 -0.3643410801887512 0.3720264732837677
-0.05426359176635742 -0.3643410801887512 0.5189821720123291
-0.05426359176635742 -0.3488371968269348 -0.5199520587921143
-0.05426359176635742 -0.3488371968269348 -0.3175677955150604
-0.05426359176635742 -0.3488371968269348 0.3865349292755127
-0.05426359176635742 -0.3488371968269348 0.5242210030555725
-0.05426359176635742 -0.3333333134651184 -0.5196235179901123
-0.05426359176635742 -0.3333333134651184 -0.32720357179641724
-0.05426359176635742 -0.3333333134651184 0.40104347467422485
-0.05426359176635742 -0.3333333134651184 0.5286819934844971
-0.05426359176635742 -0.317829430103302 -0.5184506773948669
-0.05426359176635742 -0.317829430103302 -0.3384692072868347
-0.05426359176635742 -0.317829430103302 0.4132933020591736
-0.05426359176635742 -0.317829430103302 0.5322598218917847
-0.05426359549164772 -0.30232560634613037 -0.5170435309410095
-0.05426359176635742 -0.30232560634613037 -0.34083348512649536
-0.05426359176635742 -0.30232560634613037 0.4213632345199585
-0.05426359176635742 -0.30232560634613037 0.5352157950401306
-0.05426359176635742 -0.28682172298431396 -0.5167393088340759
-0.05426359176635742 -0.28682172298431396 -0.3375815153121948
-0.05426359176635742 -0.28682172298431396 0.425763338804245
-0.05426359176635742 -0.28682172298431396 0.538162887096405
-0.05426359176635742 -0.27131783962249756 -0.5167999267578125
-0.05426359176635742 -0.27131783962249756 -0.33758002519607544
-0.05426359176635742 -0.27131783962249756 0.42689210176467896
-0.05426359176635742 -0.27131783962249756 0.5414897203445435
-0.05426359176635742 -0.25581395626068115 -0.5163562297821045
-0.05426359176635742 -0.25581395626068115 -0.3437947928905487
-0.05426359176635742 -0.25581395626068115 0.42480847239494324
-0.05426359176635742 -0.25581395626068115 0.5439825057983398
-0.05426359176635742 -0.24031007289886475 -0.5145049691200256
-0.05426359176635742 -0.24031007289886475 -0.3499358296394348
-0.05426359176635742 -0.24031007289886475 0.42107710242271423
-0.05426359176635742 -0.24031007289886475 0.5458483695983887
-0.05426359176635742 -0.22480618953704834 -0.5108792185783386
-0.05426359176635742 -0.22480618953704834 -0.3512124717235565
-0.05426359176635742 -0.22480618953704834 0.4161696434020996
-0.05426359176635742 -0.22480618953704834 0.5466669201850891
-0.05426359176635742 -0.20930230617523193 -0.5102817416191101
-0.05426359176635742 -0.20930230617523193 -0.3508927524089813
-0.05426359176635742 -0.20930230617523193 0.41057056188583374
-0.05426359176635742 -0.20930230617523193 0.5469039678573608
-0.05426359176635742 -0.19379842281341553 -0.5155465006828308
-0.05426359176635742 -0.19379842281341553 -0.3542872369289398
-0.05426359176635742 -0.19379842281341553 0.40853556990623474
-0.05426359176635742 -0.19379842281341553 0.5467984676361084
-0.05426359176635742 -0.1782945990562439 -0.5205218195915222
-0.05426359176635742 -0.1782945990562439 -0.35783088207244873
-0.05426359176635742 -0.1782945990562439 0.4097744822502136
-0.05426359176635742 -0.1782945990562439 0.5460464358329773
-0.05426359176635742 -0.1627907156944275 -0.523208737373352
-0.05426359176635742 -0.1627907156944275 -0.3621899485588074
-0.05426358804106712 -0.1627907156944275 0.4127851724624634
-0.05426359176635742 -0.1627907156944275 0.5446476340293884
-0.05426359176635742 -0.14728683233261108 -0.5257688760757446
-0.05426359176635742 -0.14728683233261108 -0.3660682439804077
-0.05426359176635742 -0.14728683233261108 0.41657760739326477
-0.05426359176635742 -0.14728683233261108 0.5429927110671997
-0.05426359176635742 -0.13178294897079468 -0.527379035949707
-0.05426359176635742 -0.13178294897079468 -0.3669823408126831
-0.05426359176635742 -0.13178294897079468 0.4194447994232178
-0.05426358804106712 -0.13178294897079468 0.5414151549339294
-0.05426359176635742 -0.11627906560897827 -0.5283757448196411
-0.05426359176635742 -0.11627906560897827 -0.36720240116119385
-0.05426359176635742 -0.11627906560897827 0.4226447641849518
-0.05426359176635742 -0.11627906560897827 0.5406818985939026
-0.05426359176635742 -0.10077518224716187 -0.5282546281814575
-0.05426359176635742 -0.10077518224716187 -0.3671283721923828
-0.05426359176635742 -0.10077518224716187 0.42271867394447327
-0.05426359176635742 -0.10077518224716187 0.5407222509384155
-0.05426359176635742 -0.08527129888534546 -0.5282524824142456
-0.05426359176635742 -0.08527129888534546 -0.36906537413597107
-0.05426359176635742 -0.08527129888534546 0.4213283658027649
-0.05426359176635742 -0.08527129888534546 0.5413315296173096
-0.05426359176635742 -0.06976741552352905 -0.5291873216629028
-0.05426359176635742 -0.06976741552352905 -0.372246652841568
-0.05426359176635742 -0.06976741552352905 0.42099687457084656
-0.05426359176635742 -0.06976741552352905 0.5424739122390747
-0.05426359176635742 -0.05426359176635742 -0.5306757688522339
-0.05426359176635742 -0.05426359176635742 -0.3767218291759491
-0.05426359176635742 -0.05426359176635742 0.4219104051589966
-0.05426359176635742 -0.05426359176635742 0.5435971021652222
-0.05426359176635742 -0.038759708404541016 -0.5321388840675354
-0.05426359176635742 -0.038759708404541016 -0.38264065980911255
-0.05426359176635742 -0.038759708404541016 0.4240643084049225
-0.05426359176635742 -0.038759708404541016 0.5441259741783142
-0.05426359176635742 -0.02325582504272461 -0.5333350300788879
-0.05426359176635742 -0.02325582504272461 -0.38907498121261597
-0.05426359176635742 -0.02325582504272461 0.430858314037323
-0.05426359176635742 -0.02325582504272461 0.5445553660392761
-0.05426359176635742 -0.007751941680908203 -0.5338361859321594
-0.05426359176635742 -0.00775194214656949 -0.3915308713912964
-0.05426359176635742 -0.007751941680908203 0.4343026280403137
-0.05426359176635742 -0.007751941680908203 0.5448638796806335
-0.05426359549164772 0.007751941680908203 -0.5336118936538696
-0.05426359176635742 0.007751941680908203 -0.3920159935951233
-0.05426359176635742 0.007751941680908203 0.43503493070602417
-0.05426359176635742 0.007751941680908203 0.5452443361282349
-0.05426359176635742 0.02325582504272461 -0.5325331687927246
-0.05426359176635742 0.02325582504272461 -0.38748812675476074
-0.05426359176635742 0.02325582504272461 0.4332960546016693
-0.05426359176635742 0.02325582504272461 0.5458507537841797
-0.05426359176635742 0.038759708404541016 -0.5311228036880493
-0.05426359176635742 0.038759708404541016 -0.3784579038619995
-0.05426359176635742 0.038759708404541016 0.42941907048225403
-0.05426359176635742 0.038759708404541016 0.5470544695854187
-0.05426359176635742 0.05426359176635742 -0.5311807990074158
-0.05426359176635742 0.05426359176635742 -0.369884192943573
-0.05426359176635742 0.05426359176635742 0.42729508876800537
-0.05426359176635742 0.05426359176635742 0.5498366951942444
-0.05426359176635742 0.06976747512817383 -0.5310962200164795
-0.05426359176635742 0.06976747512817383 -0.3640337586402893
-0.05426359176635742 0.06976747512817383 0.42460402846336365
-0.05426359549164772 0.06976747512817383 0.5520285964012146
-0.05426359176635742 0.08527135848999023 -0.5308082699775696
-0.05426359176635742 0.08527135848999023 -0.3699250817298889
-0.05426359176635742 0.08527135848999023 0.4228050708770752
-0.05426359176635742 0.08527135848999023 0.5536001920700073
