-0.10077518224716187 -0.7368654608726501 -0.14728683233261108
-0.10077518224716187 -0.7220221161842346 -0.13178294897079468
-0.10077518224716187 -0.7351515889167786 -0.007751941680908203
-0.10077518224716187 -0.7128545641899109 -0.11627906560897827
-0.10077518224716187 -0.7103886604309082 -0.10077518224716187
-0.10077518224716187 -0.7087985277175903 -0.08527129888534546
-0.10077518224716187 -0.7078768014907837 -0.06976741552352905
-0.10077518224716187 -0.7060949802398682 -0.05426359176635742
-0.10077518224716187 -0.7181298732757568 0.007751941680908203
-0.10077518224716187 -0.6961672306060791 -0.038759708404541016
-0.10077518224716187 -0.7021673917770386 0.02325582504272461
-0.10077518224716187 -0.6871136426925659 -0.1782945990562439
-0.10077518224716187 -0.6831504702568054 -0.02325582504272461
-0.10077518224716187 -0.6866171360015869 0.038759708404541016
-0.10077518224716187 -0.6674696207046509 -0.007751941215246916
-0.10077518224716187 -0.6709128618240356 0.05426359176635742
-0.10077518224716187 -0.647572934627533 -0.19379842281341553
-0.10077518224716187 -0.6480490565299988 0.007751941680908203
-0.10077518224716187 -0.654007613658905 0.06976747512817383
-0.10077518224716187 -0.6283144950866699 0.02325582504272461
-0.10077518224716187 -0.6364294290542603 0.08527135848999023
-0.10077518224716187 -0.614872932434082 -0.20930230617523193
-0.10077518224716187 -0.6177833080291748 0.10077524185180664
-0.10077518224716187 -0.607792854309082 0.038759708404541016
-0.10077518224716187 -0.5850552320480347 -0.22480618953704834
-0.10077518224716187 -0.5858393907546997 0.05426359176635742
-0.10077518224716187 -0.5953857898712158 0.11627913266420364
-0.10077518224716187 -0.5713596940040588 -0.27131783962249756
-0.10077518224716187 -0.5738167762756348 -0.25581395626068115
-0.10077518224716187 -0.5789593458175659 -0.24031008780002594
-0.10077518224716187 -0.5705738067626953 0.1317828893661499
-0.10077517479658127 -0.5649712681770325 -0.36434105038642883
-0.10077518224716187 -0.5640164613723755 -0.28682172298431396
-0.10077518224716187 -0.5649002194404602 0.06976747512817383
-0.10077518224716187 -0.5436751842498779 -0.25581395626068115
-0.10077518224716187 -0.5436652898788452 -0.24031007289886475
-0.10077518224716187 -0.5389266014099121 -0.22480618953704834
-0.10077518224716187 -0.5414422154426575 0.08527135848999023
-0.10077518224716187 -0.5444027185440063 0.1472867727279663
-0.10077518224716187 -0.5314927697181702 -0.3488371670246124
-0.10077518224716187 -0.5316362977027893 -0.28682172298431396
-0.10077518224716187 -0.5329297780990601 -0.27131783962249756
-0.10077518224716187 -0.5065546631813049 -0.3333333134651184
-0.10077518224716187 -0.5113493204116821 0.10077524185180664
-0.10077518969774246 -0.5149317979812622 0.16279065608978271
-0.10077518224716187 -0.48509880900382996 -0.317829430103302
-0.10077518224716187 -0.48198792338371277 0.17829453945159912
-0.10077518224716187 -0.4625628590583801 -0.30232560634613037
-0.10077518224716187 -0.4678598642349243 -0.22480618953704834
-0.10077518224716187 -0.4420850872993469 -0.24031007289886475
-0.10077518224716187 -0.432430624961853 -0.28682172298431396
-0.10077518224716187 -0.4359428286552429 0.10077524185180664
-0.10077518969774246 -0.4410022795200348 0.19379842281341553
-0.10077518224716187 -0.3460562229156494 0.10077524185180664
-0.10077518224716187 -0.341946005821228 0.11627912521362305
-0.10077518224716187 -0.3363029360771179 0.1317828893661499
-0.10077518224716187 -0.3484431505203247 0.20930230617523193
-0.10077518224716187 -0.3345397412776947 0.22480618953704834
-0.10077518224716187 -0.32941749691963196 0.1472867727279663
-0.10077518224716187 -0.3210306167602539 0.16279065608978271
-0.10077518224716187 -0.32549214363098145 0.24031007289886475
-0.10077518224716187 -0.3206888437271118 0.25581395626068115
-0.10077518224716187 -0.31843799352645874 0.27131783962249756
-0.10077518224716187 -0.3108184039592743 0.17829453945159912
-0.10077518224716187 -0.3077535629272461 0.28682172298431396
-0.10077518224716187 -0.3015720248222351 -0.28682172298431396
-0.10077518224716187 -0.2982819974422455 0.19379842281341553
-0.10077518224716187 -0.27868443727493286 -0.30232560634613037
-0.10077518224716187 -0.2811717391014099 -0.25581395626068115
-0.10077518224716187 -0.2824000418186188 0.20930230617523193
-0.10077518224716187 -0.27203676104545593 0.30232560634613037
-0.10077518224716187 -0.2630916237831116 -0.317829430103302
-0.10077518224716187 -0.26285403966903687 0.22480618953704834
-0.10077518224716187 -0.24743036925792694 -0.3333333134651184
-0.10077518224716187 -0.25506874918937683 -0.27131783962249756
-0.10077518224716187 -0.22917644679546356 -0.3488371968269348
-0.10077517479658127 -0.23473042249679565 -0.28682172298431396
-0.10077518224716187 -0.21793796122074127 -0.30232560634613037
-0.10077518224716187 -0.21562154591083527 0.3178294897079468
-0.10077518224716187 -0.20574750006198883 -0.3643410801887512
-0.10077518224716187 -0.1997738778591156 -0.317829430103302
-0.10077518224716187 -0.1900632679462433 0.24031007289886475
-0.10077518224716187 -0.17124027013778687 -0.3798449635505676
-0.10077518224716187 -0.17575734853744507 -0.3333333134651184
-0.10077518224716187 -0.16286832094192505 0.3333333730697632
-0.10077518224716187 -0.12484389543533325 -0.3488371968269348
-0.10077518224716187 -0.10722626745700836 -0.39534884691238403
-0.10077518224716187 -0.10790340602397919 0.24031007289886475
-0.10077518224716187 -0.10374538600444794 0.3488372564315796
-0.10077518224716187 -0.09763886034488678 -0.3488371968269348
-0.10077518224716187 -0.04071773588657379 0.24031007289886475
-0.10077518224716187 -0.04858362674713135 0.364341139793396
-0.10077518224716187 -0.0028678535018116236 -0.3333333134651184
-0.10077518224716187 0.0007431888952851295 0.25581395626068115
-0.10077518224716187 0.006328362040221691 0.37984490394592285
-0.10077518969774246 0.042924799025058746 -0.41085273027420044
-0.10077518224716187 0.056628402322530746 0.27131783962249756
-0.10077518224716187 0.05688902363181114 0.28682172298431396
-0.10077518224716187 0.06389278173446655 0.39534878730773926
-0.10077518224716187 0.07987815141677856 -0.3333333134651184
-0.10077518224716187 0.08375483751296997 0.30232560634613037
-0.10077518224716187 0.1141776517033577 0.41085267066955566
-0.10077518224716187 0.12685275077819824 0.3178294897079468
-0.10077518224716187 0.16748256981372833 0.3333333730697632
-0.10077518224716187 0.185535728931427 0.42635655403137207
-0.10077518224716187 0.22094658017158508 0.3488372564315796
-0.10077518224716187 0.24382542073726654 -0.3333333134651184
-0.10077518224716187 0.2790886163711548 -0.317829430103302
-0.10077518224716187 0.3127697706222534 -0.30232560634613037
-0.10077518224716187 0.32656341791152954 0.3488372564315796
-0.10077518224716187 0.3770776093006134 -0.28682172298431396
-0.10077518224716187 0.3692232072353363 0.3333333730697632
-0.10077518224716187 0.38503700494766235 -0.41085273027420044
-0.10077518224716187 0.40280938148498535 0.3178294897079468
-0.10077518224716187 0.4197399616241455 -0.27131783962249756
-0.10077518224716187 0.4171982407569885 0.42635655403137207
-0.10077518224716187 0.46663904190063477 0.30232560634613037
-0.10077518224716187 0.48131442070007324 -0.27131783962249756
-0.10077518224716187 0.483193039894104 0.41085267066955566
-0.10077518224716187 0.5269587635993958 -0.28682172298431396
-0.10077518224716187 0.5413435697555542 -0.30232560634613037
-0.10077518224716187 0.5466152429580688 0.28682172298431396
-0.10077518224716187 0.5562775731086731 -0.317829430103302
-0.10077518224716187 0.557576060295105 0.39534878730773926
-0.10077518224716187 0.5753961205482483 -0.39534884691238403
-0.10077518224716187 0.5770378708839417 -0.3333333134651184
-0.10077518224716187 0.5990546941757202 0.27131783962249756
-0.10077518224716187 0.6273115277290344 0.37984490394592285
-0.10077518224716187 0.6301401257514954 0.25581395626068115
-0.10077518224716187 0.6492606997489929 -0.3798449635505676
-0.10077518224716187 0.6712079644203186 -0.3333333134651184
-0.10077518224716187 0.6593889594078064 0.24031007289886475
-0.10077518224716187 0.6629488468170166 0.364341139793396
-0.10077517479658127 0.6769954562187195 0.22480618953704834
-0.10077518224716187 0.6875665783882141 0.3488372564315796
-0.10077518224716187 0.7028892040252686 -0.3643410801887512
-0.10077518224716187 0.6937878131866455 0.20930230617523193
-0.10077518224716187 0.7116562724113464 -0.317829430103302
-0.10077518224716187 0.7144906520843506 0.19379842281341553
-0.10077518224716187 0.7072547078132629 0.3333333730697632
-0.10077518224716187 0.7244542837142944 0.3178294897079468
-0.10077518224716187 0.7474202513694763 -0.3488371968269348
-0.10077518224716187 0.7422003746032715 -0.30232560634613037
-0.10077518224716187 0.7390094995498657 0.17829453945159912
-0.10077517479658127 0.7408114671707153 0.30232560634613037
-0.10077518224716187 0.766910970211029 -0.28682172298431396
-0.10077518224716187 0.7578330039978027 0.16279065608978271
-0.10077518224716187 0.7592531442642212 0.28682172298431396
-0.10077518224716187 0.7723371386528015 0.1472867727279663
-0.10077518224716187 0.7767864465713501 0.27131783962249756
-0.10077518969774246 0.7842158675193787 -0.3333333134651184
-0.10077518224716187 0.7858371734619141 0.1317828893661499
-0.10077518224716187 0.7901821732521057 0.25581395626068115
-0.10077518224716187 0.8022794127464294 -0.27131783962249756
-0.10077518224716187 0.8136234283447266 -0.08527129888534546
-0.10077518224716187 0.8087557554244995 -0.06976741552352905
-0.10077518224716187 0.8061209917068481 -0.05426359176635742
-0.10077518224716187 0.8029910326004028 -0.038759708404541016
-0.10077518224716187 0.800236165523529 -0.02325582318007946
-0.10077517479658127 0.799534261226654 -0.007751941680908203
-0.10077518224716187 0.7990292310714722 0.007751941680908203
-0.10077517479658127 0.7987831830978394 0.02325582504272461
-0.10077518224716187 0.8019874691963196 0.038759708404541016
-0.10077518224716187 0.8098236322402954 0.05426359176635742
-0.10077518224716187 0.8089593648910522 0.10077524185180664
-0.10077518224716187 0.7994945645332336 0.11627912521362305
-0.10077518224716187 0.8084616661071777 0.22480618953704834
-0.10077518969774246 0.7991845011711121 0.24031007289886475
-0.10077518969774246 0.8185030221939087 -0.317829430103302
-0.10077518224716187 0.828255832195282 -0.13178294897079468
-0.10077518224716187 0.8222991824150085 -0.11627906560897827
-0.10077518224716187 0.817473828792572 -0.10077518224716187
-0.10077518224716187 0.8151411414146423 0.06976747512817383
-0.10077518224716187 0.815125048160553 0.08527135848999023
-0.10077518224716187 0.8279901146888733 0.17829453945159912
-0.10077518224716187 0.8221782445907593 0.19379842281341553
-0.10077518224716187 0.8142664432525635 0.20930229127407074
-0.10077518224716187 0.8308939337730408 -0.25581395626068115
-0.10077518224716187 0.8420556783676147 -0.24031007289886475
-0.10077518224716187 0.841280996799469 -0.1782945990562439
-0.10077518224716187 0.8367433547973633 -0.1627907156944275
-0.10077518224716187 0.8326511979103088 -0.14728683233261108
-0.10077518224716187 0.8426780700683594 0.1472867727279663
-0.10077518224716187 0.8355211019515991 0.16279065608978271
-0.10077518224716187 0.8474653959274292 -0.30232560634613037
-0.10077518224716187 0.8458510041236877 -0.22480617463588715
-0.10077518224716187 0.8460953235626221 -0.20930230617523193
-0.10077518224716187 0.845041036605835 -0.19379843771457672
-0.10077518224716187 0.8561294674873352 -0.02325582504272461
-0.10077518224716187 0.8515549302101135 -0.007751941215246916
-0.10077518224716187 0.8482705950737 0.007751941680908203
-0.10077518224716187 0.8467357158660889 0.02325582504272461
-0.10077518224716187 0.8469764590263367 0.038759708404541016
-0.10077518224716187 0.8508830070495605 0.05426359549164772
-0.10077518224716187 0.8581750988960266 0.06976747512817383
-0.10077518224716187 0.8578373193740845 0.11627912521362305
-0.10077518224716187 0.8504010438919067 0.1317828893661499
-0.10077518224716187 0.8730304837226868 -0.28682172298431396
-0.10077518224716187 0.8715540170669556 -0.06976741552352905
-0.10077518224716187 0.8649770021438599 -0.05426359176635742
-0.10077518969774246 0.8605985641479492 -0.038759712129831314
-0.10077518224716187 0.8610513210296631 0.08527135103940964
-0.10077518969774246 0.8605891466140747 0.10077524930238724
-0.10077518224716187 0.889937162399292 -0.11627906560897827
-0.10077518224716187 0.8836004734039307 -0.10077518224716187
-0.10077517479658127 0.8763406276702881 -0.08527129888534546
-0.10077518969774246 0.8921888470649719 -0.27131783962249756
-0.10077518224716187 0.9048260450363159 -0.25581395626068115
-0.10077518224716187 0.9039815664291382 -0.14728683233261108
-0.10077518224716187 0.8984359502792358 -0.13178294897079468
-0.10077518224716187 0.912982165813446 -0.24031007289886475
-0.10077518224716187 0.9158757925033569 -0.22480618953704834
-0.10077518224716187 0.9165607690811157 -0.20930230617523193
-0.10077518224716187 0.9161826372146606 -0.19379842281341553
-0.10077518224716187 0.9141907691955566 -0.1782945990562439
-0.10077518224716187 0.9088934659957886 -0.1627907156944275
-0.08527129888534546 -0.9073814749717712 -0.317829430103302
-0.08527129888534546 -0.9005382061004639 -0.3333333134651184
-0.08527129888534546 -0.880990743637085 -0.30232560634613037
-0.08527129888534546 -0.8682130575180054 -0.3488371968269348
-0.08527129888534546 -0.8288737535476685 -0.28682172298431396
-0.08527129888534546 -0.8139540553092957 -0.27131783962249756
-0.08527129888534546 -0.8099661469459534 -0.25581395626068115
-0.08527129888534546 -0.8101862668991089 -0.24031007289886475
-0.08527129888534546 -0.8096625208854675 -0.22480618953704834
-0.08527129888534546 -0.8092445135116577 -0.20930230617523193
-0.08527129888534546 -0.8102698922157288 -0.19379842281341553
-0.08527129888534546 -0.8121709823608398 -0.1782945990562439
-0.08527129888534546 -0.8131980299949646 -0.1627907156944275
-0.08527129888534546 -0.8129929900169373 -0.1472868174314499
-0.08527129888534546 -0.8115187287330627 -0.13178294897079468
-0.08527129888534546 -0.8088159561157227 -0.11627906560897827
-0.08527129888534546 -0.8055129051208496 -0.10077518224716187
-0.08527129888534546 -0.8022453784942627 -0.08527129888534546
-0.08527129888534546 -0.8015804290771484 -0.06976741552352905
-0.08527129888534546 -0.801701545715332 -0.05426359176635742
-0.08527129888534546 -0.7843012809753418 -0.038759708404541016
-0.08527129888534546 -0.7677978873252869 -0.1782945990562439
-0.08527129888534546 -0.7678160667419434 -0.1627907156944275
-0.08527129888534546 -0.7559038400650024 -0.3643410801887512
-0.08527129888534546 -0.7566708922386169 -0.19379842281341553
-0.08527129888534546 -0.7619903087615967 -0.14728683233261108
-0.08527129888534546 -0.7519867420196533 -0.13178294897079468
-0.08527129888534546 -0.7616052627563477 -0.02325582504272461
-0.08527129888534546 -0.7416083812713623 -0.007751941680908203
-0.08527129888534546 -0.7260415554046631 -0.11627906560897827
-0.08527129888534546 -0.7241867780685425 0.007751941680908203
-0.08527129888534546 -0.7148182392120361 -0.19379842281341553
-0.08527129888534546 -0.7157261371612549 -0.10077518224716187
-0.08527129888534546 -0.7125794887542725 -0.08527129888534546
-0.08527129888534546 -0.7142765522003174 -0.06976741552352905
-0.08527129888534546 -0.7149544954299927 -0.05426359176635742
-0.08527129888534546 -0.7080605030059814 0.02325582504272461
-0.08527129888534546 -0.7039940357208252 -0.03875970467925072
-0.08527129888534546 -0.6924852728843689 0.038759708404541016
-0.08527129888534546 -0.6888524293899536 -0.02325582504272461
-0.08527129888534546 -0.6769619584083557 0.05426359176635742
-0.08527129888534546 -0.671576976776123 -0.007751941680908203
-0.08527129888534546 -0.6606699824333191 0.06976747512817383
-0.08527129888534546 -0.6579990386962891 -0.19379842281341553
-0.08527129888534546 -0.6513782739639282 0.007751941680908203
-0.08527129888534546 -0.6296688318252563 0.02325582504272461
-0.08527129888534546 -0.6432963609695435 0.08527135848999023
-0.08527129888534546 -0.6188207864761353 -0.20930230617523193
-0.08527129888534546 -0.6238778829574585 0.10077524185180664
-0.08527129888534546 -0.6086269617080688 0.038759708404541016
-0.08527129888534546 -0.6035177707672119 0.11627912521362305
-0.08527129888534546 -0.5876114368438721 0.05426359176635742
-0.08527129888534546 -0.5767050385475159 -0.3643410801887512
-0.08527129888534546 -0.5682480931282043 -0.22480618953704834
-0.08527129888534546 -0.5682263374328613 0.06976747512817383
-0.08527129888534546 -0.5802503824234009 0.1317828893661499
-0.08527129888534546 -0.5551834106445312 0.1472867727279663
-0.08527129888534546 -0.5494446158409119 -0.22480618953704834
-0.08527129888534546 -0.5481341481208801 0.08527135848999023
-0.08527129888534546 -0.5348190665245056 -0.3488371968269348
-0.08527129888534546 -0.5226961374282837 0.10077524185180664
-0.08527129888534546 -0.5268502235412598 0.16279065608978271
-0.08527129888534546 -0.5100094079971313 -0.3333333134651184
-0.08527129888534546 -0.49490904808044434 0.17829453945159912
-0.08527129888534546 -0.48562002182006836 -0.317829430103302
-0.08527129888534546 -0.4755937457084656 -0.22480618953704834
-0.08527129888534546 -0.4859403371810913 0.11627912521362305
-0.08527129888534546 -0.4597570598125458 -0.30232560634613037
-0.08527129888534546 -0.4607284963130951 0.11627912521362305
-0.08527129888534546 -0.45941001176834106 0.19379842281341553
-0.08527129888534546 -0.45292168855667114 -0.24031007289886475
-0.08527129888534546 -0.4179422855377197 -0.28682172298431396
-0.08527129888534546 -0.4185837209224701 0.20930230617523193
-0.08527129888534546 -0.36024028062820435 0.11627912521362305
-0.08527129888534546 -0.35100817680358887 0.1317828893661499
-0.08527129888534546 -0.35163700580596924 0.22480618953704834
-0.08527129888534546 -0.34219956398010254 0.1472867727279663
-0.08527129888534546 -0.33934980630874634 0.24031007289886475
-0.08527129888534546 -0.3334544599056244 0.25581395626068115
-0.08527129888534546 -0.3203636705875397 -0.28682172298431396
-0.08527129888534546 -0.33239829540252686 0.16279065608978271
-0.08527129888534546 -0.3213855028152466 0.17829453945159912
-0.08527129888534546 -0.3265930712223053 0.27131783962249756
-0.08527129888534546 -0.3189636766910553 0.28682172298431396
-0.08527129888534546 -0.30913764238357544 0.19379842281341553
-0.08527129888534546 -0.2994064688682556 -0.25581395626068115
-0.08527129888534546 -0.29527467489242554 0.20930230617523193
-0.08527129888534546 -0.29071715474128723 0.30232560634613037
-0.08527129888534546 -0.2860208749771118 -0.30232560634613037
-0.08527129888534546 -0.27913782000541687 0.22480618953704834
-0.08527129888534546 -0.26873406767845154 -0.317829430103302
-0.08527129888534546 -0.2628457844257355 -0.27131783962249756
-0.08527129888534546 -0.2523794174194336 -0.3333333134651184
-0.08527129888534546 -0.24228152632713318 -0.28682172298431396
-0.08527129888534546 -0.2553853988647461 0.24031008780002594
-0.08527129888534546 -0.23353153467178345 -0.3488371968269348
-0.08527129888534546 -0.23246538639068604 0.3178294897079468
-0.08527129888534546 -0.20976582169532776 -0.3643410801887512
-0.08527129888534546 -0.22462020814418793 -0.30232563614845276
-0.08527129888534546 -0.20322027802467346 -0.317829430103302
-0.08527129888534546 -0.17516955733299255 -0.3798449635505676
-0.08527129888534546 -0.1780063509941101 -0.3333333134651184
-0.08527129888534546 -0.17441615462303162 0.3333333730697632
-0.08527129888534546 -0.11705755442380905 -0.3488371968269348
-0.08527129888534546 -0.11453601717948914 -0.39534884691238403
-0.08527130633592606 -0.11372507363557816 -0.3488371968269348
-0.08527129888534546 -0.11423029005527496 0.24031007289886475
-0.08527129888534546 -0.11411683261394501 0.3488372564315796
-0.08527129888534546 -0.05908229947090149 0.364341139793396
-0.08527129888534546 -0.02940193936228752 -0.3333333134651184
-0.08527129888534546 -0.01972091756761074 0.24031007289886475
-0.08527129888534546 -0.006807930767536163 0.37984490394592285
-0.08527129888534546 0.017416799440979958 -0.41085273027420044
-0.08527129888534546 0.016347208991646767 -0.317829430103302
-0.08527129888534546 0.04741474986076355 0.39534878730773926
-0.08527129888534546 0.07303043454885483 -0.317829430103302
-0.08527129888534546 0.08386591821908951 0.25581395626068115
-0.08527129888534546 0.09818650782108307 0.41085267066955566
-0.08527129888534546 0.10843473672866821 -0.3333333134651184
-0.08527129888534546 0.11008219420909882 0.27131783962249756
-0.08527129888534546 0.11444907635450363 0.28682172298431396
-0.08527129888534546 0.12866263091564178 0.30232560634613037
-0.08527129888534546 0.15458059310913086 0.3178294897079468
-0.08527129888534546 0.1550343632698059 0.42635655403137207
-0.08527129888534546 0.186833918094635 0.3333333730697632
-0.08527129888534546 0.2208365648984909 0.3488372564315796
-0.08527129888534546 0.2248932123184204 -0.3333333134651184
-0.08527129888534546 0.2624329924583435 -0.317829430103302
-0.08527129143476486 0.2885810136795044 -0.30232560634613037
-0.08527129888534546 0.3111032545566559 -0.28682172298431396
-0.08527129888534546 0.3037833869457245 0.4418604373931885
-0.08527129888534546 0.3293483555316925 0.3488372564315796
-0.08527129888534546 0.3582945168018341 0.4418604373931885
-0.08527130633592606 0.3657619059085846 0.3333333730697632
-0.08527129888534546 0.3937564194202423 0.3178294897079468
-0.08527129888534546 0.4071941375732422 -0.27131783962249756
-0.08527129888534546 0.4199832081794739 -0.41085273027420044
-0.08527129888534546 0.42423921823501587 0.30232560634613037
-0.08527129888534546 0.43947121500968933 0.42635655403137207
-0.08527129888534546 0.4857613146305084 -0.27131783962249756
-0.08527129888534546 0.49811089038848877 0.41085267066955566
-0.08527129888534546 0.5272014737129211 0.28682172298431396
-0.08527129888534546 0.5431087017059326 -0.28682172298431396
-0.08527129888534546 0.564093828201294 -0.317829430103302
-0.08527129888534546 0.5511964559555054 -0.30232560634613037
-0.08527129888534546 0.5766765475273132 0.39534878730773926
-0.08527129888534546 0.5902829170227051 -0.39534884691238403
-0.08527129888534546 0.582952618598938 -0.3333333134651184
-0.08527129888534546 0.5921016931533813 0.27131783962249756
-0.08527129888534546 0.6214972734451294 0.25581395626068115
-0.08527129888534546 0.6362969279289246 0.37984490394592285
-0.08527129888534546 0.6470335721969604 0.24031007289886475
-0.08527129888534546 0.6625227928161621 -0.3798449635505676
-0.08527129888534546 0.6713016033172607 -0.3333333134651184
-0.08527129888534546 0.6686347723007202 0.22480618953704834
-0.08527129888534546 0.6697574257850647 0.364341139793396
-0.08527129888534546 0.6872650980949402 0.20930230617523193
-0.08527129888534546 0.6940889358520508 0.3488372564315796
-0.08527129888534546 0.7140483856201172 -0.3643410801887512
-0.08527129888534546 0.7131643295288086 -0.317829430103302
-0.08527129888534546 0.7107828259468079 0.19379842281341553
-0.08527129888534546 0.7133165001869202 0.3333333730697632
-0.08527129888534546 0.7304105758666992 0.3178294897079468
-0.08527129888534546 0.7455921173095703 -0.30232560634613037
-0.08527129888534546 0.7422765493392944 0.17829453945159912
-0.08527129888534546 0.7474265098571777 0.30232560634613037
-0.08527129888534546 0.7591696977615356 -0.3488371968269348
-0.08527129888534546 0.7662487626075745 0.28682172298431396
-0.08527129888534546 0.7800472378730774 -0.28682172298431396
-0.08527129888534546 0.7676655650138855 0.16279065608978271
-0.08527129888534546 0.794851541519165 -0.3333333134651184
-0.08527129888534546 0.7843340635299683 0.1472867727279663
-0.08527129888534546 0.7976812124252319 0.25581395626068115
-0.08527129888534546 0.7839792370796204 0.27131783962249756
-0.08527129888534546 0.8121984004974365 -0.038759708404541016
-0.08527129888534546 0.8074970245361328 -0.02325582504272461
-0.08527129888534546 0.805328369140625 -0.007751941680908203
-0.08527129888534546 0.8040370941162109 0.007751941680908203
-0.08527129888534546 0.8054813742637634 0.02325582504272461
-0.08527129888534546 0.8131800293922424 0.11627912521362305
-0.08527129888534546 0.7991139888763428 0.1317828893661499
-0.08527129888534546 0.8083295226097107 0.24031007289886475
-0.08527129888534546 0.829433798789978 -0.317829430103302
-0.08527129888534546 0.8240601420402527 -0.08527129888534546
-0.08527129888534546 0.8177046179771423 -0.06976741552352905
-0.08527129888534546 0.8152511119842529 -0.05426359176635742
-0.08527129143476486 0.8152666091918945 0.038759708404541016
-0.08527129888534546 0.8213263750076294 0.05426359176635742
-0.08527129888534546 0.8270365595817566 0.06976747512817383
-0.08527129888534546 0.8280730247497559 0.08527135848999023
-0.08527129888534546 0.8215268850326538 0.10077524185180664
-0.08527129888534546 0.8245303630828857 0.20930230617523193
-0.08527129888534546 0.8155486583709717 0.22480618953704834
-0.08527129888534546 0.8336496353149414 -0.27131783962249756
-0.08527129888534546 0.8384280800819397 -0.11627906560897827
-0.08527129888534546 0.8316399455070496 -0.10077518224716187
-0.08527129888534546 0.8396592140197754 0.17829453945159912
-0.08527129888534546 0.8304409384727478 0.19379842281341553
-0.08527129888534546 0.8527973890304565 -0.25581395626068115
-0.08527129888534546 0.8589154481887817 -0.1627907156944275
-0.08527129888534546 0.8518956899642944 -0.14728683233261108
-0.08527129888534546 0.8458506464958191 -0.13178294897079468
-0.08527129888534546 0.8594590425491333 0.007751941680908203
-0.08527129888534546 0.8574220538139343 0.02325582504272461
-0.08527129888534546 0.8590487241744995 0.038759708404541016
-0.08527129888534546 0.8555420637130737 0.1472867727279663
-0.08527129888534546 0.8450734615325928 0.16279065608978271
-0.08527129888534546 0.8664668798446655 -0.30232560634613037
-0.08527129888534546 0.8623825311660767 -0.24031007289886475
-0.08527129888534546 0.8657599687576294 -0.22480618953704834
-0.08527129888534546 0.8667135238647461 -0.20930230617523193
-0.08527129888534546 0.8656373023986816 -0.19379840791225433
-0.08527129888534546 0.8629963397979736 -0.1782946139574051
-0.08527129888534546 0.8721061944961548 -0.038759708404541016
-0.08527129888534546 0.8651737570762634 -0.02325582504272461
-0.08527129888534546 0.8618305921554565 -0.007751941680908203
-0.08527129888534546 0.8640849590301514 0.05426359176635742
-0.08527129888534546 0.8721029758453369 0.06976747512817383
-0.08527129888534546 0.8755148649215698 0.10077524185180664
-0.08527129888534546 0.872020959854126 0.11627912521362305
-0.08527129888534546 0.8623101115226746 0.1317828893661499
-0.08527129888534546 0.8907545208930969 -0.08527129888534546
-0.08527129888534546 0.8847286701202393 -0.06976741552352905
-0.08527129888534546 0.877515971660614 -0.05426359176635742
-0.08527130633592606 0.8760038018226624 0.08527136594057083
-0.08527129888534546 0.8940165638923645 -0.28682172298431396
-0.08527129888534546 0.9045504331588745 -0.11627906560897827
-0.08527129888534546 0.8972967267036438 -0.10077518224716187
-0.08527129888534546 0.9132775068283081 -0.27131783962249756
-0.08527129888534546 0.9216814041137695 -0.1627907156944275
-0.08527129888534546 0.9182134866714478 -0.14728683233261108
-0.08527129888534546 0.9113919138908386 -0.13178294897079468
-0.08527129888534546 0.9224878549575806 -0.25581395626068115
-0.08527129888534546 0.9280527830123901 -0.24031007289886475
-0.08527129888534546 0.9298802018165588 -0.22480618953704834
-0.08527129888534546 0.9296290874481201 -0.20930230617523193
-0.08527129888534546 0.9281681180000305 -0.19379842281341553
-0.08527129143476486 0.9255502223968506 -0.1782945841550827
-0.06976741552352905 -0.849327802658081 -0.317829430103302
-0.06976741552352905 -0.8434444665908813 -0.3333333134651184
-0.06976741552352905 -0.8367598056793213 -0.30232560634613037
-0.06976741552352905 -0.8220672011375427 -0.28682172298431396
-0.06976741552352905 -0.8170526623725891 -0.27131783962249756
-0.06976741552352905 -0.8162006735801697 -0.25581395626068115
-0.06976741552352905 -0.8170793056488037 -0.24031007289886475
-0.06976741552352905 -0.8171393871307373 -0.22480618953704834
-0.06976741552352905 -0.8170455098152161 -0.20930230617523193
-0.06976741552352905 -0.8176240921020508 -0.19379842281341553
-0.06976741552352905 -0.8191602230072021 -0.1782945990562439
-0.06976741552352905 -0.8207321166992188 -0.1627907156944275
-0.06976741552352905 -0.8206198215484619 -0.14728683233261108
-0.06976741552352905 -0.8187443017959595 -0.13178294897079468
-0.06976741552352905 -0.8167504668235779 -0.11627906560897827
-0.06976741552352905 -0.8146599531173706 -0.10077518224716187
-0.06976741552352905 -0.8151528835296631 -0.06976741552352905
-0.06976741552352905 -0.8228950500488281 -0.05426359176635742
-0.06976741552352905 -0.8016533255577087 -0.3488371968269348
-0.06976741552352905 -0.8106417059898376 -0.08527129888534546
-0.06976741552352905 -0.7829589247703552 -0.1627907156944275
-0.06976741552352905 -0.7938097715377808 -0.038759708404541016
-0.06976741552352905 -0.7753095030784607 -0.19379842281341553
-0.06976741552352905 -0.7826893925666809 -0.1782945990562439
-0.06976741552352905 -0.7783974409103394 -0.14728683233261108
-0.06976741552352905 -0.7705345153808594 -0.13178294897079468
-0.06976741552352905 -0.7654435038566589 -0.20930230617523193
-0.06976741552352905 -0.7559452652931213 -0.11627906560897827
-0.06976741552352905 -0.767377495765686 -0.02325582504272461
-0.06976741552352905 -0.7458044290542603 -0.007751941680908203
-0.06976741552352905 -0.726817786693573 -0.10077518224716187
-0.06976741552352905 -0.7282074689865112 0.007751941680908203
-0.06976741552352905 -0.7186867594718933 -0.20930230617523193
-0.06976741552352905 -0.7166202664375305 -0.08527129888534546
-0.06976741552352905 -0.7187877297401428 -0.06976741552352905
-0.06976741552352905 -0.7207763195037842 -0.05426359176635742
-0.06976741552352905 -0.7080293893814087 -0.038759708404541016
-0.06976741552352905 -0.7119704484939575 0.02325582504272461
-0.06976741552352905 -0.6916375160217285 -0.02325582504272461
-0.06976741552352905 -0.6962554454803467 0.038759708404541016
-0.06976741552352905 -0.6799121499061584 -0.3643410801887512
-0.06976741552352905 -0.6807076334953308 0.05426359176635742
-0.06976740807294846 -0.6740449070930481 -0.007751941680908203
-0.06976741552352905 -0.6647148132324219 0.06976747512817383
-0.06976741552352905 -0.6532734036445618 0.007751941680908203
-0.06976741552352905 -0.6480720639228821 0.08527135848999023
-0.06976741552352905 -0.6337933540344238 -0.20930230617523193
-0.06976741552352905 -0.6300850510597229 0.02325582504272461
-0.06976741552352905 -0.6304482221603394 0.10077524185180664
-0.06976741552352905 -0.6093758344650269 -0.3643410801887512
-0.06976741552352905 -0.6084646582603455 0.038759708404541016
-0.06976741552352905 -0.6108413338661194 0.11627911776304245
-0.06976741552352905 -0.5884730815887451 0.05426359176635742
-0.06976741552352905 -0.5879363417625427 0.1317828893661499
-0.06976741552352905 -0.570330798625946 0.06976747512817383
-0.06976741552352905 -0.5520880222320557 0.08527135848999023
-0.06976741552352905 -0.5642476081848145 0.1472867727279663
-0.06976741552352905 -0.5422970056533813 -0.3488371968269348
-0.06976741552352905 -0.5370124578475952 0.16279065608978271
-0.06976741552352905 -0.5290742516517639 0.10077524185180664
-0.06976741552352905 -0.5138949751853943 -0.3333333134651184
-0.06976741552352905 -0.5046270489692688 0.11627912521362305
-0.06976741552352905 -0.5057817101478577 0.17829453945159912
-0.06976741552352905 -0.4863003194332123 -0.317829430103302
-0.06976741552352905 -0.48249584436416626 -0.22480618953704834
-0.06976741552352905 -0.461980938911438 -0.24031007289886475
-0.06976741552352905 -0.4711874723434448 0.19379842281341553
-0.06976741552352905 -0.4566628932952881 -0.30232560634613037
-0.06976741552352905 -0.43224912881851196 0.20930230617523193
-0.06976741552352905 -0.41849735379219055 -0.25581395626068115
-0.06976741552352905 -0.37357616424560547 0.1317828893661499
-0.06976741552352905 -0.3779318928718567 0.22480618953704834
-0.06976741552352905 -0.3631352484226227 -0.25581395626068115
-0.06976741552352905 -0.3552384376525879 0.1472867727279663
-0.06976741552352905 -0.3504337966442108 0.24031007289886475
-0.06976741552352905 -0.3401018977165222 -0.25581395626068115
-0.06976741552352905 -0.34136709570884705 0.16279065608978271
-0.06976741552352905 -0.34010156989097595 0.25581395626068115
-0.06976741552352905 -0.3283657431602478 0.17829453945159912
-0.06976741552352905 -0.33279022574424744 0.27131783962249756
-0.06976741552352905 -0.32150566577911377 0.28682172298431396
-0.06976741552352905 -0.31584373116493225 0.19379842281341553
-0.06976741552352905 -0.3029135763645172 0.20930230617523193
-0.06976741552352905 -0.295808881521225 -0.30232560634613037
-0.06976741552352905 -0.28807491064071655 0.22480618953704834
-0.06976741552352905 -0.29546183347702026 0.30232560634613037
-0.06976741552352905 -0.2751430869102478 -0.317829430103302
-0.06976741552352905 -0.2735169231891632 -0.27131783962249756
-0.06976741552352905 -0.2577759921550751 -0.3333333134651184
-0.06976741552352905 -0.2671855688095093 0.24031007289886475
-0.06976741552352905 -0.24793440103530884 -0.28682172298431396
-0.06976741552352905 -0.24315877258777618 0.3178294897079468
-0.06976741552352905 -0.2384694665670395 -0.3488371968269348
-0.06976741552352905 -0.226778045296669 -0.30232560634613037
-0.06976741552352905 -0.21336258947849274 -0.3643410801887512
-0.06976741552352905 -0.20473377406597137 -0.317829430103302
-0.06976741552352905 -0.18104496598243713 0.3333333730697632
-0.06976741552352905 -0.17816786468029022 -0.3798449635505676
-0.06976741552352905 -0.17760016024112701 -0.3333333134651184
-0.06976741552352905 -0.11989955604076385 -0.39534884691238403
-0.06976741552352905 -0.1257380247116089 0.24031007289886475
-0.06976741552352905 -0.11981042474508286 0.3488372564315796
-0.06976741552352905 -0.06689704954624176 0.364341139793396
-0.06976741552352905 -0.04576779901981354 -0.3333333134651184
-0.06976741552352905 -0.01508322637528181 0.37984490394592285
-0.06976741552352905 -0.00011100363917648792 -0.41085273027420044
-0.06976741552352905 -0.005569596774876118 -0.317829430103302
-0.06976741552352905 0.03343364596366882 0.39534878730773926
-0.06976741552352905 0.046005189418792725 -0.30232560634613037
-0.06976741552352905 0.05701291561126709 -0.30232560634613037
-0.06976741552352905 0.07341358810663223 0.24031007289886475
-0.06976741552352905 0.08389920741319656 0.41085267066955566
-0.06976741552352905 0.08966699242591858 -0.317829430103302
-0.06976741552352905 0.13052569329738617 -0.3333333134651184
-0.06976741552352905 0.13396605849266052 0.25581395626068115
-0.06976741552352905 0.13634152710437775 0.42635655403137207
-0.06976741552352905 0.15382102131843567 0.27131783962249756
-0.06976741552352905 0.15752029418945312 0.28682172298431396
-0.06976741552352905 0.16780051589012146 0.30232560634613037
-0.06976741552352905 0.18496748805046082 0.3178294897079468
-0.06976741552352905 0.20051804184913635 0.3333333730697632
-0.06976741552352905 0.20958086848258972 -0.3333333134651184
-0.06976741552352905 0.2250957489013672 0.3488372564315796
-0.06976741552352905 0.22798602283000946 0.4418604373931885
-0.06976741552352905 0.25169503688812256 -0.317829430103302
-0.06976741552352905 0.27636754512786865 -0.30232560634613037
-0.06976741552352905 0.2939155101776123 -0.28682172298431396
-0.06976741552352905 0.32178014516830444 0.3488372564315796
-0.06976741552352905 0.35547322034835815 0.3333333730697632
-0.06976741552352905 0.3783777058124542 0.3178294897079468
-0.06976741552352905 0.40092340111732483 -0.27131783962249756
-0.06976741552352905 0.40959396958351135 0.28682172298431396
-0.06976741552352905 0.39675286412239075 0.30232560634613037
-0.06976741552352905 0.4078185558319092 0.4418604373931885
-0.06976741552352905 0.42183607816696167 0.24031007289886475
-0.06976741552352905 0.4135955572128296 0.25581395626068115
-0.06976741552352905 0.4113868474960327 0.27131783962249756
-0.06976741552352905 0.4329410791397095 0.22480618953704834
-0.06976741552352905 0.4483346939086914 -0.41085273027420044
-0.06976741552352905 0.4606170058250427 0.20930230617523193
-0.06976741552352905 0.46002525091171265 0.42635655403137207
-0.06976741552352905 0.47647011280059814 0.20930230617523193
-0.06976741552352905 0.4943868815898895 0.22480618953704834
-0.06976741552352905 0.5079548358917236 0.24031007289886475
-0.06976741552352905 0.5139255523681641 0.41085267066955566
-0.06976741552352905 0.5209559798240662 0.25581395626068115
-0.06976741552352905 0.5461730360984802 -0.27131783962249756
-0.06976741552352905 0.5632055997848511 -0.30232560634613037
-0.06976741552352905 0.5569829940795898 -0.28682172298431396
-0.06976741552352905 0.5747515559196472 -0.317829430103302
-0.06976741552352905 0.6041251420974731 -0.39534884691238403
-0.06976741552352905 0.6007986068725586 -0.3333333134651184
-0.06976741552352905 0.5976772308349609 0.39534881711006165
-0.06976741552352905 0.6143196225166321 0.25581395626068115
-0.06976741552352905 0.6362764835357666 0.24031007289886475
-0.06976741552352905 0.6581693291664124 0.22480618953704834
-0.06976741552352905 0.6465401649475098 0.37984490394592285
-0.06976741552352905 0.6738852262496948 -0.3798449635505676
-0.06976741552352905 0.6607198119163513 -0.3333333134651184
-0.06976741552352905 0.6755681037902832 0.20930230617523193
-0.06976741552352905 0.6784497499465942 0.364341139793396
-0.06976741552352905 0.7010712623596191 0.19379842281341553
-0.06976741552352905 0.700666606426239 0.3488372564315796
-0.06976741552352905 0.7074977159500122 -0.317829430103302
-0.06976741552352905 0.7188659310340881 0.3333333730697632
-0.06976741552352905 0.7233962416648865 -0.3643410801887512
-0.06976741552352905 0.7355394959449768 0.3178294897079468
-0.06976741552352905 0.746291995048523 -0.30232560634613037
-0.06976741552352905 0.7460927963256836 0.17829453945159912
-0.06976741552352905 0.765274167060852 -0.3488371968269348
-0.06976741552352905 0.7533481121063232 0.30232560634613037
-0.06976741552352905 0.7785179615020752 0.16279065608978271
-0.06976741552352905 0.774345338344574 0.28682172298431396
-0.06976741552352905 0.7956802845001221 0.1472867727279663
-0.06976741552352905 0.7928292751312256 0.27131783962249756
-0.06976741552352905 0.8045857548713684 -0.3333333134651184
-0.06976741552352905 0.8011948466300964 -0.28682172298431396
-0.06976741552352905 0.8099037408828735 -0.02325582504272461
-0.06976741552352905 0.8068422079086304 -0.007751941680908203
-0.06976741552352905 0.8055554628372192 0.007751941680908203
-0.06976741552352905 0.8111146688461304 0.02325582504272461
-0.06976741552352905 0.8083392381668091 0.1317828893661499
-0.06976741552352905 0.8062770366668701 0.25581395626068115
-0.06976741552352905 0.8239790201187134 -0.06976741552352905
-0.06976741552352905 0.8188828229904175 -0.05426359549164772
-0.06976741552352905 0.8150566220283508 -0.038759708404541016
-0.06976741552352905 0.8218616247177124 0.038759708404541016
-0.06976741552352905 0.8218598961830139 0.11627912521362305
-0.06976741552352905 0.8257246017456055 0.22480618953704834
-0.06976741552352905 0.8158237934112549 0.24031007289886475
-0.06976741552352905 0.8406109809875488 -0.317829430103302
-0.06976741552352905 0.8442288637161255 -0.10077518224716187
-0.06976741552352905 0.8333312273025513 -0.08527129888534546
-0.06976741552352905 0.8312551975250244 0.05426359176635742
-0.06976741552352905 0.8348300457000732 0.06976747512817383
-0.06976741552352905 0.8361459970474243 0.08527135848999023
-0.06976741552352905 0.8326395750045776 0.10077524185180664
-0.06976741552352905 0.8417819738388062 0.19379842281341553
-0.06976741552352905 0.8337082862854004 0.20930232107639313
-0.06976741552352905 0.8513140678405762 -0.27131783962249756
-0.06976741552352905 0.8592531085014343 -0.13178294897079468
-0.06976741552352905 0.8507205843925476 -0.11627906560897827
-0.06976741552352905 0.8576911687850952 0.16279065608978271
-0.06976741552352905 0.8497717976570129 0.17829453945159912
-0.06976741552352905 0.8673682808876038 -0.25581395626068115
-0.06976741552352905 0.872020959854126 -0.1627907156944275
-0.06976741552352905 0.8651712536811829 -0.14728683233261108
-0.06976741552352905 0.8743213415145874 -0.02325582504272461
-0.06976741552352905 0.8691518306732178 -0.007751941680908203
-0.06976741552352905 0.8651503324508667 0.007751941680908203
-0.06976741552352905 0.863711953163147 0.02325582504272461
-0.06976741552352905 0.8678486347198486 0.038759708404541016
-0.06976741552352905 0.8758038282394409 0.05426359176635742
-0.06976741552352905 0.8749279975891113 0.1317828893661499
-0.06976741552352905 0.8671740293502808 0.1472867727279663
-0.06976741552352905 0.8823570013046265 -0.30232560634613037
-0.06976741552352905 0.8768097758293152 -0.24031007289886475
-0.06976741552352905 0.8796114325523376 -0.22480617463588715
-0.06976741552352905 0.8800956010818481 -0.20930230617523193
-0.06976741552352905 0.8790450096130371 -0.19379842281341553
-0.06976741552352905 0.8770090937614441 -0.1782945990562439
-0.06976741552352905 0.8866287469863892 -0.05426359176635742
-0.06976741552352905 0.8786857724189758 -0.038759712129831314
-0.06976741552352905 0.8836009502410889 0.06976747512817383
-0.06976741552352905 0.8891165852546692 0.08527135848999023
-0.06976741552352905 0.8896695375442505 0.10077524185180664
-0.06976741552352905 0.8850923776626587 0.11627912521362305
-0.06976741552352905 0.9068557024002075 -0.10077518224716187
-0.06976741552352905 0.9000800251960754 -0.08527129888534546
-0.06976741552352905 0.8928683400154114 -0.06976741552352905
-0.06976741552352905 0.9117506146430969 -0.28682172298431396
-0.06976741552352905 0.9211912155151367 -0.13178294897079468
-0.06976741552352905 0.9143738746643066 -0.11627906560897827
-0.06976741552352905 0.9294296503067017 -0.27131783962249756
-0.06976741552352905 0.9352116584777832 -0.25581395626068115
-0.06976741552352905 0.9371808767318726 -0.24031007289886475
-0.06976741552352905 0.9374105334281921 -0.22480618953704834
-0.06976741552352905 0.936981201171875 -0.20930230617523193
-0.06976741552352905 0.9361992478370667 -0.19379842281341553
-0.06976741552352905 0.9348196983337402 -0.1782945990562439
-0.06976741552352905 0.9323383569717407 -0.1627907156944275
-0.06976741552352905 0.9270333647727966 -0.14728683233261108
-0.05426359176635742 -0.829510509967804 -0.1782945990562439
-0.05426359176635742 -0.8301483392715454 -0.1627907156944275
-0.05426359176635742 -0.8299987316131592 -0.14728683233261108
-0.05426359176635742 -0.8166851997375488 -0.30232560634613037
-0.05426359176635742 -0.8174009323120117 -0.28682172298431396
-0.05426359176635742 -0.8188908100128174 -0.27131783962249756
-0.05426359176635742 -0.8206693530082703 -0.25581395626068115
-0.05426359176635742 -0.8238117694854736 -0.24031005799770355
-0.05426359176635742 -0.8248916268348694 -0.22480618953704834
-0.05426359176635742 -0.8259148597717285 -0.20930230617523193
-0.05426358804106712 -0.8275984525680542 -0.19379842281341553
-0.05426358804106712 -0.8282915949821472 -0.13178294897079468
-0.05426359176635742 -0.8233407139778137 -0.11627906560897827
-0.05426359176635742 -0.8182098865509033 -0.10077518224716187
-0.05426359176635742 -0.8156649470329285 -0.08527129888534546
-0.05426359176635742 -0.8211691379547119 -0.06976741552352905
-0.05426359176635742 -0.8230077028274536 -0.05426359176635742
-0.05426359176635742 -0.8112881183624268 -0.317829430103302
-0.05426359176635742 -0.7889152765274048 -0.3333333134651184
-0.05426359176635742 -0.7862768173217773 -0.19379842281341553
-0.05426359176635742 -0.7903397083282471 -0.1782945990562439
-0.05426359176635742 -0.7909963726997375 -0.1627907156944275
-0.05426359176635742 -0.7883721590042114 -0.14728683233261108
-0.05426359176635742 -0.7839162945747375 -0.13178294897079468
-0.05426359176635742 -0.7918916940689087 -0.038759708404541016
-0.05426359176635742 -0.7778441905975342 -0.20930230617523193
-0.05426359176635742 -0.7721492052078247 -0.11627906560897827
-0.05426359176635742 -0.7675462961196899 -0.02325582504272461
-0.05426359176635742 -0.758121132850647 -0.22480618953704834
-0.05426359176635742 -0.7530200481414795 -0.10077518224716187
-0.05426359549164772 -0.7470872402191162 -0.007751941680908203
-0.05426359176635742 -0.7338380813598633 -0.3488371968269348
-0.05426359176635742 -0.7335663437843323 -0.22480618953704834
-0.05426359176635742 -0.729387104511261 0.007751941680908203
-0.05426359176635742 -0.7192155122756958 -0.08527129888534546
-0.05426359176635742 -0.7140800952911377 -0.06976741552352905
-0.05426359176635742 -0.7128250598907471 -0.05426359176635742
-0.05426359176635742 -0.7129940986633301 0.02325582504272461
-0.05426359176635742 -0.6917266249656677 -0.20930230617523193
-0.05426359176635742 -0.7033477425575256 -0.038759708404541016
-0.05426359176635742 -0.6906006336212158 -0.02325582504272461
-0.05426359176635742 -0.6973512172698975 0.038759708404541016
-0.05426359176635742 -0.6820434331893921 0.05426359176635742
-0.05426359176635742 -0.6734551787376404 -0.007751941680908203
-0.05426359176635742 -0.6664438247680664 0.06976747512817383
-0.05426359176635742 -0.6579387784004211 -0.20930230617523193
-0.05426359176635742 -0.6520649194717407 0.007751941680908203
-0.05426359176635742 -0.6502443552017212 0.08527135848999023
-0.05426359176635742 -0.6289663314819336 0.02325582504272461
-0.05426359176635742 -0.633378803730011 0.10077524185180664
-0.05426359176635742 -0.6155773401260376 0.11627912521362305
-0.05426359176635742 -0.6078720092773438 0.038759708404541016
-0.05426359176635742 -0.5891639590263367 0.05426359176635742
-0.05426358804106712 -0.5941338539123535 0.1317828893661499
-0.05426359176635742 -0.5718563199043274 0.06976747512817383
-0.05426359176635742 -0.5706914663314819 0.1472867727279663
-0.05426359176635742 -0.5558788776397705 -0.3488371968269348
-0.05426359176635742 -0.554407000541687 0.08527135848999023
-0.05426359176635742 -0.5446306467056274 0.16279065608978271
-0.05426359176635742 -0.5338154435157776 0.10077524185180664
-0.05426359176635742 -0.5190716981887817 -0.3333333134651184
-0.05426359176635742 -0.5108317732810974 0.11627912521362305
-0.05426359176635742 -0.5147221088409424 0.17829453945159912
-0.05426359176635742 -0.48812901973724365 -0.317829430103302
-0.05426359176635742 -0.48675861954689026 -0.22480618953704834
-0.05426359176635742 -0.48101264238357544 0.19379842281341553
-0.05426358804106712 -0.46719861030578613 -0.24031007289886475
-0.05426359176635742 -0.4545495808124542 -0.30232560634613037
-0.05426359176635742 -0.44305509328842163 0.20930230617523193
-0.05426359176635742 -0.4347909092903137 -0.25581395626068115
-0.05426359176635742 -0.4028272330760956 0.1317828893661499
-0.05426359176635742 -0.40595144033432007 0.22480618953704834
-0.05426359176635742 -0.36736562848091125 0.1472867727279663
-0.05426359176635742 -0.35676342248916626 0.24031007289886475
-0.05426359176635742 -0.3467649221420288 0.16279065608978271
-0.05426359176635742 -0.3458295166492462 0.25581395626068115
-0.05426359176635742 -0.3355633616447449 0.27131783962249756
-0.05426359176635742 -0.3311218321323395 0.17829453945159912
-0.05426359176635742 -0.322314590215683 0.28682172298431396
-0.05426359176635742 -0.3173754811286926 0.19379842281341553
-0.05426359176635742 -0.3038594424724579 0.20930230617523193
-0.05426359549164772 -0.3017537593841553 -0.30232560634613037
-0.05426359176635742 -0.2889957129955292 0.22480618953704834
-0.05426359176635742 -0.29808729887008667 0.30232560634613037
-0.05426359176635742 -0.2808142900466919 -0.317829430103302
-0.05426359176635742 -0.2803936004638672 -0.27131783962249756
-0.05426359176635742 -0.2626270353794098 -0.3333333134651184
-0.05426359176635742 -0.26772287487983704 0.24031007289886475
-0.05426359176635742 -0.2418307512998581 -0.3488371968269348
-0.05426359176635742 -0.25374937057495117 -0.28682172298431396
-0.05426359176635742 -0.2503749430179596 0.3178294897079468
