-0.7209302186965942 0.6279069185256958 0.052655696868896484
-0.7209302186965942 0.6279069185256958 0.06894056499004364
-0.7209302186965942 0.6434108018875122 0.052403099834918976
-0.7209302186965942 0.6434108018875122 0.06490102410316467
-0.7209302186965942 0.6589146852493286 0.05226566269993782
-0.7209302186965942 0.6589146852493286 0.06196683645248413
-0.7209302186965942 0.674418568611145 0.05218290910124779
-0.7209301590919495 0.674418568611145 0.05887091904878616
-0.7209302186965942 0.6899224519729614 0.052134882658720016
-0.7209302186965942 0.6899224519729614 0.05623406916856766
-0.7054263353347778 -0.20930230617523193 0.11610783636569977
-0.7054263353347778 -0.20930230617523193 0.11629705131053925
-0.7054263353347778 -0.19379842281341553 0.10163434594869614
-0.7054263353347778 -0.19379842281341553 0.11739660054445267
-0.7054263353347778 -0.1782945990562439 0.10002220422029495
-0.7054263353347778 -0.1782945990562439 0.11741365492343903
-0.7054263353347778 -0.1627907156944275 0.09961329400539398
-0.7054263353347778 -0.1627907007932663 0.11690504848957062
-0.7054263353347778 -0.14728683233261108 0.09954406321048737
-0.7054263353347778 -0.14728683233261108 0.11456331610679626
-0.7054263353347778 -0.13178294897079468 0.09944107383489609
-0.7054263353347778 -0.13178294897079468 0.10930681228637695
-0.7054263353347778 -0.11627906560897827 0.09937044978141785
-0.7054263353347778 -0.11627906560897827 0.10743487626314163
-0.7054263353347778 -0.10077518224716187 0.0992535725235939
-0.7054263353347778 -0.10077518224716187 0.10715463757514954
-0.7054263353347778 -0.08527129888534546 0.09898347407579422
-0.7054263353347778 -0.08527129888534546 0.10750235617160797
-0.7054263353347778 -0.06976741552352905 0.098651222884655
-0.7054263353347778 -0.06976741552352905 0.10790107399225235
-0.7054263353347778 -0.05426359176635742 0.09828528016805649
-0.7054263353347778 -0.05426359176635742 0.10799221694469452
-0.7054263353347778 -0.038759708404541016 0.0979069322347641
-0.7054263353347778 -0.038759708404541016 0.10775125026702881
-0.7054263353347778 -0.02325582504272461 0.09757296741008759
-0.7054263353347778 -0.02325582504272461 0.10716031491756439
-0.7054263353347778 -0.007751941680908203 0.09722833335399628
-0.7054263353347778 -0.007751941680908203 0.10679276287555695
-0.7054263353347778 0.007751941680908203 0.09717878699302673
-0.7054263353347778 0.007751941680908203 0.10667464137077332
-0.7054263353347778 0.02325582504272461 0.09752463549375534
-0.7054263353347778 0.02325582504272461 0.10663623362779617
-0.7054263353347778 0.038759708404541016 0.09782141447067261
-0.7054263353347778 0.038759708404541016 0.10621051490306854
-0.7054263353347778 0.05426359176635742 0.09809787571430206
-0.7054263353347778 0.05426359176635742 0.1058262512087822
-0.7054263353347778 0.06976747512817383 0.09820577502250671
-0.7054263353347778 0.06976747512817383 0.10561051964759827
-0.7054263353347778 0.08527135848999023 0.09810839593410492
-0.7054263353347778 0.08527135848999023 0.10533655434846878
-0.7054263353347778 0.10077524185180664 0.09791232645511627
-0.7054263353347778 0.10077524185180664 0.10497355461120605
-0.7054263353347778 0.11627912521362305 0.09777659922838211
-0.7054263353347778 0.11627912521362305 0.10457780957221985
-0.7054263353347778 0.1317828893661499 0.09726514667272568
-0.7054263353347778 0.1317828893661499 0.10427666455507278
-0.7054263353347778 0.1472867727279663 0.09557478129863739
-0.7054263353347778 0.1472867727279663 0.10404646396636963
-0.7054263353347778 0.16279065608978271 0.09221036732196808
-0.7054263353347778 0.16279065608978271 0.1038845106959343
-0.7054263353347778 0.17829453945159912 0.08662310242652893
-0.7054263353347778 0.17829453945159912 0.10376006364822388
-0.7054263353347778 0.19379842281341553 0.08509936183691025
-0.7054262757301331 0.19379842281341553 0.1034701019525528
-0.7054263353347778 0.20930230617523193 0.08501305431127548
-0.7054263353347778 0.20930230617523193 0.10302793979644775
-0.7054263353347778 0.22480618953704834 0.08503440022468567
-0.7054263949394226 0.22480620443820953 0.10251288115978241
-0.7054263353347778 0.24031007289886475 0.08498980849981308
-0.7054263353347778 0.24031007289886475 0.1019815132021904
-0.7054263353347778 0.25581395626068115 0.0847264900803566
-0.7054263353347778 0.25581395626068115 0.10135557502508163
-0.7054263353347778 0.27131783962249756 0.08428144454956055
-0.7054263353347778 0.27131783962249756 0.09805931895971298
-0.7054263353347778 0.28682172298431396 0.08388491719961166
-0.7054263353347778 0.28682172298431396 0.09465404599905014
-0.7054263353347778 0.30232560634613037 0.08352051675319672
-0.7054263353347778 0.30232560634613037 0.09365500509738922
-0.7054263353347778 0.3178294897079468 0.08276699483394623
-0.7054263353347778 0.3178294897079468 0.09259152412414551
-0.7054263353347778 0.3333333730697632 0.08116792142391205
-0.7054263353347778 0.3333333730697632 0.09108708053827286
-0.7054263353347778 0.3488372564315796 0.07771311700344086
-0.7054263353347778 0.3488372564315796 0.08938241004943848
-0.7054263353347778 0.364341139793396 0.06987886130809784
-0.7054263353347778 0.364341139793396 0.08799415081739426
-0.7054263353347778 0.37984490394592285 0.06919589638710022
-0.7054263353347778 0.37984490394592285 0.08686897903680801
-0.7054263353347778 0.39534878730773926 0.06892668455839157
-0.7054263353347778 0.39534878730773926 0.08618166297674179
-0.7054263353347778 0.41085267066955566 0.06883106380701065
-0.7054263353347778 0.41085267066955566 0.08590117841959
-0.7054263353347778 0.42635655403137207 0.06872069090604782
-0.7054263353347778 0.42635655403137207 0.08569233864545822
-0.7054263353347778 0.4418604373931885 0.06865449249744415
-0.7054263353347778 0.4418604373931885 0.0855122059583664
-0.7054263353347778 0.4573643207550049 0.06859148293733597
-0.7054263353347778 0.4573643207550049 0.08459129929542542
-0.7054263353347778 0.4728682041168213 0.06855945289134979
-0.7054263353347778 0.4728682041168213 0.08182330429553986
-0.7054263353347778 0.4883720874786377 0.06841367483139038
-0.7054263353347778 0.4883720874786377 0.07941018044948578
-0.7054263353347778 0.5038759708404541 0.06804965436458588
-0.7054263353347778 0.5038759708404541 0.07803286612033844
-0.7054263353347778 0.5193798542022705 0.06737640500068665
-0.7054263353347778 0.5193798542022705 0.07651525735855103
-0.7054263353347778 0.5348837375640869 0.06592293083667755
-0.7054263353347778 0.5348837375640869 0.07478439807891846
-0.7054263353347778 0.5503876209259033 0.06232628598809242
-0.7054263353347778 0.5503876209259033 0.07304076105356216
-0.7054263353347778 0.5658915042877197 0.05380338802933693
-0.7054263353347778 0.5658915042877197 0.07171332836151123
-0.7054263353347778 0.5813953876495361 0.0530252605676651
-0.7054263353347778 0.5813953876495361 0.07092157751321793
-0.7054263353347778 0.5968992710113525 0.05263551324605942
-0.7054262757301331 0.5968992114067078 0.0701121836900711
-0.7054263353347778 0.612403154373169 0.05245060473680496
-0.7054263353347778 0.612403154373169 0.06686205416917801
-0.7054263353347778 0.6279069185256958 0.05234545096755028
-0.7054263353347778 0.6279069185256958 0.06318894028663635
-0.7054263353347778 0.6434108018875122 0.05226466804742813
-0.7054263353347778 0.6434108018875122 0.060687195509672165
-0.7054263353347778 0.6589146852493286 0.05200579762458801
-0.7054263353347778 0.6589146852493286 0.05856131389737129
-0.7054263353347778 0.674418568611145 0.051135946065187454
-0.7054263353347778 0.674418568611145 0.05664727836847305
-0.6899224519729614 -0.24031007289886475 0.10819506645202637
-0.6899225115776062 -0.24031007289886475 0.11717002838850021
-0.6899224519729614 -0.22480618953704834 0.09973203390836716
-0.6899225115776062 -0.22480620443820953 0.11782971024513245
-0.6899224519729614 -0.20930230617523193 0.09846045076847076
-0.6899224519729614 -0.20930230617523193 0.11733940988779068
-0.6899224519729614 -0.19379842281341553 0.0981394350528717
-0.6899224519729614 -0.19379840791225433 0.11627952009439468
-0.6899224519729614 -0.1782945990562439 0.09817729890346527
-0.6899224519729614 -0.1782945990562439 0.11091208457946777
-0.6899224519729614 -0.1627907156944275 0.0983133390545845
-0.6899224519729614 -0.1627907156944275 0.10829950869083405
-0.6899224519729614 -0.14728683233261108 0.09849949181079865
-0.6899224519729614 -0.14728683233261108 0.10716138780117035
-0.6899224519729614 -0.13178294897079468 0.09860436618328094
-0.6899224519729614 -0.13178294897079468 0.10657607764005661
-0.6899224519729614 -0.11627906560897827 0.09864240139722824
-0.6899224519729614 -0.11627907305955887 0.10627564787864685
-0.6899224519729614 -0.10077518224716187 0.09858942776918411
-0.6899224519729614 -0.10077518224716187 0.10635192692279816
-0.6899224519729614 -0.08527129888534546 0.098415307700634
-0.6899224519729614 -0.08527129888534546 0.10647545754909515
-0.6899224519729614 -0.06976741552352905 0.09815846383571625
-0.6899224519729614 -0.06976741552352905 0.1064300462603569
-0.6899224519729614 -0.05426359176635742 0.09770213812589645
-0.6899224519729614 -0.05426359176635742 0.10611312091350555
-0.6899224519729614 -0.038759708404541016 0.09652125090360641
-0.6899224519729614 -0.038759708404541016 0.10583600401878357
-0.6899224519729614 -0.02325582504272461 0.09438201785087585
-0.6899224519729614 -0.02325582504272461 0.1056380644440651
-0.6899224519729614 -0.007751941215246916 0.0917636901140213
-0.6899224519729614 -0.007751941680908203 0.10559211671352386
-0.6899224519729614 0.007751941680908203 0.09058330208063126
-0.6899224519729614 0.007751941680908203 0.1056932732462883
-0.6899224519729614 0.02325582504272461 0.09174254536628723
-0.6899224519729614 0.02325582504272461 0.10573724657297134
-0.6899224519729614 0.038759708404541016 0.09318234771490097
-0.6899224519729614 0.038759708404541016 0.10547711700201035
-0.6899224519729614 0.05426359176635742 0.09461673349142075
-0.6899224519729614 0.05426359176635742 0.1050962507724762
-0.6899224519729614 0.06976747512817383 0.09556140005588531
-0.6899224519729614 0.06976747512817383 0.10471151769161224
-0.6899224519729614 0.08527135848999023 0.0958791971206665
-0.6899224519729614 0.08527135848999023 0.10421870648860931
-0.6899224519729614 0.10077524185180664 0.09553118795156479
-0.6899224519729614 0.10077524185180664 0.10375268012285233
-0.6899224519729614 0.11627912521362305 0.09421257674694061
-0.6899224519729614 0.11627912521362305 0.10347869992256165
-0.6899224519729614 0.1317828893661499 0.09011967480182648
-0.6899224519729614 0.1317828893661499 0.10335727781057358
-0.6899224519729614 0.1472867727279663 0.08482078462839127
-0.6899225115776062 0.1472867727279663 0.10323289781808853
-0.6899224519729614 0.16279065608978271 0.08419464528560638
-0.6899224519729614 0.16279065608978271 0.10303328186273575
-0.6899224519729614 0.17829453945159912 0.08386842906475067
-0.6899223923683167 0.17829452455043793 0.102754607796669
-0.6899224519729614 0.19379842281341553 0.08378866314888
-0.6899224519729614 0.19379842281341553 0.10228365659713745
-0.6899224519729614 0.20930230617523193 0.08381237834692001
-0.6899224519729614 0.20930230617523193 0.10171255469322205
-0.6899224519729614 0.22480618953704834 0.08390073478221893
-0.6899224519729614 0.22480618953704834 0.10116731375455856
-0.6899224519729614 0.24031007289886475 0.08397603034973145
-0.6899224519729614 0.24031007289886475 0.0996728241443634
-0.6899224519729614 0.25581395626068115 0.08393502235412598
-0.6899224519729614 0.25581395626068115 0.09542908519506454
-0.6899224519729614 0.27131783962249756 0.08377868682146072
-0.6899224519729614 0.27131783962249756 0.09237721562385559
-0.6899224519729614 0.28682172298431396 0.0835234522819519
-0.6899224519729614 0.28682172298431396 0.0907132476568222
-0.6899224519729614 0.30232560634613037 0.0829303041100502
-0.6899224519729614 0.30232560634613037 0.09020952880382538
-0.6899224519729614 0.3178294897079468 0.08117790520191193
-0.6899224519729614 0.3178294897079468 0.08969652652740479
-0.6899224519729614 0.3333333730697632 0.07638402283191681
-0.6899224519729614 0.3333333432674408 0.08875489234924316
-0.6899224519729614 0.3488372564315796 0.06934129446744919
-0.6899224519729614 0.3488372564315796 0.08755666017532349
-0.6899224519729614 0.364341139793396 0.06881341338157654
-0.6899224519729614 0.364341139793396 0.0865175873041153
-0.6899224519729614 0.37984490394592285 0.0686536356806755
-0.6899224519729614 0.37984490394592285 0.0856732577085495
-0.6899224519729614 0.39534878730773926 0.06860578805208206
-0.6899224519729614 0.39534878730773926 0.08445209264755249
-0.6899224519729614 0.41085267066955566 0.06857185065746307
-0.6899224519729614 0.41085267066955566 0.08269564062356949
-0.6899224519729614 0.42635655403137207 0.06851842999458313
-0.6899224519729614 0.42635655403137207 0.08106358349323273
-0.6899224519729614 0.4418604373931885 0.06848834455013275
-0.6899224519729614 0.4418604373931885 0.07967917621135712
-0.6899224519729614 0.4573643207550049 0.06845266371965408
-0.6899224519729614 0.4573643207550049 0.07808521389961243
-0.6899224519729614 0.4728682041168213 0.06834667921066284
-0.6899224519729614 0.4728682041168213 0.07668332755565643
-0.6899224519729614 0.4883720874786377 0.06799212098121643
-0.6899224519729614 0.4883720874786377 0.07545016705989838
-0.6899224519729614 0.5038759708404541 0.06714381277561188
-0.6899224519729614 0.5038759708404541 0.07456952333450317
-0.6899224519729614 0.5193798542022705 0.0650402158498764
-0.6899224519729614 0.5193798542022705 0.07350808382034302
-0.6899224519729614 0.5348837375640869 0.05924289673566818
-0.6899224519729614 0.5348837375640869 0.07229294627904892
-0.6899224519729614 0.5503876209259033 0.053452134132385254
-0.6899224519729614 0.5503876805305481 0.07106173038482666
-0.6899224519729614 0.5658915042877197 0.052733153104782104
-0.6899224519729614 0.5658915638923645 0.07003945112228394
-0.6899224519729614 0.5813953876495361 0.05240698531270027
-0.6899224519729614 0.5813953876495361 0.06752092391252518
-0.6899224519729614 0.5968992710113525 0.05221901088953018
-0.6899224519729614 0.5968992710113525 0.0644926056265831
-0.6899224519729614 0.612403154373169 0.052091024816036224
-0.6899224519729614 0.612403154373169 0.06184389442205429
-0.6899224519729614 0.6279069185256958 0.05192764475941658
-0.6899224519729614 0.6279069185256958 0.059587977826595306
-0.6899224519729614 0.6434108018875122 0.05146101489663124
-0.6899224519729614 0.6434108018875122 0.05795316770672798
-0.6899224519729614 0.6589146852493286 0.049755461513996124
-0.6899224519729614 0.6589146256446838 0.056633513420820236
-0.6899224519729614 0.674418568611145 0.052615948021411896
-0.6899225115776062 0.674418568611145 0.05453331768512726
-0.674418568611145 -0.27131783962249756 0.10800346732139587
-0.674418568611145 -0.27131783962249756 0.1173328086733818
-0.674418568611145 -0.25581395626068115 0.09973281621932983
-0.674418568611145 -0.25581395626068115 0.11805253475904465
-0.674418568611145 -0.24031007289886475 0.09827935695648193
-0.6744186282157898 -0.24031007289886475 0.11751295626163483
-0.674418568611145 -0.22480618953704834 0.09790709614753723
-0.674418568611145 -0.22480618953704834 0.11592379212379456
-0.674418568611145 -0.20930230617523193 0.09794759750366211
-0.674418568611145 -0.20930230617523193 0.10988559573888779
-0.674418568611145 -0.19379842281341553 0.09810798615217209
-0.674418568611145 -0.19379842281341553 0.10692285746335983
-0.674418568611145 -0.1782945990562439 0.0982702448964119
-0.674418568611145 -0.1782945990562439 0.10548140108585358
-0.674418568611145 -0.1627907156944275 0.09841063618659973
-0.674418568611145 -0.1627907156944275 0.10470010340213776
-0.674418568611145 -0.14728683233261108 0.09851571917533875
-0.674418568611145 -0.14728683233261108 0.10441629588603973
-0.674418568611145 -0.13178294897079468 0.09855683892965317
-0.674418568611145 -0.13178294897079468 0.10428153723478317
-0.674418568611145 -0.11627906560897827 0.09851814806461334
-0.674418568611145 -0.11627906560897827 0.10426212847232819
-0.674418568611145 -0.10077518224716187 0.09835754334926605
-0.6744185090065002 -0.10077518224716187 0.10442480444908142
-0.674418568611145 -0.08527129888534546 0.09797822684049606
-0.674418568611145 -0.08527129888534546 0.10456158220767975
-0.674418568611145 -0.06976741552352905 0.09713233262300491
-0.674418568611145 -0.06976741552352905 0.10462692379951477
-0.674418568611145 -0.05426359176635742 0.09508664906024933
-0.674418568611145 -0.05426359176635742 0.1046387106180191
-0.674418568611145 -0.038759708404541016 0.08966456353664398
-0.674418568611145 -0.038759708404541016 0.10472507029771805
-0.674418568611145 -0.02325582504272461 0.08481568098068237
-0.6744186282157898 -0.02325582504272461 0.10468526929616928
-0.674418568611145 -0.007751941680908203 0.08432795107364655
-0.674418568611145 -0.007751941680908203 0.1045532077550888
-0.674418568611145 0.007751941680908203 0.08418821543455124
-0.674418568611145 0.007751941680908203 0.10453741997480392
-0.674418568611145 0.02325582504272461 0.08434515446424484
-0.674418568611145 0.02325582504272461 0.10451376438140869
-0.674418568611145 0.038759708404541016 0.08460002392530441
-0.674418568611145 0.038759708404541016 0.10431815683841705
-0.674418568611145 0.05426359176635742 0.08494792133569717
-0.674418568611145 0.05426359549164772 0.10404235869646072
-0.674418568611145 0.06976747512817383 0.08524978905916214
-0.674418568611145 0.06976747512817383 0.10375678539276123
-0.674418568611145 0.08527135103940964 0.08577777445316315
-0.6744185090065002 0.08527135848999023 0.1033826619386673
-0.674418568611145 0.10077524185180664 0.08501838147640228
-0.674418568611145 0.10077524185180664 0.10298915207386017
-0.674418568611145 0.11627912521362305 0.08456768095493317
-0.674418568611145 0.11627912521362305 0.10271350294351578
-0.674418568611145 0.1317828893661499 0.0841994509100914
-0.674418568611145 0.1317828893661499 0.10251937061548233
-0.674418568611145 0.1472867727279663 0.08385796844959259
-0.674418568611145 0.1472867727279663 0.1022438332438469
-0.674418568611145 0.16279065608978271 0.08351219445466995
-0.674418568611145 0.16279065608978271 0.10181358456611633
-0.674418568611145 0.17829453945159912 0.08325935900211334
-0.674418568611145 0.17829453945159912 0.10136079043149948
-0.674418568611145 0.19379842281341553 0.08320442587137222
-0.674418568611145 0.19379842281341553 0.10082051903009415
-0.674418568611145 0.20930230617523193 0.08325843513011932
-0.674418568611145 0.20930230617523193 0.09780631959438324
-0.674418568611145 0.22480618953704834 0.0833791196346283
-0.674418568611145 0.22480618953704834 0.09528236091136932
-0.674418568611145 0.24031007289886475 0.08350110799074173
-0.674418568611145 0.24031007289886475 0.09311855584383011
-0.674418568611145 0.25581395626068115 0.08350951224565506
-0.674418568611145 0.25581395626068115 0.09100489318370819
-0.674418568611145 0.27131783962249756 0.08330927789211273
-0.674418568611145 0.27131783962249756 0.08944317698478699
-0.674418568611145 0.28682172298431396 0.08275570720434189
-0.6744185090065002 0.28682172298431396 0.08865217864513397
-0.674418568611145 0.30232560634613037 0.0812104269862175
-0.6744186282157898 0.30232560634613037 0.08848818391561508
-0.674418568611145 0.3178294897079468 0.07617884874343872
-0.674418568611145 0.3178294897079468 0.08816099166870117
-0.674418568611145 0.3333333730697632 0.06918485462665558
-0.6744185090065002 0.3333333730697632 0.08734786510467529
-0.674418568611145 0.3488372564315796 0.06860366463661194
-0.674418568611145 0.348837286233902 0.08631113171577454
-0.674418568611145 0.364341139793396 0.06837229430675507
-0.6744186282157898 0.364341139793396 0.08542811125516891
-0.674418568611145 0.37984490394592285 0.06829772144556046
-0.674418568611145 0.37984490394592285 0.08130235970020294
-0.674418568611145 0.39534878730773926 0.0682668685913086
-0.674418568611145 0.39534878730773926 0.07868754863739014
-0.674418568611145 0.41085267066955566 0.06827205419540405
-0.674418568611145 0.41085267066955566 0.07731601595878601
-0.674418568611145 0.42635655403137207 0.0682239830493927
-0.674418568611145 0.42635655403137207 0.07615076005458832
-0.674418568611145 0.4418604373931885 0.06816476583480835
-0.674418568611145 0.44186046719551086 0.07534989714622498
-0.674418568611145 0.4573643207550049 0.06801030039787292
-0.674418568611145 0.4573643207550049 0.074578657746315
-0.674418568611145 0.4728682041168213 0.06763747334480286
-0.674418568611145 0.4728682041168213 0.07392518222332001
-0.674418568611145 0.4883720874786377 0.06654281169176102
-0.674418568611145 0.4883720874786377 0.07315602898597717
-0.674418568611145 0.5038759708404541 0.06358303129673004
-0.674418568611145 0.5038759708404541 0.07249262928962708
-0.674418568611145 0.5193798542022705 0.05418509989976883
-0.674418568611145 0.5193798542022705 0.07165007293224335
-0.674418568611145 0.5348837375640869 0.053232595324516296
-0.674418568611145 0.5348837375640869 0.0706690177321434
-0.674418568611145 0.5503876209259033 0.05267636850476265
-0.674418568611145 0.5503876209259033 0.06869471073150635
-0.674418568611145 0.5658915042877197 0.05224791169166565
-0.674418568611145 0.5658915042877197 0.06450130045413971
-0.674418568611145 0.5813953876495361 0.05185627564787865
-0.674418568611145 0.5813953876495361 0.062230221927165985
-0.674418568611145 0.5968992710113525 0.051431942731142044
-0.674418568611145 0.5968992710113525 0.06039997190237045
-0.674418568611145 0.612403154373169 0.050879307091236115
-0.674418568611145 0.612403154373169 0.05874074250459671
-0.674418568611145 0.6279069185256958 0.04960078001022339
-0.674418568611145 0.6279069185256958 0.057322148233652115
-0.674418568611145 0.6434108018875122 0.045392319560050964
-0.674418568611145 0.643410861492157 0.056260377168655396
-0.674418568611145 0.6589146852493286 0.03868662193417549
-0.674418568611145 0.6589147448539734 0.05479374900460243
-0.6589146852493286 -0.317829430103302 0.11242938041687012
-0.6589146852493286 -0.3178294003009796 0.11688944697380066
-0.6589146852493286 -0.30232560634613037 0.10182015597820282
-0.6589146852493286 -0.30232560634613037 0.11793133616447449
-0.6589146852493286 -0.28682172298431396 0.09940250217914581
-0.6589146256446838 -0.2868216931819916 0.11798973381519318
-0.6589146852493286 -0.27131783962249756 0.0983712449669838
-0.6589146852493286 -0.27131783962249756 0.1173911839723587
-0.6589146852493286 -0.25581395626068115 0.09804452210664749
-0.6589146852493286 -0.25581395626068115 0.11574112623929977
-0.6589146852493286 -0.24031007289886475 0.09808000177145004
-0.6589146852493286 -0.24031007289886475 0.10946425795555115
-0.6589146852493286 -0.22480618953704834 0.09803863614797592
-0.6589146852493286 -0.22480617463588715 0.10622440278530121
-0.6589146852493286 -0.20930230617523193 0.0978664681315422
-0.6589146852493286 -0.20930230617523193 0.1046847403049469
-0.6589146852493286 -0.19379842281341553 0.09784439951181412
-0.6589146852493286 -0.19379842281341553 0.10376699268817902
-0.6589146852493286 -0.1782945990562439 0.09784659743309021
-0.6589146852493286 -0.1782945990562439 0.10325859487056732
-0.6589146852493286 -0.1627907156944275 0.09787313640117645
-0.6589146852493286 -0.1627907156944275 0.1029748022556305
-0.6589146852493286 -0.14728683233261108 0.09788787364959717
-0.6589146852493286 -0.14728683233261108 0.10290296375751495
-0.6589146852493286 -0.13178294897079468 0.09776496142148972
-0.6589146852493286 -0.13178294897079468 0.1029205471277237
-0.6589146852493286 -0.11627906560897827 0.09750057756900787
-0.6589146852493286 -0.11627906560897827 0.1030072495341301
-0.6589146852493286 -0.10077518224716187 0.09701469540596008
-0.6589146852493286 -0.10077518224716187 0.10317623615264893
-0.6589146852493286 -0.08527129888534546 0.09593681991100311
-0.6589146852493286 -0.08527129888534546 0.10334812104701996
-0.6589146852493286 -0.06976741552352905 0.09335111826658249
-0.6589146256446838 -0.06976741552352905 0.10352228581905365
-0.6589146852493286 -0.05426359549164772 0.08587339520454407
-0.6589146852493286 -0.05426359549164772 0.10366552323102951
-0.6589146852493286 -0.038759708404541016 0.08429890125989914
-0.6589146852493286 -0.038759708404541016 0.10372353345155716
-0.6589146852493286 -0.02325582504272461 0.08373945951461792
-0.6589146852493286 -0.02325582504272461 0.10354001820087433
-0.6589146852493286 -0.007751941680908203 0.08348409831523895
-0.6589146852493286 -0.007751941680908203 0.10324423015117645
-0.6589146852493286 0.007751941680908203 0.08340822905302048
-0.6589147448539734 0.007751941680908203 0.10311199724674225
-0.6589146852493286 0.02325582504272461 0.08354959636926651
-0.6589146852493286 0.02325582504272461 0.10306226462125778
-0.6589146852493286 0.038759708404541016 0.08373087644577026
-0.6589146852493286 0.038759708404541016 0.10291151702404022
-0.6589146852493286 0.05426359176635742 0.08394669741392136
-0.6589146852493286 0.05426359176635742 0.10274407267570496
-0.6589146852493286 0.06976747512817383 0.08416718244552612
-0.6589146852493286 0.06976747512817383 0.10256245732307434
-0.6589146852493286 0.08527135848999023 0.08426979184150696
-0.6589146852493286 0.08527135848999023 0.1023203581571579
-0.6589146852493286 0.10077524185180664 0.0841398760676384
-0.6589146256446838 0.10077524185180664 0.10202658176422119
-0.6589146852493286 0.11627912521362305 0.08397500962018967
-0.6589146852493286 0.11627912521362305 0.10179612785577774
-0.6589146852493286 0.1317828893661499 0.08382031321525574
-0.6589146852493286 0.1317829042673111 0.10156527161598206
-0.6589146852493286 0.1472867727279663 0.08355342596769333
-0.6589146852493286 0.1472867727279663 0.10114484280347824
-0.6589146852493286 0.16279065608978271 0.08316025882959366
-0.6589146852493286 0.16279065608978271 0.09926111996173859
-0.6589146852493286 0.17829453945159912 0.0827866718173027
-0.6589146852493286 0.17829453945159912 0.09679529815912247
-0.6589146852493286 0.19379842281341553 0.08267863094806671
-0.6589146852493286 0.19379842281341553 0.09481704980134964
-0.6589146852493286 0.20930230617523193 0.08273790776729584
-0.6589146852493286 0.20930230617523193 0.09303557872772217
-0.6589146852493286 0.22480618953704834 0.08288104087114334
-0.6589146852493286 0.22480617463588715 0.09151965379714966
-0.6589146852493286 0.24031007289886475 0.08301705121994019
-0.6589146852493286 0.24031007289886475 0.09012261033058167
-0.6589146852493286 0.25581395626068115 0.08298278599977493
-0.6589146852493286 0.25581395626068115 0.088796466588974
-0.6589146852493286 0.27131783962249756 0.0826152041554451
-0.6589146852493286 0.27131783962249756 0.08796682953834534
-0.6589146852493286 0.28682172298431396 0.08148479461669922
-0.6589146852493286 0.28682172298431396 0.08758214116096497
-0.6589146852493286 0.30232560634613037 0.07806137204170227
-0.6589146852493286 0.30232560634613037 0.0874723345041275
-0.6589146852493286 0.3178294897079468 0.06937514990568161
-0.6589146256446838 0.3178294897079468 0.08710674941539764
-0.6589146852493286 0.3333333730697632 0.06853097677230835
-0.6589146852493286 0.3333333730697632 0.08636236935853958
-0.6589146852493286 0.3488372564315796 0.06815069168806076
-0.6589146852493286 0.3488372564315796 0.08546210080385208
-0.6589146852493286 0.364341139793396 0.06789316982030869
-0.6589146852493286 0.364341139793396 0.08108692616224289
-0.6589146852493286 0.37984490394592285 0.0676860511302948
-0.6589146852493286 0.37984490394592285 0.07792751491069794
-0.6589146852493286 0.39534878730773926 0.06754172593355179
-0.6589146852493286 0.39534878730773926 0.07607729732990265
-0.6589146852493286 0.41085267066955566 0.06755562871694565
-0.6589146852493286 0.41085267066955566 0.07495014369487762
-0.6589146852493286 0.42635655403137207 0.06748039275407791
-0.6589146852493286 0.42635655403137207 0.0740608423948288
-0.6589146852493286 0.4418604373931885 0.06736253201961517
-0.6589146852493286 0.44186046719551086 0.07349443435668945
-0.6589146852493286 0.4573643207550049 0.06696217507123947
-0.6589146852493286 0.4573643207550049 0.07296336442232132
-0.6589146852493286 0.4728682041168213 0.0659191757440567
-0.6589146852493286 0.4728682041168213 0.07250072807073593
-0.6589146852493286 0.4883720874786377 0.06286599487066269
-0.6589146852493286 0.4883720874786377 0.07191291451454163
-0.6589146852493286 0.5038759708404541 0.054082244634628296
-0.6589146852493286 0.5038759708404541 0.07133572548627853
-0.6589146852493286 0.5193798542022705 0.05323028564453125
-0.6589146852493286 0.5193798542022705 0.07055006921291351
-0.6589146852493286 0.5348837375640869 0.05270862206816673
-0.6589146852493286 0.5348837375640869 0.06885676831007004
-0.6589146852493286 0.5503876209259033 0.052272163331508636
-0.6589146852493286 0.5503876209259033 0.06420750916004181
-0.6589146852493286 0.5658915042877197 0.05164216458797455
-0.6589146852493286 0.5658915042877197 0.06129497289657593
-0.6589146852493286 0.5813953876495361 0.05085676908493042
-0.6589146852493286 0.5813953876495361 0.05947938561439514
-0.6589146852493286 0.5968992710113525 0.04975740611553192
-0.6589146852493286 0.5968992710113525 0.0582035556435585
-0.6589146852493286 0.612403154373169 0.04757136479020119
-0.6589146852493286 0.612403154373169 0.05705581232905388
-0.6589146852493286 0.6279069185256958 0.038756854832172394
-0.6589146852493286 0.6279069185256958 0.05588618293404579
-0.6589146852493286 0.6434108018875122 0.03785010427236557
-0.6589146852493286 0.6434108018875122 0.05459978058934212
-0.643410861492157 -0.3643410801887512 0.11123964190483093
-0.643410861492157 -0.3643410801887512 0.11675046384334564
-0.643410861492157 -0.3488371968269348 0.1004161685705185
-0.643410861492157 -0.3488371968269348 0.11789032071828842
-0.643410861492157 -0.3333333134651184 0.0991840735077858
-0.643410861492157 -0.3333333134651184 0.11790541559457779
-0.643410861492157 -0.317829430103302 0.09825000166893005
-0.6434109210968018 -0.317829430103302 0.11718889325857162
-0.643410861492157 -0.30232560634613037 0.09813909232616425
-0.643410861492157 -0.30232560634613037 0.11470405757427216
-0.643410861492157 -0.28682172298431396 0.09818127751350403
-0.643410861492157 -0.28682172298431396 0.10968564450740814
-0.643410861492157 -0.27131783962249756 0.09819841384887695
-0.643410861492157 -0.27131783962249756 0.10725107789039612
-0.643410861492157 -0.25581395626068115 0.09801901131868362
-0.643410861492157 -0.25581395626068115 0.1056864783167839
-0.643410861492157 -0.24031007289886475 0.09762927889823914
-0.643410861492157 -0.24031007289886475 0.10457917302846909
-0.643410861492157 -0.22480618953704834 0.09690258651971817
-0.6434108018875122 -0.22480618953704834 0.10375047475099564
-0.643410861492157 -0.20930230617523193 0.09613023698329926
-0.6434108018875122 -0.20930230617523193 0.10317293554544449
-0.643410861492157 -0.19379842281341553 0.09577421844005585
-0.6434108018875122 -0.19379842281341553 0.10275112837553024
-0.643410861492157 -0.1782945990562439 0.09544847160577774
-0.6434109210968018 -0.1782946139574051 0.10250869393348694
-0.643410861492157 -0.1627907156944275 0.09521529823541641
-0.6434109210968018 -0.1627907156944275 0.10238786041736603
-0.643410861492157 -0.14728683233261108 0.0950198620557785
-0.643410861492157 -0.14728683233261108 0.10236246883869171
-0.643410861492157 -0.13178294897079468 0.09466510266065598
-0.6434108018875122 -0.13178294897079468 0.10237116366624832
-0.643410861492157 -0.11627906560897827 0.09415939450263977
-0.643410861492157 -0.11627906560897827 0.10240327566862106
-0.643410861492157 -0.10077518224716187 0.09293743222951889
-0.6434109210968018 -0.10077518969774246 0.10249428451061249
-0.643410861492157 -0.08527129888534546 0.08925318717956543
-0.643410861492157 -0.08527129888534546 0.10261961072683334
-0.6434108018875122 -0.06976741552352905 0.08485924452543259
-0.6434109210968018 -0.06976741552352905 0.10273723304271698
-0.643410861492157 -0.05426359176635742 0.08414919674396515
-0.6434109210968018 -0.05426359176635742 0.1027718037366867
-0.643410861492157 -0.038759708404541016 0.083602674305439
-0.643410861492157 -0.038759708404541016 0.10267121344804764
-0.6434108018875122 -0.02325582504272461 0.08326859772205353
-0.643410861492157 -0.02325582504272461 0.10236408561468124
-0.643410861492157 -0.007751941680908203 0.08303188532590866
-0.6434109210968018 -0.007751941680908203 0.10199854522943497
-0.643410861492157 0.007751941680908203 0.08296127617359161
-0.643410861492157 0.007751941680908203 0.10181107372045517
-0.643410861492157 0.02325582504272461 0.08316261321306229
-0.643410861492157 0.02325582504272461 0.1017572283744812
-0.643410861492157 0.038759708404541016 0.08338915556669235
-0.643410861492157 0.038759708404541016 0.10162611305713654
-0.643410861492157 0.05426359176635742 0.08357682824134827
-0.643410861492157 0.05426359176635742 0.10151596367359161
-0.643410861492157 0.06976747512817383 0.08371733874082565
-0.6434108018875122 0.06976746767759323 0.10139252245426178
-0.6434109210968018 0.08527135848999023 0.08380904793739319
-0.643410861492157 0.08527135848999023 0.10121189057826996
-0.643410861492157 0.10077524185180664 0.08381512016057968
-0.643410861492157 0.10077524185180664 0.10097277164459229
-0.643410861492157 0.11627912521362305 0.08377941697835922
-0.643410861492157 0.11627912521362305 0.10051576793193817
-0.643410861492157 0.1317828893661499 0.083663709461689
-0.643410861492157 0.1317828893661499 0.09849970787763596
-0.6434108018875122 0.1472867727279663 0.08337800204753876
-0.643410861492157 0.1472867727279663 0.09584607928991318
-0.643410861492157 0.16279065608978271 0.08289448171854019
-0.643410861492157 0.16279065608978271 0.0937543660402298
-0.643410861492157 0.17829453945159912 0.0823589488863945
-0.6434108018875122 0.17829453945159912 0.09261776506900787
-0.643410861492157 0.19379842281341553 0.08215175569057465
-0.643410861492157 0.19379842281341553 0.09144219756126404
-0.643410861492157 0.20930230617523193 0.08214152604341507
-0.643410861492157 0.20930230617523193 0.09031056612730026
-0.643410861492157 0.22480618953704834 0.08222587406635284
-0.643410861492157 0.22480618953704834 0.08938182890415192
-0.643410861492157 0.24031007289886475 0.0823153704404831
-0.643410861492157 0.24031007289886475 0.08849864453077316
-0.6434108018875122 0.25581395626068115 0.08215511590242386
-0.6434108018875122 0.25581395626068115 0.08769306540489197
-0.643410861492157 0.27131783962249756 0.08154784888029099
-0.643410861492157 0.27131783962249756 0.08719479292631149
-0.643410861492157 0.28682172298431396 0.07961087673902512
-0.643410861492157 0.28682172298431396 0.08685338497161865
-0.643410861492157 0.30232560634613037 0.07104018330574036
-0.643410861492157 0.30232560634613037 0.08665869385004044
-0.643410861492157 0.3178294897079468 0.06865393370389938
-0.6434108018875122 0.3178294897079468 0.0862901359796524
-0.643410861492157 0.3333333730697632 0.06799226254224777
-0.643410861492157 0.3333333730697632 0.08568336069583893
-0.643410861492157 0.3488372564315796 0.06751552224159241
-0.6434109210968018 0.3488372564315796 0.08273094892501831
-0.6434108018875122 0.364341139793396 0.06713473796844482
-0.643410861492157 0.364341139793396 0.07858031988143921
-0.6434108018875122 0.37984490394592285 0.06676731258630753
-0.6434108018875122 0.37984490394592285 0.07591871172189713
-0.643410861492157 0.39534878730773926 0.06643298268318176
-0.6434109210968018 0.39534878730773926 0.07438237220048904
-0.6434108018875122 0.41085267066955566 0.06641926616430283
-0.643410861492157 0.41085270047187805 0.07351236790418625
-0.643410861492157 0.42635655403137207 0.0662250816822052
-0.6434109210968018 0.42635655403137207 0.07286132127046585
-0.643410861492157 0.4418604373931885 0.06593456119298935
-0.643410861492157 0.4418604373931885 0.0724521204829216
-0.643410861492157 0.4573643207550049 0.06501451134681702
-0.643410861492157 0.4573643207550049 0.07205988466739655
-0.643410861492157 0.4728682041168213 0.06255888193845749
-0.643410861492157 0.4728682041168213 0.07169556617736816
-0.643410861492157 0.4883720874786377 0.05414746329188347
-0.643410861492157 0.4883720874786377 0.0711485967040062
-0.6434108018875122 0.5038759708404541 0.05333494767546654
-0.643410861492157 0.5038759708404541 0.07053052634000778
-0.643410861492157 0.5193798542022705 0.05277201533317566
-0.643410861492157 0.5193798542022705 0.06947697699069977
-0.6434108018875122 0.5348837375640869 0.05226727947592735
-0.643410861492157 0.5348837375640869 0.06479021906852722
-0.643410861492157 0.5503876209259033 0.051595043390989304
-0.643410861492157 0.5503876209259033 0.06161448359489441
-0.643410861492157 0.5658915042877197 0.05030506104230881
-0.643410861492157 0.5658915042877197 0.05944136530160904
-0.643410861492157 0.5813953876495361 0.048679374158382416
-0.643410861492157 0.5813953876495361 0.05801795423030853
-0.643410861492157 0.5968992710113525 0.04733361676335335
-0.643410861492157 0.5968992710113525 0.05663537606596947
-0.6434109210968018 0.612403154373169 0.04124210774898529
-0.643410861492157 0.612403154373169 0.05536532774567604
-0.643410861492157 0.6279069185256958 0.03770613297820091
-0.6434108018875122 0.6279069185256958 0.05206545814871788
-0.643410861492157 0.6434108018875122 0.03774208575487137
-0.643410861492157 0.6434108018875122 0.044228777289390564
-0.6279069781303406 -0.41085273027420044 0.10069308429956436
-0.6279069781303406 -0.41085270047187805 0.11681262403726578
-0.6279069185256958 -0.39534884691238403 0.09978087246417999
-0.6279069781303406 -0.39534884691238403 0.11755393445491791
-0.6279069781303406 -0.3798449635505676 0.09865076839923859
-0.6279069781303406 -0.3798449635505676 0.11742953211069107
-0.6279069781303406 -0.3643410801887512 0.09787951409816742
-0.6279069781303406 -0.3643410801887512 0.11663946509361267
-0.6279069781303406 -0.3488371968269348 0.097893625497818
-0.6279069781303406 -0.3488371968269348 0.11079318821430206
-0.6279069781303406 -0.3333333134651184 0.09818661212921143
-0.6279069781303406 -0.3333333134651184 0.10645775496959686
-0.6279070377349854 -0.317829430103302 0.09825946390628815
-0.6279069185256958 -0.317829430103302 0.10462257266044617
-0.6279069781303406 -0.30232560634613037 0.09812531620264053
-0.6279069185256958 -0.30232560634613037 0.10386638343334198
-0.6279069185256958 -0.28682172298431396 0.0977342426776886
-0.6279069185256958 -0.28682172298431396 0.10353391617536545
-0.6279069781303406 -0.27131783962249756 0.09715501964092255
-0.6279069781303406 -0.27131783962249756 0.10341839492321014
-0.6279069781303406 -0.25581395626068115 0.09607842564582825
-0.6279069185256958 -0.25581395626068115 0.10330291092395782
-0.6279069781303406 -0.24031007289886475 0.09471626579761505
-0.6279069781303406 -0.24031007289886475 0.10310012847185135
-0.6279069781303406 -0.22480618953704834 0.09264189004898071
-0.6279069781303406 -0.22480618953704834 0.10281141102313995
-0.6279069781303406 -0.20930230617523193 0.09021488577127457
-0.6279069781303406 -0.20930230617523193 0.10253432393074036
-0.6279069185256958 -0.19379842281341553 0.08828350901603699
-0.6279069781303406 -0.19379840791225433 0.10232023149728775
-0.6279069781303406 -0.1782945990562439 0.08560486137866974
-0.6279069781303406 -0.1782945990562439 0.10217420756816864
-0.6279069781303406 -0.1627907156944275 0.08506197482347488
-0.6279069781303406 -0.1627907156944275 0.10208211839199066
-0.6279069781303406 -0.14728683233261108 0.08488798141479492
-0.6279069781303406 -0.14728683233261108 0.10204112529754639
-0.6279069781303406 -0.13178294897079468 0.08477423340082169
-0.6279069781303406 -0.13178294897079468 0.10198134183883667
-0.6279069781303406 -0.11627906560897827 0.08471696823835373
-0.6279070377349854 -0.11627906560897827 0.10187189280986786
-0.6279069781303406 -0.10077518224716187 0.08457484841346741
-0.6279069781303406 -0.10077518224716187 0.1018092930316925
-0.6279069781303406 -0.08527129888534546 0.0842369869351387
-0.6279069781303406 -0.08527129888534546 0.1017799824476242
-0.6279069781303406 -0.06976741552352905 0.08384135365486145
-0.6279069185256958 -0.06976741552352905 0.10171251744031906
-0.6279069781303406 -0.05426359176635742 0.0835268646478653
-0.6279069781303406 -0.05426359176635742 0.10156916081905365
-0.6279069781303406 -0.038759708404541016 0.08318706601858139
-0.6279069781303406 -0.038759708404541016 0.10138603299856186
-0.6279069781303406 -0.02325582504272461 0.08273810893297195
-0.6279069781303406 -0.02325582504272461 0.10107732564210892
-0.6279069781303406 -0.007751941680908203 0.08234287053346634
-0.6279069781303406 -0.007751941680908203 0.10036136955022812
-0.6279069781303406 0.007751941680908203 0.08228576183319092
-0.6279069781303406 0.007751941680908203 0.09893559664487839
-0.6279070377349854 0.02325582504272461 0.08264221996068954
-0.6279069781303406 0.02325582504272461 0.09844431281089783
-0.6279069781303406 0.038759708404541016 0.08300833404064178
-0.6279069781303406 0.038759708404541016 0.09757497906684875
-0.6279069781303406 0.05426359176635742 0.08330599963665009
-0.6279069781303406 0.05426359176635742 0.09696048498153687
-0.6279069185256958 0.06976747512817383 0.08341438323259354
-0.6279069781303406 0.06976747512817383 0.09644919633865356
-0.6279069781303406 0.08527135848999023 0.08337223529815674
-0.6279069781303406 0.08527135848999023 0.09566888958215714
-0.6279069781303406 0.10077524185180664 0.0833849310874939
-0.6279069781303406 0.10077524185180664 0.09459464997053146
-0.6279069781303406 0.11627912521362305 0.08342696726322174
-0.6279069781303406 0.11627912521362305 0.093490831553936
-0.6279069781303406 0.1317828893661499 0.08334366977214813
-0.6279069781303406 0.1317828893661499 0.09231371432542801
-0.6279069781303406 0.1472867727279663 0.08304837346076965
-0.6279069781303406 0.1472867727279663 0.0910436287522316
-0.6279069781303406 0.16279065608978271 0.08242432773113251
-0.6279069781303406 0.16279065608978271 0.09022305905818939
-0.6279069781303406 0.17829453945159912 0.08157975971698761
-0.6279069781303406 0.17829453945159912 0.08978671580553055
-0.6279069781303406 0.19379842281341553 0.0811518058180809
-0.6279069781303406 0.19379842281341553 0.08912389725446701
-0.6279069781303406 0.20930230617523193 0.08094262331724167
-0.6279069781303406 0.20930230617523193 0.08846376836299896
-0.6279069781303406 0.22480618953704834 0.08086977154016495
-0.6279069781303406 0.22480618953704834 0.08791601657867432
-0.6279069781303406 0.24031007289886475 0.08083929866552353
-0.6279069781303406 0.24031007289886475 0.08740456402301788
-0.6279069781303406 0.25581395626068115 0.08053234964609146
-0.6279069185256958 0.25581395626068115 0.08688156306743622
-0.6279069781303406 0.27131783962249756 0.07982563972473145
-0.6279069781303406 0.27131783962249756 0.08637764304876328
-0.6279069185256958 0.28682172298431396 0.07434330135583878
-0.6279069781303406 0.28682172298431396 0.08587638288736343
-0.6279069781303406 0.30232560634613037 0.06886943429708481
-0.6279069781303406 0.30232560634613037 0.08563566207885742
-0.6279069781303406 0.3178294897079468 0.06806756556034088
-0.6279070377349854 0.3178294897079468 0.0853472650051117
-0.6279069185256958 0.3333333730697632 0.0673406794667244
-0.6279069781303406 0.3333333730697632 0.08269704878330231
-0.6279069781303406 0.3488372564315796 0.06656741350889206
-0.6279069781303406 0.3488372564315796 0.07954186201095581
-0.6279069781303406 0.364341139793396 0.06588131189346313
-0.6279069185256958 0.364341139793396 0.07642768323421478
-0.6279069781303406 0.37984490394592285 0.06533363461494446
-0.6279069781303406 0.37984490394592285 0.07399258017539978
-0.6279069781303406 0.39534878730773926 0.06473223119974136
-0.6279069781303406 0.39534881711006165 0.07275670021772385
-0.6279069781303406 0.41085267066955566 0.0645764097571373
-0.6279069781303406 0.41085267066955566 0.07220285385847092
-0.6279069781303406 0.42635655403137207 0.06398031860589981
-0.6279069781303406 0.42635655403137207 0.07180222868919373
-0.6279069781303406 0.4418604373931885 0.06304638087749481
-0.6279069781303406 0.44186046719551086 0.07151832431554794
-0.6279069781303406 0.4573643207550049 0.06021657586097717
-0.6279069185256958 0.4573642909526825 0.0712081715464592
-0.6279069781303406 0.4728682041168213 0.05398917198181152
-0.6279069781303406 0.4728682041168213 0.07084456831216812
-0.6279069781303406 0.4883720874786377 0.053330156952142715
-0.6279069781303406 0.4883720874786377 0.07022540271282196
-0.6279069781303406 0.5038759708404541 0.05284468084573746
-0.6279069781303406 0.5038759708404541 0.0680030956864357
-0.6279069781303406 0.5193798542022705 0.05228864401578903
-0.6279069781303406 0.5193798542022705 0.06420756131410599
-0.6279069781303406 0.5348837375640869 0.05147178843617439
-0.6279070377349854 0.5348837375640869 0.061524972319602966
-0.6279069781303406 0.5503876209259033 0.049907974898815155
-0.6279069781303406 0.5503876209259033 0.05925557017326355
-0.6279069781303406 0.5658915042877197 0.04649654030799866
-0.6279069781303406 0.5658915042877197 0.05771960690617561
-0.6279069185256958 0.5813953876495361 0.04105473309755325
-0.6279069781303406 0.5813953876495361 0.056704387068748474
-0.6279069781303406 0.5968992710113525 0.03836674243211746
-0.6279069781303406 0.5968992114067078 0.05512431263923645
-0.6279069781303406 0.612403154373169 0.0375056192278862
-0.6279069781303406 0.612403154373169 0.05064307898283005
-0.6279069781303406 0.6279069185256958 0.03712717816233635
-0.6279069781303406 0.6279069185256958 0.04603211581707001
-0.6124030947685242 -0.4728682041168213 0.10031679272651672
-0.6124030947685242 -0.4728682041168213 0.1085464209318161
-0.6124030947685242 -0.4573643207550049 0.09974942356348038
-0.6124030947685242 -0.45736435055732727 0.11672236025333405
-0.6124030947685242 -0.4418604373931885 0.09914399683475494
-0.6124030947685242 -0.4418604373931885 0.11691640317440033
-0.6124030947685242 -0.42635661363601685 0.09844882786273956
-0.6124030947685242 -0.42635664343833923 0.11644347757101059
-0.6124030947685242 -0.41085273027420044 0.09798941016197205
-0.6124030947685242 -0.41085273027420044 0.1121596023440361
-0.6124030947685242 -0.39534884691238403 0.0976429134607315
-0.6124030947685242 -0.39534884691238403 0.10818859189748764
-0.6124030947685242 -0.3798449635505676 0.09742605686187744
-0.6124030947685242 -0.37984499335289 0.10579632222652435
-0.6124030947685242 -0.3643410801887512 0.09728415310382843
-0.6124030947685242 -0.36434105038642883 0.10419311374425888
-0.6124030947685242 -0.3488371968269348 0.09712326526641846
-0.6124030947685242 -0.3488371968269348 0.10317520797252655
-0.6124030947685242 -0.3333333134651184 0.0965353399515152
-0.6124030947685242 -0.3333333134651184 0.10272911936044693
-0.6124030947685242 -0.317829430103302 0.09541905671358109
-0.6124030351638794 -0.317829430103302 0.10255979746580124
-0.6124030947685242 -0.30232560634613037 0.09433133155107498
-0.6124030351638794 -0.30232560634613037 0.10248858481645584
-0.6124030947685242 -0.28682172298431396 0.09281787276268005
-0.6124030947685242 -0.28682172298431396 0.1024727076292038
-0.6124030947685242 -0.27131783962249756 0.09074889123439789
-0.6124030947685242 -0.27131783962249756 0.10251255333423615
-0.6124030947685242 -0.25581395626068115 0.08740410208702087
-0.6124030947685242 -0.25581395626068115 0.10251560062170029
-0.6124030947685242 -0.24031007289886475 0.08509919047355652
-0.6124030947685242 -0.24031007289886475 0.1024232730269432
-0.6124030947685242 -0.22480618953704834 0.08468759059906006
-0.6124030351638794 -0.22480618953704834 0.10223159193992615
-0.6124030947685242 -0.20930230617523193 0.08436713367700577
-0.6124030947685242 -0.20930230617523193 0.1019965261220932
-0.6124030947685242 -0.19379842281341553 0.08416861295700073
-0.6124030947685242 -0.19379842281341553 0.10170500725507736
-0.6124030947685242 -0.1782945990562439 0.08396042138338089
-0.6124030947685242 -0.1782946139574051 0.10139062255620956
-0.6124030947685242 -0.1627907156944275 0.08376363664865494
-0.6124030947685242 -0.1627907156944275 0.10117115825414658
-0.6124030351638794 -0.14728683233261108 0.08368831127882004
