0.7209302186965942 0.5193798542022705 0.1892087757587433
0.7209302186965942 0.5193798542022705 0.21445786952972412
0.7209302186965942 0.5348837375640869 0.18849995732307434
0.7209302186965942 0.5348837375640869 0.21536582708358765
0.7209302186965942 0.5503876209259033 0.18775714933872223
0.7209302186965942 0.5503876209259033 0.2155447155237198
0.7209302186965942 0.5658915042877197 0.18766775727272034
0.7209302186965942 0.5658915042877197 0.2147129476070404
0.7209302186965942 0.5813953876495361 0.18804606795310974
0.7209302186965942 0.5813953876495361 0.21264933049678802
0.7209302186965942 0.5968992710113525 0.18897251784801483
0.720930278301239 0.5968992710113525 0.20987683534622192
0.7209302186965942 0.612403154373169 0.18982167541980743
0.7209302186965942 0.612403154373169 0.20548102259635925
0.7209302186965942 0.6279069185256958 0.19004638493061066
0.7209302186965942 0.6279069185256958 0.20266616344451904
0.7209302186965942 0.6434108018875122 0.19021756947040558
0.7209302186965942 0.6434108018875122 0.20124521851539612
0.7209302186965942 0.6589146852493286 0.19038233160972595
0.7209302186965942 0.6589146852493286 0.20032289624214172
0.7209302186965942 0.674418568611145 0.1903499811887741
0.7209302186965942 0.674418568611145 0.1997435986995697
0.7209302186965942 0.6899224519729614 0.19004622101783752
0.7209302186965942 0.6899224519729614 0.19927406311035156
0.7209302186965942 0.7054263353347778 0.18943220376968384
0.7209302186965942 0.7054263353347778 0.1984267234802246
0.7209302186965942 0.7209302186965942 0.18876083195209503
0.7209302186965942 0.7209302186965942 0.19747796654701233
0.7209302186965942 0.7364341020584106 0.18807214498519897
0.7209302186965942 0.7364341020584106 0.19669368863105774
0.7209302186965942 0.751937985420227 0.18464471399784088
0.7209302186965942 0.751937985420227 0.19642186164855957
0.7209302186965942 0.7674418687820435 0.17776401340961456
0.7209302186965942 0.7674418687820435 0.19690048694610596
0.7364341020584106 -0.10077518224716187 0.17677943408489227
0.7364341020584106 -0.10077518224716187 0.17978297173976898
0.7364341020584106 -0.08527129888534546 0.17438027262687683
0.7364341020584106 -0.08527129888534546 0.18379651010036469
0.7364341020584106 -0.06976741552352905 0.17442792654037476
0.7364341020584106 -0.06976741552352905 0.18664473295211792
0.7364341020584106 -0.05426359176635742 0.17478999495506287
0.7364341020584106 -0.05426359176635742 0.19052408635616302
0.7364341020584106 -0.038759708404541016 0.1752445250749588
0.7364341020584106 -0.038759708404541016 0.19294607639312744
0.7364341020584106 -0.02325582504272461 0.17586645483970642
0.7364341020584106 -0.02325582318007946 0.1938427984714508
0.7364341020584106 -0.007751941680908203 0.17654401063919067
0.7364341020584106 -0.007751941680908203 0.19408302009105682
0.7364341020584106 0.007751941680908203 0.17712892591953278
0.7364341020584106 0.007751941680908203 0.19442342221736908
0.7364341020584106 0.02325582504272461 0.1774982064962387
0.7364341020584106 0.02325582504272461 0.19496148824691772
0.7364341020584106 0.038759708404541016 0.17801764607429504
0.7364341020584106 0.038759708404541016 0.19589221477508545
0.7364341020584106 0.05426359176635742 0.17979253828525543
0.7364341020584106 0.05426359176635742 0.19700247049331665
0.7364341020584106 0.06976747512817383 0.18296575546264648
0.7364341020584106 0.06976747512817383 0.19803103804588318
0.7364341020584106 0.08527135848999023 0.18475720286369324
0.7364341020584106 0.08527135848999023 0.19892849028110504
0.7364341020584106 0.10077524185180664 0.18572403490543365
0.7364341020584106 0.10077524185180664 0.19996169209480286
0.7364341020584106 0.11627912521362305 0.1865065097808838
0.7364341020584106 0.11627912521362305 0.2015099972486496
0.7364341020584106 0.1317828893661499 0.18735584616661072
0.7364341020584106 0.1317828893661499 0.20356523990631104
0.7364341020584106 0.1472867727279663 0.18846693634986877
0.7364341020584106 0.1472867727279663 0.20522497594356537
0.7364341020584106 0.16279065608978271 0.1896965056657791
0.7364341020584106 0.16279065608978271 0.20751534402370453
0.7364341020584106 0.17829453945159912 0.19045871496200562
0.7364341020584106 0.17829453945159912 0.20956028997898102
0.7364341020584106 0.19379842281341553 0.19109688699245453
0.7364341020584106 0.19379842281341553 0.21049310266971588
0.7364341020584106 0.20930230617523193 0.190889373421669
0.7364341020584106 0.20930232107639313 0.21236929297447205
0.7364341020584106 0.22480618953704834 0.19024841487407684
0.7364341020584106 0.22480618953704834 0.21490395069122314
0.7364341020584106 0.24031007289886475 0.19039985537528992
0.7364341020584106 0.24031007289886475 0.2162574678659439
0.7364341020584106 0.25581395626068115 0.19152788817882538
0.7364341020584106 0.25581395626068115 0.21605592966079712
0.7364341020584106 0.27131783962249756 0.1932154893875122
0.7364341020584106 0.27131783962249756 0.21545520424842834
0.7364341020584106 0.28682172298431396 0.19939497113227844
0.7364341020584106 0.28682172298431396 0.2151314914226532
0.7364341020584106 0.30232560634613037 0.2024526447057724
0.7364341020584106 0.30232560634613037 0.21569645404815674
0.7364341020584106 0.3178294897079468 0.2030259519815445
0.7364341020584106 0.3178294897079468 0.21597175300121307
0.7364341020584106 0.3333333730697632 0.20330464839935303
0.7364341020584106 0.3333333730697632 0.2166251242160797
0.7364341020584106 0.3488372564315796 0.20304498076438904
0.7364341020584106 0.3488372564315796 0.2174740433692932
0.7364341020584106 0.364341139793396 0.2030324935913086
0.7364341020584106 0.364341139793396 0.21912723779678345
0.7364341020584106 0.37984490394592285 0.20303408801555634
0.7364341020584106 0.37984490394592285 0.22002550959587097
0.7364341020584106 0.39534878730773926 0.20376034080982208
0.7364341020584106 0.39534878730773926 0.22023172676563263
0.7364341020584106 0.41085267066955566 0.20388518273830414
0.7364341020584106 0.41085267066955566 0.22031313180923462
0.7364341020584106 0.42635655403137207 0.2037099152803421
0.7364341020584106 0.42635655403137207 0.2210204303264618
0.7364341020584106 0.4418604373931885 0.2035098373889923
0.7364341020584106 0.4418604373931885 0.22211773693561554
0.7364341020584106 0.4573643207550049 0.20348359644412994
0.7364341020584106 0.4573643207550049 0.2233736515045166
0.7364341020584106 0.4728682041168213 0.2033834159374237
0.7364341020584106 0.4728682041168213 0.2245761901140213
0.7364341020584106 0.4883720874786377 0.2028314769268036
0.7364341020584106 0.4883720874786377 0.22496280074119568
0.7364341020584106 0.5038759708404541 0.20227675139904022
0.7364341020584106 0.5038759708404541 0.22546719014644623
0.7364341020584106 0.5193798542022705 0.2014942467212677
0.7364341020584106 0.5193798542022705 0.22613021731376648
0.7364341020584106 0.5348837375640869 0.19985747337341309
0.7364341020584106 0.5348837375640869 0.227105513215065
0.7364341020584106 0.5503876209259033 0.19791746139526367
0.7364341020584106 0.5503876209259033 0.2275301218032837
0.7364341020584106 0.5658915042877197 0.19698069989681244
0.7364341616630554 0.5658915042877197 0.22683316469192505
0.7364341020584106 0.5813953876495361 0.19726136326789856
0.7364341020584106 0.5813953876495361 0.22504204511642456
0.7364341020584106 0.5968992710113525 0.19849541783332825
0.7364341020584106 0.5968992710113525 0.22068166732788086
0.7364341020584106 0.612403154373169 0.19963353872299194
0.7364341020584106 0.612403154373169 0.21653640270233154
0.7364341020584106 0.6279069185256958 0.20006586611270905
0.7364341020584106 0.6279069185256958 0.21416279673576355
0.7364341020584106 0.6434108018875122 0.2000846415758133
0.7364341020584106 0.6434108018875122 0.21294021606445312
0.7364341020584106 0.6589146852493286 0.19938769936561584
0.7364341020584106 0.6589146852493286 0.21210984885692596
0.7364341020584106 0.674418568611145 0.19663606584072113
0.7364341020584106 0.674418568611145 0.21155451238155365
0.7364341020584106 0.6899224519729614 0.19351842999458313
0.7364341020584106 0.6899223923683167 0.21117767691612244
0.7364341020584106 0.7054263353347778 0.1928749531507492
0.7364341020584106 0.7054263353347778 0.2105790674686432
0.7364341020584106 0.7209302186965942 0.19232648611068726
0.7364341020584106 0.7209302186965942 0.20996148884296417
0.7364341020584106 0.7364341020584106 0.19188657402992249
0.7364341616630554 0.7364341616630554 0.2094845175743103
0.7364341020584106 0.751937985420227 0.1910621076822281
0.7364341020584106 0.751937985420227 0.20905724167823792
0.7364341020584106 0.7674418687820435 0.18920454382896423
0.7364341020584106 0.7674418687820435 0.20725128054618835
0.751937985420227 -0.05426359176635742 0.18919740617275238
0.751937985420227 -0.05426359549164772 0.19471248984336853
0.751937985420227 -0.038759708404541016 0.18711811304092407
0.751937985420227 -0.038759708404541016 0.1961362361907959
0.751937985420227 -0.02325582504272461 0.18804655969142914
0.751937985420227 -0.02325582504272461 0.19673511385917664
0.751937985420227 -0.007751941680908203 0.1890649050474167
0.751937985420227 -0.007751941680908203 0.19757749140262604
0.751937985420227 0.007751941680908203 0.18993347883224487
0.751937985420227 0.007751941680908203 0.19922146201133728
0.751937985420227 0.02325582504272461 0.19049787521362305
0.751937985420227 0.02325582504272461 0.20327135920524597
0.751937985420227 0.038759708404541016 0.19098740816116333
0.751937985420227 0.038759708404541016 0.20964975655078888
0.751937985420227 0.05426359176635742 0.1914171278476715
0.751937985420227 0.05426359176635742 0.2099650353193283
0.751937985420227 0.06976747512817383 0.19209912419319153
0.751937985420227 0.06976747512817383 0.2102040797472
0.751937985420227 0.08527135848999023 0.19278575479984283
0.751937985420227 0.08527135848999023 0.21055321395397186
0.751937985420227 0.10077524185180664 0.19332167506217957
0.751937985420227 0.10077523440122604 0.21093471348285675
0.751937985420227 0.11627912521362305 0.1952742040157318
0.7519380450248718 0.11627913266420364 0.2115335762500763
0.751937985420227 0.1317828893661499 0.19897021353244781
0.751937985420227 0.1317828893661499 0.21241223812103271
0.751937985420227 0.1472867727279663 0.20089241862297058
0.751937985420227 0.1472867727279663 0.2132747769355774
0.751937985420227 0.16279065608978271 0.20268960297107697
0.751937985420227 0.16279065608978271 0.21443621814250946
0.751937985420227 0.17829453945159912 0.203660786151886
0.751937985420227 0.17829453945159912 0.21579767763614655
0.751937985420227 0.19379842281341553 0.20409491658210754
0.751937985420227 0.19379842281341553 0.21820208430290222
0.751937985420227 0.20930230617523193 0.20348495244979858
0.751937985420227 0.20930230617523193 0.22303853929042816
0.751937985420227 0.22480618953704834 0.2027128040790558
0.751937985420227 0.22480618953704834 0.22586725652217865
0.751937985420227 0.24031007289886475 0.20289966464042664
0.751937985420227 0.24031007289886475 0.22662854194641113
0.751937985420227 0.25581395626068115 0.20403020083904266
0.751937985420227 0.25581395626068115 0.22665748000144958
0.751937985420227 0.27131783962249756 0.20568302273750305
0.751937985420227 0.27131783962249756 0.22646091878414154
0.751937985420227 0.28682172298431396 0.20707620680332184
0.751937985420227 0.28682172298431396 0.22641773521900177
0.751937985420227 0.30232560634613037 0.20804384350776672
0.751937985420227 0.30232560634613037 0.2270192950963974
0.751937985420227 0.3178294897079468 0.2084173709154129
0.7519380450248718 0.3178294897079468 0.22761774063110352
0.751937985420227 0.3333333730697632 0.20878680050373077
0.751937985420227 0.3333333730697632 0.22838912904262543
0.751937985420227 0.3488372564315796 0.20890730619430542
0.751937985420227 0.3488372564315796 0.2291135936975479
0.751937985420227 0.364341139793396 0.2090567946434021
0.751937985420227 0.364341139793396 0.22987419366836548
0.751937985420227 0.37984490394592285 0.20908360183238983
0.751937985420227 0.37984490394592285 0.23012681305408478
0.751937985420227 0.39534878730773926 0.20992855727672577
0.751937985420227 0.39534878730773926 0.23059110343456268
0.751937985420227 0.41085267066955566 0.2107066512107849
0.751937985420227 0.41085267066955566 0.23126503825187683
0.751937985420227 0.42635655403137207 0.21193192899227142
0.751937985420227 0.42635655403137207 0.2323390245437622
0.751937985420227 0.4418604373931885 0.2132813036441803
0.751937985420227 0.4418604373931885 0.23342376947402954
0.751937985420227 0.4573643207550049 0.21455225348472595
0.751937985420227 0.4573643207550049 0.23442310094833374
0.751937985420227 0.4728682041168213 0.21490243077278137
0.751937985420227 0.4728682041168213 0.23516370356082916
0.751937985420227 0.4883720874786377 0.21406883001327515
0.751937985420227 0.4883720874786377 0.23538726568222046
0.751937985420227 0.5038759708404541 0.21341466903686523
0.751937985420227 0.5038759708404541 0.23597855865955353
0.751937985420227 0.5193798542022705 0.21169576048851013
0.751937985420227 0.5193798542022705 0.2371639907360077
0.751937985420227 0.5348837375640869 0.20896016061306
0.751937985420227 0.5348837375640869 0.23916783928871155
0.751937985420227 0.5503876209259033 0.2083410620689392
0.751937985420227 0.5503876209259033 0.24030248820781708
0.751937985420227 0.5658915042877197 0.20807406306266785
0.751937985420227 0.5658915042877197 0.2393486052751541
0.751937985420227 0.5813953876495361 0.20808549225330353
0.751937985420227 0.5813953876495361 0.2363027185201645
0.751937985420227 0.5968992710113525 0.20817749202251434
0.751937985420227 0.5968992710113525 0.23250731825828552
0.751937985420227 0.612403154373169 0.2081848531961441
0.751937985420227 0.612403154373169 0.22916018962860107
0.751937985420227 0.6279069185256958 0.208072230219841
0.751937985420227 0.6279069185256958 0.2271960973739624
0.751937985420227 0.6434108018875122 0.2079116702079773
0.751937985420227 0.6434108018875122 0.22611857950687408
0.751937985420227 0.6589146852493286 0.20766238868236542
0.751937985420227 0.6589146852493286 0.22531890869140625
0.751937985420227 0.674418568611145 0.2073395848274231
0.751937985420227 0.674418568611145 0.22444148361682892
0.751937985420227 0.6899224519729614 0.20699208974838257
0.751937985420227 0.6899224519729614 0.2230716049671173
0.751937985420227 0.7054263353347778 0.2064865082502365
0.751937985420227 0.7054263353347778 0.22168073058128357
0.751937985420227 0.7209302186965942 0.2059863656759262
0.751937985420227 0.7209302186965942 0.22042514383792877
0.751937985420227 0.7364341020584106 0.2055581659078598
0.751937985420227 0.7364341020584106 0.21933090686798096
0.751937985420227 0.751937985420227 0.20451614260673523
0.751937985420227 0.751937985420227 0.21874964237213135
0.751937985420227 0.7674418687820435 0.2015398144721985
0.751937985420227 0.7674418687820435 0.21763163805007935
0.7674418687820435 0.05426359176635742 0.2074386179447174
0.7674418687820435 0.05426358804106712 0.21046867966651917
0.7674418687820435 0.06976747512817383 0.2067096084356308
0.7674418687820435 0.06976747512817383 0.2120148241519928
0.7674418687820435 0.08527135848999023 0.20672860741615295
0.7674418687820435 0.08527135848999023 0.21522256731987
0.7674418687820435 0.10077524185180664 0.20702144503593445
0.7674418091773987 0.10077524185180664 0.22510163486003876
0.7674418687820435 0.11627912521362305 0.20768405497074127
0.7674418687820435 0.11627912521362305 0.22567808628082275
0.7674418687820435 0.1317828893661499 0.20854276418685913
0.7674418687820435 0.1317828893661499 0.2261369824409485
0.7674418687820435 0.1472867727279663 0.20924697816371918
0.7674418687820435 0.1472867727279663 0.22665925323963165
0.7674418687820435 0.16279065608978271 0.2143511176109314
0.7674418687820435 0.16279065608978271 0.22736626863479614
0.7674418687820435 0.17829453945159912 0.21615764498710632
0.7674418687820435 0.17829453945159912 0.22830352187156677
0.7674418687820435 0.19379842281341553 0.21646448969841003
0.7674418687820435 0.19379842281341553 0.22989970445632935
0.7674418687820435 0.20930230617523193 0.21562382578849792
0.7674418687820435 0.20930230617523193 0.23213107883930206
0.7674418687820435 0.22480618953704834 0.21483057737350464
0.7674418687820435 0.22480618953704834 0.23475396633148193
0.7674418687820435 0.24031005799770355 0.21521949768066406
0.7674418687820435 0.24031007289886475 0.23678015172481537
0.7674418687820435 0.25581395626068115 0.21674403548240662
0.7674418687820435 0.25581395626068115 0.23740431666374207
0.7674418687820435 0.27131783962249756 0.21875277161598206
0.7674418687820435 0.27131783962249756 0.2371370494365692
0.7674418687820435 0.28682172298431396 0.22050844132900238
0.7674418687820435 0.28682172298431396 0.2370413988828659
0.7674418687820435 0.30232560634613037 0.2215515673160553
0.7674418687820435 0.30232560634613037 0.23866811394691467
0.7674418687820435 0.3178294897079468 0.22200678288936615
0.7674418687820435 0.3178294897079468 0.24045617878437042
0.7674418687820435 0.3333333730697632 0.22248181700706482
0.7674418687820435 0.33333340287208557 0.24110065400600433
0.7674418687820435 0.3488372564315796 0.22273573279380798
0.7674418687820435 0.3488372564315796 0.2415817379951477
0.7674418687820435 0.364341139793396 0.22295653820037842
0.7674418687820435 0.364341139793396 0.24199914932250977
0.7674418687820435 0.37984490394592285 0.22302411496639252
0.7674418687820435 0.37984490394592285 0.24227553606033325
0.7674418687820435 0.39534878730773926 0.22329717874526978
0.7674418687820435 0.39534878730773926 0.24286553263664246
0.7674418687820435 0.41085267066955566 0.22346027195453644
0.7674418687820435 0.41085267066955566 0.24368636310100555
0.7674418687820435 0.42635655403137207 0.22379404306411743
0.7674418687820435 0.42635655403137207 0.24487312138080597
0.7674418687820435 0.4418604373931885 0.22428956627845764
0.7674418687820435 0.4418604373931885 0.2460373044013977
0.7674418687820435 0.4573642909526825 0.22554275393486023
0.7674418687820435 0.4573643207550049 0.24703875184059143
0.7674418687820435 0.4728682041168213 0.2270563542842865
0.7674418687820435 0.4728682041168213 0.24762535095214844
0.7674418687820435 0.4883720874786377 0.2264775186777115
0.7674418687820435 0.4883720874786377 0.24751856923103333
0.7674418687820435 0.5038759708404541 0.22588792443275452
0.7674418687820435 0.5038759708404541 0.24751968681812286
0.7674418687820435 0.5193798542022705 0.224439337849617
0.7674418687820435 0.5193798542022705 0.24849733710289001
0.7674418687820435 0.5348837375640869 0.223642960190773
0.7674418687820435 0.5348837375640869 0.2500184178352356
0.7674418687820435 0.5503876209259033 0.22306859493255615
0.7674418687820435 0.5503876209259033 0.250931978225708
0.7674418687820435 0.5658915042877197 0.22280079126358032
0.7674418687820435 0.5658915042877197 0.2504669725894928
0.7674418687820435 0.5813953876495361 0.22280634939670563
0.7674418687820435 0.5813953876495361 0.24834877252578735
0.7674418687820435 0.5968992710113525 0.22289851307868958
0.7674419283866882 0.5968992710113525 0.24539539217948914
0.7674418687820435 0.612403154373169 0.22292262315750122
0.7674418687820435 0.612403154373169 0.24265722930431366
0.7674418687820435 0.6279069185256958 0.22280898690223694
0.7674418687820435 0.6279069185256958 0.24106942117214203
0.7674418687820435 0.6434108018875122 0.222615584731102
0.7674418687820435 0.6434108018875122 0.24008403718471527
0.7674418687820435 0.6589146852493286 0.22231170535087585
0.7674418687820435 0.6589146852493286 0.23794743418693542
0.7674418687820435 0.674418568611145 0.22192035615444183
0.7674418687820435 0.674418568611145 0.23635247349739075
0.7674418687820435 0.6899224519729614 0.22155143320560455
0.7674418687820435 0.6899224519729614 0.23531299829483032
0.7674418687820435 0.7054263353347778 0.2209797203540802
0.7674418687820435 0.7054263353347778 0.2340003401041031
0.7674418687820435 0.7209302186965942 0.22024667263031006
0.7674418687820435 0.7209302186965942 0.23269540071487427
0.7674418687820435 0.7364341020584106 0.2195558398962021
0.7674418687820435 0.7364341020584106 0.23156923055648804
0.7674418687820435 0.751937985420227 0.21809574961662292
0.7674418687820435 0.751937985420227 0.23070739209651947
0.7674418687820435 0.7674418687820435 0.21240869164466858
0.7674418687820435 0.7674418687820435 0.22987160086631775
0.7829457521438599 0.11627912521362305 0.2235366404056549
0.7829457521438599 0.11627912521362305 0.22599981725215912
0.7829457521438599 0.1317828893661499 0.22303804755210876
0.7829456925392151 0.1317828893661499 0.22956177592277527
0.7829457521438599 0.1472867727279663 0.22364379465579987
0.7829457521438599 0.1472867727279663 0.2411297857761383
0.7829457521438599 0.16279065608978271 0.22478072345256805
0.7829458117485046 0.16279065608978271 0.2415812760591507
0.7829457521438599 0.17829453945159912 0.22977590560913086
0.7829457521438599 0.17829453945159912 0.24234271049499512
0.7829457521438599 0.19379842281341553 0.22986850142478943
0.7829457521438599 0.19379842281341553 0.2435988485813141
0.7829457521438599 0.20930230617523193 0.22809171676635742
0.7829456925392151 0.20930230617523193 0.24475015699863434
0.7829457521438599 0.22480618953704834 0.22605787217617035
0.7829457521438599 0.22480618953704834 0.24571236968040466
0.7829457521438599 0.24031007289886475 0.22552570700645447
0.7829457521438599 0.24031007289886475 0.24649858474731445
0.7829457521438599 0.25581395626068115 0.22795134782791138
0.7829457521438599 0.25581395626068115 0.2468782365322113
0.7829457521438599 0.27131783962249756 0.23153400421142578
0.7829457521438599 0.27131783962249756 0.24680942296981812
0.7829457521438599 0.28682172298431396 0.23418018221855164
0.7829457521438599 0.28682172298431396 0.24694660305976868
0.7829457521438599 0.30232560634613037 0.2355772703886032
0.7829457521438599 0.30232560634613037 0.24792015552520752
0.7829457521438599 0.3178294897079468 0.23615819215774536
0.7829457521438599 0.3178294897079468 0.2492133378982544
0.7829457521438599 0.3333333730697632 0.23662689328193665
0.7829457521438599 0.3333333730697632 0.2509976029396057
0.7829457521438599 0.3488372564315796 0.23695583641529083
0.7829457521438599 0.3488372564315796 0.25240662693977356
0.7829457521438599 0.364341139793396 0.23726892471313477
0.7829457521438599 0.364341139793396 0.2538954019546509
0.7829457521438599 0.37984490394592285 0.23742087185382843
0.7829457521438599 0.37984490394592285 0.25532880425453186
0.7829457521438599 0.39534878730773926 0.23769499361515045
0.7829457521438599 0.39534878730773926 0.2562660872936249
0.7829457521438599 0.41085267066955566 0.23785674571990967
0.7829457521438599 0.41085267066955566 0.25701263546943665
0.7829457521438599 0.42635655403137207 0.23816145956516266
0.7829457521438599 0.42635655403137207 0.2581613063812256
0.7829457521438599 0.4418604373931885 0.23862342536449432
0.7829457521438599 0.4418604373931885 0.25921109318733215
0.7829457521438599 0.4573643207550049 0.239271879196167
0.7829457521438599 0.4573642909526825 0.2600017189979553
0.7829457521438599 0.4728682041168213 0.23962339758872986
0.7829457521438599 0.4728682041168213 0.2603359520435333
0.7829457521438599 0.4883720874786377 0.2395564466714859
0.7829457521438599 0.4883720874786377 0.26008498668670654
0.7829457521438599 0.5038759708404541 0.23929771780967712
0.7829457521438599 0.5038759708404541 0.25959932804107666
0.7829457521438599 0.5193798542022705 0.2387055903673172
0.7829457521438599 0.5193798542022705 0.26002633571624756
0.7829457521438599 0.5348837375640869 0.2380530685186386
0.7829457521438599 0.5348837375640869 0.260966956615448
0.7829457521438599 0.5503876209259033 0.23758797347545624
0.7829457521438599 0.5503876209259033 0.2615627348423004
0.7829457521438599 0.5658915042877197 0.23731806874275208
0.7829457521438599 0.5658915042877197 0.261382132768631
0.7829457521438599 0.5813953876495361 0.23732928931713104
0.7829457521438599 0.5813953876495361 0.26003947854042053
0.7829457521438599 0.5968992710113525 0.23756447434425354
0.7829457521438599 0.5968992114067078 0.25794029235839844
0.7829457521438599 0.612403154373169 0.23771606385707855
0.7829457521438599 0.612403154373169 0.25598329305648804
0.7829457521438599 0.6279069185256958 0.23765616118907928
0.7829457521438599 0.6279069185256958 0.25277867913246155
0.7829457521438599 0.6434108018875122 0.2374599128961563
0.7829457521438599 0.6434108018875122 0.2509510815143585
0.7829457521438599 0.6589146852493286 0.2371307909488678
0.7829457521438599 0.6589146852493286 0.2495003640651703
0.7829457521438599 0.674418568611145 0.23670360445976257
0.7829457521438599 0.674418568611145 0.24840912222862244
0.7829457521438599 0.6899224519729614 0.23636703193187714
0.7829457521438599 0.6899224519729614 0.24785956740379333
0.7829457521438599 0.7054263353347778 0.2358187586069107
0.7829457521438599 0.7054263353347778 0.24656185507774353
0.7829457521438599 0.7209302186965942 0.23492243885993958
0.7829457521438599 0.7209302186965942 0.24511846899986267
0.7829457521438599 0.7364341020584106 0.23396529257297516
0.7829458117485046 0.7364341020584106 0.24401724338531494
0.7829457521438599 0.751937985420227 0.23163291811943054
0.7829457521438599 0.751937985420227 0.2431585043668747
0.7829457521438599 0.7674418687820435 0.22306093573570251
0.7829457521438599 0.7674418687820435 0.24255922436714172
0.7984496355056763 0.16279065608978271 0.23958340287208557
0.7984495759010315 0.16279065608978271 0.24130673706531525
0.7984496355056763 0.17829453945159912 0.23899084329605103
0.7984496355056763 0.17829453945159912 0.24787382781505585
0.7984496355056763 0.19379842281341553 0.23926429450511932
0.7984496355056763 0.19379842281341553 0.25680503249168396
0.7984496355056763 0.20930230617523193 0.2387946993112564
0.7984496355056763 0.20930230617523193 0.2572669982910156
0.7984496355056763 0.22480618953704834 0.23788104951381683
0.7984496355056763 0.22480618953704834 0.2577029764652252
0.7984496355056763 0.24031007289886475 0.23730504512786865
0.7984496355056763 0.24031007289886475 0.2580603063106537
0.7984496355056763 0.25581395626068115 0.2376340627670288
0.7984496355056763 0.25581395626068115 0.2581564784049988
0.7984496355056763 0.27131783962249756 0.23868109285831451
0.7984496355056763 0.27131783962249756 0.2579762935638428
0.7984496355056763 0.28682172298431396 0.24026386439800262
0.7984496355056763 0.28682172298431396 0.25804877281188965
0.7984496355056763 0.30232560634613037 0.24786153435707092
0.7984496355056763 0.30232560634613037 0.25863009691238403
0.7984496355056763 0.3178294897079468 0.24967439472675323
0.7984496355056763 0.3178294897079468 0.2594900131225586
0.7984496355056763 0.3333333730697632 0.25052544474601746
0.7984496355056763 0.3333333730697632 0.26070117950439453
0.7984496355056763 0.3488372564315796 0.25094926357269287
0.7984496355056763 0.3488372564315796 0.2617245614528656
0.7984496355056763 0.364341139793396 0.25135818123817444
0.7984496355056763 0.364341139793396 0.2628299593925476
0.7984496355056763 0.37984490394592285 0.2515636682510376
0.7984496355056763 0.37984490394592285 0.2641252875328064
0.7984496355056763 0.39534878730773926 0.25179997086524963
0.7984496355056763 0.39534878730773926 0.26609912514686584
0.7984496355056763 0.41085267066955566 0.2518591582775116
0.7984496355056763 0.41085267066955566 0.2682717442512512
0.7984496355056763 0.42635655403137207 0.2519969642162323
0.7984496355056763 0.42635655403137207 0.270952433347702
0.7984496355056763 0.4418604373931885 0.2523249089717865
0.7984496355056763 0.4418604373931885 0.27172380685806274
0.7984496355056763 0.4573643207550049 0.2528945803642273
0.7984496355056763 0.4573642909526825 0.27216342091560364
0.7984496355056763 0.4728682041168213 0.25325238704681396
0.7984496355056763 0.4728682339191437 0.2723711431026459
0.7984496355056763 0.4883720874786377 0.2532617747783661
0.7984496355056763 0.4883720576763153 0.2721961438655853
0.7984496355056763 0.5038759708404541 0.25300371646881104
0.7984496355056763 0.5038759708404541 0.2717733383178711
0.7984496355056763 0.5193798542022705 0.25236082077026367
0.7984496355056763 0.5193798542022705 0.2719811797142029
0.7984496355056763 0.5348837375640869 0.25149136781692505
0.7984495759010315 0.5348837375640869 0.2723757028579712
0.7984496355056763 0.5503876209259033 0.2508338689804077
0.7984495759010315 0.5503876209259033 0.27259552478790283
0.7984496355056763 0.5658915042877197 0.2504372298717499
0.7984496355056763 0.5658915042877197 0.2725115716457367
0.7984496355056763 0.5813953876495361 0.2506106197834015
0.7984496355056763 0.5813953280448914 0.27195557951927185
0.7984496355056763 0.5968992710113525 0.2512991726398468
0.7984496355056763 0.5968992710113525 0.26993393898010254
0.7984496355056763 0.612403154373169 0.2517874538898468
0.7984496355056763 0.612403154373169 0.26552310585975647
0.7984496355056763 0.6279069185256958 0.25187546014785767
0.7984496355056763 0.6279069185256958 0.2631042003631592
0.7984496355056763 0.6434108018875122 0.25169676542282104
0.7984496355056763 0.6434108018875122 0.2616415321826935
0.7984496355056763 0.6589146852493286 0.2512875497341156
0.7984496355056763 0.6589146852493286 0.26038044691085815
0.7984496355056763 0.674418568611145 0.2506621479988098
0.7984496355056763 0.674418568611145 0.2595933973789215
0.7984496355056763 0.6899224519729614 0.2498575747013092
0.7984496355056763 0.6899224519729614 0.2592718303203583
0.7984496355056763 0.7054263353347778 0.2478170543909073
0.7984496355056763 0.7054263353347778 0.2581079304218292
0.7984496355056763 0.7209302186965942 0.2401311695575714
0.7984495759010315 0.7209302186965942 0.25685060024261475
0.7984496355056763 0.7364341020584106 0.23919682204723358
0.7984495759010315 0.7364341020584106 0.2559558153152466
0.7984496355056763 0.751937985420227 0.23773738741874695
0.7984496355056763 0.751937985420227 0.25229716300964355
0.7984496355056763 0.7674418687820435 0.23531261086463928
0.7984496355056763 0.7674418687820435 0.24808838963508606
0.8139535188674927 0.20930230617523193 0.25372081995010376
0.8139535188674927 0.20930230617523193 0.25901952385902405
0.8139535188674927 0.22480618953704834 0.25243449211120605
0.8139535188674927 0.22480618953704834 0.26752781867980957
0.8139535188674927 0.24031007289886475 0.25130903720855713
0.8139535188674927 0.24031007289886475 0.2719242572784424
0.8139535188674927 0.25581395626068115 0.2508913576602936
0.8139535188674927 0.25581395626068115 0.2719338536262512
0.8139535188674927 0.27131783962249756 0.2515571415424347
0.8139535188674927 0.27131783962249756 0.2717973291873932
0.8139535188674927 0.28682172298431396 0.2527126967906952
0.8139534592628479 0.28682172298431396 0.27172398567199707
0.8139535188674927 0.30232560634613037 0.2538328468799591
0.8139535188674927 0.30232560634613037 0.2718939483165741
0.8139535188674927 0.3178294897079468 0.2547498643398285
0.8139535188674927 0.3178294897079468 0.27217838168144226
0.8139535188674927 0.3333333730697632 0.2558133006095886
0.8139535188674927 0.3333333730697632 0.27260807156562805
0.8139535188674927 0.3488372564315796 0.262235164642334
0.8139535188674927 0.348837286233902 0.2730199098587036
0.8139535188674927 0.364341139793396 0.2639694809913635
0.8139535188674927 0.364341139793396 0.2736925780773163
0.8139535188674927 0.37984490394592285 0.2643412947654724
0.8139535188674927 0.37984490394592285 0.2746155858039856
0.8139535188674927 0.39534878730773926 0.2647285461425781
0.8139535784721375 0.39534878730773926 0.27582430839538574
0.8139535188674927 0.41085267066955566 0.2646743655204773
0.8139535188674927 0.41085267066955566 0.27700603008270264
0.8139535188674927 0.42635655403137207 0.26479554176330566
0.8139535188674927 0.42635655403137207 0.2782551050186157
0.8139535188674927 0.4418604373931885 0.2651992440223694
0.8139535188674927 0.4418604373931885 0.27908021211624146
0.8139535188674927 0.4573643207550049 0.26591965556144714
0.8139535188674927 0.4573643207550049 0.27958470582962036
0.8139535188674927 0.4728682041168213 0.2663629651069641
0.8139535188674927 0.4728682041168213 0.2797914445400238
0.8139535188674927 0.4883720874786377 0.26633691787719727
0.8139535188674927 0.4883720874786377 0.27973106503486633
0.8139535188674927 0.5038759708404541 0.265887975692749
0.8139535188674927 0.5038759708404541 0.27925556898117065
0.8139535188674927 0.5193798542022705 0.26424646377563477
0.8139535188674927 0.5193798542022705 0.27959585189819336
0.8139535188674927 0.5348837375640869 0.2620319426059723
0.8139535188674927 0.5348837375640869 0.28075751662254333
0.8139535188674927 0.5503876209259033 0.26016515493392944
0.8139535188674927 0.5503876209259033 0.2815725803375244
0.8139535188674927 0.5658915042877197 0.25879767537117004
0.8139535188674927 0.5658915042877197 0.28153491020202637
0.8139535188674927 0.5813953876495361 0.2588305175304413
0.8139535188674927 0.5813953876495361 0.2801549434661865
0.8139535188674927 0.5968992710113525 0.2603658139705658
0.8139535188674927 0.5968992710113525 0.2777606248855591
0.8139535188674927 0.612403154373169 0.261529803276062
0.8139535188674927 0.612403154373169 0.2752838432788849
0.8139535188674927 0.6279069185256958 0.26188644766807556
0.8139535188674927 0.6279069185256958 0.27373671531677246
0.8139535188674927 0.6434108018875122 0.26078659296035767
0.8139535188674927 0.6434108018875122 0.2727876305580139
0.8139535188674927 0.6589146852493286 0.25561273097991943
0.8139534592628479 0.6589146852493286 0.27209970355033875
0.8139535188674927 0.674418568611145 0.2550312876701355
0.8139535188674927 0.674418568611145 0.2718714475631714
0.8139535188674927 0.6899224519729614 0.25460949540138245
0.8139535188674927 0.6899224519729614 0.2718065083026886
0.8139535188674927 0.7054263353347778 0.25392794609069824
0.8139535188674927 0.7054263353347778 0.27060043811798096
0.8139535188674927 0.7209302186965942 0.25308647751808167
0.8139535188674927 0.7209302186965942 0.26563760638237
0.8139535188674927 0.7364341020584106 0.2523568272590637
0.8139535188674927 0.7364341020584106 0.26200371980667114
0.8139535188674927 0.751937985420227 0.2511700689792633
0.8139535188674927 0.751937985420227 0.25995346903800964
0.8139535188674927 0.7674418687820435 0.2473406195640564
0.8139535188674927 0.7674418687820435 0.25863373279571533
0.8294574022293091 0.24031007289886475 0.269893079996109
0.8294574022293091 0.24031005799770355 0.2719194293022156
0.8294574022293091 0.25581395626068115 0.2664361596107483
0.8294574022293091 0.25581395626068115 0.275180846452713
0.8294574022293091 0.27131783962249756 0.2660008668899536
0.8294574022293091 0.27131783962249756 0.27824831008911133
0.8294574022293091 0.28682172298431396 0.2665542960166931
0.8294574022293091 0.28682172298431396 0.28019386529922485
0.8294574022293091 0.30232560634613037 0.2671862840652466
0.8294574022293091 0.30232560634613037 0.28079184889793396
0.8294574022293091 0.3178294897079468 0.2677379250526428
0.8294574022293091 0.3178294897079468 0.2811192572116852
0.8294574022293091 0.3333333730697632 0.26842957735061646
0.8294574022293091 0.3333333730697632 0.2817973494529724
0.8294574022293091 0.3488372564315796 0.2691115140914917
0.8294574022293091 0.3488372564315796 0.28317171335220337
0.8294574022293091 0.364341139793396 0.26977020502090454
0.8294574022293091 0.364341139793396 0.28690093755722046
0.8294574022293091 0.37984490394592285 0.27025988698005676
0.8294573426246643 0.37984490394592285 0.28741946816444397
0.8294574022293091 0.39534878730773926 0.2707519233226776
0.8294574022293091 0.39534881711006165 0.28791356086730957
0.8294574022293091 0.41085267066955566 0.2709501385688782
0.8294574022293091 0.4108526408672333 0.2883467376232147
0.8294574022293091 0.42635655403137207 0.2713890075683594
0.8294574022293091 0.42635655403137207 0.2889208495616913
0.8294574022293091 0.4418604373931885 0.27463439106941223
0.8294574022293091 0.4418604075908661 0.28943511843681335
0.8294574022293091 0.4573643207550049 0.2768225073814392
0.8294574022293091 0.4573643207550049 0.2898796796798706
0.8294574022293091 0.4728682041168213 0.27742213010787964
0.8294574618339539 0.4728682041168213 0.2900848090648651
0.8294574022293091 0.4883720874786377 0.2763093113899231
0.8294574022293091 0.4883721172809601 0.2900720238685608
0.8294574022293091 0.5038759708404541 0.2713247835636139
0.8294574022293091 0.5038759708404541 0.289948046207428
0.8294574022293091 0.5193798542022705 0.27049896121025085
0.8294574022293091 0.5193798542022705 0.2899121940135956
0.8294574022293091 0.5348837375640869 0.2698248326778412
0.8294574022293091 0.5348837375640869 0.2901676893234253
0.8294574022293091 0.5503876209259033 0.2694445550441742
0.8294574022293091 0.5503876209259033 0.2903970181941986
0.8294574022293091 0.5658915042877197 0.2692369222640991
0.8294574022293091 0.5658915042877197 0.29046446084976196
0.8294574022293091 0.5813953876495361 0.26930224895477295
0.8294574022293091 0.5813953876495361 0.2899624705314636
0.8294574022293091 0.5968992710113525 0.2695732116699219
0.8294574022293091 0.5968992710113525 0.2887856364250183
0.8294574022293091 0.612403154373169 0.2697364091873169
0.8294574022293091 0.612403154373169 0.2873893082141876
0.8294574022293091 0.6279069185256958 0.2697376310825348
0.8294574022293091 0.6279069185256958 0.28475597500801086
0.8294574022293091 0.6434108018875122 0.26958468556404114
0.8294574022293091 0.6434108018875122 0.2820618450641632
0.8294574022293091 0.6589146852493286 0.26925283670425415
0.8294574022293091 0.6589146852493286 0.28072217106819153
0.8294574022293091 0.674418568611145 0.26890164613723755
0.8294574022293091 0.674418568611145 0.2816130220890045
0.8294574022293091 0.6899224519729614 0.2685597836971283
0.8294574022293091 0.6899224519729614 0.28133389353752136
0.8294574022293091 0.7054263353347778 0.2676263451576233
0.8294574022293091 0.7054263353347778 0.2785720229148865
0.8294574022293091 0.7209302186965942 0.26630353927612305
0.8294574022293091 0.7209302186965942 0.27545467019081116
0.8294574022293091 0.7364341020584106 0.26634925603866577
0.8294574022293091 0.7364341020584106 0.2729780673980713
0.8294574022293091 0.751937985420227 0.2634758949279785
0.8294574022293091 0.751937985420227 0.27176743745803833
0.8294574022293091 0.7674418687820435 0.2531962990760803
0.8294574022293091 0.7674418687820435 0.2619624435901642
0.8449612855911255 0.28682172298431396 0.2840391993522644
0.8449612855911255 0.28682172298431396 0.28773754835128784
0.8449612855911255 0.30232560634613037 0.2819738984107971
0.8449612855911255 0.30232560634613037 0.28933924436569214
0.8449612855911255 0.3178294897079468 0.2819099724292755
0.8449612855911255 0.3178294897079468 0.2903535068035126
0.8449612855911255 0.3333333730697632 0.2821648120880127
0.8449612855911255 0.3333333730697632 0.29120999574661255
0.8449612855911255 0.3488372564315796 0.28259116411209106
0.8449612855911255 0.3488372564315796 0.292063444852829
0.8449612855911255 0.364341139793396 0.2831648290157318
0.8449612855911255 0.364341139793396 0.2933809161186218
0.8449612855911255 0.37984490394592285 0.2836645543575287
0.8449612855911255 0.37984490394592285 0.294844388961792
0.8449612855911255 0.39534878730773926 0.2840389907360077
0.8449612855911255 0.39534878730773926 0.2961592674255371
0.8449612855911255 0.41085267066955566 0.28406932950019836
0.8449612855911255 0.41085267066955566 0.2970063090324402
0.8449612855911255 0.42635655403137207 0.2840707302093506
0.8449612855911255 0.42635655403137207 0.29819074273109436
0.8449612855911255 0.4418604373931885 0.28413018584251404
0.8449612855911255 0.4418604373931885 0.2991970181465149
0.8449612855911255 0.4573643207550049 0.2843465209007263
0.8449612855911255 0.4573643207550049 0.3002800941467285
0.8449612855911255 0.4728682041168213 0.2844312787055969
0.8449612855911255 0.4728682041168213 0.30102553963661194
0.8449612855911255 0.4883720874786377 0.2843077778816223
0.8449612855911255 0.4883720874786377 0.3012928068637848
0.8449612855911255 0.5038759708404541 0.283817857503891
0.8449612855911255 0.5038759708404541 0.301392525434494
0.8449612855911255 0.5193798542022705 0.28290462493896484
0.8449612259864807 0.5193797945976257 0.3023754060268402
0.8449612855911255 0.5348837375640869 0.2818913757801056
0.8449612855911255 0.5348837375640869 0.30257174372673035
0.8449612855911255 0.5503876209259033 0.2810022234916687
0.8449612855911255 0.5503876209259033 0.3026216924190521
0.8449612855911255 0.5658915042877197 0.280415415763855
0.8449613451957703 0.5658915042877197 0.30253371596336365
0.8449612855911255 0.5813953876495361 0.2805273234844208
0.8449612855911255 0.5813953876495361 0.30152612924575806
0.8449612855911255 0.5968992710113525 0.28144365549087524
0.8449612855911255 0.5968992710113525 0.29858437180519104
0.8449612855911255 0.612403154373169 0.2824321687221527
0.8449612855911255 0.612403154373169 0.29537370800971985
0.8449612855911255 0.6279069185256958 0.28302162885665894
0.8449612855911255 0.6279069185256958 0.2930923402309418
0.8449612855911255 0.6434108018875122 0.2831769585609436
0.8449612855911255 0.6434108018875122 0.29164186120033264
0.8449612855911255 0.6589146852493286 0.2828226387500763
0.8449613451957703 0.6589146852493286 0.29067209362983704
0.8449612855911255 0.674418568611145 0.28183427453041077
0.8449613451957703 0.674418568611145 0.29073983430862427
0.8449612855911255 0.6899224519729614 0.28065046668052673
0.8449612855911255 0.6899224519729614 0.2901521921157837
0.8449612855911255 0.7054263353347778 0.2731185853481293
0.8449612855911255 0.7054263353347778 0.28904178738594055
0.8449612855911255 0.7209302186965942 0.27005547285079956
0.8449612855911255 0.7209302186965942 0.2876247465610504
0.8449612855911255 0.7364341020584106 0.26913318037986755
0.8449612855911255 0.7364341020584106 0.279407262802124
0.8449612855911255 0.751937985420227 0.267953097820282
0.8449612855911255 0.751937985420227 0.2761744260787964
0.8449612855911255 0.7674418687820435 0.26637884974479675
0.8449612855911255 0.7674418687820435 0.27437424659729004
0.8604651689529419 0.3333333730697632 0.29462888836860657
0.8604651689529419 0.3333333730697632 0.3041638433933258
0.8604651689529419 0.3488372564315796 0.29581373929977417
0.8604651689529419 0.3488372564315796 0.3043939769268036
0.8604651689529419 0.364341139793396 0.29690080881118774
0.8604651689529419 0.364341139793396 0.30489668250083923
0.8604651689529419 0.37984490394592285 0.29754236340522766
0.8604651689529419 0.37984490394592285 0.30552226305007935
0.8604651689529419 0.39534878730773926 0.2980220913887024
0.8604651689529419 0.39534878730773926 0.30603089928627014
0.8604651689529419 0.41085267066955566 0.29791292548179626
0.8604651689529419 0.41085267066955566 0.3063938021659851
0.8604651689529419 0.42635655403137207 0.2976047992706299
0.8604651689529419 0.42635655403137207 0.3069291114807129
0.8604651689529419 0.4418604373931885 0.29727625846862793
0.8604651689529419 0.4418604373931885 0.30743202567100525
0.8604651689529419 0.4573643207550049 0.29721564054489136
0.8604651093482971 0.4573643207550049 0.3079066872596741
0.8604651689529419 0.4728682041168213 0.2970934510231018
0.8604651093482971 0.4728682041168213 0.30811992287635803
0.8604651689529419 0.4883720874786377 0.2967984676361084
0.8604651689529419 0.4883720874786377 0.3081393241882324
0.8604651689529419 0.5038759708404541 0.2959662973880768
0.8604651689529419 0.5038759708404541 0.30811458826065063
0.8604651689529419 0.5193798542022705 0.2937130630016327
0.8604651689529419 0.5193798542022705 0.3087242543697357
0.8604651689529419 0.5348837375640869 0.2901422381401062
0.8604651689529419 0.5348837375640869 0.30968642234802246
0.8604651689529419 0.5503876209259033 0.2868104577064514
0.8604651689529419 0.5503876209259033 0.31033262610435486
0.8604651689529419 0.5658915042877197 0.28653767704963684
0.8604651689529419 0.5658915042877197 0.3104514479637146
0.8604651689529419 0.5813953876495361 0.2865452170372009
0.8604651689529419 0.5813953876495361 0.30964168906211853
0.8604651689529419 0.5968992710113525 0.28661900758743286
0.8604651689529419 0.5968992710113525 0.3078860938549042
0.8604651689529419 0.612403154373169 0.2866899073123932
0.8604651689529419 0.612403154373169 0.30597227811813354
0.8604651689529419 0.6279069185256958 0.2866852283477783
0.8604651689529419 0.6279069185256958 0.3045232892036438
0.8604651689529419 0.6434108018875122 0.2865361273288727
0.8604651093482971 0.6434108018875122 0.3035986125469208
0.8604651689529419 0.6589146852493286 0.28613564372062683
0.8604651689529419 0.6589146852493286 0.3031233549118042
0.8604651689529419 0.674418568611145 0.2857857346534729
0.8604651689529419 0.6744185090065002 0.30331656336784363
0.8604651689529419 0.6899224519729614 0.2853492498397827
0.8604651689529419 0.6899224519729614 0.30313605070114136
0.8604651689529419 0.7054263353347778 0.2843068540096283
0.8604651689529419 0.7054263353347778 0.3025777041912079
0.8604651689529419 0.7209302186965942 0.28298741579055786
0.8604651689529419 0.7209302186965942 0.2962774634361267
0.8604651689529419 0.7364341020584106 0.2831060290336609
0.8604651689529419 0.7364341020584106 0.29087314009666443
0.8604651689529419 0.751937985420227 0.28308916091918945
0.8604651689529419 0.751937985420227 0.2887534499168396
0.8759689331054688 0.364341139793396 0.3068397343158722
0.8759689331054688 0.364341139793396 0.31933918595314026
0.8759689331054688 0.37984490394592285 0.3095967173576355
0.8759689331054688 0.37984490394592285 0.3197859227657318
0.8759689331054688 0.39534878730773926 0.31172335147857666
0.875968873500824 0.39534878730773926 0.31982624530792236
0.8759689331054688 0.41085267066955566 0.312252938747406
0.8759689331054688 0.41085267066955566 0.31980982422828674
0.8759689331054688 0.42635655403137207 0.31195539236068726
0.8759689331054688 0.42635655403137207 0.3199010491371155
0.8759689331054688 0.4418604373931885 0.311130166053772
0.8759689331054688 0.4418604373931885 0.3200271427631378
0.8759689331054688 0.4573643207550049 0.31031274795532227
0.8759689331054688 0.4573643207550049 0.32015323638916016
0.8759689331054688 0.4728682041168213 0.308887779712677
0.8759689331054688 0.4728682041168213 0.3201628029346466
0.8759689331054688 0.4883720874786377 0.30549272894859314
0.8759689331054688 0.4883720874786377 0.3200676441192627
0.8759689331054688 0.5038759708404541 0.3017697334289551
0.8759689331054688 0.5038759708404541 0.31989291310310364
0.8759689331054688 0.5193798542022705 0.3009118139743805
0.8759689331054688 0.5193798542022705 0.31998157501220703
0.8759689331054688 0.5348837375640869 0.30015742778778076
0.8759689331054688 0.5348837375640869 0.3202466666698456
0.8759689331054688 0.5503876209259033 0.2994583249092102
0.8759689331054688 0.5503876209259033 0.32051485776901245
0.8759689331054688 0.5658915042877197 0.29892265796661377
0.875968873500824 0.5658915042877197 0.32072770595550537
0.8759689331054688 0.5813953876495361 0.29873451590538025
0.8759689331054688 0.5813953876495361 0.32059845328330994
0.8759689331054688 0.5968992710113525 0.29904547333717346
0.8759689331054688 0.5968992710113525 0.3197978138923645
0.8759689331054688 0.612403154373169 0.29939600825309753
0.875968873500824 0.6124030947685242 0.31824612617492676
0.8759689331054688 0.6279069185256958 0.29966771602630615
0.8759689331054688 0.6279069185256958 0.3154642581939697
0.8759689331054688 0.6434108018875122 0.2997157573699951
0.8759689331054688 0.6434108018875122 0.3136496841907501
0.8759689331054688 0.6589146852493286 0.29939281940460205
0.8759689331054688 0.6589146852493286 0.312730610370636
0.8759689331054688 0.674418568611145 0.298755019903183
0.8759689331054688 0.674418568611145 0.31380435824394226
0.8759689331054688 0.6899224519729614 0.29795345664024353
0.8759689331054688 0.6899224519729614 0.31320467591285706
0.8759689331054688 0.7054263353347778 0.29573947191238403
0.8759689331054688 0.7054263353347778 0.3102162480354309
0.8759689331054688 0.7209302186965942 0.2942022681236267
0.875968873500824 0.7209302186965942 0.30641230940818787
0.8759689331054688 0.7364341020584106 0.2985362708568573
0.8759689331054688 0.7364341020584106 0.3028651177883148
0.8759689331054688 0.751937985420227 0.28571122884750366
0.8759689331054688 0.751937985420227 0.2910580039024353
