-0.3333333134651184 0.11627912521362305 -0.010306605137884617
-0.333333283662796 0.11627912521362305 -0.005107159726321697
-0.3333333134651184 0.1317828893661499 -0.009768258780241013
-0.3333333134651184 0.1317828893661499 -0.005127599462866783
-0.3333333134651184 0.1472867727279663 -0.009315624833106995
-0.3333333134651184 0.1472867727279663 -0.005303751211613417
-0.3333333134651184 0.16279065608978271 -0.008954541757702827
-0.3333333134651184 0.16279065608978271 -0.005564364604651928
-0.3333333134651184 0.17829453945159912 -0.008597565814852715
-0.3333333134651184 0.17829453945159912 -0.005930925719439983
-0.3333333134651184 0.19379842281341553 -0.007992723025381565
-0.3333333134651184 0.19379842281341553 -0.007107514888048172
-0.3333333134651184 0.27131783962249756 0.007497727870941162
-0.3333333134651184 0.27131783962249756 0.007897787727415562
-0.3333333134651184 0.28682172298431396 0.006901436485350132
-0.3333333134651184 0.28682172298431396 0.008348258212208748
-0.3333333134651184 0.30232560634613037 0.006677753292024136
-0.3333333134651184 0.30232560634613037 0.008656997233629227
-0.3333333134651184 0.3178294897079468 0.0069876015186309814
-0.3333333134651184 0.3178294897079468 0.008499455638229847
-0.3333333134651184 0.3333333730697632 0.007402680814266205
-0.3333333134651184 0.3333333730697632 0.008145885542035103
-0.317829430103302 -0.5038759708404541 -0.02685510367155075
-0.317829430103302 -0.5038759708404541 -0.021756591275334358
-0.317829430103302 -0.4883720874786377 -0.027379635721445084
-0.317829430103302 -0.4883720874786377 -0.0208206158131361
-0.317829430103302 -0.4728682041168213 -0.02733861654996872
-0.317829430103302 -0.4728682041168213 -0.02002560719847679
-0.317829430103302 -0.4573643207550049 -0.02689257636666298
-0.317829430103302 -0.45736435055732727 -0.019357241690158844
-0.317829430103302 -0.4418604373931885 -0.026818569749593735
-0.317829430103302 -0.4418604373931885 -0.01812749169766903
-0.317829430103302 -0.42635661363601685 -0.026318226009607315
-0.317829430103302 -0.42635664343833923 -0.01778784953057766
-0.317829430103302 -0.41085273027420044 -0.025768660008907318
-0.317829430103302 -0.41085273027420044 -0.01819016970694065
-0.317829430103302 -0.39534884691238403 -0.025439342483878136
-0.317829430103302 -0.39534884691238403 -0.01840599812567234
-0.317829430103302 -0.3798449635505676 -0.0252182986587286
-0.317829430103302 -0.3798449635505676 -0.018259551376104355
-0.317829430103302 -0.3643410801887512 -0.024833524599671364
-0.317829430103302 -0.3643410801887512 -0.01763531193137169
-0.317829430103302 -0.3488371968269348 -0.0242270827293396
-0.317829430103302 -0.3488371968269348 -0.01683196984231472
-0.317829430103302 -0.3333333134651184 -0.023560358211398125
-0.317829430103302 -0.3333333134651184 -0.014992513693869114
-0.317829430103302 -0.317829430103302 -0.017743054777383804
-0.317829430103302 -0.317829430103302 -0.007058706134557724
-0.317829430103302 -0.30232560634613037 -0.016824990510940552
-0.317829430103302 -0.30232560634613037 -0.006536000408232212
-0.317829430103302 -0.28682172298431396 -0.016542067751288414
-0.317829430103302 -0.28682172298431396 -0.006283777765929699
-0.317829430103302 -0.27131783962249756 -0.016534872353076935
-0.317829430103302 -0.27131783962249756 -0.006149923428893089
-0.317829430103302 -0.25581395626068115 -0.016567759215831757
-0.317829430103302 -0.25581395626068115 -0.006145866587758064
-0.317829430103302 -0.24031007289886475 -0.016663365066051483
-0.317829430103302 -0.24031007289886475 -0.006256612949073315
-0.317829430103302 -0.22480618953704834 -0.01696627400815487
-0.317829430103302 -0.22480618953704834 -0.006439065560698509
-0.317829430103302 -0.20930230617523193 -0.01684815250337124
-0.3178294003009796 -0.20930230617523193 -0.006616921164095402
-0.317829430103302 -0.19379842281341553 -0.016152532771229744
-0.317829430103302 -0.19379842281341553 -0.006705733016133308
-0.317829430103302 -0.1782945990562439 -0.01516061369329691
-0.3178294003009796 -0.1782945841550827 -0.006800462491810322
-0.317829430103302 -0.1627907156944275 -0.014501074329018593
-0.317829430103302 -0.1627907156944275 -0.00679135974496603
-0.317829430103302 -0.14728683233261108 -0.014228682033717632
-0.317829430103302 -0.14728683233261108 -0.006682917475700378
-0.317829430103302 -0.13178294897079468 -0.014295283704996109
-0.317829430103302 -0.13178294897079468 -0.006550966762006283
-0.317829430103302 -0.11627906560897827 -0.013864634558558464
-0.317829430103302 -0.11627906560897827 -0.006628706119954586
-0.317829430103302 -0.10077518224716187 -0.014342471957206726
-0.317829430103302 -0.10077517479658127 -0.0066400086507201195
-0.317829430103302 -0.08527129888534546 -0.015505600720643997
-0.317829430103302 -0.08527129888534546 -0.0066421725787222385
-0.317829430103302 -0.06976741552352905 -0.016171598806977272
-0.317829430103302 -0.06976741552352905 -0.006795815192162991
-0.317829430103302 -0.05426359176635742 -0.017162900418043137
-0.317829430103302 -0.05426359549164772 -0.006865303963422775
-0.317829430103302 -0.038759708404541016 -0.01682926155626774
-0.317829430103302 -0.038759708404541016 -0.007051612716168165
-0.317829430103302 -0.02325582504272461 -0.014704629778862
-0.317829430103302 -0.02325582504272461 -0.007256937213242054
-0.317829430103302 -0.007751941680908203 -0.009995179250836372
-0.317829430103302 -0.007751941680908203 -0.007608070038259029
-0.317829430103302 0.05426359176635742 -0.008743762038648129
-0.317829430103302 0.05426359549164772 -0.00753082474693656
-0.317829430103302 0.06976747512817383 -0.010322706773877144
-0.317829430103302 0.06976747512817383 -0.00691639631986618
-0.317829430103302 0.08527135848999023 -0.011250369250774384
-0.317829430103302 0.08527135848999023 -0.006335359998047352
-0.317829430103302 0.10077524185180664 -0.011493125930428505
-0.317829430103302 0.10077524185180664 -0.0059878043830394745
-0.317829430103302 0.11627912521362305 -0.011299792677164078
-0.317829430103302 0.11627912521362305 -0.005769158713519573
-0.317829430103302 0.1317828893661499 -0.010914726182818413
-0.3178294003009796 0.1317828893661499 -0.005673211999237537
-0.317829430103302 0.1472867727279663 -0.010536253452301025
-0.317829430103302 0.1472867727279663 -0.005665174685418606
-0.317829430103302 0.16279065608978271 -0.010234087705612183
-0.317829430103302 0.16279065608978271 -0.005647462792694569
-0.317829430103302 0.17829453945159912 -0.010003870353102684
-0.317829430103302 0.17829453945159912 -0.005559341982007027
-0.317829430103302 0.19379842281341553 -0.009696419350802898
-0.317829430103302 0.19379843771457672 -0.0055579496547579765
-0.317829430103302 0.20930230617523193 -0.009188729338347912
-0.3178294003009796 0.20930230617523193 -0.005874393507838249
-0.317829430103302 0.22480618953704834 -0.008266077376902103
-0.3178294599056244 0.22480620443820953 -0.006928811781108379
-0.317829430103302 0.30232560634613037 0.0070237042382359505
-0.317829430103302 0.30232560634613037 0.008198445662856102
-0.317829430103302 0.3178294897079468 0.006377433426678181
-0.317829430103302 0.3178294897079468 0.00871763750910759
-0.317829430103302 0.3333333730697632 0.00637449324131012
-0.317829430103302 0.3333333730697632 0.008837931789457798
-0.317829430103302 0.3488372564315796 0.006588527001440525
-0.317829430103302 0.3488372564315796 0.008788015693426132
-0.317829430103302 0.364341139793396 0.007008057087659836
-0.317829430103302 0.364341139793396 0.008499562740325928
-0.317829430103302 0.37984490394592285 0.007250080816447735
-0.317829430103302 0.37984490394592285 0.008314037695527077
-0.317829430103302 0.39534878730773926 0.007537856698036194
-0.317829430103302 0.39534878730773926 0.008023465983569622
-0.30232560634613037 -0.4883720874786377 -0.028625622391700745
-0.30232560634613037 -0.4883721172809601 -0.022269142791628838
-0.30232560634613037 -0.4728682041168213 -0.029852688312530518
-0.30232560634613037 -0.4728682041168213 -0.02171185053884983
-0.30232560634613037 -0.4573643207550049 -0.028919879347085953
-0.30232560634613037 -0.4573643207550049 -0.021467464044690132
-0.30232560634613037 -0.4418604373931885 -0.02853699028491974
-0.30232560634613037 -0.44186046719551086 -0.021096501499414444
-0.30232560634613037 -0.42635661363601685 -0.02760341390967369
-0.30232560634613037 -0.42635661363601685 -0.021062614396214485
-0.30232560634613037 -0.41085273027420044 -0.026688871905207634
-0.30232560634613037 -0.41085273027420044 -0.021124038845300674
-0.30232560634613037 -0.39534884691238403 -0.026144763454794884
-0.302325576543808 -0.39534884691238403 -0.02109796367585659
-0.30232560634613037 -0.3798449635505676 -0.025861235335469246
-0.30232560634613037 -0.3798449635505676 -0.020983459427952766
-0.30232560634613037 -0.3643410801887512 -0.025590427219867706
-0.30232560634613037 -0.3643410801887512 -0.020805472508072853
-0.30232560634613037 -0.3488371968269348 -0.025287171825766563
-0.30232560634613037 -0.3488371968269348 -0.020628683269023895
-0.30232560634613037 -0.3333333134651184 -0.024898521602153778
-0.30232560634613037 -0.3333333134651184 -0.020540161058306694
-0.30232560634613037 -0.317829430103302 -0.024280192330479622
-0.30232560634613037 -0.317829430103302 -0.020534273236989975
-0.30232560634613037 -0.30232560634613037 -0.023721612989902496
-0.30232560634613037 -0.30232560634613037 -0.020851794630289078
-0.30232560634613037 -0.28682172298431396 -0.023410331457853317
-0.30232560634613037 -0.28682172298431396 -0.02153049223124981
-0.30232560634613037 -0.27131783962249756 -0.0232774019241333
-0.30232560634613037 -0.27131783962249756 -0.022595414891839027
-0.30232560634613037 -0.25581395626068115 -0.023279378190636635
-0.30232560634613037 -0.25581395626068115 -0.02190685085952282
-0.30232560634613037 -0.24031007289886475 -0.023408308625221252
-0.30232560634613037 -0.24031007289886475 -0.01864452101290226
-0.30232560634613037 -0.22480618953704834 -0.023639054968953133
-0.30232560634613037 -0.22480618953704834 -0.01742074266076088
-0.30232560634613037 -0.20930230617523193 -0.023766232654452324
-0.30232560634613037 -0.20930230617523193 -0.017827238887548447
-0.30232560634613037 -0.19379842281341553 -0.02374333329498768
-0.30232560634613037 -0.19379840791225433 -0.01831853576004505
-0.30232560634613037 -0.1782945990562439 -0.02364511229097843
-0.30232560634613037 -0.1782945990562439 -0.019489793106913567
-0.30232560634613037 -0.1627907156944275 -0.023481406271457672
-0.30232560634613037 -0.1627907156944275 -0.020775029435753822
-0.30232560634613037 -0.14728683233261108 -0.023265842348337173
-0.30232560634613037 -0.14728684723377228 -0.023092515766620636
-0.30232560634613037 -0.06976741552352905 -0.02340148575603962
-0.30232560634613037 -0.06976741552352905 -0.016011901199817657
-0.30232560634613037 -0.05426359176635742 -0.023654824122786522
-0.30232560634613037 -0.05426359176635742 -0.014420341700315475
-0.30232560634613037 -0.038759708404541016 -0.02377794124186039
-0.30232560634613037 -0.038759708404541016 -0.016714775934815407
-0.30232560634613037 -0.02325582504272461 -0.023698898032307625
-0.30232560634613037 -0.02325582504272461 -0.019037703052163124
-0.30232560634613037 -0.007751941680908203 -0.023579580709338188
-0.30232560634613037 -0.007751941680908203 -0.02111746557056904
-0.30232560634613037 0.007751941680908203 -0.023317385464906693
-0.30232560634613037 0.007751941680908203 -0.022946950048208237
-0.30232560634613037 0.08527135848999023 -0.008188121020793915
-0.30232560634613037 0.08527136594057083 -0.007686967961490154
-0.30232560634613037 0.10077524185180664 -0.010655863210558891
-0.30232560634613037 0.10077524185180664 -0.007132587023079395
-0.30232560634613037 0.11627912521362305 -0.011371547356247902
-0.30232560634613037 0.11627912521362305 -0.006717177107930183
-0.30232560634613037 0.1317828893661499 -0.01138143427670002
-0.30232560634613037 0.1317828893661499 -0.006445491220802069
-0.30232560634613037 0.1472867727279663 -0.011102112010121346
-0.30232560634613037 0.1472867727279663 -0.006326491944491863
-0.30232560634613037 0.16279065608978271 -0.010838666930794716
-0.30232560634613037 0.16279065608978271 -0.006207936443388462
-0.30232560634613037 0.17829453945159912 -0.010686177760362625
-0.30232560634613037 0.17829453945159912 -0.0060021523386240005
-0.30232560634613037 0.19379842281341553 -0.010469198226928711
-0.30232560634613037 0.19379842281341553 -0.005803105421364307
-0.30232560634613037 0.20930230617523193 -0.01013912633061409
-0.30232560634613037 0.20930230617523193 -0.005744376219809055
-0.30232560634613037 0.22480618953704834 -0.009616984985768795
-0.30232560634613037 0.22480618953704834 -0.005934108980000019
-0.30232560634613037 0.24031007289886475 -0.008682355284690857
-0.30232563614845276 0.24031008780002594 -0.006663834676146507
-0.30232560634613037 0.3333333730697632 0.007278800942003727
-0.30232563614845276 0.33333340287208557 0.00802044477313757
-0.30232560634613037 0.3488372564315796 0.0068248575553298
-0.30232560634613037 0.3488372564315796 0.008366898633539677
-0.30232560634613037 0.364341139793396 0.006823373027145863
-0.30232560634613037 0.364341139793396 0.0084468899294734
-0.30232560634613037 0.37984490394592285 0.006647295318543911
-0.30232560634613037 0.37984493374824524 0.008652782067656517
-0.30232560634613037 0.39534878730773926 0.006545886397361755
-0.30232560634613037 0.39534878730773926 0.008824841119349003
-0.30232560634613037 0.41085267066955566 0.006734229624271393
-0.30232560634613037 0.4108526408672333 0.008767823688685894
-0.28682172298431396 -0.4728682041168213 -0.03876741603016853
-0.28682172298431396 -0.4728682041168213 -0.0386979840695858
-0.28682172298431396 -0.4573643207550049 -0.038777876645326614
-0.28682172298431396 -0.4573643207550049 -0.023183416575193405
-0.28682172298431396 -0.44186046719551086 -0.034461550414562225
-0.28682175278663635 -0.4418604373931885 -0.02249864861369133
-0.28682172298431396 -0.42635661363601685 -0.03088747337460518
-0.28682172298431396 -0.42635661363601685 -0.022315671667456627
-0.28682172298431396 -0.41085273027420044 -0.028053224086761475
-0.28682172298431396 -0.41085273027420044 -0.02226892113685608
-0.28682172298431396 -0.39534884691238403 -0.026772383600473404
-0.28682172298431396 -0.39534884691238403 -0.022137654945254326
-0.28682172298431396 -0.3798449635505676 -0.02638494409620762
-0.28682172298431396 -0.3798449635505676 -0.021883878856897354
-0.28682172298431396 -0.3643410801887512 -0.026201529428362846
-0.28682172298431396 -0.3643410801887512 -0.021592741832137108
-0.28682172298431396 -0.3488371968269348 -0.0259558092802763
-0.28682172298431396 -0.3488371968269348 -0.021426664665341377
-0.28682172298431396 -0.3333333134651184 -0.025705140084028244
-0.28682172298431396 -0.3333333134651184 -0.02135421521961689
-0.28682172298431396 -0.317829430103302 -0.02536868304014206
-0.28682172298431396 -0.3178294003009796 -0.021292902529239655
-0.28682172298431396 -0.30232560634613037 -0.025058826431632042
-0.28682172298431396 -0.30232560634613037 -0.021217001602053642
-0.28682172298431396 -0.28682172298431396 -0.02482886053621769
-0.28682172298431396 -0.28682172298431396 -0.021077245473861694
-0.28682172298431396 -0.27131783962249756 -0.0246978048235178
-0.28682172298431396 -0.27131783962249756 -0.0208132304251194
-0.28682172298431396 -0.25581395626068115 -0.024694178253412247
-0.28682172298431396 -0.25581395626068115 -0.020552687346935272
-0.28682172298431396 -0.24031007289886475 -0.024787800386548042
-0.28682172298431396 -0.24031007289886475 -0.020382411777973175
-0.28682172298431396 -0.22480618953704834 -0.024916768074035645
-0.28682172298431396 -0.22480618953704834 -0.020276343449950218
-0.28682172298431396 -0.20930230617523193 -0.024965936318039894
-0.28682172298431396 -0.20930230617523193 -0.020309017971158028
-0.28682172298431396 -0.19379842281341553 -0.024945443496108055
-0.28682172298431396 -0.19379842281341553 -0.020285600796341896
-0.28682172298431396 -0.1782945990562439 -0.02488837018609047
-0.28682172298431396 -0.1782946139574051 -0.02037845365703106
-0.28682172298431396 -0.1627907156944275 -0.02479417622089386
-0.28682172298431396 -0.1627907156944275 -0.0204064529389143
-0.28682172298431396 -0.14728683233261108 -0.024663422256708145
-0.28682172298431396 -0.14728683233261108 -0.020350055769085884
-0.28682172298431396 -0.13178294897079468 -0.024560261517763138
-0.28682172298431396 -0.13178294897079468 -0.020216472446918488
-0.28682172298431396 -0.11627906560897827 -0.024594798684120178
-0.28682172298431396 -0.11627906560897827 -0.020052099600434303
-0.28682172298431396 -0.10077518224716187 -0.024527281522750854
-0.28682172298431396 -0.10077518224716187 -0.01974860019981861
-0.28682172298431396 -0.08527129888534546 -0.024403493851423264
-0.28682172298431396 -0.08527129888534546 -0.019600512459874153
-0.28682172298431396 -0.06976741552352905 -0.024576053023338318
-0.28682172298431396 -0.06976741552352905 -0.01896754838526249
-0.28682172298431396 -0.05426359176635742 -0.024779001250863075
-0.28682172298431396 -0.05426359176635742 -0.018717538565397263
-0.28682172298431396 -0.038759708404541016 -0.02492978423833847
-0.28682172298431396 -0.038759708404541016 -0.01907046139240265
-0.28682172298431396 -0.02325582504272461 -0.02494059130549431
-0.28682172298431396 -0.02325582504272461 -0.019553186371922493
-0.28682172298431396 -0.007751941680908203 -0.0249525997787714
-0.28682172298431396 -0.007751941680908203 -0.0201445110142231
-0.28682172298431396 0.007751941680908203 -0.02495354600250721
-0.28682172298431396 0.007751941680908203 -0.02045651711523533
-0.28682172298431396 0.02325582504272461 -0.02473897486925125
-0.28682172298431396 0.02325582504272461 -0.020854856818914413
-0.28682172298431396 0.038759708404541016 -0.024514511227607727
-0.28682172298431396 0.03875970467925072 -0.021109994500875473
-0.28682172298431396 0.05426359176635742 -0.024124277755618095
-0.28682172298431396 0.05426358804106712 -0.021481068804860115
-0.28682172298431396 0.06976747512817383 -0.023529771715402603
-0.28682172298431396 0.06976747512817383 -0.02242644689977169
-0.28682172298431396 0.1317828893661499 -0.008818184025585651
-0.28682172298431396 0.1317828893661499 -0.007612419314682484
-0.28682172298431396 0.1472867727279663 -0.01010515820235014
-0.28682172298431396 0.1472867727279663 -0.0073062339797616005
-0.28682172298431396 0.16279065608978271 -0.010462833568453789
-0.28682172298431396 0.16279065608978271 -0.00706959143280983
-0.28682172298431396 0.17829453945159912 -0.010716112330555916
-0.28682172298431396 0.17829453945159912 -0.006742311641573906
-0.28682172298431396 0.19379842281341553 -0.010598625987768173
-0.28682172298431396 0.19379842281341553 -0.006417667493224144
-0.28682172298431396 0.20930230617523193 -0.010361794382333755
-0.28682172298431396 0.20930230617523193 -0.006165157072246075
-0.28682172298431396 0.22480618953704834 -0.010145636275410652
-0.28682172298431396 0.22480620443820953 -0.005987079814076424
-0.28682172298431396 0.24031007289886475 -0.00976921059191227
-0.28682172298431396 0.24031007289886475 -0.006005221977829933
-0.28682172298431396 0.25581395626068115 -0.008990655653178692
-0.28682172298431396 0.25581395626068115 -0.006514114327728748
-0.27131783962249756 -0.4573643207550049 -0.03994566947221756
-0.27131783962249756 -0.4573643207550049 -0.036675430834293365
-0.27131783962249756 -0.4418604373931885 -0.04019061103463173
-0.27131783962249756 -0.4418604373931885 -0.03531781584024429
-0.27131783962249756 -0.42635661363601685 -0.040176764130592346
-0.27131783962249756 -0.42635661363601685 -0.03437752649188042
-0.27131783962249756 -0.41085273027420044 -0.03955136239528656
-0.27131783962249756 -0.41085273027420044 -0.035749368369579315
-0.27131783962249756 -0.3333333134651184 -0.02515329420566559
-0.27131783962249756 -0.3333333134651184 -0.022466666996479034
-0.27131783962249756 -0.317829430103302 -0.02599378488957882
-0.27131783962249756 -0.317829430103302 -0.021823333576321602
-0.27131783962249756 -0.30232560634613037 -0.02603115700185299
-0.27131783962249756 -0.30232560634613037 -0.021594049409031868
-0.27131783962249756 -0.28682172298431396 -0.025902587920427322
-0.27131783962249756 -0.28682172298431396 -0.021519860252738
-0.27131783962249756 -0.27131783962249756 -0.02581407129764557
-0.27131783962249756 -0.27131783962249756 -0.02145654335618019
-0.27131783962249756 -0.25581395626068115 -0.02582509070634842
-0.27131783962249756 -0.25581395626068115 -0.021411051973700523
-0.27131783962249756 -0.24031007289886475 -0.02590850368142128
-0.27131783962249756 -0.24031007289886475 -0.021388383582234383
-0.27131783962249756 -0.22480618953704834 -0.025990283116698265
-0.27131783962249756 -0.22480617463588715 -0.02139175496995449
-0.27131783962249756 -0.20930230617523193 -0.025973260402679443
-0.27131783962249756 -0.20930229127407074 -0.021418273448944092
-0.27131783962249756 -0.19379842281341553 -0.02592374011874199
-0.27131783962249756 -0.19379842281341553 -0.021392259746789932
-0.27131783962249756 -0.1782945990562439 -0.02582704834640026
-0.27131783962249756 -0.1782945990562439 -0.021392768248915672
-0.27131783962249756 -0.1627907156944275 -0.02569231390953064
-0.27131783962249756 -0.16279073059558868 -0.021370450034737587
-0.27131783962249756 -0.14728683233261108 -0.025603851303458214
-0.27131783962249756 -0.14728683233261108 -0.02126155234873295
-0.27131783962249756 -0.13178294897079468 -0.02560362033545971
-0.27131783962249756 -0.13178294897079468 -0.021067297086119652
-0.27131783962249756 -0.11627906560897827 -0.025773508474230766
-0.27131783962249756 -0.11627905815839767 -0.020799048244953156
-0.27131783962249756 -0.10077518224716187 -0.02585914358496666
-0.27131783962249756 -0.10077517479658127 -0.02047421783208847
-0.27131783962249756 -0.08527129888534546 -0.02573320083320141
-0.27131783962249756 -0.08527129888534546 -0.020553074777126312
-0.27131783962249756 -0.06976741552352905 -0.02584344521164894
-0.27131783962249756 -0.06976741552352905 -0.02056349441409111
-0.27131783962249756 -0.05426359176635742 -0.026134097948670387
-0.27131783962249756 -0.05426359176635742 -0.02051486447453499
-0.27131783962249756 -0.038759708404541016 -0.026341017335653305
-0.27131783962249756 -0.038759708404541016 -0.020693140104413033
-0.27131783962249756 -0.02325582504272461 -0.026286836713552475
-0.27131783962249756 -0.02325582504272461 -0.020898880437016487
-0.27131783962249756 -0.007751941680908203 -0.02612714096903801
-0.27131783962249756 -0.007751941680908203 -0.021117016673088074
-0.27131783962249756 0.007751941680908203 -0.026204325258731842
-0.27131783962249756 0.007751941680908203 -0.02091994136571884
-0.27131783962249756 0.02325582504272461 -0.02592628076672554
-0.27131783962249756 0.02325582504272461 -0.021027816459536552
-0.27131783962249756 0.038759708404541016 -0.0256202295422554
-0.27131783962249756 0.038759708404541016 -0.021066633984446526
-0.27131783962249756 0.05426359176635742 -0.025345329195261
-0.27131783962249756 0.05426359176635742 -0.021035652607679367
-0.27131783962249756 0.06976747512817383 -0.025034697726368904
-0.27131783962249756 0.06976747512817383 -0.020874397829174995
-0.27131783962249756 0.08527135848999023 -0.02465655282139778
-0.27131783962249756 0.08527135848999023 -0.02069714106619358
-0.27131783962249756 0.10077524185180664 -0.0242660753428936
-0.27131783962249756 0.10077524185180664 -0.020707588642835617
-0.27131783962249756 0.11627912521362305 -0.023644931614398956
-0.27131783962249756 0.11627912521362305 -0.02167418971657753
-0.27131783962249756 0.19379842281341553 -0.009718265384435654
-0.27131783962249756 0.19379842281341553 -0.007318311370909214
-0.27131783962249756 0.20930230617523193 -0.009824017994105816
-0.27131783962249756 0.20930229127407074 -0.0069757793098688126
-0.27131783962249756 0.22480618953704834 -0.009908465668559074
-0.27131783962249756 0.22480618953704834 -0.006577681750059128
-0.27131783962249756 0.24031007289886475 -0.010057197883725166
-0.27131783962249756 0.24031007289886475 -0.006153393536806107
-0.27131783962249756 0.25581395626068115 -0.009849978610873222
-0.27131783962249756 0.25581395626068115 -0.00605029845610261
-0.27131783962249756 0.27131783962249756 -0.009296504780650139
-0.27131783962249756 0.27131783962249756 -0.006339025683701038
-0.27131783962249756 0.28682172298431396 -0.008376249112188816
-0.27131783962249756 0.2868216931819916 -0.007100600749254227
-0.25581395626068115 -0.4418604373931885 -0.04012846574187279
-0.25581395626068115 -0.4418604373931885 -0.03752072900533676
-0.25581395626068115 -0.42635661363601685 -0.04039972648024559
-0.25581395626068115 -0.42635661363601685 -0.03705420717597008
-0.25581395626068115 -0.41085273027420044 -0.04031169414520264
-0.25581395626068115 -0.41085273027420044 -0.03691134601831436
-0.25581395626068115 -0.39534884691238403 -0.04024515673518181
-0.25581395626068115 -0.3953488767147064 -0.03680139034986496
-0.25581395626068115 -0.3798449635505676 -0.03986942023038864
-0.25581395626068115 -0.3798449635505676 -0.0371507853269577
-0.25581395626068115 -0.28682172298431396 -0.024811383336782455
-0.25581395626068115 -0.28682172298431396 -0.02270309254527092
-0.25581395626068115 -0.27131783962249756 -0.025745153427124023
-0.25581395626068115 -0.27131783962249756 -0.02230105735361576
-0.25581395626068115 -0.25581395626068115 -0.026151027530431747
-0.25581395626068115 -0.25581395626068115 -0.022165225818753242
-0.25581395626068115 -0.24031007289886475 -0.026399040594697
-0.25581395626068115 -0.24031008780002594 -0.022141365334391594
-0.25581395626068115 -0.22480618953704834 -0.02656782604753971
-0.25581395626068115 -0.22480617463588715 -0.02214878797531128
-0.25581395626068115 -0.20930230617523193 -0.02656492218375206
-0.25581395626068115 -0.20930230617523193 -0.022156674414873123
-0.25581395626068115 -0.19379842281341553 -0.026576923206448555
-0.25581395626068115 -0.19379840791225433 -0.022103209048509598
-0.25581395626068115 -0.1782945990562439 -0.026427969336509705
-0.25581395626068115 -0.1782945990562439 -0.02207963541150093
-0.25581395626068115 -0.1627907156944275 -0.026240520179271698
-0.25581395626068115 -0.1627907156944275 -0.02202325314283371
-0.25581395626068115 -0.14728683233261108 -0.02620530128479004
-0.25581395626068115 -0.14728684723377228 -0.02187415398657322
-0.25581395626068115 -0.13178294897079468 -0.026315171271562576
-0.25581395626068115 -0.13178294897079468 -0.02165941335260868
-0.25581395626068115 -0.11627906560897827 -0.02659943699836731
-0.25581395626068115 -0.11627906560897827 -0.021418025717139244
-0.25581395626068115 -0.10077518224716187 -0.026931382715702057
-0.25581395626068115 -0.10077518224716187 -0.021199801936745644
-0.25581395626068115 -0.08527129888534546 -0.026802117004990578
-0.25581395626068115 -0.08527129888534546 -0.021518295630812645
-0.25581395626068115 -0.06976741552352905 -0.027329590171575546
-0.25581395626068115 -0.06976741552352905 -0.021559350192546844
-0.25581395626068115 -0.05426359176635742 -0.028071492910385132
-0.25581395626068115 -0.05426358804106712 -0.021499546244740486
-0.25581395626068115 -0.038759708404541016 -0.02846488729119301
-0.25581395626068115 -0.038759708404541016 -0.021596871316432953
-0.25581395626068115 -0.02325582504272461 -0.02818901091814041
-0.25581395626068115 -0.02325582318007946 -0.021742288023233414
-0.25581395626068115 -0.007751941680908203 -0.0275503471493721
-0.25581395626068115 -0.007751941680908203 -0.021917564794421196
-0.25581395626068115 0.007751941680908203 -0.027324456721544266
-0.25581395626068115 0.007751941680908203 -0.021798714995384216
-0.25581395626068115 0.02325582504272461 -0.02699992060661316
-0.25581395626068115 0.02325582504272461 -0.02153737097978592
-0.25581395626068115 0.038759708404541016 -0.026523418724536896
-0.25581395626068115 0.038759708404541016 -0.02141016349196434
-0.25581395626068115 0.05426359176635742 -0.02610115334391594
-0.25581395626068115 0.05426359176635742 -0.021334173157811165
-0.25581395626068115 0.06976747512817383 -0.025778386741876602
-0.25581395626068115 0.06976747512817383 -0.021136574447155
-0.25581395626068115 0.08527135848999023 -0.02550658769905567
-0.25581395626068115 0.08527135103940964 -0.020822860300540924
-0.25581395626068115 0.10077524185180664 -0.025244666263461113
-0.25581395626068115 0.10077524185180664 -0.020502163097262383
-0.25581395626068115 0.11627912521362305 -0.024851365014910698
-0.25581395626068115 0.11627912521362305 -0.020264459773898125
-0.25581395626068115 0.1317828893661499 -0.024342749267816544
-0.25581395626068115 0.1317828893661499 -0.02038491517305374
-0.25581395626068115 0.1472867727279663 -0.023802556097507477
-0.25581395626068115 0.1472867727279663 -0.02116447687149048
-0.25581395626068115 0.20930230617523193 -0.00806703045964241
-0.25581398606300354 0.20930230617523193 -0.007680507376790047
-0.25581395626068115 0.22480618953704834 -0.009133448824286461
-0.25581395626068115 0.22480617463588715 -0.007173974998295307
-0.25581395626068115 0.24031007289886475 -0.009744157083332539
-0.25581395626068115 0.24031005799770355 -0.00656198849901557
-0.25581395626068115 0.25581395626068115 -0.00983619224280119
-0.25581395626068115 0.25581395626068115 -0.006228660698980093
-0.25581395626068115 0.27131783962249756 -0.009614432230591774
-0.25581395626068115 0.27131783962249756 -0.006197258830070496
-0.25581395626068115 0.28682172298431396 -0.009112877771258354
-0.25581395626068115 0.28682175278663635 -0.006475756410509348
-0.25581395626068115 0.30232560634613037 -0.00849464163184166
-0.25581395626068115 0.302325576543808 -0.006963309831917286
-0.25581395626068115 0.3178294897079468 -0.008085696026682854
-0.25581395626068115 0.3178294897079468 -0.00734991580247879
-0.24031007289886475 -0.42635661363601685 -0.03885174170136452
-0.24031007289886475 -0.42635661363601685 -0.038696374744176865
-0.24031007289886475 -0.41085273027420044 -0.040516968816518784
-0.24031007289886475 -0.41085273027420044 -0.03740060329437256
-0.24031007289886475 -0.39534884691238403 -0.040515102446079254
-0.24031005799770355 -0.39534884691238403 -0.03723658621311188
-0.24031007289886475 -0.3798449635505676 -0.04044107347726822
-0.24031005799770355 -0.3798449635505676 -0.03715445473790169
-0.24031007289886475 -0.3643410801887512 -0.04029795527458191
-0.24031007289886475 -0.3643410801887512 -0.037129957228899
-0.24031007289886475 -0.3488371968269348 -0.03972887620329857
-0.24031008780002594 -0.3488372266292572 -0.037591274827718735
-0.24031007289886475 -0.3333333134651184 -0.03883659467101097
-0.24031007289886475 -0.3333333134651184 -0.03865177184343338
-0.24031007289886475 -0.1627907156944275 -0.023703396320343018
-0.24031008780002594 -0.16279073059558868 -0.023182515054941177
-0.24031007289886475 -0.14728683233261108 -0.025249676778912544
-0.24031007289886475 -0.14728684723377228 -0.022829679772257805
-0.24031007289886475 -0.13178294897079468 -0.026386860758066177
-0.24031008780002594 -0.13178294897079468 -0.022430188953876495
-0.24031007289886475 -0.11627906560897827 -0.02690441533923149
-0.24031008780002594 -0.11627906560897827 -0.022256862372159958
-0.24031007289886475 -0.10077518224716187 -0.027738697826862335
-0.24031007289886475 -0.10077517479658127 -0.02213979698717594
-0.24031007289886475 -0.08527129888534546 -0.028174959123134613
-0.24031007289886475 -0.08527129888534546 -0.022222375497221947
-0.24031007289886475 -0.06976741552352905 -0.02918701246380806
-0.24031007289886475 -0.06976741552352905 -0.022275298833847046
-0.24031007289886475 -0.05426359176635742 -0.030703097581863403
-0.24031007289886475 -0.05426359176635742 -0.02227495051920414
-0.24031007289886475 -0.038759708404541016 -0.031630560755729675
-0.24031007289886475 -0.038759708404541016 -0.022366931661963463
-0.24031007289886475 -0.02325582504272461 -0.030777979642152786
-0.24031007289886475 -0.02325582504272461 -0.022469578310847282
-0.24031007289886475 -0.007751941680908203 -0.029009509831666946
-0.24031007289886475 -0.007751941680908203 -0.022626373916864395
-0.24031007289886475 0.007751941680908203 -0.02786210924386978
-0.24031007289886475 0.007751941680908203 -0.0226580947637558
-0.24031007289886475 0.02325582504272461 -0.028540004044771194
-0.24031007289886475 0.02325582690536976 -0.022212199866771698
-0.24031007289886475 0.038759708404541016 -0.027630727738142014
-0.24031007289886475 0.038759708404541016 -0.021909618750214577
-0.24031007289886475 0.05426359176635742 -0.02707095816731453
-0.24031007289886475 0.05426359176635742 -0.021634774282574654
-0.24031007289886475 0.06976747512817383 -0.026433654129505157
-0.24031007289886475 0.06976747512817383 -0.02150437794625759
-0.24031007289886475 0.08527135848999023 -0.026045434176921844
-0.24031007289886475 0.08527135848999023 -0.02130679413676262
-0.24031007289886475 0.10077524185180664 -0.02581191435456276
-0.24031007289886475 0.10077524185180664 -0.021013252437114716
-0.24031007289886475 0.11627912521362305 -0.025561004877090454
-0.24031007289886475 0.11627913266420364 -0.02057931385934353
-0.24031007289886475 0.1317828893661499 -0.025277109816670418
-0.24031007289886475 0.1317828893661499 -0.02012019045650959
-0.24031007289886475 0.1472867727279663 -0.02488010749220848
-0.24031007289886475 0.1472867727279663 -0.019878318533301353
-0.24031007289886475 0.16279065608978271 -0.024299290031194687
-0.24031007289886475 0.16279065608978271 -0.020177453756332397
-0.24031007289886475 0.17829453945159912 -0.023343324661254883
-0.24031007289886475 0.17829453945159912 -0.02275806851685047
-0.24031007289886475 0.22480618953704834 -0.00794611033052206
-0.24031007289886475 0.22480618953704834 -0.007684748619794846
-0.24031007289886475 0.24031007289886475 -0.009271266870200634
-0.24031005799770355 0.24031005799770355 -0.00693103764206171
-0.24031007289886475 0.25581395626068115 -0.009599254466593266
-0.24031007289886475 0.25581395626068115 -0.006489376071840525
-0.24031007289886475 0.27131783962249756 -0.009558059275150299
-0.24031005799770355 0.27131783962249756 -0.0063223522156476974
-0.24031007289886475 0.28682172298431396 -0.009302089922130108
-0.24031007289886475 0.28682172298431396 -0.006372427102178335
-0.24031007289886475 0.30232560634613037 -0.008901746943593025
-0.24031007289886475 0.30232560634613037 -0.0066256774589419365
-0.24031007289886475 0.3178294897079468 -0.008703692816197872
-0.24031007289886475 0.31782951951026917 -0.0067520043812692165
-0.24031007289886475 0.3333333730697632 -0.008576144464313984
-0.24031007289886475 0.3333333730697632 -0.006842382252216339
-0.24031007289886475 0.3488372564315796 -0.008234791457653046
-0.24031005799770355 0.3488372564315796 -0.007211936637759209
-0.22480618953704834 -0.3643410801887512 -0.040216587483882904
-0.22480617463588715 -0.3643410801887512 -0.03751501068472862
-0.22480618953704834 -0.3488371968269348 -0.04044000059366226
-0.22480617463588715 -0.3488371968269348 -0.03721022233366966
-0.22480618953704834 -0.3333333134651184 -0.040363408625125885
-0.22480618953704834 -0.3333333134651184 -0.03716959431767464
-0.22480618953704834 -0.317829430103302 -0.039945878088474274
-0.22480618953704834 -0.317829430103302 -0.037434257566928864
-0.22480618953704834 -0.30232560634613037 -0.0392112173140049
-0.22480618953704834 -0.30232560634613037 -0.038169778883457184
-0.22480618953704834 -0.05426359176635742 -0.03912865370512009
-0.22480618953704834 -0.05426359176635742 -0.0313095822930336
-0.22480618953704834 -0.038759708404541016 -0.03932907059788704
-0.22480618953704834 -0.038759708404541016 -0.03006206452846527
-0.22480618953704834 -0.02325582504272461 -0.039215900003910065
-0.22480618953704834 -0.02325582504272461 -0.031114494428038597
-0.22480618953704834 -0.007751941680908203 -0.03897762671113014
-0.22480618953704834 -0.007751941680908203 -0.03519224002957344
-0.22480618953704834 0.038759708404541016 -0.028638221323490143
-0.22480618953704834 0.038759712129831314 -0.022768156602978706
-0.22480618953704834 0.05426359176635742 -0.02797195315361023
-0.22480618953704834 0.05426359176635742 -0.022315889596939087
-0.22480618953704834 0.06976747512817383 -0.027406854555010796
-0.22480620443820953 0.06976747512817383 -0.021915312856435776
-0.22480618953704834 0.08527135848999023 -0.026753488928079605
-0.22480618953704834 0.08527136594057083 -0.02170855924487114
-0.22480618953704834 0.10077524185180664 -0.026411142200231552
-0.22480618953704834 0.10077524185180664 -0.02147487923502922
-0.22480618953704834 0.11627912521362305 -0.026184191927313805
-0.22480620443820953 0.11627912521362305 -0.021072667092084885
-0.22480618953704834 0.1317828893661499 -0.025944534689188004
-0.22480618953704834 0.1317828893661499 -0.020616738125681877
-0.22480618953704834 0.1472867727279663 -0.025625649839639664
-0.22480618953704834 0.1472867727279663 -0.020251048728823662
-0.22480618953704834 0.16279065608978271 -0.025169795379042625
-0.22480618953704834 0.16279065608978271 -0.020080193877220154
-0.22480618953704834 0.17829453945159912 -0.02425796538591385
-0.22480618953704834 0.17829453945159912 -0.02081741951406002
-0.22480618953704834 0.25581395626068115 -0.008737340569496155
-0.22480618953704834 0.25581395626068115 -0.007134070619940758
-0.22480618953704834 0.27131783962249756 -0.00915894377976656
-0.22480620443820953 0.27131783962249756 -0.006717117503285408
-0.22480618953704834 0.28682172298431396 -0.009288905188441277
-0.22480618953704834 0.2868216931819916 -0.0064787352457642555
-0.22480618953704834 0.30232560634613037 -0.009213490411639214
-0.22480618953704834 0.30232560634613037 -0.006432332098484039
-0.22480618953704834 0.3178294897079468 -0.009172658436000347
-0.22480620443820953 0.3178294897079468 -0.006410134024918079
-0.22480618953704834 0.3333333730697632 -0.009226440452039242
-0.22480620443820953 0.3333333730697632 -0.006330594420433044
-0.22480618953704834 0.3488372564315796 -0.009076022543013096
-0.22480617463588715 0.3488372564315796 -0.006475518457591534
-0.20930230617523193 -0.3333333134651184 -0.040285252034664154
-0.20930230617523193 -0.3333333134651184 -0.037555620074272156
-0.20930230617523193 -0.317829430103302 -0.040645938366651535
-0.20930230617523193 -0.317829430103302 -0.03717048466205597
-0.20930230617523193 -0.30232560634613037 -0.040577150881290436
-0.20930230617523193 -0.30232560634613037 -0.03713180869817734
-0.20930230617523193 -0.28682172298431396 -0.04044635221362114
-0.20930230617523193 -0.28682172298431396 -0.03715190663933754
-0.20930230617523193 -0.27131783962249756 -0.040300458669662476
-0.20930230617523193 -0.27131783962249756 -0.037183552980422974
-0.20930230617523193 -0.25581395626068115 -0.040172021836042404
-0.20930230617523193 -0.25581395626068115 -0.03722410649061203
-0.20930230617523193 -0.24031007289886475 -0.04008078947663307
-0.20930230617523193 -0.24031007289886475 -0.03724510595202446
-0.20930230617523193 -0.22480618953704834 -0.040065184235572815
-0.20930230617523193 -0.22480618953704834 -0.03719230741262436
-0.20930230617523193 -0.20930230617523193 -0.0399923175573349
-0.20930230617523193 -0.20930230617523193 -0.03715677186846733
-0.20930230617523193 -0.19379842281341553 -0.03972920775413513
-0.20930232107639313 -0.19379842281341553 -0.03728323057293892
-0.20930230617523193 -0.1782945990562439 -0.03932872414588928
-0.20930230617523193 -0.1782945990562439 -0.03773295879364014
-0.20930230617523193 -0.1627907156944275 -0.03900764510035515
-0.20930232107639313 -0.1627907156944275 -0.03824348747730255
-0.20930230617523193 -0.14728683233261108 -0.038880009204149246
-0.20930232107639313 -0.14728684723377228 -0.03847581148147583
-0.20930230617523193 -0.13178294897079468 -0.03892529383301735
-0.20930230617523193 -0.13178293406963348 -0.038318801671266556
-0.20930230617523193 -0.11627906560897827 -0.03917040303349495
-0.20930230617523193 -0.11627906560897827 -0.037657298147678375
-0.20930230617523193 -0.10077518224716187 -0.03939295932650566
-0.20930230617523193 -0.10077518224716187 -0.036966998130083084
-0.20930230617523193 -0.08527129888534546 -0.03937877342104912
-0.20930230617523193 -0.08527129888534546 -0.0369764044880867
-0.20930230617523193 -0.06976741552352905 -0.03957642614841461
-0.20930230617523193 -0.06976741552352905 -0.036447517573833466
-0.20930230617523193 -0.05426359176635742 -0.03973468020558357
-0.20930230617523193 -0.05426359176635742 -0.03591183200478554
-0.20930230617523193 -0.038759708404541016 -0.039747416973114014
-0.20930230617523193 -0.038759708404541016 -0.03575090691447258
-0.20930230617523193 -0.02325582504272461 -0.039611317217350006
-0.20930230617523193 -0.02325582504272461 -0.035891324281692505
-0.20930230617523193 -0.007751941680908203 -0.03952895849943161
-0.20930230617523193 -0.007751941680908203 -0.036251913756132126
-0.20930230617523193 0.007751941680908203 -0.03959086537361145
-0.20930230617523193 0.007751941680908203 -0.036194536834955215
-0.20930230617523193 0.02325582504272461 -0.03952186927199364
-0.20930232107639313 0.02325582504272461 -0.03587762266397476
-0.20930230617523193 0.038759708404541016 -0.03933214396238327
-0.20930230617523193 0.038759708404541016 -0.0352398045361042
-0.20930230617523193 0.06976747512817383 -0.025475820526480675
-0.20930230617523193 0.06976746767759323 -0.022979164496064186
-0.20930230617523193 0.08527135848999023 -0.0269965510815382
-0.20930230617523193 0.08527135848999023 -0.022312937304377556
-0.20930230617523193 0.10077524185180664 -0.027006160467863083
-0.20930230617523193 0.10077524185180664 -0.02186105027794838
-0.20930230617523193 0.11627912521362305 -0.026767931878566742
-0.20930230617523193 0.11627912521362305 -0.021421538665890694
-0.20930230617523193 0.1317828893661499 -0.026479195803403854
-0.20930230617523193 0.1317828893661499 -0.02101914957165718
-0.20930230617523193 0.1472867727279663 -0.026137780398130417
-0.20930232107639313 0.1472867727279663 -0.020691964775323868
-0.20930230617523193 0.16279065608978271 -0.025770315900444984
-0.20930230617523193 0.16279065608978271 -0.020445121452212334
-0.20930230617523193 0.17829453945159912 -0.025035984814167023
-0.20930230617523193 0.17829453945159912 -0.020683446899056435
-0.20930230617523193 0.19379842281341553 -0.023599272593855858
-0.20930230617523193 0.19379842281341553 -0.022581133991479874
-0.20930230617523193 0.27131783962249756 -0.00790551770478487
-0.20930230617523193 0.27131783962249756 -0.007647132501006126
-0.20930230617523193 0.28682172298431396 -0.008755515329539776
-0.20930232107639313 0.28682172298431396 -0.0069776796735823154
-0.20930230617523193 0.30232560634613037 -0.009196498431265354
-0.20930230617523193 0.30232560634613037 -0.006545846350491047
-0.20930230617523193 0.3178294897079468 -0.009383548982441425
-0.20930230617523193 0.31782951951026917 -0.006340224761515856
-0.20930230617523193 0.3333333730697632 -0.009326421655714512
-0.20930230617523193 0.33333340287208557 -0.006369815208017826
-0.20930230617523193 0.3488372564315796 -0.007983117364346981
-0.20930230617523193 0.3488372564315796 -0.007546758279204369
-0.19379842281341553 -0.28682172298431396 -0.04000186175107956
-0.19379842281341553 -0.2868216931819916 -0.03797566518187523
-0.19379842281341553 -0.27131783962249756 -0.040800802409648895
-0.19379842281341553 -0.27131783962249756 -0.0374596081674099
-0.19379842281341553 -0.25581395626068115 -0.04106578603386879
-0.19379842281341553 -0.25581395626068115 -0.0373200960457325
-0.19379842281341553 -0.24031007289886475 -0.041106417775154114
-0.19379842281341553 -0.24031007289886475 -0.03730500862002373
-0.19379842281341553 -0.22480618953704834 -0.04105937480926514
-0.19379842281341553 -0.22480617463588715 -0.03729666396975517
-0.19379842281341553 -0.20930230617523193 -0.0408908985555172
-0.19379842281341553 -0.20930230617523193 -0.0372350811958313
-0.19379842281341553 -0.19379842281341553 -0.04063893109560013
-0.19379842281341553 -0.19379842281341553 -0.037129148840904236
-0.19379842281341553 -0.1782945990562439 -0.04037927836179733
-0.19379840791225433 -0.1782945990562439 -0.03710390254855156
-0.19379842281341553 -0.1627907156944275 -0.04018469527363777
-0.19379842281341553 -0.1627907156944275 -0.03715437278151512
-0.19379842281341553 -0.14728683233261108 -0.04018381983041763
-0.19379843771457672 -0.14728683233261108 -0.0370885469019413
-0.19379842281341553 -0.13178294897079468 -0.040349677205085754
-0.19379842281341553 -0.13178294897079468 -0.03688076511025429
-0.19379842281341553 -0.11627906560897827 -0.04057323932647705
-0.19379842281341553 -0.11627905815839767 -0.036702681332826614
-0.19379842281341553 -0.10077518224716187 -0.040775116533041
-0.19379842281341553 -0.10077518224716187 -0.0365314856171608
-0.19379842281341553 -0.08527129888534546 -0.04067176207900047
-0.19379842281341553 -0.08527129888534546 -0.036695245653390884
-0.19379842281341553 -0.06976741552352905 -0.04038802906870842
-0.19379842281341553 -0.06976741552352905 -0.037053052335977554
-0.19379842281341553 -0.05426359176635742 -0.040308911353349686
-0.19379842281341553 -0.05426359176635742 -0.03709940239787102
-0.19379842281341553 -0.038759708404541016 -0.04023914784193039
-0.19379842281341553 -0.038759708404541016 -0.03709159791469574
-0.19379842281341553 -0.02325582504272461 -0.04014088585972786
-0.19379842281341553 -0.02325582690536976 -0.037050534039735794
-0.19379842281341553 -0.007751941680908203 -0.04018475487828255
-0.19379842281341553 -0.007751941215246916 -0.03697095438838005
-0.19379842281341553 0.007751941680908203 -0.040404170751571655
-0.19379842281341553 0.007751941680908203 -0.03679352253675461
-0.19379842281341553 0.02325582504272461 -0.04073280841112137
-0.19379842281341553 0.02325582504272461 -0.036292657256126404
-0.19379842281341553 0.038759708404541016 -0.04069618135690689
-0.19379840791225433 0.038759708404541016 -0.035998716950416565
-0.19379842281341553 0.05426359176635742 -0.04020921140909195
-0.19379842281341553 0.05426359176635742 -0.03596706688404083
-0.19379842281341553 0.06976747512817383 -0.039101071655750275
-0.19379842281341553 0.06976747512817383 -0.03756669908761978
-0.19379842281341553 0.10077524185180664 -0.024006813764572144
-0.19379843771457672 0.10077524185180664 -0.023149237036705017
-0.19379842281341553 0.11627912521362305 -0.026900341734290123
-0.19379842281341553 0.11627912521362305 -0.022145481780171394
-0.19379842281341553 0.1317828893661499 -0.027087852358818054
-0.19379842281341553 0.1317828893661499 -0.02147890254855156
-0.19379842281341553 0.1472867727279663 -0.02673441544175148
-0.19379842281341553 0.1472867727279663 -0.021031716838479042
-0.19379842281341553 0.16279065608978271 -0.026320457458496094
-0.19379842281341553 0.16279065608978271 -0.020709559321403503
-0.19379842281341553 0.17829453945159912 -0.0257532000541687
-0.19379842281341553 0.17829455435276031 -0.020658792927861214
-0.19379842281341553 0.19379842281341553 -0.02470719814300537
-0.19379842281341553 0.19379842281341553 -0.02141103520989418
-0.1782945990562439 -0.20930230617523193 -0.041005950421094894
-0.1782945990562439 -0.20930230617523193 -0.03817438334226608
-0.1782945990562439 -0.19379842281341553 -0.041520725935697556
-0.1782945990562439 -0.19379842281341553 -0.03762328252196312
-0.1782945990562439 -0.1782945990562439 -0.04132472351193428
-0.1782945841550827 -0.1782945841550827 -0.03736228495836258
-0.1782945990562439 -0.1627907156944275 -0.04117915779352188
-0.1782945990562439 -0.1627907156944275 -0.037260252982378006
-0.1782945990562439 -0.14728683233261108 -0.04116678610444069
-0.1782945990562439 -0.14728683233261108 -0.03721219301223755
-0.1782945990562439 -0.13178294897079468 -0.041217442601919174
-0.1782945841550827 -0.13178294897079468 -0.03720063343644142
-0.1782945990562439 -0.11627906560897827 -0.04118834808468819
-0.1782945990562439 -0.11627906560897827 -0.037338413298130035
-0.1782945990562439 -0.10077518224716187 -0.0412745401263237
-0.1782946139574051 -0.10077518224716187 -0.03743325546383858
-0.1782945990562439 -0.08527129888534546 -0.04169442132115364
-0.1782945990562439 -0.08527129888534546 -0.03741099685430527
-0.1782945990562439 -0.06976741552352905 -0.041708678007125854
-0.1782945990562439 -0.06976741552352905 -0.03757679462432861
