-0.5968992114067078 -0.5038759708404541 0.0906962901353836
-0.5968992114067078 -0.4883720874786377 0.08309683203697205
-0.5968992114067078 -0.4883720874786377 0.0912482887506485
-0.5968992114067078 -0.4728682041168213 0.08295860886573792
-0.5968992114067078 -0.4728682041168213 0.09205999970436096
-0.596899151802063 -0.4573643207550049 0.08287326991558075
-0.5968992114067078 -0.4573643207550049 0.09240703284740448
-0.5968992114067078 -0.4418604373931885 0.08288569003343582
-0.5968992710113525 -0.4418604373931885 0.09224066138267517
-0.5968992114067078 -0.42635661363601685 0.0826745331287384
-0.5968992710113525 -0.42635661363601685 0.09233428537845612
-0.5968992114067078 -0.41085273027420044 0.0823947861790657
-0.5968992114067078 -0.41085273027420044 0.09224070608615875
-0.5968992114067078 -0.39534884691238403 0.08209733664989471
-0.5968992710113525 -0.39534884691238403 0.09182336926460266
-0.5968992114067078 -0.3798449635505676 0.08192883431911469
-0.5968992114067078 -0.3798449635505676 0.09181372821331024
-0.5968992114067078 -0.3643410801887512 0.08179821819067001
-0.596899151802063 -0.3643410801887512 0.09231969714164734
-0.5968992114067078 -0.3488371968269348 0.08195855468511581
-0.5968992114067078 -0.3488371968269348 0.09263424575328827
-0.5968992114067078 -0.3333333134651184 0.08208641409873962
-0.5968992114067078 -0.3333333134651184 0.09300759434700012
-0.5968992114067078 -0.317829430103302 0.08208583295345306
-0.5968992114067078 -0.317829430103302 0.09316492080688477
-0.5968992114067078 -0.30232560634613037 0.08208772540092468
-0.5968992114067078 -0.30232560634613037 0.09299838542938232
-0.5968992114067078 -0.28682172298431396 0.08199286460876465
-0.596899151802063 -0.28682172298431396 0.09265527874231339
-0.5968992114067078 -0.27131783962249756 0.08193449676036835
-0.5968992114067078 -0.27131783962249756 0.09276264905929565
-0.5968992114067078 -0.25581395626068115 0.08197767287492752
-0.596899151802063 -0.25581395626068115 0.09282301366329193
-0.5968992114067078 -0.24031007289886475 0.08229151368141174
-0.5968992114067078 -0.24031007289886475 0.09208837151527405
-0.5968992114067078 -0.22480618953704834 0.08269628137350082
-0.596899151802063 -0.22480618953704834 0.09062233567237854
-0.5968992114067078 -0.20930230617523193 0.08293420821428299
-0.5968992114067078 -0.20930230617523193 0.08957111835479736
-0.5968992710113525 -0.19379842281341553 0.08305796980857849
-0.5968992114067078 -0.19379842281341553 0.08899057656526566
-0.5968992114067078 -0.1782945990562439 0.0830506905913353
-0.5968992114067078 -0.1782945990562439 0.08870434761047363
-0.5968992114067078 -0.1627907156944275 0.08292732387781143
-0.5968992114067078 -0.1627907007932663 0.08867291361093521
-0.5968992710113525 -0.14728683233261108 0.0830211341381073
-0.5968992114067078 -0.14728683233261108 0.088508740067482
-0.5968992114067078 -0.13178294897079468 0.08344951272010803
-0.5968992114067078 -0.13178294897079468 0.08784100413322449
-0.5968992710113525 -0.11627906560897827 0.08300098776817322
-0.5968992114067078 -0.11627906560897827 0.08837627619504929
-0.5968992114067078 -0.10077518224716187 0.08257753401994705
-0.5968992114067078 -0.10077518224716187 0.08878712356090546
-0.5968992114067078 -0.08527129888534546 0.08223138004541397
-0.5968992114067078 -0.08527129888534546 0.08899522572755814
-0.5968992114067078 -0.06976741552352905 0.08166560530662537
-0.5968992114067078 -0.06976741552352905 0.08890534937381744
-0.5968992114067078 -0.05426359176635742 0.08080432564020157
-0.5968992114067078 -0.05426359176635742 0.08864034712314606
-0.5968992114067078 -0.038759708404541016 0.07978440821170807
-0.5968992114067078 -0.038759708404541016 0.0883549153804779
-0.5968992114067078 -0.02325582504272461 0.07861301302909851
-0.5968992114067078 -0.02325582504272461 0.08801807463169098
-0.5968992114067078 -0.007751941680908203 0.07668958604335785
-0.5968992114067078 -0.007751941680908203 0.08799325674772263
-0.5968992114067078 0.007751941680908203 0.07501916587352753
-0.5968992114067078 0.007751941215246916 0.08817754685878754
-0.5968992114067078 0.02325582504272461 0.07530368864536285
-0.5968992114067078 0.02325582504272461 0.08835864812135696
-0.5968992114067078 0.038759708404541016 0.07617837190628052
-0.5968992114067078 0.038759708404541016 0.08837276697158813
-0.5968992114067078 0.05426359176635742 0.07703589648008347
-0.5968992114067078 0.05426359176635742 0.08849992603063583
-0.5968992114067078 0.06976747512817383 0.07770783454179764
-0.5968992710113525 0.06976747512817383 0.08880835771560669
-0.5968992114067078 0.08527135848999023 0.0783243477344513
-0.5968992114067078 0.08527135848999023 0.08929290622472763
-0.5968992114067078 0.10077524185180664 0.07903602719306946
-0.596899151802063 0.10077524185180664 0.08986388891935349
-0.5968992114067078 0.11627912521362305 0.07973596453666687
-0.5968992114067078 0.11627911776304245 0.09055055677890778
-0.5968992114067078 0.1317828893661499 0.08032602071762085
-0.5968992114067078 0.1317828893661499 0.09122544527053833
-0.5968992114067078 0.1472867727279663 0.0805976390838623
-0.5968992114067078 0.1472867727279663 0.09124668687582016
-0.5968992114067078 0.16279065608978271 0.08070600032806396
-0.5968992114067078 0.16279065608978271 0.09081700444221497
-0.5968992114067078 0.17829453945159912 0.0808703824877739
-0.5968992114067078 0.17829453945159912 0.09052734076976776
-0.5968992114067078 0.19379842281341553 0.08119802176952362
-0.5968992114067078 0.19379842281341553 0.09033475816249847
-0.5968992114067078 0.20930230617523193 0.08148007094860077
-0.5968992114067078 0.20930230617523193 0.09018439054489136
-0.5968992114067078 0.22480618953704834 0.0817604586482048
-0.596899151802063 0.22480618953704834 0.09014873951673508
-0.5968992114067078 0.24031007289886475 0.08203680068254471
-0.5968992710113525 0.24031007289886475 0.09028495848178864
-0.5968992114067078 0.25581395626068115 0.08213147521018982
-0.5968992114067078 0.25581395626068115 0.09024135023355484
-0.5968992114067078 0.27131783962249756 0.08208703249692917
-0.5968992114067078 0.27131783962249756 0.09020796418190002
-0.5968992114067078 0.28682172298431396 0.0819428488612175
-0.5968992710113525 0.28682172298431396 0.09039457142353058
-0.5968992114067078 0.30232560634613037 0.08187280595302582
-0.5968992114067078 0.30232560634613037 0.09076447784900665
-0.5968992114067078 0.3178294897079468 0.0819261446595192
-0.5968992114067078 0.3178294897079468 0.09067443758249283
-0.5968992114067078 0.3333333730697632 0.08198168128728867
-0.596899151802063 0.3333333730697632 0.09033127129077911
-0.5968992114067078 0.3488372564315796 0.08195623755455017
-0.5968992114067078 0.3488372564315796 0.09000420570373535
-0.5968992114067078 0.364341139793396 0.08202037215232849
-0.5968992114067078 0.364341139793396 0.08945368230342865
-0.5968992114067078 0.37984490394592285 0.08224040269851685
-0.5968992710113525 0.37984490394592285 0.08890490233898163
-0.5968992114067078 0.39534878730773926 0.08255347609519958
-0.5968992114067078 0.39534878730773926 0.08852044492959976
-0.5968992114067078 0.41085267066955566 0.08286730945110321
-0.5968992114067078 0.41085267066955566 0.08822522312402725
-0.5968992114067078 0.42635655403137207 0.08310247957706451
-0.5968992114067078 0.42635655403137207 0.08804339170455933
-0.5968992114067078 0.4418604373931885 0.0831967294216156
-0.5968992114067078 0.4418604373931885 0.08808451145887375
-0.5968992114067078 0.4573643207550049 0.08320224285125732
-0.5968992114067078 0.4573643207550049 0.0881703794002533
-0.596899151802063 0.4728682041168213 0.08323602378368378
-0.5968992114067078 0.4728682041168213 0.08817210793495178
-0.5968992114067078 0.4883720874786377 0.08331438153982162
-0.5968992114067078 0.4883720874786377 0.08794699609279633
-0.5968992710113525 0.5038759708404541 0.08324422687292099
-0.5968992114067078 0.5038759708404541 0.0878576710820198
-0.5968992114067078 0.5193798542022705 0.0831569954752922
-0.5968992114067078 0.5193798542022705 0.08777068555355072
-0.5968992114067078 0.5348837375640869 0.08312424272298813
-0.5968992114067078 0.5348837375640869 0.08763454854488373
-0.5968992114067078 0.5503876209259033 0.08315832912921906
-0.5968992114067078 0.5503876209259033 0.08751996606588364
-0.5968992114067078 0.5658915042877197 0.0832180604338646
-0.5968992114067078 0.5658915042877197 0.08750355243682861
-0.5968992114067078 0.5813953876495361 0.08339542895555496
-0.5968992114067078 0.5813953876495361 0.08741310238838196
-0.5968992114067078 0.5968992710113525 0.08353232592344284
-0.5968992114067078 0.5968992710113525 0.08730509877204895
-0.5968992114067078 0.612403154373169 0.08360259979963303
-0.5968992114067078 0.612403154373169 0.08735739439725876
-0.5968992114067078 0.6279069185256958 0.08357394486665726
-0.5968992114067078 0.6279069185256958 0.08744858205318451
-0.5968992114067078 0.6434108018875122 0.08382276445627213
-0.5968992114067078 0.6434108018875122 0.087086983025074
-0.5813953876495361 -0.674418568611145 0.08408553898334503
-0.5813953876495361 -0.674418568611145 0.08690381050109863
-0.5813953876495361 -0.6589146852493286 0.08301928639411926
-0.5813953876495361 -0.6589146852493286 0.08822239190340042
-0.5813953876495361 -0.643410861492157 0.08316607773303986
-0.5813953876495361 -0.6434109210968018 0.08801916241645813
-0.5813953876495361 -0.6279069781303406 0.0832308828830719
-0.5813953876495361 -0.6279069781303406 0.08793748170137405
-0.5813953876495361 -0.612403154373169 0.08311492949724197
-0.5813953876495361 -0.6124030947685242 0.0879896804690361
-0.5813953876495361 -0.5968992114067078 0.08291853964328766
-0.5813953876495361 -0.5968992114067078 0.08796797692775726
-0.5813953876495361 -0.5813953876495361 0.08275334537029266
-0.5813953876495361 -0.5813953876495361 0.08786700665950775
-0.5813953876495361 -0.5658915042877197 0.08269219100475311
-0.5813953876495361 -0.5658915042877197 0.08773509413003922
-0.5813953876495361 -0.5503876209259033 0.08271996676921844
-0.5813953876495361 -0.5503876209259033 0.08767066895961761
-0.5813953876495361 -0.5348837375640869 0.08279889076948166
-0.5813953876495361 -0.5348837375640869 0.08769719302654266
-0.5813953876495361 -0.5193798542022705 0.08279231935739517
-0.5813953876495361 -0.5193798542022705 0.08777602761983871
-0.5813953876495361 -0.5038759708404541 0.08268558233976364
-0.5813953876495361 -0.5038759708404541 0.08786175400018692
-0.5813953876495361 -0.4883720874786377 0.08247022330760956
-0.5813953876495361 -0.4883720874786377 0.08802402764558792
-0.5813953876495361 -0.4728682041168213 0.08210065215826035
-0.5813953876495361 -0.4728682041168213 0.08834664523601532
-0.5813953876495361 -0.4573643207550049 0.08172101527452469
-0.5813953876495361 -0.4573643207550049 0.08844473212957382
-0.5813953876495361 -0.4418604373931885 0.08150654286146164
-0.5813953876495361 -0.4418604373931885 0.08818426728248596
-0.5813953876495361 -0.42635661363601685 0.08054760098457336
-0.5813953876495361 -0.42635661363601685 0.08813700079917908
-0.5813953876495361 -0.41085273027420044 0.07921169698238373
-0.5813953876495361 -0.41085270047187805 0.08805641531944275
-0.5813953876495361 -0.39534884691238403 0.07765109091997147
-0.5813953876495361 -0.39534884691238403 0.08793364465236664
-0.5813953876495361 -0.3798449635505676 0.07694616913795471
-0.5813953876495361 -0.3798449635505676 0.0879773423075676
-0.5813953876495361 -0.3643410801887512 0.07696034014225006
-0.5813953876495361 -0.3643410801887512 0.08814889192581177
-0.5813953876495361 -0.3488371968269348 0.07832250744104385
-0.5813953876495361 -0.3488371968269348 0.0881771370768547
-0.5813953876495361 -0.3333333134651184 0.07917632162570953
-0.5813953876495361 -0.3333333134651184 0.08841226994991302
-0.5813953876495361 -0.317829430103302 0.07933880388736725
-0.5813953876495361 -0.317829430103302 0.08858630806207657
-0.5813953876495361 -0.30232560634613037 0.07939028739929199
-0.5813953876495361 -0.30232560634613037 0.08864210546016693
-0.5813953876495361 -0.28682172298431396 0.07931578159332275
-0.5813953876495361 -0.28682172298431396 0.08860556781291962
-0.5813953876495361 -0.27131783962249756 0.0794835314154625
-0.5813953876495361 -0.27131783962249756 0.08869349211454391
-0.5813953876495361 -0.25581395626068115 0.07987174391746521
-0.5813953876495361 -0.25581395626068115 0.08870135992765427
-0.5813953876495361 -0.24031007289886475 0.0804688036441803
-0.5813953876495361 -0.24031007289886475 0.0883876383304596
-0.5813953876495361 -0.22480618953704834 0.08084651827812195
-0.5813953876495361 -0.22480618953704834 0.08789416402578354
-0.5813953876495361 -0.20930230617523193 0.08099474012851715
-0.5813953876495361 -0.20930230617523193 0.08748316019773483
-0.5813953876495361 -0.19379842281341553 0.08122368901968002
-0.5813953876495361 -0.19379842281341553 0.08717425912618637
-0.5813953876495361 -0.1782945990562439 0.0814470425248146
-0.5813953876495361 -0.1782945990562439 0.08697282522916794
-0.5813953876495361 -0.1627907156944275 0.08150292187929153
-0.5813953876495361 -0.1627907156944275 0.08696168661117554
-0.5813953876495361 -0.14728683233261108 0.08178086578845978
-0.5813953876495361 -0.14728684723377228 0.08708099275827408
-0.5813953876495361 -0.13178294897079468 0.08250860869884491
-0.5813953876495361 -0.13178294897079468 0.08688942342996597
-0.5813953876495361 -0.11627906560897827 0.08187773823738098
-0.5813953876495361 -0.11627906560897827 0.08707477152347565
-0.5813953876495361 -0.10077518224716187 0.08065786957740784
-0.5813954472541809 -0.10077518224716187 0.0874314233660698
-0.5813953876495361 -0.08527129888534546 0.07933246344327927
-0.5813953876495361 -0.08527129888534546 0.08768737316131592
-0.5813953876495361 -0.06976741552352905 0.07775576412677765
-0.5813953876495361 -0.06976741552352905 0.08765832334756851
-0.5813953876495361 -0.05426359176635742 0.07628990709781647
-0.5813953876495361 -0.05426359549164772 0.08739951252937317
-0.5813953876495361 -0.038759708404541016 0.07470368593931198
-0.5813953876495361 -0.038759708404541016 0.08718278259038925
-0.5813953876495361 -0.02325582504272461 0.07199478149414062
-0.5813953876495361 -0.02325582504272461 0.08692315220832825
-0.5813953876495361 -0.007751941680908203 0.06952861696481705
-0.5813953876495361 -0.007751941680908203 0.08681085705757141
-0.5813953876495361 0.007751941680908203 0.0692928284406662
-0.5813953876495361 0.007751941680908203 0.08691050112247467
-0.5813953876495361 0.02325582504272461 0.06939801573753357
-0.5813953876495361 0.02325582504272461 0.08710260689258575
-0.5813953876495361 0.038759708404541016 0.06957326829433441
-0.5813953876495361 0.038759708404541016 0.08717356622219086
-0.5813953876495361 0.05426359176635742 0.06983406841754913
-0.5813953876495361 0.05426359176635742 0.08732517808675766
-0.5813953876495361 0.06976747512817383 0.07184930145740509
-0.5813953876495361 0.06976747512817383 0.0875592827796936
-0.5813953876495361 0.08527135848999023 0.07370992004871368
-0.5813953876495361 0.08527135848999023 0.08784125000238419
-0.5813953876495361 0.10077524185180664 0.07533153891563416
-0.5813953876495361 0.10077524185180664 0.08814850449562073
-0.5813953876495361 0.11627912521362305 0.0766439139842987
-0.5813953876495361 0.11627913266420364 0.08850526809692383
-0.5813953876495361 0.1317828893661499 0.07766883820295334
-0.5813953876495361 0.1317828893661499 0.0888424888253212
-0.5813953876495361 0.1472867727279663 0.07798496633768082
-0.5813953876495361 0.1472867727279663 0.08888786286115646
-0.5813953876495361 0.16279065608978271 0.07790516316890717
-0.5813953876495361 0.1627906709909439 0.08873162418603897
-0.5813953876495361 0.17829453945159912 0.07805269956588745
-0.5813953876495361 0.17829453945159912 0.08864422142505646
-0.5813953876495361 0.19379842281341553 0.07857527583837509
-0.5813953876495361 0.19379842281341553 0.08859821408987045
-0.5813953876495361 0.20930230617523193 0.07917142659425735
-0.5813953876495361 0.20930230617523193 0.08853564411401749
-0.5813953876495361 0.22480618953704834 0.0798276960849762
-0.5813953876495361 0.22480618953704834 0.08850887417793274
-0.5813953876495361 0.24031007289886475 0.08043079078197479
-0.5813953876495361 0.24031005799770355 0.08855856209993362
-0.5813953876495361 0.25581395626068115 0.08055541664361954
-0.5813953876495361 0.25581395626068115 0.08851630240678787
-0.5813953876495361 0.27131783962249756 0.08018156886100769
-0.5813953876495361 0.27131783962249756 0.08859559893608093
-0.5813953876495361 0.28682172298431396 0.07949107885360718
-0.5813953876495361 0.28682172298431396 0.08884789049625397
-0.5813953876495361 0.30232560634613037 0.07906615734100342
-0.5813953876495361 0.30232560634613037 0.08912280201911926
-0.5813953876495361 0.3178294897079468 0.07905539870262146
-0.5813953876495361 0.3178294897079468 0.08900853991508484
-0.5813953876495361 0.3333333730697632 0.07927081733942032
-0.5813953876495361 0.3333333730697632 0.08862438797950745
-0.5813953876495361 0.3488372564315796 0.07927345484495163
-0.5813953876495361 0.3488372564315796 0.08834579586982727
-0.5813953876495361 0.364341139793396 0.07915516197681427
-0.5813953876495361 0.364341139793396 0.0880035012960434
-0.5813953876495361 0.37984490394592285 0.07954178750514984
-0.5813953876495361 0.37984490394592285 0.08761905133724213
-0.5813953876495361 0.39534878730773926 0.0804450511932373
-0.5813953876495361 0.39534878730773926 0.08734317123889923
-0.5813953876495361 0.41085267066955566 0.08134469389915466
-0.5813954472541809 0.41085267066955566 0.08712439984083176
-0.5813953876495361 0.42635655403137207 0.08193232864141464
-0.5813953876495361 0.42635655403137207 0.08693527430295944
-0.5813953876495361 0.4418604373931885 0.08224372565746307
-0.5813953876495361 0.4418604373931885 0.0868171826004982
-0.5813953876495361 0.4573643207550049 0.08229391276836395
-0.5813953876495361 0.4573643207550049 0.08676762133836746
-0.5813953876495361 0.4728682041168213 0.08233325183391571
-0.5813953876495361 0.4728682041168213 0.08674762398004532
-0.5813953876495361 0.4883720874786377 0.08226330578327179
-0.5813953876495361 0.4883720874786377 0.0866948664188385
-0.5813953876495361 0.5038759708404541 0.08185982704162598
-0.5813953876495361 0.5038759708404541 0.08660827577114105
-0.5813953876495361 0.5193798542022705 0.08135992288589478
-0.5813953876495361 0.5193798542022705 0.08645899593830109
-0.5813953876495361 0.5348837375640869 0.08128134906291962
-0.5813953876495361 0.5348837375640869 0.08624342083930969
-0.5813953876495361 0.5503876209259033 0.08158107101917267
-0.5813953280448914 0.5503876209259033 0.08607149869203568
-0.5813953876495361 0.5658915042877197 0.08164679259061813
-0.5813953876495361 0.5658915042877197 0.0861026719212532
-0.5813953876495361 0.5813953876495361 0.08220786601305008
-0.5813953876495361 0.5813953876495361 0.08612100034952164
-0.5813953876495361 0.5968992710113525 0.08242635428905487
-0.5813953876495361 0.5968992710113525 0.08616016060113907
-0.5813953876495361 0.612403154373169 0.08269959688186646
-0.5813954472541809 0.612403154373169 0.08629713207483292
-0.5813953876495361 0.6279069185256958 0.0828317329287529
-0.5813953876495361 0.6279069185256958 0.08649719506502151
-0.5658915042877197 -0.7054263353347778 0.0844542533159256
-0.5658915042877197 -0.7054263949394226 0.08617937564849854
-0.5658915042877197 -0.6899224519729614 0.08322391659021378
-0.5658915042877197 -0.6899224519729614 0.08727417141199112
-0.5658915042877197 -0.674418568611145 0.08258599042892456
-0.5658915042877197 -0.674418568611145 0.08752421289682388
-0.5658915042877197 -0.6589146852493286 0.08250835537910461
-0.5658915042877197 -0.6589146852493286 0.08724171668291092
-0.5658915042877197 -0.643410861492157 0.08234050124883652
-0.5658915042877197 -0.6434109210968018 0.08709211647510529
-0.5658915042877197 -0.6279069781303406 0.08191201090812683
-0.5658915042877197 -0.6279069781303406 0.08711671084165573
-0.5658915042877197 -0.6124030947685242 0.08099378645420074
-0.5658915042877197 -0.6124030947685242 0.08714297413825989
-0.5658915042877197 -0.5968992114067078 0.07967163622379303
-0.5658915042877197 -0.5968992114067078 0.08695259690284729
-0.5658915042877197 -0.5813953876495361 0.07914900034666061
-0.5658915042877197 -0.5813953280448914 0.08661814033985138
-0.5658915042877197 -0.5658915042877197 0.07993926107883453
-0.5658915042877197 -0.5658915042877197 0.08627396821975708
-0.5658915042877197 -0.5503876209259033 0.08122389018535614
-0.5658915042877197 -0.5503876209259033 0.08603379875421524
-0.5658915042877197 -0.5348837375640869 0.08196737617254257
-0.5658915042877197 -0.5348837375640869 0.08598490059375763
-0.5658915042877197 -0.5193798542022705 0.08200836181640625
-0.5658915042877197 -0.5193798542022705 0.08603426069021225
-0.5658915042877197 -0.5038759708404541 0.08163607120513916
-0.5658915042877197 -0.5038759708404541 0.08609554171562195
-0.5658915042877197 -0.4883720874786377 0.08080019056797028
-0.5658915042877197 -0.4883720576763153 0.08621324598789215
-0.5658915042877197 -0.4728682041168213 0.07860863953828812
-0.5658915042877197 -0.4728682041168213 0.08655284345149994
-0.5658915042877197 -0.4573642909526825 0.0748056098818779
-0.5658915042877197 -0.4573643207550049 0.08678118884563446
-0.5658915042877197 -0.4418604075908661 0.07067827880382538
-0.5658915042877197 -0.4418604373931885 0.08686450123786926
-0.5658915042877197 -0.42635661363601685 0.06915926188230515
-0.5658915042877197 -0.42635661363601685 0.08667052537202835
-0.5658915042877197 -0.41085273027420044 0.06868794560432434
-0.5658915042877197 -0.41085270047187805 0.08673307299613953
-0.5658915042877197 -0.39534884691238403 0.06837247312068939
-0.5658915042877197 -0.39534884691238403 0.08668288588523865
-0.5658915042877197 -0.3798449635505676 0.06832364946603775
-0.5658915042877197 -0.3798449635505676 0.08673246204853058
-0.5658915042877197 -0.3643410801887512 0.06839978694915771
-0.5658915042877197 -0.3643410801887512 0.08681925386190414
-0.5658915042877197 -0.3488371968269348 0.0686936229467392
-0.5658915638923645 -0.3488371968269348 0.08687799423933029
-0.5658915042877197 -0.3333333134651184 0.06900656223297119
-0.5658915042877197 -0.3333333134651184 0.08699965476989746
-0.5658915042877197 -0.317829430103302 0.0691172182559967
-0.5658915042877197 -0.3178294003009796 0.08690057694911957
-0.5658915042877197 -0.30232560634613037 0.06928906589746475
-0.5658915042877197 -0.30232560634613037 0.08668985217809677
-0.5658915042877197 -0.28682172298431396 0.06935707479715347
-0.5658915042877197 -0.28682172298431396 0.0864429920911789
-0.5658915042877197 -0.27131783962249756 0.06949611008167267
-0.5658915042877197 -0.27131783962249756 0.08641969412565231
-0.5658915042877197 -0.25581395626068115 0.06965865194797516
-0.5658915638923645 -0.25581395626068115 0.0864940658211708
-0.5658915042877197 -0.24031007289886475 0.07040485739707947
-0.5658915638923645 -0.24031007289886475 0.08639983087778091
-0.5658915042877197 -0.22480618953704834 0.06969942897558212
-0.5658915042877197 -0.22480618953704834 0.08618044853210449
-0.5658915042877197 -0.20930230617523193 0.0694684088230133
-0.5658915042877197 -0.20930230617523193 0.08596442639827728
-0.5658915042877197 -0.19379842281341553 0.06933433562517166
-0.5658915638923645 -0.19379842281341553 0.08578012883663177
-0.5658915042877197 -0.1782945990562439 0.06929352134466171
-0.5658915042877197 -0.1782945990562439 0.08565078675746918
-0.5658915042877197 -0.1627907156944275 0.06933123618364334
-0.5658915638923645 -0.1627907156944275 0.08571255952119827
-0.5658915042877197 -0.14728683233261108 0.06963787227869034
-0.5658915042877197 -0.14728683233261108 0.0858420878648758
-0.5658915042877197 -0.13178294897079468 0.0800081342458725
-0.5658915042877197 -0.13178294897079468 0.08564804494380951
-0.5658915042877197 -0.11627906560897827 0.07673925906419754
-0.5658915042877197 -0.11627906560897827 0.0857827290892601
-0.5658915042877197 -0.10077518224716187 0.06968802213668823
-0.5658915042877197 -0.10077518224716187 0.08614520728588104
-0.5658915042877197 -0.08527129888534546 0.06935643404722214
-0.5658915042877197 -0.08527129888534546 0.08639822900295258
-0.5658915042877197 -0.06976741552352905 0.06895734369754791
-0.5658915042877197 -0.06976741552352905 0.08631914108991623
-0.5658915042877197 -0.05426359176635742 0.06883026659488678
-0.5658915042877197 -0.05426359176635742 0.08596840500831604
-0.5658915042877197 -0.038759708404541016 0.06879759579896927
-0.5658915042877197 -0.038759708404541016 0.08572738617658615
-0.5658915042877197 -0.02325582504272461 0.0686136782169342
-0.5658915042877197 -0.02325582504272461 0.08541103452444077
-0.5658915042877197 -0.007751941680908203 0.06839168816804886
-0.5658915042877197 -0.007751941680908203 0.08459235727787018
-0.5658915042877197 0.007751941680908203 0.06826175004243851
-0.5658915042877197 0.007751941680908203 0.08533188700675964
-0.5658915042877197 0.02325582504272461 0.06833845376968384
-0.5658915042877197 0.02325582504272461 0.08566614240407944
-0.5658915042877197 0.038759708404541016 0.06845934689044952
-0.5658915042877197 0.038759708404541016 0.08582691848278046
-0.5658915042877197 0.05426359176635742 0.0685686394572258
-0.5658915042877197 0.05426359176635742 0.08610241860151291
-0.5658915042877197 0.06976747512817383 0.06864362955093384
-0.5658915042877197 0.06976746767759323 0.08647860586643219
-0.5658915042877197 0.08527135848999023 0.06880123913288116
-0.5658915042877197 0.08527136594057083 0.08686261624097824
-0.5658915042877197 0.10077524185180664 0.06909822672605515
-0.5658915042877197 0.10077524185180664 0.0871967226266861
-0.5658915042877197 0.11627912521362305 0.06948886066675186
-0.5658915042877197 0.11627912521362305 0.08752844482660294
-0.5658915042877197 0.1317828893661499 0.0710463747382164
-0.5658915042877197 0.1317828893661499 0.08775556832551956
-0.5658915042877197 0.1472867727279663 0.07220997661352158
-0.5658915042877197 0.1472867727279663 0.08774913847446442
-0.5658915042877197 0.16279065608978271 0.07213139533996582
-0.5658915042877197 0.16279065608978271 0.08763584494590759
-0.5658915042877197 0.17829453945159912 0.07250253856182098
-0.5658915042877197 0.17829453945159912 0.08759373426437378
-0.5658915042877197 0.19379842281341553 0.07355602085590363
-0.5658915042877197 0.19379842281341553 0.08757716417312622
-0.5658915042877197 0.20930230617523193 0.07482829689979553
-0.5658915042877197 0.20930230617523193 0.08751422166824341
-0.5658915042877197 0.22480617463588715 0.0764254778623581
-0.5658915042877197 0.22480618953704834 0.08746504783630371
-0.5658915042877197 0.24031007289886475 0.07780711352825165
-0.5658915042877197 0.24031007289886475 0.08749520033597946
-0.5658915042877197 0.25581395626068115 0.07801441848278046
-0.5658915042877197 0.25581395626068115 0.0874578058719635
-0.5658915042877197 0.27131783962249756 0.07695331424474716
-0.5658915042877197 0.27131783962249756 0.08752287924289703
-0.5658915042877197 0.28682172298431396 0.07491865754127502
-0.5658915042877197 0.28682172298431396 0.08773444592952728
-0.5658915042877197 0.30232560634613037 0.07370482385158539
-0.5658915042877197 0.30232560634613037 0.0880204513669014
-0.5658915042877197 0.3178294897079468 0.07362091541290283
-0.5658915042877197 0.3178294599056244 0.08795525878667831
-0.5658915042877197 0.3333333730697632 0.07369478046894073
-0.5658915042877197 0.3333333730697632 0.08763734996318817
-0.5658915042877197 0.3488372564315796 0.07291800528764725
-0.5658915042877197 0.3488372564315796 0.08735516667366028
-0.5658915042877197 0.364341139793396 0.07057622075080872
-0.5658915042877197 0.364341139793396 0.08697571605443954
-0.5658915042877197 0.37984490394592285 0.06968621164560318
-0.5658915042877197 0.37984490394592285 0.08652700483798981
-0.5658915042877197 0.39534878730773926 0.07110712677240372
-0.5658915042877197 0.39534881711006165 0.08618723601102829
-0.5658915042877197 0.41085267066955566 0.07618966698646545
-0.5658915042877197 0.41085267066955566 0.0859604999423027
-0.5658915042877197 0.42635655403137207 0.07912860810756683
-0.565891444683075 0.4263565242290497 0.08574104309082031
-0.5658915042877197 0.4418604373931885 0.08015137910842896
-0.5658915042877197 0.4418604373931885 0.08561672270298004
-0.5658915042877197 0.4573643207550049 0.07987375557422638
-0.5658915042877197 0.45736435055732727 0.08554420620203018
-0.5658915042877197 0.4728682041168213 0.07952214032411575
-0.5658915042877197 0.4728682339191437 0.08546897023916245
-0.5658915042877197 0.4883720874786377 0.06974150985479355
-0.5658915042877197 0.4883720874786377 0.07603242993354797
-0.5658915042877197 0.5038759708404541 0.06921311467885971
-0.5658915042877197 0.5038759708404541 0.08062204718589783
-0.5658915042877197 0.5193798542022705 0.06873319298028946
-0.5658915042877197 0.5193798542022705 0.08060208708047867
-0.5658915042877197 0.5348837375640869 0.06846745312213898
-0.5658915042877197 0.5348837375640869 0.07997363060712814
-0.5658915042877197 0.5503876209259033 0.06834127008914948
-0.5658915042877197 0.5503876209259033 0.07947969436645508
-0.5658915042877197 0.5658915042877197 0.06829195469617844
-0.5658915042877197 0.5658915042877197 0.07950403541326523
-0.5658915042877197 0.5813953876495361 0.06838614493608475
-0.5658915042877197 0.5813953876495361 0.07939586043357849
-0.5658915042877197 0.5968992710113525 0.06836352497339249
-0.5658915042877197 0.5968992710113525 0.0802023783326149
-0.5658915042877197 0.612403154373169 0.06863915920257568
-0.5658915042877197 0.612403154373169 0.08132515847682953
-0.5503876209259033 -0.7364341020584106 0.08480353653430939
-0.5503876209259033 -0.7364341020584106 0.08570708334445953
-0.5503876209259033 -0.7209302186965942 0.08402889221906662
-0.5503876209259033 -0.7209302186965942 0.0863180086016655
-0.5503876209259033 -0.7054263353347778 0.08290400356054306
-0.5503876209259033 -0.7054263353347778 0.08700545132160187
-0.5503876209259033 -0.6899224519729614 0.08163776248693466
-0.5503876209259033 -0.6899224519729614 0.08718809485435486
-0.5503876209259033 -0.674418568611145 0.07985587418079376
-0.5503876209259033 -0.674418568611145 0.08689330518245697
-0.5503876209259033 -0.6589146852493286 0.07686300575733185
-0.5503876209259033 -0.6589146852493286 0.0865454226732254
-0.5503876209259033 -0.643410861492157 0.07119932770729065
-0.5503876209259033 -0.643410861492157 0.08625049889087677
-0.5503876209259033 -0.6279069781303406 0.069305919110775
-0.5503876209259033 -0.6279069781303406 0.08600902557373047
-0.5503876209259033 -0.6124030947685242 0.06868265569210052
-0.5503876209259033 -0.6124030947685242 0.08570047467947006
-0.5503876209259033 -0.5968992114067078 0.0681455209851265
-0.5503876209259033 -0.5968992114067078 0.08436699211597443
-0.5503876209259033 -0.5813953876495361 0.06802766025066376
-0.5503876209259033 -0.5813953876495361 0.08173684775829315
-0.5503876209259033 -0.5658915042877197 0.06823432445526123
-0.5503876209259033 -0.5658915042877197 0.0795830637216568
-0.5503876209259033 -0.5503876209259033 0.0685424730181694
-0.5503876209259033 -0.5503876209259033 0.07777613401412964
-0.5503876209259033 -0.5348837375640869 0.06884685158729553
-0.5503876209259033 -0.5348837375640869 0.07659168541431427
-0.5503876209259033 -0.5193798542022705 0.06903065741062164
-0.5503876209259033 -0.5193798542022705 0.07604015618562698
-0.5503876209259033 -0.5038759708404541 0.06903400272130966
-0.5503876209259033 -0.5038759708404541 0.07635475695133209
-0.5503876209259033 -0.4883720874786377 0.06891807168722153
-0.5503876209259033 -0.4883720874786377 0.0775354653596878
-0.5503876209259033 -0.4728682041168213 0.06863062083721161
-0.5503876209259033 -0.4728682041168213 0.08062496781349182
-0.5503876209259033 -0.4573643207550049 0.06818491220474243
-0.5503876209259033 -0.4573643207550049 0.08298216015100479
-0.5503876209259033 -0.4418604373931885 0.0678066685795784
-0.5503876209259033 -0.4418604373931885 0.0842856839299202
-0.5503876209259033 -0.42635661363601685 0.06753765791654587
-0.5503876209259033 -0.42635661363601685 0.08438976854085922
-0.5503876209259033 -0.41085273027420044 0.06726179271936417
-0.5503876209259033 -0.41085273027420044 0.08370892703533173
-0.5503876209259033 -0.39534884691238403 0.0670696273446083
-0.5503876209259033 -0.39534884691238403 0.0834033191204071
-0.5503876209259033 -0.3798449635505676 0.06707087904214859
-0.5503876209259033 -0.3798449635505676 0.08358459174633026
-0.5503876209259033 -0.3643410801887512 0.06717544049024582
-0.5503876209259033 -0.3643410801887512 0.08419083058834076
-0.5503876209259033 -0.3488371968269348 0.06742614507675171
-0.5503876209259033 -0.3488371968269348 0.08435849845409393
-0.5503876209259033 -0.3333333134651184 0.06752464920282364
-0.5503876209259033 -0.3333333134651184 0.08284883201122284
-0.5503876209259033 -0.317829430103302 0.06771545112133026
-0.5503876209259033 -0.317829430103302 0.08084125816822052
-0.5503876209259033 -0.30232560634613037 0.06793832033872604
-0.5503876209259033 -0.30232560634613037 0.07931328564882278
-0.5503876209259033 -0.28682172298431396 0.06807190924882889
-0.5503876209259033 -0.28682172298431396 0.07833588868379593
-0.5503876209259033 -0.27131783962249756 0.06817620992660522
-0.5503876209259033 -0.27131783962249756 0.07825716584920883
-0.5503876209259033 -0.25581395626068115 0.06826846301555634
-0.5503876209259033 -0.25581395626068115 0.07854524999856949
-0.5503876209259033 -0.24031007289886475 0.06839177757501602
-0.5503876209259033 -0.24031007289886475 0.07866013050079346
-0.5503876209259033 -0.22480618953704834 0.06836783140897751
-0.5503876209259033 -0.22480618953704834 0.07903242111206055
-0.5503876209259033 -0.20930230617523193 0.06822559982538223
-0.5503876209259033 -0.20930230617523193 0.07932863384485245
-0.5503876209259033 -0.19379842281341553 0.06818149983882904
-0.5503876209259033 -0.19379842281341553 0.0792558342218399
-0.5503876209259033 -0.1782945990562439 0.06822359561920166
-0.5503876209259033 -0.1782945990562439 0.0787581354379654
-0.5503876209259033 -0.1627907156944275 0.0681891217827797
-0.5503876209259033 -0.1627907156944275 0.07869517803192139
-0.5503876209259033 -0.14728683233261108 0.06806094944477081
-0.5503876209259033 -0.14728683233261108 0.07887822389602661
-0.5503876209259033 -0.13178294897079468 0.06821455806493759
-0.5503876209259033 -0.13178294897079468 0.07770216464996338
-0.5503876209259033 -0.11627906560897827 0.06820070743560791
-0.5503876209259033 -0.11627906560897827 0.07793909311294556
-0.5503876209259033 -0.10077518224716187 0.0679018422961235
-0.5503876209259033 -0.10077518224716187 0.07986065745353699
-0.5503876209259033 -0.08527129888534546 0.06761658191680908
-0.5503876209259033 -0.08527129888534546 0.08147622644901276
-0.5503876209259033 -0.06976741552352905 0.06770112365484238
-0.5503876209259033 -0.06976741552352905 0.0808340311050415
-0.5503876209259033 -0.05426359176635742 0.06794381886720657
-0.5503876209259033 -0.05426359176635742 0.07940980046987534
-0.5503876209259033 -0.038759708404541016 0.06777112931013107
-0.5503876209259033 -0.038759708404541016 0.0792623907327652
-0.5503876209259033 -0.02325582504272461 0.06754280626773834
-0.5503876209259033 -0.02325582504272461 0.07848550379276276
-0.5503876209259033 -0.007751941680908203 0.06736841052770615
-0.5503876209259033 -0.007751941680908203 0.07776518166065216
-0.5503876209259033 0.007751941680908203 0.06729098409414291
-0.5503876209259033 0.007751941680908203 0.07784134149551392
-0.5503876209259033 0.02325582504272461 0.06740721315145493
-0.5503876209259033 0.02325582504272461 0.07872873544692993
-0.5503876209259033 0.038759708404541016 0.0674985721707344
-0.5503876209259033 0.038759708404541016 0.07943154871463776
-0.5503876209259033 0.05426359176635742 0.06759962439537048
-0.5503876209259033 0.05426359176635742 0.08069879561662674
-0.5503876209259033 0.06976747512817383 0.06764564663171768
-0.5503876209259033 0.06976747512817383 0.08303488790988922
-0.5503876209259033 0.08527135848999023 0.06763336062431335
-0.5503876209259033 0.08527135848999023 0.08551771193742752
-0.5503876209259033 0.10077524185180664 0.06771249324083328
-0.5503876209259033 0.10077524185180664 0.08599524199962616
-0.5503876209259033 0.11627912521362305 0.0680476725101471
-0.5503876209259033 0.11627912521362305 0.08644269406795502
-0.5503876209259033 0.1317828893661499 0.06856635212898254
-0.5503876209259033 0.1317828893661499 0.08673255145549774
-0.5503876209259033 0.1472867727279663 0.06885049492120743
-0.5503876209259033 0.1472867727279663 0.08669538795948029
-0.5503876209259033 0.16279065608978271 0.06892760097980499
-0.5503876209259033 0.16279065608978271 0.08652370423078537
-0.5503876209259033 0.17829453945159912 0.06899777799844742
-0.5503876209259033 0.17829453945159912 0.08643627911806107
-0.5503876209259033 0.19379842281341553 0.06909772008657455
-0.5503876209259033 0.19379842281341553 0.08638573437929153
-0.5503876209259033 0.20930230617523193 0.06920108199119568
-0.5503876209259033 0.20930230617523193 0.08631154894828796
-0.5503876209259033 0.22480618953704834 0.0694693848490715
-0.5503876209259033 0.22480618953704834 0.08626511693000793
-0.5503876209259033 0.24031007289886475 0.07150062918663025
-0.5503876209259033 0.24031005799770355 0.08631156384944916
-0.5503876209259033 0.25581395626068115 0.07213777303695679
-0.5503876209259033 0.25581395626068115 0.0862673744559288
-0.5503876209259033 0.27131783962249756 0.06961049884557724
-0.5503876209259033 0.27131783962249756 0.08629601448774338
-0.5503876209259033 0.28682172298431396 0.06920626014471054
-0.5503876209259033 0.28682172298431396 0.08644911646842957
-0.5503876209259033 0.30232560634613037 0.06904395669698715
-0.5503876209259033 0.30232560634613037 0.08674192428588867
-0.5503876209259033 0.3178294897079468 0.06900167465209961
-0.5503876209259033 0.3178294897079468 0.08672598004341125
-0.5503876209259033 0.3333333730697632 0.06887682527303696
-0.5503876209259033 0.3333333730697632 0.08650558441877365
-0.5503876209259033 0.3488372564315796 0.06863179057836533
-0.5503876209259033 0.3488372266292572 0.08625652641057968
-0.5503876209259033 0.364341139793396 0.06831178069114685
-0.5503876209259033 0.364341139793396 0.08582887053489685
-0.5503876209259033 0.37984490394592285 0.06814499944448471
-0.5503876805305481 0.37984490394592285 0.08531758189201355
-0.5503876209259033 0.39534878730773926 0.06822292506694794
-0.5503876209259033 0.39534878730773926 0.08261431753635406
-0.5503876209259033 0.41085267066955566 0.06840725988149643
-0.5503876209259033 0.41085267066955566 0.0809083878993988
-0.5503876209259033 0.42635655403137207 0.06846662610769272
-0.5503876209259033 0.42635655403137207 0.07950267195701599
-0.5503876209259033 0.4418604373931885 0.06840778887271881
-0.5503876209259033 0.4418604373931885 0.07904664427042007
-0.5503876209259033 0.4573643207550049 0.06830258667469025
-0.5503876209259033 0.4573643207550049 0.07903848588466644
-0.5503876209259033 0.4728682041168213 0.06821613013744354
-0.5503876209259033 0.4728682041168213 0.07885152101516724
-0.5503876209259033 0.4883720874786377 0.06809008866548538
-0.5503876209259033 0.4883720874786377 0.0783022791147232
-0.5503876209259033 0.5038759708404541 0.06792106479406357
-0.5503876209259033 0.5038759708404541 0.07802388072013855
-0.5503876209259033 0.5193798542022705 0.06785454601049423
-0.5503876209259033 0.5193798542022705 0.07752017676830292
-0.5503876209259033 0.5348837375640869 0.0678296685218811
-0.5503876209259033 0.5348837375640869 0.07687802612781525
-0.5503876209259033 0.5503876209259033 0.06778103113174438
-0.5503876209259033 0.5503876209259033 0.07648873329162598
-0.5503876209259033 0.5658915042877197 0.06779816746711731
-0.5503876209259033 0.5658915042877197 0.07628434896469116
-0.5503876209259033 0.5813953876495361 0.06790759414434433
-0.5503876209259033 0.5813953876495361 0.0760904848575592
-0.5503876209259033 0.5968992710113525 0.06798040866851807
-0.5503876209259033 0.5968992710113525 0.07628799974918365
-0.5503876209259033 0.612403154373169 0.06816422939300537
-0.5503876209259033 0.612403154373169 0.07614263892173767
-0.5348837375640869 -0.7054263353347778 0.08173496276140213
-0.5348837375640869 -0.7054263353347778 0.08611922711133957
-0.5348837375640869 -0.6899224519729614 0.06943273544311523
-0.5348836779594421 -0.6899224519729614 0.08585047721862793
-0.5348837375640869 -0.674418568611145 0.0681164413690567
-0.5348837375640869 -0.6744186282157898 0.08534018695354462
-0.5348837375640869 -0.6589146852493286 0.06770320981740952
-0.5348837375640869 -0.6589146852493286 0.08276133984327316
-0.5348837375640869 -0.643410861492157 0.06750232726335526
-0.5348837375640869 -0.643410861492157 0.08121556043624878
-0.5348837375640869 -0.6279069781303406 0.06729739159345627
-0.5348837375640869 -0.6279069781303406 0.0803433433175087
-0.5348837375640869 -0.612403154373169 0.06700552254915237
-0.5348837375640869 -0.6124030947685242 0.07943999022245407
-0.5348837375640869 -0.5968992114067078 0.06672259420156479
-0.5348837375640869 -0.5968992114067078 0.07856112718582153
-0.5348837375640869 -0.5813953876495361 0.06661494076251984
-0.5348837375640869 -0.5813953876495361 0.07804074883460999
-0.5348837375640869 -0.5658915042877197 0.06681235134601593
-0.5348837375640869 -0.5658915042877197 0.07729993015527725
-0.5348837375640869 -0.5503876209259033 0.06718574464321136
-0.5348837375640869 -0.5503876209259033 0.07647644728422165
-0.5348837375640869 -0.5348837375640869 0.06751415133476257
-0.5348837375640869 -0.5348837375640869 0.07600314915180206
-0.5348837375640869 -0.5193798542022705 0.06772205978631973
-0.5348837375640869 -0.5193798542022705 0.07581686973571777
-0.5348837375640869 -0.5038759708404541 0.06776222586631775
-0.5348837375640869 -0.5038759708404541 0.07590775936841965
-0.5348837375640869 -0.4883720874786377 0.06766228377819061
-0.5348837375640869 -0.4883720874786377 0.07637453079223633
-0.5348837375640869 -0.4728682041168213 0.06733781844377518
-0.5348837375640869 -0.4728682041168213 0.07731475681066513
-0.5348837375640869 -0.4573643207550049 0.06680256873369217
-0.5348837375640869 -0.4573643207550049 0.07778029143810272
-0.5348837375640869 -0.4418604373931885 0.06623278558254242
-0.5348837375640869 -0.4418604373931885 0.07797622680664062
-0.5348837375640869 -0.42635661363601685 0.06532811373472214
-0.5348837375640869 -0.42635661363601685 0.07778353989124298
-0.5348837375640869 -0.41085273027420044 0.06468984484672546
-0.5348837375640869 -0.41085273027420044 0.07724227011203766
-0.5348837375640869 -0.39534884691238403 0.06417781114578247
-0.5348837375640869 -0.39534884691238403 0.07675600051879883
-0.5348837375640869 -0.3798449635505676 0.06446757167577744
-0.5348837375640869 -0.3798449635505676 0.07660938054323196
-0.5348837375640869 -0.3643410801887512 0.06502420455217361
-0.5348837375640869 -0.3643410801887512 0.07676509022712708
-0.5348837375640869 -0.3488371968269348 0.06560223549604416
-0.5348837375640869 -0.3488371968269348 0.07669217139482498
-0.5348837375640869 -0.3333333134651184 0.06610836088657379
-0.5348837375640869 -0.3333333134651184 0.07616758346557617
-0.5348837375640869 -0.317829430103302 0.06651128828525543
-0.5348837375640869 -0.317829430103302 0.07538355141878128
-0.5348837375640869 -0.30232560634613037 0.06702925264835358
-0.5348837375640869 -0.30232560634613037 0.0749138668179512
-0.5348837375640869 -0.28682172298431396 0.06725867837667465
-0.5348837375640869 -0.28682172298431396 0.07469238340854645
-0.5348837375640869 -0.27131783962249756 0.06737334281206131
-0.5348837375640869 -0.27131783962249756 0.0748245120048523
-0.5348837375640869 -0.25581395626068115 0.06741989403963089
-0.5348837375640869 -0.25581395626068115 0.07501452416181564
-0.5348837375640869 -0.24031007289886475 0.06745954602956772
-0.5348837375640869 -0.24031007289886475 0.07523029297590256
-0.5348837375640869 -0.22480618953704834 0.06729723513126373
-0.5348837375640869 -0.22480618953704834 0.07569862902164459
-0.5348837375640869 -0.20930230617523193 0.06702034920454025
-0.5348837375640869 -0.20930230617523193 0.0759875625371933
-0.5348837375640869 -0.19379842281341553 0.06699185818433762
-0.5348837375640869 -0.19379842281341553 0.07591800391674042
-0.5348837375640869 -0.1782945990562439 0.0671968013048172
-0.5348837375640869 -0.1782945990562439 0.07540220767259598
-0.5348837375640869 -0.1627907156944275 0.06737380474805832
-0.5348837375640869 -0.1627907156944275 0.07495880872011185
-0.5348837375640869 -0.14728683233261108 0.06731651723384857
-0.5348837375640869 -0.14728683233261108 0.07490423321723938
-0.5348837375640869 -0.13178294897079468 0.06729008257389069
-0.5348837375640869 -0.13178294897079468 0.07468093931674957
-0.5348837375640869 -0.11627906560897827 0.06723073124885559
-0.5348837375640869 -0.11627906560897827 0.07485909014940262
-0.5348837375640869 -0.10077518224716187 0.06694334000349045
-0.5348837375640869 -0.10077518224716187 0.07587633281946182
-0.5348837375640869 -0.08527129888534546 0.06691224128007889
-0.5348837375640869 -0.08527129888534546 0.07649371027946472
-0.5348837375640869 -0.06976741552352905 0.06721016764640808
-0.5348837375640869 -0.06976741552352905 0.07558036595582962
-0.5348837375640869 -0.05426359176635742 0.06688840687274933
-0.5348837375640869 -0.05426359176635742 0.07569534331560135
-0.5348837375640869 -0.038759708404541016 0.06625080108642578
-0.5348837375640869 -0.038759708404541016 0.0761997401714325
-0.5348837375640869 -0.02325582504272461 0.06575453281402588
-0.5348837375640869 -0.02325582504272461 0.0760941356420517
-0.5348837375640869 -0.007751941680908203 0.06552951037883759
-0.5348837375640869 -0.007751941215246916 0.07567530125379562
-0.5348837375640869 0.007751941680908203 0.06560712307691574
-0.5348837375640869 0.007751941680908203 0.07555343210697174
-0.5348837375640869 0.02325582504272461 0.06602512300014496
-0.5348837375640869 0.02325582504272461 0.07582558691501617
-0.5348837375640869 0.038759708404541016 0.06626109033823013
-0.5348837375640869 0.038759708404541016 0.0761391669511795
-0.5348837375640869 0.05426359176635742 0.06646600365638733
-0.5348837375640869 0.05426359176635742 0.0767531469464302
-0.5348837375640869 0.06976747512817383 0.06660068035125732
-0.5348837375640869 0.06976747512817383 0.0777139961719513
-0.5348837375640869 0.08527135848999023 0.06665678322315216
-0.5348837375640869 0.08527135848999023 0.07936438918113708
-0.5348837375640869 0.10077524185180664 0.06671854108572006
-0.5348837375640869 0.10077524185180664 0.08143317699432373
-0.5348837375640869 0.11627912521362305 0.06703374534845352
-0.5348837375640869 0.11627912521362305 0.08444169163703918
-0.5348837375640869 0.1317828893661499 0.06757843494415283
-0.5348837375640869 0.1317828893661499 0.08558378368616104
-0.5348837375640869 0.1472867727279663 0.06790514290332794
-0.5348837375640869 0.1472867727279663 0.08558976650238037
-0.5348837375640869 0.16279065608978271 0.0680202841758728
-0.5348836779594421 0.16279065608978271 0.08539965748786926
-0.5348837375640869 0.17829453945159912 0.06809796392917633
-0.5348837375640869 0.17829452455043793 0.08528594672679901
-0.5348837375640869 0.19379842281341553 0.06819945573806763
-0.5348837375640869 0.19379842281341553 0.08424803614616394
-0.5348837375640869 0.20930230617523193 0.06824834644794464
-0.5348837375640869 0.20930230617523193 0.08313174545764923
-0.5348837375640869 0.22480618953704834 0.06838226318359375
-0.5348837375640869 0.22480618953704834 0.08264078944921494
-0.5348837375640869 0.24031007289886475 0.06865963339805603
-0.5348837375640869 0.24031007289886475 0.08284920454025269
-0.5348837375640869 0.25581395626068115 0.06868762522935867
-0.5348837375640869 0.25581395626068115 0.08237288147211075
-0.5348837375640869 0.27131783962249756 0.06842231750488281
-0.5348837375640869 0.27131783962249756 0.082921601831913
-0.5348837375640869 0.28682172298431396 0.0680224746465683
-0.5348837375640869 0.28682172298431396 0.084293432533741
-0.5348837375640869 0.30232560634613037 0.06782353669404984
-0.5348837375640869 0.302325576543808 0.08540034294128418
-0.5348837375640869 0.3178294897079468 0.06775613129138947
-0.5348837375640869 0.3178294897079468 0.08538638800382614
