0.10077524185180664 -0.8604650497436523 0.15108056366443634
0.10077524185180664 -0.8449612855911255 -0.38099896907806396
0.10077524185180664 -0.8449611663818359 0.14873026311397552
0.10077524185180664 -0.8294573426246643 -0.38084787130355835
0.10077524185180664 -0.8294573426246643 0.1374647468328476
0.10077524185180664 -0.8139535188674927 -0.3806813657283783
0.10077524185180664 -0.8139535188674927 0.0913136899471283
0.10077524185180664 -0.7984496355056763 -0.38061466813087463
0.10077524185180664 -0.7984496355056763 -0.03944690525531769
0.10077524185180664 -0.7829457521438599 -0.38085684180259705
0.10077524185180664 -0.7829457521438599 -0.04466859623789787
0.10077524185180664 -0.7674418687820435 -0.38117077946662903
0.10077524185180664 -0.7674418687820435 -0.045414380729198456
0.10077524185180664 -0.751937985420227 -0.38111600279808044
0.10077524185180664 -0.751937985420227 -0.044711753726005554
0.10077524185180664 -0.7364341020584106 -0.3808775544166565
0.10077524185180664 -0.7364341020584106 -0.04499027132987976
0.10077524185180664 -0.7209302186965942 -0.38055944442749023
0.10077524185180664 -0.7209302186965942 -0.18876633048057556
0.10077524185180664 -0.7209302186965942 -0.15479779243469238
0.10077524185180664 -0.7209302186965942 -0.04408302903175354
0.10077524185180664 -0.7054263353347778 -0.3803618550300598
0.10077524185180664 -0.7054263353347778 -0.20010551810264587
0.10077524930238724 -0.7054263353347778 -0.14692315459251404
0.10077524185180664 -0.7054263353347778 -0.040475137531757355
0.10077524185180664 -0.6899224519729614 -0.38032442331314087
0.10077524930238724 -0.6899224519729614 -0.20806419849395752
0.10077524185180664 -0.6899224519729614 -0.14288702607154846
0.10077524185180664 -0.6899224519729614 -0.038101132959127426
0.10077524185180664 -0.674418568611145 -0.3804015815258026
0.10077524185180664 -0.674418568611145 -0.30007192492485046
0.10077524185180664 -0.674418568611145 -0.2691974639892578
0.10077523440122604 -0.674418568611145 -0.21947777271270752
0.10077524185180664 -0.674418568611145 -0.13944850862026215
0.10077524185180664 -0.674418568611145 -0.03692207112908363
0.10077524185180664 -0.6589146852493286 -0.38051626086235046
0.10077524185180664 -0.6589146852493286 -0.30567169189453125
0.10077524185180664 -0.6589146852493286 -0.136301189661026
0.10077524185180664 -0.6589146852493286 -0.03578082472085953
0.10077524185180664 -0.643410861492157 -0.3806937336921692
0.10077524185180664 -0.643410861492157 -0.3087504506111145
0.10077524185180664 -0.643410861492157 -0.13430339097976685
0.10077524185180664 -0.643410861492157 -0.035164520144462585
0.10077524185180664 -0.6279069781303406 -0.38096189498901367
0.10077524185180664 -0.6279069781303406 -0.3134881258010864
0.10077524185180664 -0.6279069781303406 -0.13224177062511444
0.10077524185180664 -0.6279069781303406 -0.03515614569187164
0.10077524185180664 -0.6124030947685242 -0.3813440203666687
0.10077524185180664 -0.6124030947685242 -0.3183651566505432
0.10077524185180664 -0.6124030947685242 -0.13027289509773254
0.10077524185180664 -0.6124030947685242 -0.03522307053208351
0.10077524185180664 -0.5968992114067078 -0.3818836510181427
0.10077524185180664 -0.5968992114067078 -0.3221302330493927
0.10077524185180664 -0.5968992114067078 -0.1278458684682846
0.10077524185180664 -0.5968992114067078 -0.03561091423034668
0.10077524185180664 -0.5813953876495361 -0.3822728395462036
0.10077524185180664 -0.5813953876495361 -0.32547837495803833
0.10077524185180664 -0.5813953876495361 -0.12473569065332413
0.10077524930238724 -0.5813953876495361 -0.035896021872758865
0.10077524185180664 -0.5658915042877197 -0.38247737288475037
0.10077524930238724 -0.5658915042877197 -0.3280878961086273
0.10077524185180664 -0.5658915042877197 -0.12202554941177368
0.10077524185180664 -0.5658915042877197 -0.03649776428937912
0.10077524185180664 -0.5503876209259033 -0.38262948393821716
0.10077524185180664 -0.5503876209259033 -0.3294532001018524
0.10077524185180664 -0.5503876209259033 -0.1200241968035698
0.10077523440122604 -0.5503876209259033 -0.037096258252859116
0.10077524185180664 -0.5348837375640869 -0.3826499581336975
0.10077524185180664 -0.5348837375640869 -0.3298279941082001
0.10077524185180664 -0.5348837375640869 -0.1194540336728096
0.10077524185180664 -0.5348837375640869 -0.037247247993946075
0.10077524185180664 -0.5193798542022705 -0.38252174854278564
0.10077524185180664 -0.5193798542022705 -0.32941141724586487
0.10077524185180664 -0.5193798542022705 -0.11959871649742126
0.10077524185180664 -0.5193798542022705 -0.03732895851135254
0.10077524185180664 -0.5038759708404541 -0.38243913650512695
0.10077524185180664 -0.5038759708404541 -0.32846853137016296
0.10077524185180664 -0.5038759708404541 -0.12002094089984894
0.10077524185180664 -0.5038759708404541 -0.037207137793302536
0.10077524185180664 -0.4883720874786377 -0.38244733214378357
0.10077524185180664 -0.4883720576763153 -0.32707226276397705
0.10077524185180664 -0.4883720874786377 -0.12086886167526245
0.10077524185180664 -0.4883720874786377 -0.036874935030937195
0.10077524185180664 -0.4728682041168213 -0.3823801577091217
0.10077524185180664 -0.4728682041168213 -0.3251912593841553
0.10077524185180664 -0.4728682041168213 -0.12249920517206192
0.10077524185180664 -0.4728682041168213 -0.036509137600660324
0.10077524185180664 -0.4573643207550049 -0.38221853971481323
0.10077524185180664 -0.4573643207550049 -0.32355380058288574
0.10077524185180664 -0.4573643207550049 -0.12483929097652435
0.10077524185180664 -0.4573643207550049 -0.036506690084934235
0.10077524185180664 -0.4418604373931885 -0.3820725679397583
0.10077524185180664 -0.4418604373931885 -0.32215139269828796
0.10077524185180664 -0.4418604373931885 -0.1277274191379547
0.10077524185180664 -0.4418604373931885 -0.036956481635570526
0.10077524185180664 -0.42635661363601685 -0.38200247287750244
0.10077524185180664 -0.42635661363601685 -0.32036393880844116
0.10077524185180664 -0.42635661363601685 -0.13179771602153778
0.10077524185180664 -0.42635661363601685 -0.037623338401317596
0.10077524185180664 -0.41085273027420044 -0.38202202320098877
0.10077524185180664 -0.41085273027420044 -0.3184029161930084
0.10077524185180664 -0.41085273027420044 -0.13356399536132812
0.10077524185180664 -0.41085270047187805 -0.038191407918930054
0.10077524185180664 -0.39534884691238403 -0.38216641545295715
0.10077524185180664 -0.39534884691238403 -0.31730222702026367
0.10077524185180664 -0.39534884691238403 -0.13430972397327423
0.10077524185180664 -0.39534884691238403 -0.038530152291059494
0.10077524185180664 -0.3798449635505676 -0.3823581635951996
0.10077524185180664 -0.3798449635505676 -0.31704258918762207
0.10077524185180664 -0.3798449635505676 -0.13387534022331238
0.10077524185180664 -0.3798449635505676 -0.03931094706058502
0.10077524185180664 -0.3643410801887512 -0.3824841380119324
0.10077524185180664 -0.3643410801887512 -0.3176426589488983
0.10077524185180664 -0.3643410801887512 -0.13285952806472778
0.10077524185180664 -0.3643410801887512 -0.04072508215904236
0.10077524185180664 -0.3488371968269348 -0.3825637698173523
0.10077524185180664 -0.3488371968269348 -0.31869953870773315
0.10077524185180664 -0.3488371968269348 -0.13151191174983978
0.10077524185180664 -0.3488371968269348 -0.042074888944625854
0.10077524185180664 -0.3333333134651184 -0.38274672627449036
0.10077524185180664 -0.3333333134651184 -0.3195207417011261
0.10077524185180664 -0.3333333134651184 -0.12980344891548157
0.10077524185180664 -0.3333333134651184 -0.04256242886185646
0.10077524185180664 -0.317829430103302 -0.3828997015953064
0.10077524185180664 -0.317829430103302 -0.3197987973690033
0.10077524185180664 -0.317829430103302 -0.1291191279888153
0.10077524185180664 -0.317829430103302 -0.04166679084300995
0.10077524185180664 -0.30232560634613037 -0.38298818469047546
0.10077524185180664 -0.30232560634613037 -0.3199009597301483
0.10077524185180664 -0.30232560634613037 -0.1287907212972641
0.10077524185180664 -0.30232560634613037 -0.04012656584382057
0.10077524185180664 -0.28682172298431396 -0.3831315338611603
0.10077524185180664 -0.28682172298431396 -0.3198446035385132
0.10077524185180664 -0.28682172298431396 -0.12884068489074707
0.10077524185180664 -0.28682172298431396 -0.03844766691327095
0.10077524185180664 -0.27131783962249756 -0.3832920789718628
0.10077524185180664 -0.27131783962249756 -0.319755494594574
0.10077523440122604 -0.27131783962249756 -0.12875157594680786
0.10077524930238724 -0.27131783962249756 -0.037817634642124176
0.10077524185180664 -0.25581395626068115 -0.3834611177444458
0.10077524185180664 -0.25581395626068115 -0.3201688826084137
0.10077524185180664 -0.25581395626068115 -0.12850330770015717
0.10077524185180664 -0.25581395626068115 -0.037238046526908875
0.10077524185180664 -0.24031007289886475 -0.3835206925868988
0.10077524185180664 -0.24031007289886475 -0.3209036588668823
0.10077524185180664 -0.24031007289886475 -0.12805525958538055
0.10077524185180664 -0.24031007289886475 -0.036760687828063965
0.10077524185180664 -0.22480618953704834 -0.3834441900253296
0.10077524185180664 -0.22480618953704834 -0.32140129804611206
0.10077524185180664 -0.22480620443820953 -0.1284468173980713
0.10077524185180664 -0.22480618953704834 -0.036743614822626114
0.10077524185180664 -0.20930230617523193 -0.38362637162208557
0.10077524185180664 -0.20930230617523193 -0.32228147983551025
0.10077524185180664 -0.20930230617523193 -0.12811177968978882
0.10077524185180664 -0.20930230617523193 -0.03675943240523338
0.10077524185180664 -0.19379842281341553 -0.3836829662322998
0.10077524185180664 -0.19379842281341553 -0.3237583339214325
0.10077524185180664 -0.19379842281341553 -0.12676097452640533
0.10077524185180664 -0.19379842281341553 -0.036928147077560425
0.10077524185180664 -0.1782945990562439 -0.3836160898208618
0.10077524185180664 -0.1782945990562439 -0.3248485326766968
0.10077524185180664 -0.1782945990562439 -0.12517210841178894
0.10077524185180664 -0.1782945990562439 -0.03725597634911537
0.10077524185180664 -0.1627907156944275 -0.38367515802383423
0.10077524185180664 -0.1627907156944275 -0.32539212703704834
0.10077524185180664 -0.1627907156944275 -0.12395961582660675
0.10077524185180664 -0.1627907156944275 -0.037604764103889465
0.10077524185180664 -0.14728683233261108 -0.383847177028656
0.10077524185180664 -0.14728683233261108 -0.32509705424308777
0.10077524185180664 -0.14728683233261108 -0.1243274137377739
0.10077524185180664 -0.14728683233261108 -0.03744932636618614
0.10077524185180664 -0.13178294897079468 -0.38401150703430176
0.10077524185180664 -0.13178294897079468 -0.32418012619018555
0.10077524185180664 -0.13178294897079468 -0.12532150745391846
0.10077524185180664 -0.13178294897079468 -0.03717618063092232
0.10077524185180664 -0.11627906560897827 -0.38414913415908813
0.10077524185180664 -0.11627906560897827 -0.322547972202301
0.10077524185180664 -0.11627906560897827 -0.12690483033657074
0.10077523440122604 -0.11627906560897827 -0.03672544285655022
0.10077524185180664 -0.10077518224716187 -0.38435232639312744
0.10077524185180664 -0.10077518224716187 -0.3208193778991699
0.10077524185180664 -0.10077518224716187 -0.1289740353822708
0.10077524185180664 -0.10077518224716187 -0.035808976739645004
0.10077524185180664 -0.08527129888534546 -0.3846268653869629
0.10077524185180664 -0.08527129888534546 -0.3182646930217743
0.10077524185180664 -0.08527129143476486 -0.13137778639793396
0.10077524930238724 -0.08527129888534546 -0.034737952053546906
0.10077524185180664 -0.06976741552352905 -0.38479840755462646
0.10077524185180664 -0.06976741552352905 -0.316365122795105
0.10077524185180664 -0.06976741552352905 -0.13257470726966858
0.10077524185180664 -0.06976741552352905 -0.03363998979330063
0.10077524185180664 -0.05426359176635742 -0.3847258687019348
0.10077524185180664 -0.05426359176635742 -0.3150206506252289
0.10077524185180664 -0.05426359176635742 -0.13307753205299377
0.10077524185180664 -0.05426359176635742 -0.033270157873630524
0.10077524185180664 -0.038759708404541016 -0.3845672905445099
0.10077524185180664 -0.038759708404541016 -0.31375619769096375
0.10077524185180664 -0.038759708404541016 -0.13366170227527618
0.10077524185180664 -0.038759708404541016 -0.03344806656241417
0.10077524185180664 -0.02325582504272461 -0.38445836305618286
0.10077524185180664 -0.02325582504272461 -0.313178151845932
0.10077524185180664 -0.02325582504272461 -0.13359996676445007
0.10077524185180664 -0.02325582504272461 -0.03413175046443939
0.10077524185180664 -0.007751941680908203 -0.3843795657157898
0.10077524185180664 -0.007751941680908203 -0.3137795031070709
0.10077524185180664 -0.007751941680908203 -0.13247337937355042
0.10077524185180664 -0.007751941680908203 -0.035024408251047134
0.10077524185180664 0.007751941680908203 -0.384219765663147
0.10077524185180664 0.007751941680908203 -0.31489741802215576
0.10077524930238724 0.00775194214656949 -0.13126952946186066
0.10077523440122604 0.007751941680908203 -0.036228906363248825
0.10077524185180664 0.02325582504272461 -0.38420921564102173
0.10077523440122604 0.02325582504272461 -0.3164307475090027
0.10077524185180664 0.02325582504272461 -0.12947984039783478
0.10077524185180664 0.02325582504272461 -0.037285566329956055
0.10077524185180664 0.038759708404541016 -0.38418352603912354
0.10077524185180664 0.038759708404541016 -0.3185931146144867
0.10077523440122604 0.038759708404541016 -0.12761345505714417
0.10077524930238724 0.038759708404541016 -0.03790615126490593
0.10077524185180664 0.05426359176635742 -0.3842919170856476
0.10077524185180664 0.05426359176635742 -0.3198135197162628
0.10077524185180664 0.05426359176635742 -0.12601079046726227
0.10077524185180664 0.05426359176635742 -0.0382356122136116
0.10077524185180664 0.06976747512817383 -0.38424408435821533
0.10077524185180664 0.06976747512817383 -0.32064247131347656
0.10077524185180664 0.06976747512817383 -0.12545384466648102
0.10077524930238724 0.06976747512817383 -0.038069166243076324
0.10077524185180664 0.08527135848999023 -0.3843051493167877
0.10077524185180664 0.08527135848999023 -0.32074087858200073
0.10077524185180664 0.08527135848999023 -0.12524718046188354
0.10077524185180664 0.08527135848999023 -0.03752313181757927
0.10077524185180664 0.10077524185180664 -0.38449037075042725
0.10077524185180664 0.10077524185180664 -0.3204885423183441
0.10077524185180664 0.10077524185180664 -0.12516579031944275
0.10077523440122604 0.10077523440122604 -0.036613184958696365
0.10077524185180664 0.11627912521362305 -0.38463670015335083
0.10077524185180664 0.11627912521362305 -0.32025423645973206
0.10077524185180664 0.11627913266420364 -0.12484657764434814
0.10077524930238724 0.11627912521362305 -0.03568637743592262
0.10077524185180664 0.1317828893661499 -0.38467326760292053
0.10077524185180664 0.1317828893661499 -0.3209066689014435
0.10077524185180664 0.1317828893661499 -0.12422105669975281
0.10077524185180664 0.1317828893661499 -0.03511302173137665
0.10077524185180664 0.1472867727279663 -0.3846064805984497
0.10077524185180664 0.1472867727279663 -0.3220968544483185
0.10077524185180664 0.1472867727279663 -0.12356193363666534
0.10077524185180664 0.1472867727279663 -0.03488299995660782
0.10077524185180664 0.16279065608978271 -0.3845556676387787
0.10077524185180664 0.16279065608978271 -0.3231689929962158
0.10077524185180664 0.16279065608978271 -0.1230996698141098
0.10077524930238724 0.16279065608978271 -0.03534069284796715
0.10077524185180664 0.17829453945159912 -0.3847484588623047
0.10077524185180664 0.17829453945159912 -0.324211061000824
0.10077524185180664 0.17829453945159912 -0.12283433973789215
0.10077524185180664 0.17829453945159912 -0.035789817571640015
0.10077524185180664 0.19379842281341553 -0.3848525881767273
0.10077524185180664 0.19379842281341553 -0.32583731412887573
0.10077524185180664 0.19379842281341553 -0.12195943295955658
0.10077524930238724 0.19379842281341553 -0.036464445292949677
0.10077524185180664 0.20930230617523193 -0.38478848338127136
0.10077524185180664 0.20930230617523193 -0.32698360085487366
0.10077524185180664 0.20930230617523193 -0.1210685521364212
0.10077524185180664 0.20930230617523193 -0.03728615492582321
0.10077524185180664 0.22480618953704834 -0.38481855392456055
0.10077524185180664 0.22480618953704834 -0.32765159010887146
0.10077524185180664 0.22480618953704834 -0.11983464658260345
0.10077524185180664 0.22480618953704834 -0.037974610924720764
0.10077524185180664 0.24031007289886475 -0.3848077058792114
0.10077524185180664 0.24031007289886475 -0.327420711517334
0.10077524185180664 0.24031007289886475 -0.11969365179538727
0.10077524185180664 0.24031007289886475 -0.03813973069190979
0.10077524185180664 0.25581395626068115 -0.38487932085990906
0.10077524185180664 0.25581395626068115 -0.32621943950653076
0.10077524185180664 0.25581395626068115 -0.12076116353273392
0.10077524185180664 0.25581395626068115 -0.03797971084713936
0.10077524185180664 0.27131783962249756 -0.38494086265563965
0.10077524185180664 0.27131783962249756 -0.3241735100746155
0.10077524185180664 0.27131783962249756 -0.12241916358470917
0.10077524185180664 0.27131783962249756 -0.03768712282180786
0.10077524185180664 0.28682172298431396 -0.38492798805236816
0.10077524185180664 0.28682172298431396 -0.32187411189079285
0.10077524185180664 0.28682172298431396 -0.12425313889980316
0.10077524185180664 0.28682172298431396 -0.03720947727560997
0.10077524185180664 0.30232560634613037 -0.3850296139717102
0.10077524185180664 0.30232560634613037 -0.3186455965042114
0.10077524185180664 0.30232560634613037 -0.12622664868831635
0.10077524185180664 0.302325576543808 -0.03692449629306793
0.10077524185180664 0.3178294897079468 -0.38519909977912903
0.10077524185180664 0.3178294897079468 -0.31600669026374817
0.10077524185180664 0.3178294897079468 -0.1276077926158905
0.10077524185180664 0.3178294897079468 -0.03674010559916496
0.10077524185180664 0.3333333730697632 -0.38518887758255005
0.10077524185180664 0.3333333730697632 -0.3147451877593994
0.10077524185180664 0.3333333730697632 -0.12836264073848724
0.10077523440122604 0.3333333730697632 -0.03675062954425812
0.10077524185180664 0.3488372564315796 -0.384971559047699
0.10077524185180664 0.3488372564315796 -0.31325283646583557
0.10077524185180664 0.3488372564315796 -0.12951664626598358
0.10077524185180664 0.3488372564315796 -0.03701438754796982
0.10077524185180664 0.364341139793396 -0.3848346769809723
0.10077524185180664 0.364341139793396 -0.31289491057395935
0.10077524185180664 0.364341139793396 -0.12955155968666077
0.10077524185180664 0.364341139793396 -0.037306711077690125
0.10077524185180664 0.37984490394592285 -0.38474389910697937
0.10077524185180664 0.37984490394592285 -0.31373822689056396
0.10077524185180664 0.37984490394592285 -0.12832549214363098
0.10077524185180664 0.37984490394592285 -0.037630122154951096
0.10077524185180664 0.39534878730773926 -0.38431745767593384
0.10077524185180664 0.39534878730773926 -0.31572166085243225
0.10077524185180664 0.39534878730773926 -0.12676836550235748
0.10077524185180664 0.39534878730773926 -0.03807339072227478
0.10077524185180664 0.41085267066955566 -0.38389521837234497
0.10077524185180664 0.41085267066955566 -0.31784698367118835
0.10077524185180664 0.41085267066955566 -0.12477751821279526
0.10077524185180664 0.41085267066955566 -0.038612160831689835
0.10077524185180664 0.42635655403137207 -0.3836728632450104
0.10077524185180664 0.42635655403137207 -0.31984761357307434
0.10077524185180664 0.42635655403137207 -0.12313847243785858
0.10077524185180664 0.42635655403137207 -0.039692409336566925
0.10077524185180664 0.4418604373931885 -0.38367223739624023
0.10077524185180664 0.4418604373931885 -0.32082492113113403
0.10077524185180664 0.4418604373931885 -0.12222824990749359
0.10077524185180664 0.4418604373931885 -0.040648385882377625
0.10077524185180664 0.4573643207550049 -0.3837158679962158
0.10077524185180664 0.4573643207550049 -0.3212582468986511
0.10077524185180664 0.4573643207550049 -0.12179039418697357
0.10077524185180664 0.4573643207550049 -0.04017161950469017
0.10077524185180664 0.4728682041168213 -0.38377049565315247
0.10077524185180664 0.4728682041168213 -0.3213445246219635
0.10077524185180664 0.4728682041168213 -0.12175604701042175
0.10077524185180664 0.4728682041168213 -0.0386032909154892
0.10077524185180664 0.4883720874786377 -0.3840504586696625
0.10077524185180664 0.4883720874786377 -0.32130566239356995
0.10077524185180664 0.4883720874786377 -0.12126734852790833
0.10077524185180664 0.4883720874786377 -0.038052309304475784
0.10077524185180664 0.5038759708404541 -0.384404718875885
0.10077524185180664 0.5038759708404541 -0.32154393196105957
0.10077524185180664 0.5038759708404541 -0.12091967463493347
0.10077524185180664 0.5038759708404541 -0.03759220615029335
0.10077524185180664 0.5193798542022705 -0.38451287150382996
0.10077524185180664 0.5193798542022705 -0.3225116729736328
0.10077524185180664 0.5193798542022705 -0.1201338842511177
0.10077524185180664 0.5193798542022705 -0.03735452890396118
0.10077524185180664 0.5348837375640869 -0.38445979356765747
0.10077524185180664 0.5348837375640869 -0.3237318992614746
0.10077524185180664 0.5348837375640869 -0.11935098469257355
0.10077524185180664 0.5348837375640869 -0.03714294731616974
0.10077524185180664 0.5503876209259033 -0.38444238901138306
0.10077524185180664 0.5503876209259033 -0.32513946294784546
0.10077524185180664 0.5503876209259033 -0.11825510859489441
0.10077524185180664 0.5503876209259033 -0.037287387996912
0.10077524185180664 0.5658915042877197 -0.3845634162425995
0.10077524185180664 0.5658915042877197 -0.32581770420074463
0.10077524185180664 0.5658915042877197 -0.11770623922348022
0.10077524185180664 0.565891444683075 -0.03733377903699875
0.10077524185180664 0.5813953876495361 -0.38413316011428833
0.10077524185180664 0.5813953876495361 -0.3266682028770447
0.10077524185180664 0.5813953876495361 -0.11670983582735062
0.10077524185180664 0.5813953876495361 -0.037528932094573975
0.10077524185180664 0.5968992710113525 -0.383469820022583
0.10077524185180664 0.5968992710113525 -0.32704299688339233
0.10077524185180664 0.5968992710113525 -0.1125127375125885
0.10077524185180664 0.5968992710113525 -0.03778555989265442
0.10077524185180664 0.612403154373169 -0.38280507922172546
0.10077524185180664 0.612403154373169 -0.32668212056159973
0.10077524185180664 0.612403154373169 -0.1095811203122139
0.10077524185180664 0.612403154373169 -0.037993039935827255
0.10077524185180664 0.6279069185256958 -0.3823765814304352
0.10077524185180664 0.6279069185256958 -0.32539162039756775
0.10077524185180664 0.6279069185256958 -0.10849601030349731
0.10077524185180664 0.6279069185256958 -0.03789907321333885
0.10077524185180664 0.6434108018875122 -0.3821326792240143
0.10077524185180664 0.6434108018875122 -0.3226260840892792
0.10077524185180664 0.6434108018875122 -0.1090589091181755
0.10077524185180664 0.6434108018875122 -0.03745484724640846
0.10077524185180664 0.6589146852493286 -0.3821830153465271
0.10077524185180664 0.6589146852493286 -0.31909146904945374
0.10077524185180664 0.6589146852493286 -0.10937441140413284
0.10077524930238724 0.6589146852493286 -0.03672239929437637
0.10077524185180664 0.674418568611145 -0.3824692964553833
0.10077524185180664 0.674418568611145 -0.3141271471977234
0.10077524185180664 0.674418568611145 -0.11112455278635025
0.10077524185180664 0.674418568611145 -0.03534473851323128
0.10077524185180664 0.6899224519729614 -0.38285261392593384
0.10077524185180664 0.6899224519729614 -0.3082134425640106
0.10077524185180664 0.6899224519729614 -0.11330129206180573
0.10077524185180664 0.6899224519729614 -0.03372407704591751
0.10077524185180664 0.7054263353347778 -0.3831096887588501
0.10077524185180664 0.7054263353347778 -0.30295664072036743
0.10077524185180664 0.7054263353347778 -0.1160910427570343
0.10077524185180664 0.7054263353347778 -0.03174419701099396
0.10077524185180664 0.7209302186965942 -0.38312283158302307
0.10077524185180664 0.7209302186965942 -0.2924436330795288
0.10077524185180664 0.7209302186965942 -0.2790158987045288
0.10077524185180664 0.7209302186965942 -0.21882402896881104
0.10077524185180664 0.7209302186965942 -0.13269802927970886
0.10077524185180664 0.7209302186965942 -0.03069210797548294
0.10077524185180664 0.7364341020584106 -0.3828844428062439
0.10077524185180664 0.7364341020584106 -0.20710021257400513
0.10077524185180664 0.7364341020584106 -0.1372317224740982
0.10077524185180664 0.7364341020584106 -0.031470172107219696
0.10077524185180664 0.751937985420227 -0.38259023427963257
0.10077524185180664 0.751937985420227 -0.2018193155527115
0.10077524185180664 0.751937985420227 -0.14051097631454468
0.10077524185180664 0.751937985420227 -0.03243992105126381
0.10077524185180664 0.7674418687820435 -0.3821391463279724
0.10077524185180664 0.7674418687820435 -0.2008674442768097
0.10077524185180664 0.7674418687820435 -0.14263400435447693
0.10077524185180664 0.7674418687820435 -0.03247307240962982
0.10077524185180664 0.7829457521438599 -0.38152825832366943
0.10077524185180664 0.7829457521438599 -0.19885718822479248
0.10077524185180664 0.7829457521438599 -0.14512793719768524
0.10077524185180664 0.7829457521438599 -0.01661120541393757
0.10077524185180664 0.7984496355056763 -0.38119637966156006
0.10077524185180664 0.7984496355056763 -0.190501868724823
0.10077524185180664 0.7984496355056763 -0.15318605303764343
0.10077524185180664 0.7984496355056763 0.05792684853076935
0.10077524185180664 0.8139535188674927 -0.3810409605503082
0.10077524185180664 0.8139535188674927 0.1072445958852768
0.10077524185180664 0.8294574022293091 -0.3809848427772522
0.10077524185180664 0.8294574022293091 0.12973783910274506
0.10077524185180664 0.8449612855911255 -0.38101062178611755
0.10077524185180664 0.8449612855911255 0.1375325471162796
0.10077524185180664 0.8604651689529419 -0.38102835416793823
0.10077524185180664 0.8604651689529419 0.14191275835037231
0.10077524185180664 0.8759689331054688 -0.38111016154289246
0.10077524185180664 0.8759689331054688 0.1448521465063095
0.10077524185180664 0.8914728164672852 -0.38142597675323486
0.10077524185180664 0.8914728164672852 0.14664477109909058
0.10077524185180664 0.9069766998291016 -0.38216593861579895
0.10077524185180664 0.9069766998291016 0.1454651951789856
0.10077524185180664 0.922480583190918 -0.3829875588417053
0.10077524185180664 0.922480583190918 0.1433117687702179
0.10077524185180664 0.9379844665527344 -0.3849734663963318
0.10077524185180664 0.9379844665527344 0.14183317124843597
0.10077524185180664 0.9534883499145508 -0.3844975233078003
0.10077524185180664 0.9534883499145508 0.14088723063468933
0.10077524185180664 0.9689922332763672 -0.37481051683425903
0.10077524185180664 0.9689922332763672 0.13986019790172577
0.10077524185180664 0.9844961166381836 -0.3261834979057312
0.10077524185180664 0.9844961166381836 0.1286695897579193
0.11627912521362305 -0.9844961166381836 -0.3493849039077759
0.11627912521362305 -0.9844961166381836 0.13486580550670624
0.11627913266420364 -0.968992292881012 -0.37753069400787354
0.11627912521362305 -0.9689922332763672 0.14294879138469696
0.11627912521362305 -0.9534883499145508 -0.38370078802108765
0.11627912521362305 -0.9534883499145508 0.14482982456684113
0.11627912521362305 -0.9379844665527344 -0.38474056124687195
0.11627912521362305 -0.9379844665527344 0.14723296463489532
0.11627912521362305 -0.9224806427955627 -0.383803129196167
0.11627912521362305 -0.9224806427955627 0.14840778708457947
0.11627912521362305 -0.9069767594337463 -0.38325783610343933
0.11627912521362305 -0.9069767594337463 0.14952535927295685
0.11627912521362305 -0.8914728760719299 -0.3824542164802551
0.11627913266420364 -0.8914728760719299 0.15046173334121704
0.11627912521362305 -0.8759689331054688 -0.38176068663597107
0.11627912521362305 -0.8759689927101135 0.15091955661773682
0.11627912521362305 -0.8604651093482971 -0.3813675343990326
0.11627912521362305 -0.8604651093482971 0.15084147453308105
0.11627912521362305 -0.8449612259864807 -0.38110974431037903
0.11627912521362305 -0.8449612259864807 0.14848820865154266
0.11627912521362305 -0.8294573426246643 -0.38092491030693054
0.11627912521362305 -0.8294572830200195 0.1368618607521057
0.11627912521362305 -0.8139535188674927 -0.3807217478752136
0.11627912521362305 -0.8139535188674927 0.087525375187397
0.11627912521362305 -0.7984496355056763 -0.380624920129776
0.11627912521362305 -0.7984496355056763 -0.040951039642095566
0.11627912521362305 -0.7829457521438599 -0.38086453080177307
0.11627912521362305 -0.7829457521438599 -0.04542548954486847
0.11627912521362305 -0.7674418687820435 -0.381207674741745
0.11627912521362305 -0.7674418687820435 -0.04577720910310745
0.11627912521362305 -0.751937985420227 -0.3811708688735962
0.11627912521362305 -0.751937985420227 -0.04508022218942642
0.11627912521362305 -0.7364341020584106 -0.38093507289886475
0.11627912521362305 -0.7364341020584106 -0.04539591819047928
0.11627912521362305 -0.7209302186965942 -0.3806101381778717
0.11627912521362305 -0.7209302186965942 -0.18995799124240875
0.11627912521362305 -0.7209302186965942 -0.15397220849990845
0.11627912521362305 -0.7209302186965942 -0.044862162321805954
0.11627912521362305 -0.7054263353347778 -0.38041022419929504
0.11627912521362305 -0.7054263353347778 -0.20123620331287384
0.11627912521362305 -0.7054263353347778 -0.14625684916973114
0.11627912521362305 -0.7054263353347778 -0.041774339973926544
0.11627912521362305 -0.6899224519729614 -0.3803726136684418
0.11627912521362305 -0.6899224519729614 -0.28726285696029663
0.11627912521362305 -0.6899224519729614 -0.28618139028549194
0.11627912521362305 -0.6899224519729614 -0.2094324827194214
0.11627912521362305 -0.6899224519729614 -0.1421656757593155
0.11627912521362305 -0.6899224519729614 -0.038377124816179276
0.11627912521362305 -0.674418568611145 -0.38045307993888855
0.11627912521362305 -0.674418568611145 -0.30300408601760864
0.11627912521362305 -0.674418568611145 -0.26313403248786926
0.11627912521362305 -0.674418568611145 -0.22197408974170685
0.11627912521362305 -0.674418568611145 -0.13870565593242645
0.11627912521362305 -0.674418568611145 -0.037184812128543854
0.11627912521362305 -0.6589146852493286 -0.3805775046348572
0.11627912521362305 -0.6589146852493286 -0.30672329664230347
0.11627912521362305 -0.6589146852493286 -0.13556626439094543
0.11627911776304245 -0.6589146852493286 -0.03604589402675629
0.11627912521362305 -0.643410861492157 -0.3807562589645386
0.11627912521362305 -0.643410861492157 -0.30974066257476807
0.11627912521362305 -0.643410861492157 -0.1336316168308258
0.11627912521362305 -0.6434109210968018 -0.03542871028184891
0.11627912521362305 -0.6279069781303406 -0.3810287415981293
0.11627912521362305 -0.6279069781303406 -0.31446900963783264
0.11627912521362305 -0.6279069781303406 -0.13156232237815857
0.11627912521362305 -0.6279069781303406 -0.03542889654636383
0.11627912521362305 -0.6124030947685242 -0.38140836358070374
0.11627912521362305 -0.6124030947685242 -0.31916114687919617
0.11627912521362305 -0.6124030947685242 -0.12940281629562378
0.11627912521362305 -0.6124030947685242 -0.03552084043622017
0.11627912521362305 -0.5968992114067078 -0.3819485902786255
0.11627912521362305 -0.5968992114067078 -0.3228145241737366
0.11627912521362305 -0.5968992114067078 -0.12705497443675995
0.11627912521362305 -0.5968992114067078 -0.03587852045893669
0.11627912521362305 -0.5813953876495361 -0.38233745098114014
0.11627912521362305 -0.5813953876495361 -0.32610875368118286
0.11627912521362305 -0.5813953876495361 -0.12393362820148468
0.11627912521362305 -0.5813953876495361 -0.03613237291574478
0.11627912521362305 -0.5658915042877197 -0.38254791498184204
0.11627912521362305 -0.5658915042877197 -0.32867521047592163
0.11627912521362305 -0.5658915042877197 -0.12122587114572525
0.11627911776304245 -0.5658915042877197 -0.03669752925634384
0.11627912521362305 -0.5503876209259033 -0.38271576166152954
0.11627912521362305 -0.5503876209259033 -0.3300109803676605
0.11627912521362305 -0.5503876209259033 -0.11926338076591492
0.11627912521362305 -0.5503876209259033 -0.03725653514266014
0.11627912521362305 -0.5348837375640869 -0.3827420473098755
0.11627912521362305 -0.5348837375640869 -0.33038949966430664
0.11627912521362305 -0.5348837375640869 -0.11867360770702362
0.11627912521362305 -0.5348837375640869 -0.037393998354673386
0.11627912521362305 -0.5193798542022705 -0.38261842727661133
0.11627912521362305 -0.5193798542022705 -0.3299960494041443
0.11627912521362305 -0.5193798542022705 -0.11875090003013611
0.11627912521362305 -0.5193798542022705 -0.037476252764463425
0.11627912521362305 -0.5038759708404541 -0.38253554701805115
0.11627912521362305 -0.5038759708404541 -0.32908493280410767
0.11627912521362305 -0.5038759708404541 -0.1190749779343605
0.11627912521362305 -0.5038759708404541 -0.03737103193998337
0.11627912521362305 -0.4883720874786377 -0.382548451423645
0.11627912521362305 -0.4883720874786377 -0.32773423194885254
0.11627912521362305 -0.4883720874786377 -0.11976421624422073
0.11627912521362305 -0.4883720874786377 -0.03706283122301102
0.11627912521362305 -0.4728682041168213 -0.3824825882911682
0.11627912521362305 -0.4728682041168213 -0.3259132504463196
0.11627912521362305 -0.4728682041168213 -0.12114871293306351
0.11627913266420364 -0.4728682041168213 -0.0367293655872345
0.11627912521362305 -0.4573643207550049 -0.38232314586639404
0.11627912521362305 -0.4573643207550049 -0.3243241608142853
0.11627912521362305 -0.4573643207550049 -0.12327225506305695
0.11627912521362305 -0.4573643207550049 -0.036736443638801575
0.11627912521362305 -0.4418604373931885 -0.3821772336959839
0.11627912521362305 -0.4418604373931885 -0.32299375534057617
0.11627912521362305 -0.4418604373931885 -0.12613415718078613
0.11627912521362305 -0.4418604075908661 -0.037173449993133545
0.11627912521362305 -0.42635661363601685 -0.38210058212280273
0.11627912521362305 -0.42635661363601685 -0.3213326036930084
0.11627912521362305 -0.42635661363601685 -0.1302691251039505
0.11627912521362305 -0.42635664343833923 -0.03780006244778633
0.11627912521362305 -0.41085273027420044 -0.38213256001472473
0.11627912521362305 -0.41085273027420044 -0.31943076848983765
0.11627912521362305 -0.41085273027420044 -0.13282877206802368
0.11627911776304245 -0.41085273027420044 -0.03831086680293083
0.11627912521362305 -0.39534884691238403 -0.38228824734687805
0.11627912521362305 -0.39534884691238403 -0.3185299038887024
0.11627912521362305 -0.39534884691238403 -0.13358139991760254
0.11627911776304245 -0.39534884691238403 -0.038599565625190735
0.11627912521362305 -0.3798449635505676 -0.38250237703323364
0.11627912521362305 -0.3798449635505676 -0.3183412253856659
0.11627912521362305 -0.3798449635505676 -0.1331360638141632
0.11627912521362305 -0.3798449635505676 -0.03949044644832611
0.11627912521362305 -0.3643410801887512 -0.3826505243778229
0.11627912521362305 -0.3643410801887512 -0.318712443113327
0.11627912521362305 -0.3643410801887512 -0.13215602934360504
0.11627912521362305 -0.3643410801887512 -0.04086637124419212
0.11627912521362305 -0.3488371968269348 -0.3827388286590576
0.11627912521362305 -0.3488371968269348 -0.3196239769458771
0.11627912521362305 -0.3488372266292572 -0.13061784207820892
0.11627912521362305 -0.3488371968269348 -0.042096659541130066
0.11627912521362305 -0.3333333134651184 -0.3829372525215149
0.11627912521362305 -0.3333333134651184 -0.3203403651714325
0.11627912521362305 -0.3333333134651184 -0.1290350705385208
0.11627912521362305 -0.3333333134651184 -0.04240785166621208
0.11627912521362305 -0.317829430103302 -0.3831055760383606
0.11627912521362305 -0.317829430103302 -0.3205857574939728
0.11627912521362305 -0.317829430103302 -0.12838704884052277
0.11627912521362305 -0.317829430103302 -0.0413476899266243
0.11627912521362305 -0.30232560634613037 -0.3832102417945862
0.11627912521362305 -0.30232560634613037 -0.3206639587879181
0.11627912521362305 -0.30232560634613037 -0.12807968258857727
0.11627912521362305 -0.30232560634613037 -0.03969936445355415
0.11627912521362305 -0.28682172298431396 -0.3833658993244171
0.11627912521362305 -0.28682172298431396 -0.3205884099006653
0.11627911776304245 -0.28682172298431396 -0.12815096974372864
0.11627912521362305 -0.28682172298431396 -0.038300659507513046
0.11627912521362305 -0.27131783962249756 -0.3835514187812805
0.11627912521362305 -0.27131783962249756 -0.32043927907943726
0.11627912521362305 -0.27131783962249756 -0.12811711430549622
0.11627912521362305 -0.27131783962249756 -0.037608321756124496
0.11627912521362305 -0.25581395626068115 -0.3837301731109619
0.11627912521362305 -0.25581395626068115 -0.3208318054676056
0.11627912521362305 -0.25581395626068115 -0.12790343165397644
0.11627911776304245 -0.25581395626068115 -0.03693471476435661
0.11627912521362305 -0.24031007289886475 -0.38379448652267456
0.11627912521362305 -0.24031007289886475 -0.3215477466583252
0.11627912521362305 -0.24031007289886475 -0.12749335169792175
0.11627912521362305 -0.24031007289886475 -0.03636465594172478
0.11627912521362305 -0.22480618953704834 -0.38372576236724854
0.11627912521362305 -0.22480618953704834 -0.3220173716545105
0.11627912521362305 -0.22480617463588715 -0.12794090807437897
0.11627912521362305 -0.22480618953704834 -0.03629431128501892
0.11627912521362305 -0.20930230617523193 -0.38392308354377747
0.11627912521362305 -0.20930230617523193 -0.32289496064186096
0.11627912521362305 -0.20930230617523193 -0.12762857973575592
0.11627912521362305 -0.20930230617523193 -0.036260951310396194
0.11627912521362305 -0.19379842281341553 -0.3840019106864929
0.11627912521362305 -0.19379842281341553 -0.3243255615234375
0.11627911776304245 -0.19379842281341553 -0.1262863427400589
0.11627912521362305 -0.19379842281341553 -0.0364140160381794
0.11627912521362305 -0.1782945990562439 -0.38393962383270264
0.11627912521362305 -0.1782945990562439 -0.325379878282547
0.11627912521362305 -0.1782945990562439 -0.12471812218427658
0.11627912521362305 -0.1782945990562439 -0.0367862731218338
0.11627912521362305 -0.1627907156944275 -0.3840124309062958
0.11627912521362305 -0.1627907156944275 -0.32585760951042175
0.11627912521362305 -0.1627907156944275 -0.12357431650161743
0.11627912521362305 -0.1627907007932663 -0.03718337044119835
0.11627912521362305 -0.14728683233261108 -0.3841979205608368
0.11627912521362305 -0.14728683233261108 -0.32554522156715393
0.11627912521362305 -0.14728683233261108 -0.12398354709148407
0.11627912521362305 -0.14728683233261108 -0.0370585061609745
0.11627912521362305 -0.13178294897079468 -0.38437917828559875
0.11627912521362305 -0.13178294897079468 -0.3246559500694275
0.11627911776304245 -0.13178294897079468 -0.12500622868537903
0.11627912521362305 -0.13178294897079468 -0.03682946786284447
0.11627912521362305 -0.11627906560897827 -0.3845251798629761
0.11627912521362305 -0.11627906560897827 -0.32309767603874207
0.11627912521362305 -0.11627906560897827 -0.12658840417861938
0.11627913266420364 -0.11627906560897827 -0.036414191126823425
0.11627912521362305 -0.10077518224716187 -0.384738564491272
0.11627912521362305 -0.10077518224716187 -0.32147449254989624
0.11627912521362305 -0.10077518224716187 -0.12863299250602722
0.11627912521362305 -0.10077518224716187 -0.0354790985584259
0.11627912521362305 -0.08527129888534546 -0.3850319981575012
0.11627912521362305 -0.08527129888534546 -0.31903529167175293
0.11627912521362305 -0.08527129888534546 -0.13101479411125183
0.11627912521362305 -0.08527129888534546 -0.03436480462551117
0.11627912521362305 -0.06976741552352905 -0.38522154092788696
0.11627912521362305 -0.06976741552352905 -0.31713905930519104
0.11627912521362305 -0.06976741552352905 -0.13234826922416687
0.11627912521362305 -0.06976741552352905 -0.033217716962099075
0.11627912521362305 -0.05426359176635742 -0.3851637840270996
0.11627912521362305 -0.05426359176635742 -0.3157901167869568
0.11627912521362305 -0.05426359176635742 -0.13285288214683533
0.11627912521362305 -0.05426359176635742 -0.03283477574586868
0.11627912521362305 -0.038759708404541016 -0.3849998414516449
0.11627912521362305 -0.038759708404541016 -0.31461822986602783
0.11627912521362305 -0.038759708404541016 -0.1333879679441452
0.11627912521362305 -0.038759708404541016 -0.03303217142820358
0.11627912521362305 -0.02325582504272461 -0.3849005401134491
0.11627912521362305 -0.02325582504272461 -0.314083456993103
0.11627912521362305 -0.02325582504272461 -0.13330507278442383
0.11627912521362305 -0.02325582504272461 -0.03372425213456154
0.11627912521362305 -0.007751941680908203 -0.38482508063316345
0.11627912521362305 -0.007751941680908203 -0.3147679269313812
0.11627912521362305 -0.007751941680908203 -0.13215593993663788
0.11627911776304245 -0.007751941215246916 -0.034648358821868896
0.11627912521362305 0.007751941680908203 -0.38464292883872986
0.11627912521362305 0.007751941680908203 -0.31597474217414856
0.11627911776304245 0.007751941215246916 -0.13077063858509064
0.11627912521362305 0.007751941215246916 -0.035924915224313736
0.11627912521362305 0.02325582504272461 -0.38463371992111206
0.11627912521362305 0.02325582504272461 -0.31741616129875183
0.11627911776304245 0.02325582504272461 -0.12901996076107025
0.11627912521362305 0.02325582504272461 -0.037028562277555466
0.11627912521362305 0.038759708404541016 -0.38458630442619324
0.11627912521362305 0.038759708404541016 -0.31949570775032043
0.11627912521362305 0.038759708404541016 -0.12716960906982422
0.11627912521362305 0.038759708404541016 -0.03766976296901703
0.11627912521362305 0.05426359176635742 -0.3846838176250458
0.11627912521362305 0.05426359176635742 -0.3206457495689392
0.11627911776304245 0.05426359176635742 -0.12559226155281067
0.11627911776304245 0.05426359176635742 -0.03799524903297424
0.11627912521362305 0.06976747512817383 -0.3846270442008972
0.11627912521362305 0.06976747512817383 -0.32144299149513245
0.11627911776304245 0.06976747512817383 -0.12500767409801483
0.11627912521362305 0.06976747512817383 -0.037822067737579346
0.11627912521362305 0.08527135848999023 -0.3846943974494934
0.11627912521362305 0.08527135848999023 -0.3215339779853821
0.11627911776304245 0.08527135848999023 -0.12478604912757874
0.11627912521362305 0.08527135848999023 -0.037253737449645996
0.11627912521362305 0.10077524185180664 -0.3848981261253357
0.11627912521362305 0.10077524185180664 -0.32120853662490845
0.11627912521362305 0.10077524185180664 -0.12473474442958832
0.11627913266420364 0.10077524185180664 -0.03628493845462799
0.11627912521362305 0.11627912521362305 -0.3850693106651306
0.11627912521362305 0.11627912521362305 -0.32085609436035156
0.11627912521362305 0.11627912521362305 -0.12446515262126923
0.11627912521362305 0.11627912521362305 -0.03525673970580101
0.11627912521362305 0.1317828893661499 -0.38511332869529724
0.11627912521362305 0.1317828893661499 -0.321451336145401
0.11627912521362305 0.1317828893661499 -0.12386341392993927
0.11627912521362305 0.1317828893661499 -0.03458164632320404
0.11627912521362305 0.1472867727279663 -0.3850272297859192
0.11627912521362305 0.1472867727279663 -0.32270219922065735
0.11627912521362305 0.1472867727279663 -0.12316054105758667
0.11627912521362305 0.1472867727279663 -0.03428987041115761
0.11627912521362305 0.16279065608978271 -0.38496366143226624
0.11627912521362305 0.16279065608978271 -0.3238295316696167
0.11627912521362305 0.16279065608978271 -0.12268036603927612
0.11627912521362305 0.16279065608978271 -0.034757521003484726
0.11627912521362305 0.17829453945159912 -0.3851280212402344
0.11627912521362305 0.17829453945159912 -0.3249417245388031
0.11627912521362305 0.17829453945159912 -0.12235645949840546
0.11627912521362305 0.17829453945159912 -0.035231366753578186
0.11627912521362305 0.19379842281341553 -0.3852161765098572
0.11627912521362305 0.19379842281341553 -0.3265414237976074
0.11627912521362305 0.19379842281341553 -0.12145371735095978
0.11627912521362305 0.19379842281341553 -0.03594190999865532
0.11627912521362305 0.20930230617523193 -0.38512974977493286
0.11627912521362305 0.20930230617523193 -0.3276481032371521
0.11627912521362305 0.20930230617523193 -0.1205427497625351
0.11627912521362305 0.20930230617523193 -0.03681761771440506
0.11627912521362305 0.22480618953704834 -0.3851412236690521
0.11627913266420364 0.22480618953704834 -0.3282560706138611
0.11627912521362305 0.22480618953704834 -0.11933545023202896
0.11627913266420364 0.22480618953704834 -0.037550315260887146
0.11627912521362305 0.24031007289886475 -0.38511550426483154
0.11627912521362305 0.24031007289886475 -0.3279932737350464
0.11627912521362305 0.24031007289886475 -0.11917251348495483
0.11627912521362305 0.24031007289886475 -0.03776247799396515
0.11627912521362305 0.25581395626068115 -0.3851761221885681
0.11627912521362305 0.25581395626068115 -0.3268190026283264
0.11627912521362305 0.25581395626068115 -0.12019050121307373
0.11627912521362305 0.25581395626068115 -0.03766348958015442
0.11627912521362305 0.27131783962249756 -0.38523513078689575
0.11627912521362305 0.27131783962249756 -0.32484883069992065
0.11627912521362305 0.27131783962249756 -0.12181202322244644
0.11627912521362305 0.27131783962249756 -0.03743918985128403
0.11627912521362305 0.28682172298431396 -0.3852179944515228
0.11627912521362305 0.28682172298431396 -0.32265549898147583
0.11627912521362305 0.28682172298431396 -0.12359210848808289
0.11627912521362305 0.28682172298431396 -0.03702676296234131
0.11627912521362305 0.30232560634613037 -0.3853272497653961
0.11627912521362305 0.30232560634613037 -0.31952765583992004
0.11627912521362305 0.30232560634613037 -0.12553705275058746
0.11627912521362305 0.30232560634613037 -0.036783576011657715
0.11627912521362305 0.3178294897079468 -0.38549381494522095
0.11627912521362305 0.3178294897079468 -0.3169264793395996
0.11627912521362305 0.3178294897079468 -0.1268559843301773
0.11627913266420364 0.31782951951026917 -0.036636050790548325
0.11627912521362305 0.3333333730697632 -0.3854687809944153
0.11627912521362305 0.3333333730697632 -0.3157024383544922
0.11627912521362305 0.3333333730697632 -0.12748496234416962
0.11627913266420364 0.3333333730697632 -0.0366801880300045
0.11627912521362305 0.3488372564315796 -0.3852156698703766
0.11627912521362305 0.3488372564315796 -0.3143255114555359
0.11627912521362305 0.3488372564315796 -0.12838585674762726
0.11627912521362305 0.348837286233902 -0.036973435431718826
0.11627912521362305 0.364341139793396 -0.3850526213645935
0.11627912521362305 0.364341139793396 -0.3140535354614258
0.11627912521362305 0.364341139793396 -0.1282515972852707
0.11627912521362305 0.364341139793396 -0.03726772218942642
0.11627912521362305 0.37984490394592285 -0.38493630290031433
0.11627913266420364 0.37984490394592285 -0.3149318993091583
0.11627912521362305 0.37984490394592285 -0.12710918486118317
0.11627912521362305 0.37984490394592285 -0.037571292370557785
0.11627912521362305 0.39534878730773926 -0.3844700753688812
0.11627912521362305 0.39534878730773926 -0.3168674111366272
0.11627912521362305 0.39534878730773926 -0.12568235397338867
0.11627912521362305 0.39534878730773926 -0.038001056760549545
0.11627912521362305 0.41085267066955566 -0.3840298354625702
0.11627912521362305 0.41085267066955566 -0.318785697221756
0.11627912521362305 0.41085267066955566 -0.1239023432135582
0.11627912521362305 0.41085270047187805 -0.038519568741321564
0.11627912521362305 0.42635655403137207 -0.38378840684890747
0.11627912521362305 0.42635655403137207 -0.32060983777046204
0.11627912521362305 0.42635655403137207 -0.12239104509353638
0.11627912521362305 0.42635655403137207 -0.039059076458215714
0.11627912521362305 0.4418604373931885 -0.3837864398956299
0.11627912521362305 0.4418604373931885 -0.3215028643608093
0.11627912521362305 0.4418604373931885 -0.12156963348388672
0.11627912521362305 0.4418604373931885 -0.03994523733854294
0.11627912521362305 0.4573643207550049 -0.38384175300598145
0.11627912521362305 0.4573643207550049 -0.3218598961830139
0.11627912521362305 0.4573643207550049 -0.12123619019985199
0.11627912521362305 0.4573643207550049 -0.039432790130376816
0.11627912521362305 0.4728682041168213 -0.3839046359062195
0.11627912521362305 0.4728682041168213 -0.32190409302711487
0.11627912521362305 0.4728682041168213 -0.12126071751117706
0.11627913266420364 0.4728682339191437 -0.03847436234354973
