0.4211302101612091 0.6279069185256958 -0.24031007289886475
0.4230610430240631 0.6279069185256958 -0.22480618953704834
0.4225631654262543 0.6279069185256958 -0.20930230617523193
0.4222838580608368 0.6279069185256958 -0.19379842281341553
0.424984335899353 0.6279069185256958 -0.1782945990562439
0.413634330034256 0.6279069185256958 -0.02325582504272461
0.41281014680862427 0.6434108018875122 -0.25581395626068115
0.4198787212371826 0.6434108018875122 -0.24031007289886475
0.4218764901161194 0.6434108018875122 -0.22480618953704834
0.4212014079093933 0.6434108018875122 -0.20930230617523193
0.4205052852630615 0.6434108018875122 -0.19379842281341553
0.4231795072555542 0.6434108018875122 -0.1782945990562439
0.41768330335617065 0.6434108018875122 -0.02325582504272461
0.4182063043117523 0.6589146852493286 -0.24031007289886475
0.4203011989593506 0.6589146852493286 -0.22480618953704834
0.4190370440483093 0.6589146852493286 -0.20930230617523193
0.4172874093055725 0.6589146852493286 -0.19379842281341553
0.4197070300579071 0.6589146852493286 -0.1782945990562439
0.42506471276283264 0.6589146852493286 -0.1627907156944275
0.4224087595939636 0.6589146852493286 -0.02325582504272461
0.41400545835494995 0.674418568611145 -0.24031007289886475
0.41541430354118347 0.674418568611145 -0.22480618953704834
0.41299811005592346 0.674418568611145 -0.20930230617523193
0.41178300976753235 0.674418568611145 -0.1782945990562439
0.4172378480434418 0.674418568611145 -0.1627907156944275
0.4233425557613373 0.674418568611145 -0.14728683233261108
0.41139593720436096 0.6899225115776062 -0.24031008780002594
0.41238272190093994 0.6899224519729614 -0.22480618953704834
0.41331180930137634 0.6899223923683167 -0.1627907156944275
0.41950058937072754 0.6899224519729614 -0.14728683233261108
0.4112602770328522 0.7054263353347778 -0.24031007289886475
0.41233542561531067 0.7054263353347778 -0.22480620443820953
0.41375675797462463 0.7054263353347778 -0.1627907156944275
0.4196305572986603 0.7054263353347778 -0.14728683233261108
0.4112742245197296 0.7209302186965942 -0.22480617463588715
0.4125221073627472 0.7209302186965942 -0.1627907156944275
0.41815030574798584 0.7209302186965942 -0.14728683233261108
0.4154167175292969 0.7364341020584106 -0.14728683233261108
0.4234035611152649 0.7364341020584106 -0.13178294897079468
0.41234123706817627 0.751937985420227 -0.14728683233261108
0.41866952180862427 0.751937985420227 -0.13178294897079468
0.4129043221473694 0.7674418687820435 -0.13178294897079468
0.4172765016555786 0.7829457521438599 -0.11627906560897827
0.41893815994262695 0.8139535188674927 -0.10077518224716187
0.4141426384449005 0.8294573426246643 0.007751941680908203
0.41492128372192383 0.8604651689529419 -0.42635661363601685
0.41214990615844727 0.8604651093482971 -0.3333333134651184
0.41974663734436035 0.8759689331054688 -0.3333333134651184
0.41687577962875366 0.8759689331054688 0.19379842281341553
0.41340339183807373 0.8914728164672852 -0.317829430103302
0.415442556142807 0.9844961166381836 -0.30232560634613037
0.4281409978866577 -0.8914728760719299 -0.42635661363601685
0.4279246926307678 -0.8914728760719299 -0.41085273027420044
0.4277070164680481 -0.8914728760719299 -0.39534884691238403
0.42735767364501953 -0.8914728164672852 -0.3798449635505676
0.42959845066070557 -0.8759689927101135 -0.42635661363601685
0.4278196394443512 -0.8759690523147583 -0.41085273027420044
0.4277358055114746 -0.8759689927101135 -0.39534884691238403
0.4287869930267334 -0.8759690523147583 -0.3798449635505676
0.42878150939941406 -0.8759690523147583 -0.3643411099910736
0.42646947503089905 -0.8759689927101135 -0.3488371968269348
0.43213576078414917 -0.8759689331054688 -0.317829430103302
0.4270492196083069 -0.8604651689529419 -0.3643411099910736
0.43257322907447815 -0.8604651093482971 -0.317829430103302
0.43323814868927 -0.8139535188674927 -0.08527129888534546
0.43505632877349854 -0.8139535188674927 -0.06976741552352905
0.4273201823234558 -0.798449695110321 -0.10077518224716187
0.42903822660446167 -0.7984496355056763 -0.05426359176635742
0.4332631230354309 -0.7829457521438599 -0.10077518224716187
0.4306146502494812 -0.7829457521438599 -0.05426359176635742
0.43511104583740234 -0.7674418687820435 -0.10077518224716187
0.42939090728759766 -0.7674418687820435 -0.05426359176635742
0.4398050308227539 -0.7674418687820435 -0.02325582504272461
0.43247586488723755 -0.751937985420227 -0.10077518224716187
0.43513765931129456 -0.751937985420227 -0.02325582504272461
0.42991989850997925 -0.7364341020584106 -0.10077518224716187
0.4417463541030884 -0.7364341020584106 -0.08527129888534546
0.4393497407436371 -0.7364341020584106 -0.06976741552352905
0.4321935772895813 -0.7364341020584106 -0.02325582504272461
0.43120506405830383 -0.7209302186965942 -0.10077518224716187
0.44161370396614075 -0.7209302186965942 -0.08527129888534546
0.4386158585548401 -0.7209302186965942 -0.06976741552352905
0.43186110258102417 -0.7209302186965942 -0.02325582504272461
0.4338049292564392 -0.7054263353347778 -0.10077518224716187
0.4395790100097656 -0.7054263353347778 -0.06976741552352905
0.43382859230041504 -0.7054263353347778 -0.02325582504272461
0.4277897775173187 -0.6899225115776062 -0.11627907305955887
0.43551719188690186 -0.6899224519729614 -0.10077518224716187
0.44068092107772827 -0.6899224519729614 -0.06976741552352905
0.435843288898468 -0.6899224519729614 -0.02325582504272461
0.42967960238456726 -0.674418568611145 -0.11627906560897827
0.43730148673057556 -0.674418568611145 -0.10077518224716187
0.4381861090660095 -0.674418568611145 -0.02325582504272461
0.4281270205974579 -0.6589146852493286 -0.13178294897079468
0.43229952454566956 -0.6589146852493286 -0.11627906560897827
0.4389655590057373 -0.6589146852493286 -0.10077518224716187
0.4390096962451935 -0.6589146852493286 -0.02325582504272461
0.42853599786758423 -0.643410861492157 -0.13178294897079468
0.43155723810195923 -0.643410861492157 -0.11627906560897827
0.43707939982414246 -0.643410861492157 -0.10077518224716187
0.4409061670303345 -0.643410861492157 -0.06976741552352905
0.43886831402778625 -0.643410861492157 -0.02325582504272461
0.4289410412311554 -0.6279070377349854 -0.13178294897079468
0.4314170181751251 -0.6279070377349854 -0.11627907305955887
0.4365670680999756 -0.6279069781303406 -0.10077518224716187
0.4400786757469177 -0.6279069781303406 -0.06976741552352905
0.438106894493103 -0.6279069781303406 -0.02325582504272461
0.43002089858055115 -0.6124030947685242 -0.13178294897079468
0.43230170011520386 -0.6124030947685242 -0.11627906560897827
0.437395840883255 -0.6124030947685242 -0.10077518224716187
0.44046175479888916 -0.6124030947685242 -0.06976741552352905
0.43702995777130127 -0.6124030947685242 -0.02325582504272461
0.4293951094150543 -0.5968992114067078 -0.13178294897079468
0.4315274953842163 -0.5968992114067078 -0.11627907305955887
0.4364730715751648 -0.5968992114067078 -0.10077518224716187
0.4393923282623291 -0.5968992114067078 -0.06976741552352905
0.4365836977958679 -0.5968992114067078 -0.02325582504272461
0.43027567863464355 -0.5813953876495361 -0.13178294897079468
0.43237853050231934 -0.5813953876495361 -0.11627907305955887
0.43729034066200256 -0.5813953876495361 -0.10077518224716187
0.4394463896751404 -0.5813953876495361 -0.06976741552352905
0.436246782541275 -0.5813953876495361 -0.02325582504272461
0.43057015538215637 -0.5658915042877197 -0.13178294897079468
0.4325701594352722 -0.5658915042877197 -0.11627906560897827
0.43746277689933777 -0.5658915042877197 -0.10077518224716187
0.4388558268547058 -0.5658915042877197 -0.06976741552352905
0.434812068939209 -0.5658915042877197 -0.02325582504272461
0.42985057830810547 -0.5503876209259033 -0.13178294897079468
0.4315498471260071 -0.5503876209259033 -0.11627906560897827
0.4361575245857239 -0.5503876209259033 -0.10077518224716187
0.44165754318237305 -0.5503876209259033 -0.08527129888534546
0.43726876378059387 -0.5503876209259033 -0.06976741552352905
0.43236401677131653 -0.5503876209259033 -0.02325582504272461
0.4280143976211548 -0.5348837375640869 -0.13178294897079468
0.42948856949806213 -0.5348837375640869 -0.11627906560897827
0.43396103382110596 -0.5348837375640869 -0.10077518224716187
0.43979766964912415 -0.5348837375640869 -0.08527129888534546
0.43549463152885437 -0.5348837375640869 -0.06976741552352905
0.43216097354888916 -0.5348837375640869 -0.02325582504272461
0.42706286907196045 -0.5193798542022705 -0.13178294897079468
0.4284652769565582 -0.5193798542022705 -0.11627906560897827
0.4330558776855469 -0.5193798542022705 -0.10077518224716187
0.43906140327453613 -0.5193798542022705 -0.08527129888534546
0.4346767067909241 -0.5193798542022705 -0.06976741552352905
0.4319893717765808 -0.5193798542022705 -0.02325582504272461
0.4270778298377991 -0.5038759708404541 -0.13178294897079468
0.4287886321544647 -0.5038759708404541 -0.11627906560897827
0.4338575303554535 -0.5038759708404541 -0.10077518224716187
0.4400714933872223 -0.5038759708404541 -0.08527129888534546
0.4355890154838562 -0.5038759708404541 -0.06976741552352905
0.432842493057251 -0.5038759708404541 -0.02325582504272461
0.4266825318336487 -0.4883720874786377 -0.13178294897079468
0.4290463328361511 -0.4883720874786377 -0.11627906560897827
0.4348766505718231 -0.4883720874786377 -0.10077518224716187
0.4413544535636902 -0.4883720874786377 -0.08527129888534546
0.4367942810058594 -0.4883720874786377 -0.06976741552352905
0.43380874395370483 -0.4883720874786377 -0.02325582504272461
0.4285427927970886 -0.4728681743144989 -0.11627906560897827
0.43479812145233154 -0.4728682041168213 -0.10077518224716187
0.44104278087615967 -0.4728682041168213 -0.08527129888534546
0.4360288381576538 -0.4728682041168213 -0.06976741552352905
0.43356165289878845 -0.4728681743144989 -0.02325582504272461
0.42878058552742004 -0.4573643207550049 -0.11627906560897827
0.4350208044052124 -0.4573643207550049 -0.10077518224716187
0.44090503454208374 -0.4573643207550049 -0.08527129888534546
0.4353930652141571 -0.4573643207550049 -0.06976741552352905
0.4338172376155853 -0.4573643207550049 -0.02325582504272461
0.42687705159187317 -0.4418604373931885 -0.13178296387195587
0.42995548248291016 -0.4418604373931885 -0.11627906560897827
0.4366130232810974 -0.4418604373931885 -0.10077518224716187
0.4364953339099884 -0.4418604373931885 -0.06976741552352905
0.4334735870361328 -0.4418604373931885 -0.02325582504272461
0.4296598732471466 -0.42635661363601685 -0.11627906560897827
0.4367043375968933 -0.42635661363601685 -0.10077518224716187
0.4360769987106323 -0.42635661363601685 -0.06976741552352905
0.43282175064086914 -0.42635661363601685 -0.02325582504272461
0.42957085371017456 -0.41085273027420044 -0.11627906560897827
0.4368056654930115 -0.41085273027420044 -0.10077518224716187
0.4354196786880493 -0.41085273027420044 -0.06976741552352905
0.43240711092948914 -0.41085273027420044 -0.02325582504272461
0.42868468165397644 -0.39534884691238403 -0.11627906560897827
0.43637800216674805 -0.39534884691238403 -0.10077518224716187
0.43508630990982056 -0.39534884691238403 -0.06976741552352905
0.43260690569877625 -0.39534884691238403 -0.02325582504272461
0.4268767237663269 -0.3798449635505676 -0.11627905815839767
0.435152530670166 -0.3798449635505676 -0.10077518224716187
0.44130685925483704 -0.3798449635505676 -0.08527129888534546
0.43424299359321594 -0.3798449635505676 -0.06976741552352905
0.43109747767448425 -0.3798449635505676 -0.02325582504272461
0.4320189952850342 -0.3643410801887512 -0.10077518224716187
0.438729465007782 -0.3643410801887512 -0.08527129888534546
0.4317874610424042 -0.3643410801887512 -0.06976741552352905
0.4293195605278015 -0.3643410801887512 -0.02325582504272461
0.4294632077217102 -0.3488371968269348 -0.10077518224716187
0.43659865856170654 -0.3488371968269348 -0.08527129888534546
0.43006306886672974 -0.3488371968269348 -0.06976741552352905
0.42737099528312683 -0.3488371968269348 -0.02325582504272461
0.4273918867111206 -0.3333333134651184 -0.10077518969774246
0.4346451759338379 -0.3333333134651184 -0.08527129888534546
0.42850151658058167 -0.333333283662796 -0.06976741552352905
0.43325769901275635 -0.317829430103302 -0.08527129888534546
0.4273613393306732 -0.3178294003009796 -0.06976741552352905
0.43244099617004395 -0.30232560634613037 -0.08527129888534546
0.4263872802257538 -0.30232560634613037 -0.06976741552352905
0.4317799210548401 -0.28682172298431396 -0.08527129888534546
0.43020397424697876 -0.27131783962249756 -0.08527129888534546
0.4302688241004944 -0.25581395626068115 -0.08527129888534546
0.42730677127838135 -0.24031007289886475 -0.10077518224716187
0.43260514736175537 -0.24031007289886475 -0.08527129888534546
0.42916935682296753 -0.22480618953704834 -0.10077518224716187
0.43436625599861145 -0.22480618953704834 -0.08527129888534546
0.4272868037223816 -0.22480618953704834 -0.06976741552352905
0.4296301007270813 -0.20930230617523193 -0.10077518224716187
0.4349207580089569 -0.20930230617523193 -0.08527129888534546
0.42803066968917847 -0.20930230617523193 -0.06976741552352905
0.4265568256378174 -0.20930229127407074 -0.02325582504272461
0.4308008849620819 -0.19379842281341553 -0.10077518224716187
0.4359249770641327 -0.19379842281341553 -0.08527129888534546
0.42884767055511475 -0.19379842281341553 -0.06976741552352905
0.42684105038642883 -0.19379842281341553 -0.02325582504272461
0.43170708417892456 -0.1782945990562439 -0.10077518224716187
0.4365607500076294 -0.1782945990562439 -0.08527129888534546
0.4292334020137787 -0.1782945990562439 -0.06976741552352905
0.431071400642395 -0.1627907156944275 -0.10077518224716187
0.4357283413410187 -0.1627907156944275 -0.08527129888534546
0.4283064305782318 -0.1627907156944275 -0.06976741552352905
0.43022334575653076 -0.14728683233261108 -0.10077518224716187
0.43488597869873047 -0.14728683233261108 -0.08527129888534546
0.42754024267196655 -0.14728683233261108 -0.06976742297410965
0.4294906556606293 -0.13178294897079468 -0.10077517479658127
0.4342556893825531 -0.13178294897079468 -0.08527129888534546
0.4268850088119507 -0.13178294897079468 -0.06976741552352905
0.4295943081378937 -0.11627906560897827 -0.10077518224716187
0.43466201424598694 -0.11627906560897827 -0.08527129888534546
0.42693498730659485 -0.11627906560897827 -0.06976741552352905
0.4271979033946991 -0.11627906560897827 -0.02325582504272461
0.4289352297782898 -0.10077518224716187 -0.10077518224716187
0.43445175886154175 -0.10077518224716187 -0.08527129888534546
0.4263898432254791 -0.10077518224716187 -0.06976741552352905
0.4300011694431305 -0.10077518224716187 -0.02325582504272461
0.42861372232437134 -0.08527129888534546 -0.10077518224716187
0.4342581033706665 -0.08527129888534546 -0.08527129888534546
0.43264520168304443 -0.08527129888534546 -0.02325582504272461
0.42971745133399963 -0.06976741552352905 -0.10077518224716187
0.4353839159011841 -0.06976741552352905 -0.08527129888534546
0.42646142840385437 -0.06976741552352905 -0.06976741552352905
0.4353927969932556 -0.06976741552352905 -0.02325582504272461
0.4310852885246277 -0.05426359176635742 -0.10077518224716187
0.43696779012680054 -0.05426359176635742 -0.08527129888534546
0.4277004599571228 -0.05426359549164772 -0.06976741552352905
0.4369092583656311 -0.05426359176635742 -0.02325582504272461
0.4322209656238556 -0.038759708404541016 -0.10077518224716187
0.43795496225357056 -0.038759708404541016 -0.08527129888534546
0.4284765422344208 -0.038759708404541016 -0.06976741552352905
0.4376015365123749 -0.038759708404541016 -0.02325582504272461
0.4335474967956543 -0.02325582504272461 -0.10077518224716187
0.4391341209411621 -0.02325582504272461 -0.08527129888534546
0.4294017553329468 -0.02325582504272461 -0.06976741552352905
0.43782517313957214 -0.02325582504272461 -0.02325582504272461
0.43341466784477234 -0.007751941680908203 -0.10077518224716187
0.438998281955719 -0.007751941680908203 -0.08527129888534546
0.4294569790363312 -0.007751941680908203 -0.06976741552352905
0.4374907612800598 -0.007751941680908203 -0.02325582504272461
0.43303439021110535 0.007751941680908203 -0.10077518224716187
0.43874841928482056 0.007751941680908203 -0.08527129888534546
0.42950165271759033 0.007751941680908203 -0.06976741552352905
0.4350993037223816 0.007751941680908203 -0.02325582504272461
0.43053367733955383 0.02325582504272461 -0.10077518224716187
0.43645554780960083 0.02325582504272461 -0.08527129888534546
0.4279713034629822 0.02325582504272461 -0.06976741552352905
0.43298429250717163 0.02325582504272461 -0.02325582504272461
0.4288974404335022 0.038759712129831314 -0.10077518224716187
0.4349599778652191 0.038759708404541016 -0.08527129888534546
0.4272872507572174 0.038759708404541016 -0.06976741552352905
0.43040040135383606 0.038759708404541016 -0.02325582504272461
0.4278124272823334 0.05426359176635742 -0.10077518224716187
0.43386000394821167 0.05426359176635742 -0.08527129888534546
0.4267258644104004 0.05426358804106712 -0.06976740807294846
0.428228497505188 0.05426359176635742 -0.02325582504272461
0.4269863963127136 0.06976748257875443 -0.10077518224716187
0.4329867362976074 0.06976747512817383 -0.08527129888534546
0.4270749092102051 0.06976747512817383 -0.02325582504272461
0.43200621008872986 0.08527135848999023 -0.08527129888534546
0.4266366958618164 0.08527135848999023 -0.02325582504272461
0.4316968023777008 0.10077524185180664 -0.08527129888534546
0.42700695991516113 0.10077524185180664 -0.02325582318007946
0.43192005157470703 0.11627912521362305 -0.08527129888534546
0.4276314973831177 0.11627912521362305 -0.02325582504272461
0.4265834391117096 0.1317828893661499 -0.10077518224716187
0.4321974217891693 0.1317828893661499 -0.08527129888534546
0.42778435349464417 0.1317828893661499 -0.02325582318007946
0.4283619523048401 0.1472867727279663 -0.10077518969774246
0.43379735946655273 0.1472867727279663 -0.08527129888534546
0.42775657773017883 0.1472867727279663 -0.06976741552352905
0.42775002121925354 0.1472867727279663 -0.02325582504272461
0.42957672476768494 0.16279065608978271 -0.10077518224716187
0.43480855226516724 0.16279065608978271 -0.08527129888534546
0.42883360385894775 0.16279065608978271 -0.06976741552352905
0.4274607300758362 0.16279065608978271 -0.02325582504272461
0.4300103485584259 0.17829453945159912 -0.10077518224716187
0.4351480007171631 0.17829453945159912 -0.08527129888534546
0.42953306436538696 0.17829453945159912 -0.06976741552352905
0.42744332551956177 0.17829453945159912 -0.02325582504272461
0.4315108358860016 0.19379842281341553 -0.10077518224716187
0.4363451600074768 0.19379842281341553 -0.08527129888534546
0.4305173456668854 0.19379842281341553 -0.06976741552352905
0.42670363187789917 0.19379842281341553 -0.02325582504272461
0.4325605630874634 0.20930230617523193 -0.10077518224716187
0.4371284246444702 0.20930230617523193 -0.08527129888534546
0.43109941482543945 0.20930230617523193 -0.06976741552352905
0.4322008788585663 0.22480618953704834 -0.10077518224716187
0.43654489517211914 0.22480618953704834 -0.08527129888534546
0.4305468499660492 0.22480618953704834 -0.06976741552352905
0.43133968114852905 0.24031007289886475 -0.10077518224716187
0.43553030490875244 0.24031007289886475 -0.08527129888534546
0.42963361740112305 0.24031007289886475 -0.06976741552352905
0.430569052696228 0.25581395626068115 -0.10077518224716187
0.4347645044326782 0.25581395626068115 -0.08527129888534546
0.42891624569892883 0.25581395626068115 -0.06976741552352905
0.43132534623146057 0.27131783962249756 -0.10077518224716187
0.43569430708885193 0.27131783962249756 -0.08527129888534546
0.4295089840888977 0.27131783962249756 -0.06976741552352905
0.4326055645942688 0.28682172298431396 -0.10077518224716187
0.43703344464302063 0.28682172298431396 -0.08527129888534546
0.4304702877998352 0.28682172298431396 -0.06976741552352905
0.43234381079673767 0.30232560634613037 -0.10077518224716187
0.43680340051651 0.30232560634613037 -0.08527129888534546
0.43000471591949463 0.30232560634613037 -0.06976741552352905
0.4279647469520569 0.30232560634613037 -0.02325582504272461
0.43386590480804443 0.3178294897079468 -0.10077518224716187
0.4383528232574463 0.3178294897079468 -0.08527129888534546
0.43101662397384644 0.3178294897079468 -0.06976741552352905
0.42906999588012695 0.3178294897079468 -0.02325582504272461
0.4279293417930603 0.3333333730697632 -0.11627907305955887
0.435903400182724 0.3333333730697632 -0.10077518224716187
0.440372109413147 0.3333333730697632 -0.08527129888534546
0.43251657485961914 0.3333333730697632 -0.06976741552352905
0.4298766851425171 0.3333333730697632 -0.02325582318007946
0.42967474460601807 0.3488372564315796 -0.11627906560897827
0.43770813941955566 0.3488372564315796 -0.10077518224716187
0.4336143732070923 0.3488372564315796 -0.06976741552352905
0.4299094080924988 0.3488372564315796 -0.02325582504272461
0.4311336278915405 0.364341139793396 -0.11627906560897827
0.439200222492218 0.364341139793396 -0.10077518224716187
0.4345150887966156 0.364341139793396 -0.06976741552352905
0.4293633699417114 0.364341139793396 -0.02325582504272461
0.4264850914478302 0.37984490394592285 -0.13178294897079468
0.4321397542953491 0.37984490394592285 -0.11627906560897827
0.4404561519622803 0.37984490394592285 -0.10077518224716187
0.43514299392700195 0.37984490394592285 -0.06976741552352905
0.42740538716316223 0.37984490394592285 -0.02325582504272461
0.4270941913127899 0.39534878730773926 -0.13178294897079468
0.43253546953201294 0.39534878730773926 -0.11627906560897827
0.44099313020706177 0.39534878730773926 -0.10077518224716187
0.4351297616958618 0.39534878730773926 -0.06976741552352905
0.42673787474632263 0.41085267066955566 -0.13178294897079468
0.43145543336868286 0.41085267066955566 -0.11627906560897827
0.4397432506084442 0.41085267066955566 -0.10077518224716187
0.43381837010383606 0.41085267066955566 -0.06976741552352905
0.42643776535987854 0.42635658383369446 -0.13178296387195587
0.43025699257850647 0.42635655403137207 -0.11627906560897827
0.43816256523132324 0.42635655403137207 -0.10077518224716187
0.44162967801094055 0.42635655403137207 -0.08527129888534546
0.4327930808067322 0.42635655403137207 -0.06976741552352905
0.4267197549343109 0.44186046719551086 -0.13178294897079468
0.4295934736728668 0.44186046719551086 -0.11627906560897827
0.43702733516693115 0.4418604373931885 -0.10077518224716187
0.4406723976135254 0.4418604373931885 -0.08527129888534546
0.43247243762016296 0.4418604373931885 -0.06976741552352905
0.4267585575580597 0.4573643207550049 -0.13178294897079468
0.42903363704681396 0.4573643207550049 -0.11627906560897827
0.43590274453163147 0.4573643207550049 -0.10077518224716187
0.4396217465400696 0.4573643207550049 -0.08527129888534546
0.4318442642688751 0.4573643207550049 -0.06976741552352905
0.42667776346206665 0.4728682041168213 -0.13178294897079468
0.4288382828235626 0.4728682041168213 -0.11627906560897827
0.4355967342853546 0.4728682041168213 -0.10077518224716187
0.4395354390144348 0.4728682041168213 -0.08527129888534546
0.43208667635917664 0.4728682041168213 -0.06976741552352905
0.42788776755332947 0.4883721172809601 -0.13178294897079468
0.4299859404563904 0.4883720874786377 -0.11627906560897827
0.43662890791893005 0.4883720874786377 -0.10077518224716187
0.44050031900405884 0.4883720874786377 -0.08527129888534546
0.43304306268692017 0.4883721172809601 -0.06976741552352905
0.42873576283454895 0.5038759708404541 -0.13178294897079468
0.4305814504623413 0.5038759708404541 -0.11627906560897827
0.43662869930267334 0.5038759708404541 -0.10077518224716187
0.44021010398864746 0.5038759708404541 -0.08527129888534546
0.4330158829689026 0.5038759708404541 -0.06976741552352905
0.4276922047138214 0.5193798542022705 -0.14728684723377228
0.4300037622451782 0.5193798542022705 -0.13178294897079468
0.43175673484802246 0.5193798542022705 -0.11627906560897827
0.4376566708087921 0.5193798542022705 -0.10077518224716187
0.4410214424133301 0.5193798542022705 -0.08527129888534546
0.43403512239456177 0.5193798542022705 -0.06976741552352905
0.42691898345947266 0.5348836779594421 -0.1627907156944275
0.4292249083518982 0.5348837375640869 -0.14728683233261108
0.4312584400177002 0.5348837375640869 -0.13178294897079468
0.43306005001068115 0.5348837375640869 -0.11627907305955887
0.43904048204421997 0.5348837375640869 -0.10077518224716187
0.4354710280895233 0.5348837375640869 -0.06976741552352905
0.4286971688270569 0.5503876209259033 -0.1627907156944275
0.43074482679367065 0.5503876209259033 -0.14728683233261108
0.4325369894504547 0.5503876209259033 -0.13178294897079468
0.43439242243766785 0.5503876209259033 -0.11627906560897827
0.4403474032878876 0.5503876209259033 -0.10077518224716187
0.4363696873188019 0.5503876209259033 -0.06976741552352905
0.4289349317550659 0.5658915042877197 -0.1627907156944275
0.4310644865036011 0.5658915042877197 -0.14728683233261108
0.4327581524848938 0.5658915042877197 -0.13178294897079468
0.4345456063747406 0.5658915042877197 -0.11627906560897827
0.4406798481941223 0.5658915042877197 -0.10077518224716187
0.43657392263412476 0.5658915042877197 -0.06976741552352905
0.42641282081604004 0.5813953876495361 -0.1782945990562439
0.43046265840530396 0.5813953876495361 -0.1627907156944275
0.43281877040863037 0.5813953876495361 -0.14728683233261108
0.43493157625198364 0.5813953876495361 -0.13178294897079468
0.4371739625930786 0.5813953876495361 -0.11627906560897827
0.4382978081703186 0.5813953876495361 -0.06976741552352905
0.4265636205673218 0.5968992710113525 -0.1782945990562439
0.43063998222351074 0.5968992710113525 -0.1627907156944275
0.4331338703632355 0.5968992710113525 -0.14728683233261108
0.43558770418167114 0.5968992710113525 -0.13178294897079468
0.43822112679481506 0.5968992710113525 -0.11627906560897827
0.4375668168067932 0.5968992710113525 -0.06976741552352905
0.4264259338378906 0.612403154373169 -0.1782945990562439
0.43032151460647583 0.612403154373169 -0.1627907156944275
0.43275904655456543 0.612403154373169 -0.14728683233261108
0.43524330854415894 0.612403154373169 -0.13178294897079468
0.43798044323921204 0.612403154373169 -0.11627906560897827
0.4360005259513855 0.612403154373169 -0.06976741552352905
0.42892545461654663 0.6279069185256958 -0.1627907156944275
0.4312552511692047 0.6279069185256958 -0.14728683233261108
0.43357351422309875 0.6279069185256958 -0.13178294897079468
0.43612736463546753 0.6279069185256958 -0.11627906560897827
0.43352746963500977 0.6279069185256958 -0.06976741552352905
0.42759615182876587 0.6434108018875122 -0.1627907156944275
0.4299435019493103 0.6434108018875122 -0.14728683233261108
0.4323521852493286 0.6434108018875122 -0.13178294897079468
0.4350019097328186 0.6434108018875122 -0.11627906560897827
0.4412195682525635 0.6434108018875122 -0.10077518224716187
0.43228083848953247 0.6434108018875122 -0.06976741552352905
0.4281974136829376 0.6589146852493286 -0.14728683233261108
0.43114787340164185 0.6589146852493286 -0.13178294897079468
0.4345225691795349 0.6589146852493286 -0.11627906560897827
0.4417526125907898 0.6589146852493286 -0.10077518224716187
0.4323089122772217 0.6589146852493286 -0.06976741552352905
0.4286600351333618 0.6744185090065002 -0.13178294897079468
0.43301457166671753 0.674418568611145 -0.11627906560897827
0.4417434632778168 0.674418568611145 -0.10077518224716187
0.4326307773590088 0.674418568611145 -0.06976741552352905
0.42665696144104004 0.6744186282157898 -0.02325582690536976
0.42729753255844116 0.6899224519729614 -0.13178294897079468
0.4323892593383789 0.6899224519729614 -0.11627906560897827
0.43360328674316406 0.6899224519729614 -0.06976741552352905
0.4303053021430969 0.6899224519729614 -0.02325582504272461
0.42733126878738403 0.7054263353347778 -0.13178294897079468
0.4329318702220917 0.7054263353347778 -0.11627906560897827
0.4355018734931946 0.7054263353347778 -0.06976741552352905
0.4346270263195038 0.7054263353347778 -0.02325582504272461
0.4265117943286896 0.7209302186965942 -0.13178294897079468
0.43266260623931885 0.7209302186965942 -0.11627906560897827
0.4370739459991455 0.7209302186965942 -0.06976741552352905
0.43848085403442383 0.7209302186965942 -0.02325582504272461
0.4317159354686737 0.7364341020584106 -0.11627906560897827
0.43811190128326416 0.7364341020584106 -0.06976741552352905
0.4412156939506531 0.7364341020584106 -0.02325582504272461
0.42988306283950806 0.751937985420227 -0.11627906560897827
0.43860456347465515 0.751937985420227 -0.06976741552352905
0.4269300103187561 0.7674418687820435 -0.11627906560897827
0.44081857800483704 0.7674418687820435 -0.10077518224716187
0.43847566843032837 0.7674418687820435 -0.06976741552352905
0.4380529224872589 0.7829457521438599 -0.10077518224716187
0.4374163746833801 0.7829457521438599 -0.06976741552352905
0.4316348433494568 0.7984496355056763 -0.10077518224716187
0.4402638077735901 0.7984496355056763 -0.08527129888534546
0.43299049139022827 0.7984496355056763 -0.06976741552352905
0.4355827569961548 0.8139535188674927 -0.08527129888534546
0.4289305806159973 0.8139535188674927 -0.06976741552352905
0.430947870016098 0.8294573426246643 -0.08527129888534546
0.4268229603767395 0.8294574022293091 -0.007751941680908203
0.4273275136947632 0.8449612855911255 0.10077524185180664
0.4267270863056183 0.8604651689529419 -0.317829430103302
0.4326300024986267 0.8604651689529419 0.17829453945159912
0.43108069896698 0.8759689331054688 -0.42635661363601685
0.4309062957763672 0.8759689331054688 -0.41085273027420044
0.43139171600341797 0.8759689331054688 -0.39534884691238403
0.43240976333618164 0.8759689331054688 -0.3798449635505676
0.430636465549469 0.8759689331054688 -0.3643410801887512
0.4267416298389435 0.8759689927101135 -0.3488371968269348
0.4298596978187561 0.8759689331054688 -0.317829430103302
0.42801007628440857 0.8914728164672852 -0.42635661363601685
0.42782002687454224 0.8914728164672852 -0.41085273027420044
0.428333580493927 0.8914728164672852 -0.39534884691238403
0.4288196265697479 0.8914728164672852 -0.3798449635505676
0.427730530500412 0.8914728164672852 -0.3643411099910736
0.44176560640335083 0.9689922332763672 0.19379842281341553
0.4498957395553589 -0.9689922332763672 0.19379842281341553
0.454024076461792 -0.9534883499145508 0.19379842281341553
0.45638108253479004 -0.8914728760719299 0.19379842281341553
0.4473833739757538 -0.8759689331054688 0.19379842281341553
0.45043298602104187 -0.8294573426246643 0.038759708404541016
0.44212719798088074 -0.7984496355056763 -0.08527129888534546
0.44257649779319763 -0.7984496355056763 -0.06976741552352905
0.44355010986328125 -0.7829457521438599 -0.08527129888534546
0.4436132609844208 -0.7829457521438599 -0.06976741552352905
0.44454720616340637 -0.7829457521438599 -0.02325582504272461
0.4438396990299225 -0.7674418091773987 -0.08527129888534546
0.4434810280799866 -0.7674418687820435 -0.06976741552352905
0.44286859035491943 -0.751937985420227 -0.08527129888534546
0.44221433997154236 -0.751937985420227 -0.06976741552352905
0.442282497882843 -0.7054263353347778 -0.08527129888534546
0.44272753596305847 -0.6899224519729614 -0.08527129888534546
0.4431147873401642 -0.6744185090065002 -0.08527129143476486
0.44189271330833435 -0.674418568611145 -0.06976741552352905
0.4433582127094269 -0.6589146852493286 -0.08527129888534546
0.4421917796134949 -0.6589146852493286 -0.06976741552352905
0.44259926676750183 -0.643410861492157 -0.08527129888534546
0.4422553479671478 -0.6279069781303406 -0.08527129888534546
0.44248226284980774 -0.6124030947685242 -0.08527129888534546
0.4421025812625885 -0.596899151802063 -0.08527129143476486
0.4423380196094513 -0.5813953876495361 -0.08527129888534546
0.44231879711151123 -0.5658915042877197 -0.08527129888534546
0.44207730889320374 -0.4418604373931885 -0.08527129888534546
0.4420357644557953 -0.42635658383369446 -0.08527129888534546
0.4419829547405243 -0.41085273027420044 -0.08527129888534546
0.4419148564338684 -0.39534884691238403 -0.08527129888534546
0.44187697768211365 0.3488372564315796 -0.08527129888534546
0.4423713684082031 0.364341139793396 -0.08527129888534546
0.44276103377342224 0.37984490394592285 -0.08527129143476486
0.4428456723690033 0.39534878730773926 -0.08527129888534546
0.4423438012599945 0.41085267066955566 -0.08527129888534546
0.4419889748096466 0.5348837375640869 -0.08527130633592606
0.44238418340682983 0.5503875613212585 -0.08527129888534546
0.4425058662891388 0.5658915042877197 -0.08527129143476486
0.4424437880516052 0.5813953876495361 -0.10077518224716187
0.4434718191623688 0.5813954472541809 -0.08527129888534546
0.4426977336406708 0.5968992710113525 -0.10077518224716187
0.443494975566864 0.5968992710113525 -0.08527129888534546
0.44256895780563354 0.612403154373169 -0.10077518224716187
0.4431535303592682 0.612403154373169 -0.08527129888534546
0.441946417093277 0.6279069185256958 -0.10077518969774246
0.44234606623649597 0.627906858921051 -0.08527129888534546
0.4420417249202728 0.6434108018875122 -0.08527129888534546
0.4423218369483948 0.6589146256446838 -0.08527129143476486
0.44258391857147217 0.674418568611145 -0.08527129888534546
0.4419664442539215 0.6899224519729614 -0.10077518224716187
0.4429645538330078 0.6899224519729614 -0.08527129888534546
0.4423511028289795 0.7054263353347778 -0.10077518224716187
0.44354721903800964 0.7054263353347778 -0.08527129143476486
0.4424878656864166 0.7209302186965942 -0.10077518224716187
0.443846732378006 0.7209302186965942 -0.08527129888534546
0.44236209988594055 0.7364341020584106 -0.10077518224716187
0.44388100504875183 0.7364341020584106 -0.08527129888534546
0.4420221149921417 0.751937985420227 -0.10077517479658127
0.44372469186782837 0.751937985420227 -0.08527129888534546
0.4534335732460022 0.751937985420227 -0.02325582504272461
0.443442702293396 0.7674418687820435 -0.08527129888534546
0.4552794098854065 0.7674418687820435 -0.02325582504272461
0.44292888045310974 0.7829457521438599 -0.08527129888534546
0.4451545476913452 0.7829457521438599 -0.02325582504272461
0.44275328516960144 0.7984496355056763 -0.02325582504272461
0.44779086112976074 0.8449612855911255 0.08527135848999023
0.45301905274391174 0.8604651689529419 0.16279065608978271
0.4433763325214386 0.8914728164672852 0.19379842281341553
0.45008161664009094 0.9069766998291016 0.19379842281341553
0.45434078574180603 0.922480583190918 0.19379842281341553
0.4546720087528229 0.9379844665527344 0.19379842281341553
0.4501461982727051 0.9534883499145508 0.19379842281341553
0.46655499935150146 -0.9844961166381836 -0.28682172298431396
0.46872496604919434 -0.9844961166381836 -0.27131783962249756
0.4703998565673828 -0.9844961166381836 -0.25581395626068115
0.4720575213432312 -0.9844961166381836 -0.24031007289886475
0.4727414548397064 -0.9844961166381836 -0.1782945990562439
0.47223004698753357 -0.9844961166381836 -0.1627907156944275
0.471840500831604 -0.9844961166381836 -0.14728683233261108
0.4717443585395813 -0.9844961166381836 -0.13178294897079468
0.47115644812583923 -0.9844961166381836 -0.11627906560897827
0.4708378314971924 -0.9844961166381836 -0.10077518224716187
0.4703636169433594 -0.9844961166381836 -0.08527129888534546
0.4696286916732788 -0.9844961166381836 -0.06976741552352905
0.4686053395271301 -0.9844961166381836 -0.05426359176635742
0.4676462411880493 -0.9844961166381836 -0.038759708404541016
0.4667881727218628 -0.9844961166381836 -0.02325582504272461
0.4664872884750366 -0.9844961166381836 -0.007751941680908203
0.466215044260025 -0.9844961166381836 0.007751941680908203
0.4666500687599182 -0.9844961166381836 0.02325582504272461
0.4673956036567688 -0.9844961166381836 0.038759708404541016
0.46769633889198303 -0.9844961166381836 0.05426359176635742
0.4683501124382019 -0.9844961166381836 0.06976747512817383
0.4684457778930664 -0.9844961166381836 0.08527135848999023
0.468222975730896 -0.9844961166381836 0.10077524185180664
0.46775639057159424 -0.9844961166381836 0.11627912521362305
0.4673568904399872 -0.9844961166381836 0.1317828893661499
0.4670027494430542 -0.9844961166381836 0.1472867727279663
0.4659687876701355 -0.9844961166381836 0.16279065608978271
0.4621686339378357 -0.9844961166381836 0.17829453945159912
0.4708693027496338 -0.9689922332763672 -0.30232560634613037
0.471946120262146 -0.9689922332763672 -0.038759708404541016
0.47081130743026733 -0.9689922332763672 -0.02325582504272461
0.47046440839767456 -0.9689922332763672 -0.007751941680908203
0.4701067805290222 -0.9689922332763672 0.007751941680908203
0.46967536211013794 -0.9689922332763672 0.02325582504272461
0.4701278805732727 -0.9689922332763672 0.038759708404541016
0.47082245349884033 -0.9689922332763672 0.05426359176635742
0.47126978635787964 -0.9689922332763672 0.06976747512817383
0.47096186876296997 -0.9689922332763672 0.08527135848999023
0.4705989360809326 -0.9689922332763672 0.10077524185180664
0.47019410133361816 -0.9689922332763672 0.11627912521362305
0.4699517488479614 -0.9689922332763672 0.1317828893661499
0.4700010120868683 -0.9689922332763672 0.1472867727279663
0.4699743688106537 -0.9689922332763672 0.16279065608978271
0.46765995025634766 -0.9689922332763672 0.17829453945159912
0.47225385904312134 -0.9534883499145508 -0.30232560634613037
0.4715064764022827 -0.9534883499145508 -0.02325582504272461
0.47058695554733276 -0.9534883499145508 -0.007751941680908203
0.4701343774795532 -0.9534883499145508 0.007751941680908203
0.46993106603622437 -0.9534883499145508 0.02325582504272461
0.47046607732772827 -0.9534883499145508 0.038759708404541016
0.47121283411979675 -0.9534883499145508 0.05426359176635742
0.4717347025871277 -0.9534883499145508 0.06976747512817383
0.4716114401817322 -0.9534883499145508 0.08527135848999023
0.47132545709609985 -0.9534883499145508 0.10077524185180664
0.47092100977897644 -0.9534883499145508 0.11627912521362305
0.470151424407959 -0.9534883499145508 0.1317828893661499
0.4695594608783722 -0.9534883499145508 0.1472867727279663
0.4698745608329773 -0.9534883499145508 0.16279065608978271
0.4684853255748749 -0.9534883499145508 0.17829453945159912
0.4724261164665222 -0.9379844665527344 -0.30232560634613037
0.47147539258003235 -0.9379844665527344 -0.02325582504272461
0.4706288278102875 -0.9379844665527344 -0.007751941680908203
0.47034409642219543 -0.9379844665527344 0.007751941680908203
0.4698561728000641 -0.9379844665527344 0.02325582504272461
0.46996718645095825 -0.9379844665527344 0.038759708404541016
0.4707337021827698 -0.9379844665527344 0.05426359176635742
0.47124797105789185 -0.9379844665527344 0.06976747512817383
0.4712921380996704 -0.9379844665527344 0.08527135848999023
0.4712356925010681 -0.9379844665527344 0.10077524185180664
0.4711698889732361 -0.9379844665527344 0.11627912521362305
0.47076237201690674 -0.9379844665527344 0.1317828893661499
0.4704662263393402 -0.9379844665527344 0.1472867727279663
0.4699876308441162 -0.9379844665527344 0.16279065608978271
0.46895962953567505 -0.9379844665527344 0.17829453945159912
0.4573778510093689 -0.9379844665527344 0.19379842281341553
0.4718790650367737 -0.9224806427955627 -0.30232560634613037
0.4718032479286194 -0.9224806427955627 -0.02325582504272461
0.47060924768447876 -0.9224806427955627 -0.007751941680908203
0.47043561935424805 -0.9224806427955627 0.007751941680908203
0.4698250889778137 -0.9224806427955627 0.02325582504272461
0.4698460102081299 -0.9224806427955627 0.038759708404541016
0.47078070044517517 -0.9224806427955627 0.05426359176635742
0.4714024066925049 -0.9224806427955627 0.06976747512817383
0.47143810987472534 -0.9224806427955627 0.08527135848999023
0.4713149070739746 -0.9224806427955627 0.10077524185180664
0.47118446230888367 -0.9224806427955627 0.11627912521362305
0.47097834944725037 -0.9224806427955627 0.1317828893661499
0.47124338150024414 -0.9224806427955627 0.1472867727279663
0.470102995634079 -0.922480583190918 0.16279065608978271
0.468798965215683 -0.922480583190918 0.17829453945159912
0.4584183394908905 -0.9224806427955627 0.19379843771457672
0.47157156467437744 -0.9069767594337463 -0.30232560634613037
0.47235795855522156 -0.9069767594337463 -0.02325582504272461
0.4709106981754303 -0.9069767594337463 -0.007751941680908203
0.47074592113494873 -0.9069767594337463 0.007751941680908203
0.4700812101364136 -0.9069766998291016 0.02325582504272461
0.47005873918533325 -0.9069767594337463 0.038759708404541016
0.4711354374885559 -0.9069767594337463 0.05426359176635742
0.47184258699417114 -0.9069767594337463 0.06976747512817383
0.47189944982528687 -0.9069767594337463 0.08527135848999023
0.47168731689453125 -0.9069767594337463 0.10077524185180664
0.47143155336380005 -0.9069767594337463 0.11627912521362305
0.4712550640106201 -0.9069767594337463 0.1317828893661499
0.4718640446662903 -0.9069767594337463 0.1472867727279663
0.4704506993293762 -0.9069766998291016 0.16279065608978271
0.4685634970664978 -0.9069766998291016 0.17829453945159912
0.45846685767173767 -0.9069767594337463 0.19379842281341553
0.47134143114089966 -0.8914728760719299 -0.30232560634613037
0.472478985786438 -0.8914728760719299 -0.02325582504272461
0.47113093733787537 -0.8914728760719299 -0.007751941680908203
0.4713001251220703 -0.8914728760719299 0.007751941680908203
0.47065749764442444 -0.8914728760719299 0.02325582504272461
0.4704737067222595 -0.8914728760719299 0.038759708404541016
0.4715282917022705 -0.8914728760719299 0.05426359176635742
0.4722096621990204 -0.8914729356765747 0.06976747512817383
0.47223442792892456 -0.8914728760719299 0.08527135848999023
0.4718847870826721 -0.8914728760719299 0.10077524185180664
0.4714336693286896 -0.8914728760719299 0.11627912521362305
0.47114115953445435 -0.8914729356765747 0.1317828893661499
0.4714568853378296 -0.8914728760719299 0.1472867727279663
0.4699019193649292 -0.8914728760719299 0.16279065608978271
0.46774280071258545 -0.8914728164672852 0.17829453945159912
0.47116851806640625 -0.8759689927101135 -0.30232560634613037
0.472324937582016 -0.8759689927101135 -0.007751941680908203
0.47276243567466736 -0.8759689927101135 0.007751941680908203
0.4719763398170471 -0.8759689927101135 0.02325582504272461
0.471761018037796 -0.8759689927101135 0.038759708404541016
0.4726915657520294 -0.8759689927101135 0.05426359176635742
0.47251009941101074 -0.8759689927101135 0.10077524185180664
0.4716840982437134 -0.8759689927101135 0.11627912521362305
0.4710248112678528 -0.8759689927101135 0.1317828893661499
0.47059351205825806 -0.8759689927101135 0.1472867727279663
0.468781977891922 -0.8759689927101135 0.16279065608978271
0.46625083684921265 -0.8759690523147583 0.17829453945159912
0.47158360481262207 -0.8604651093482971 -0.30232560634613037
0.4716770350933075 -0.8604651093482971 0.11627912521362305
0.47045403718948364 -0.8604651093482971 0.1317828893661499
0.4692891538143158 -0.8604650497436523 0.1472867727279663
0.4671766757965088 -0.8604651689529419 0.16279065608978271
0.4639069736003876 -0.8604651093482971 0.17829453945159912
0.4722568690776825 -0.8449612259864807 -0.30232560634613037
0.4723474979400635 -0.8449612259864807 0.038759708404541016
0.47190216183662415 -0.8449612259864807 0.05426359176635742
0.47079190611839294 -0.8449611663818359 0.06976747512817383
0.46944814920425415 -0.8449612855911255 0.08527135848999023
0.46834543347358704 -0.8449612259864807 0.10077524185180664
0.4672285318374634 -0.8449612855911255 0.11627912521362305
0.46567702293395996 -0.8449612259864807 0.1317828893661499
0.46381765604019165 -0.8449612259864807 0.1472867727279663
0.46097689867019653 -0.8449612259864807 0.16279065608978271
0.47186458110809326 -0.8294573426246643 -0.30232560634613037
0.47217050194740295 -0.8294573426246643 -0.007751941680908203
0.4694674611091614 -0.8294573426246643 0.007751941680908203
0.46465861797332764 -0.8294572830200195 0.02325582504272461
0.4588455259799957 -0.8294573426246643 0.038759708404541016
0.47097915410995483 -0.8139535188674927 -0.30232560634613037
0.4727811813354492 -0.8139535188674927 -0.038759708404541016
0.46670252084732056 -0.8139535188674927 -0.02325582504272461
0.4704413414001465 -0.7984496355056763 -0.30232560634613037
0.4707699418067932 -0.7984496355056763 -0.038759708404541016
0.45756861567497253 -0.7984496355056763 -0.02325582318007946
0.47020813822746277 -0.7829457521438599 -0.30232560634613037
0.46923738718032837 -0.7829457521438599 -0.038759708404541016
0.46969690918922424 -0.7674418687820435 -0.30232560634613037
0.4676068425178528 -0.7674418687820435 -0.038759708404541016
0.46935784816741943 -0.751937985420227 -0.30232560634613037
0.46634361147880554 -0.751937985420227 -0.038759708404541016
0.4689880311489105 -0.7364341020584106 -0.30232560634613037
0.46540582180023193 -0.7364341020584106 -0.038759708404541016
0.4685262441635132 -0.7209302186965942 -0.30232560634613037
0.4649903476238251 -0.7209302186965942 -0.038759708404541016
0.4680615961551666 -0.7054263353347778 -0.30232560634613037
0.4650639295578003 -0.7054263353347778 -0.038759708404541016
0.46784746646881104 -0.6899224519729614 -0.30232560634613037
0.4652974307537079 -0.6899224519729614 -0.038759708404541016
0.4678347706794739 -0.674418568611145 -0.30232560634613037
0.46547287702560425 -0.674418568611145 -0.038759708404541016
0.4679381251335144 -0.6589146852493286 -0.30232560634613037
0.46564316749572754 -0.6589146852493286 -0.038759708404541016
0.4684406518936157 -0.643410861492157 -0.30232560634613037
0.46555984020233154 -0.643410861492157 -0.038759708404541016
0.46891289949417114 -0.6279069781303406 -0.30232560634613037
0.4655163288116455 -0.6279069781303406 -0.038759708404541016
0.4690074026584625 -0.6124030947685242 -0.30232560634613037
0.46576356887817383 -0.6124030947685242 -0.038759708404541016
0.4690503180027008 -0.5968992114067078 -0.30232560634613037
0.46604710817337036 -0.5968992114067078 -0.038759708404541016
0.469154953956604 -0.5813953876495361 -0.30232560634613037
0.4661736488342285 -0.5813953876495361 -0.038759708404541016
0.46916326880455017 -0.5658915042877197 -0.30232560634613037
0.46614426374435425 -0.5658915042877197 -0.038759708404541016
0.4690966010093689 -0.5503876209259033 -0.30232560634613037
0.46600598096847534 -0.5503876209259033 -0.038759708404541016
0.46909812092781067 -0.5348837375640869 -0.30232560634613037
0.4659757912158966 -0.5348837375640869 -0.038759708404541016
0.4691554307937622 -0.5193798542022705 -0.30232560634613037
0.46592840552330017 -0.5193798542022705 -0.038759708404541016
0.46913808584213257 -0.5038759708404541 -0.30232560634613037
0.4659312963485718 -0.5038759708404541 -0.038759708404541016
0.46922624111175537 -0.4883720874786377 -0.30232560634613037
0.46608781814575195 -0.4883720874786377 -0.038759708404541016
0.46926212310791016 -0.4728682041168213 -0.30232560634613037
0.4662154018878937 -0.4728682041168213 -0.038759708404541016
0.4693664312362671 -0.4573643207550049 -0.30232560634613037
0.4662952721118927 -0.4573643207550049 -0.038759708404541016
0.46934279799461365 -0.4418604373931885 -0.30232560634613037
0.4661112427711487 -0.4418604373931885 -0.038759708404541016
0.4692751169204712 -0.42635661363601685 -0.30232560634613037
0.4659598469734192 -0.42635661363601685 -0.038759708404541016
0.46907752752304077 -0.41085273027420044 -0.30232560634613037
0.4657890200614929 -0.41085273027420044 -0.038759708404541016
0.46892961859703064 -0.39534884691238403 -0.30232560634613037
0.4727785289287567 -0.39534884691238403 -0.05426359176635742
0.46562784910202026 -0.39534884691238403 -0.038759708404541016
0.4688456654548645 -0.3798449635505676 -0.30232560634613037
0.47259944677352905 -0.3798449635505676 -0.05426359176635742
0.46519580483436584 -0.3798449635505676 -0.038759708404541016
0.4688546061515808 -0.3643410801887512 -0.30232560634613037
0.4723037779331207 -0.3643410801887512 -0.05426359176635742
0.464589923620224 -0.3643410801887512 -0.038759708404541016
0.46887683868408203 -0.3488371968269348 -0.30232560634613037
0.47207358479499817 -0.3488371968269348 -0.05426359176635742
0.4639842212200165 -0.3488371968269348 -0.038759708404541016
0.46879613399505615 -0.3333333134651184 -0.30232560634613037
0.4716159999370575 -0.3333333134651184 -0.05426359176635742
0.46328049898147583 -0.3333333134651184 -0.038759708404541016
0.4687286615371704 -0.317829430103302 -0.30232560634613037
0.47116056084632874 -0.317829430103302 -0.05426359176635742
0.4626450836658478 -0.317829430103302 -0.038759708404541016
0.4685699939727783 -0.30232560634613037 -0.30232560634613037
0.47074708342552185 -0.30232560634613037 -0.05426359176635742
