-0.5503876209259033 0.28682172298431396 -0.17846985161304474
-0.5503876209259033 0.28682172298431396 -0.14341481029987335
-0.5503876209259033 0.28682172298431396 0.40172332525253296
-0.5503876209259033 0.30232560634613037 -0.2873128652572632
-0.5503876209259033 0.30232560634613037 0.39690637588500977
-0.5503876209259033 0.3178294897079468 -0.286980003118515
-0.5503876209259033 0.3178294897079468 0.38388824462890625
-0.5503876209259033 0.3333333730697632 -0.28582000732421875
-0.5503876209259033 0.3333333730697632 0.3210240602493286
-0.5503876209259033 0.3488372564315796 -0.28412675857543945
-0.5503876209259033 0.3488372564315796 0.1990382969379425
-0.5503876209259033 0.364341139793396 -0.2824016213417053
-0.5503876209259033 0.364341139793396 0.18004240095615387
-0.5503876209259033 0.37984490394592285 -0.2816510498523712
-0.5503876209259033 0.37984490394592285 0.17477266490459442
-0.5503876209259033 0.39534881711006165 -0.28235483169555664
-0.5503876209259033 0.39534878730773926 0.1736120879650116
-0.5503876209259033 0.41085270047187805 -0.2826288342475891
-0.5503876209259033 0.41085267066955566 0.17024913430213928
-0.5348837375640869 -0.42635661363601685 -0.2592895030975342
-0.5348837375640869 -0.42635661363601685 -0.04773137718439102
-0.5348837375640869 -0.41085273027420044 -0.28156426548957825
-0.5348837375640869 -0.41085273027420044 -0.033100973814725876
-0.5348837375640869 -0.39534884691238403 -0.27903178334236145
-0.5348837375640869 -0.3953488767147064 -0.03391563519835472
-0.5348837375640869 -0.3798449635505676 -0.2781662344932556
-0.5348837375640869 -0.3798449635505676 -0.03359774872660637
-0.5348837375640869 -0.3643410801887512 -0.27866002917289734
-0.5348837375640869 -0.3643410801887512 -0.03178374096751213
-0.5348837375640869 -0.3488371968269348 -0.28037768602371216
-0.5348837375640869 -0.3488371968269348 -0.029317516833543777
-0.5348837375640869 -0.3333333134651184 -0.28222745656967163
-0.5348837375640869 -0.3333333134651184 -0.027137868106365204
-0.5348837375640869 -0.317829430103302 -0.28402602672576904
-0.5348837375640869 -0.317829430103302 -0.024573177099227905
-0.5348837375640869 -0.30232560634613037 -0.28563541173934937
-0.5348837375640869 -0.30232560634613037 -0.02243206463754177
-0.5348837375640869 -0.28682172298431396 -0.2860480844974518
-0.5348837375640869 -0.28682172298431396 -0.021021906286478043
-0.5348837375640869 -0.27131783962249756 -0.2856435477733612
-0.5348837375640869 -0.27131783962249756 -0.019816439598798752
-0.5348837375640869 -0.25581395626068115 -0.2858107089996338
-0.5348837375640869 -0.25581395626068115 -0.1794436126947403
-0.5348837375640869 -0.25581395626068115 -0.1565139889717102
-0.5348837375640869 -0.25581395626068115 -0.01836823672056198
-0.5348837375640869 -0.24031007289886475 -0.2864821255207062
-0.5348837375640869 -0.24031007289886475 -0.18363770842552185
-0.5348837375640869 -0.24031007289886475 -0.15019501745700836
-0.5348837375640869 -0.24031007289886475 -0.0168759785592556
-0.5348837375640869 -0.22480618953704834 -0.28706517815589905
-0.5348837375640869 -0.22480618953704834 -0.18301023542881012
-0.5348837375640869 -0.22480618953704834 -0.1508735716342926
-0.5348837375640869 -0.22480618953704834 -0.015530822798609734
-0.5348837375640869 -0.20930230617523193 -0.2873501479625702
-0.5348837375640869 -0.20930230617523193 -0.1834474802017212
-0.5348837375640869 -0.20930230617523193 -0.14955633878707886
-0.5348837375640869 -0.20930230617523193 -0.014121845364570618
-0.5348837375640869 -0.19379842281341553 -0.2875683903694153
-0.5348837375640869 -0.19379842281341553 -0.18278056383132935
-0.5348837375640869 -0.19379842281341553 -0.1507876068353653
-0.5348837375640869 -0.19379842281341553 -0.012285144068300724
-0.5348837375640869 -0.1782945990562439 -0.2874796986579895
-0.5348837375640869 -0.1782945990562439 -0.16843849420547485
-0.5348837375640869 -0.1782945990562439 -0.16109490394592285
-0.5348837375640869 -0.1782945990562439 -0.010987259447574615
-0.5348837375640869 -0.1627907156944275 -0.2873585522174835
-0.5348837375640869 -0.1627907156944275 -0.01015708688646555
-0.5348837375640869 -0.14728683233261108 -0.2875061333179474
-0.5348837375640869 -0.14728683233261108 -0.008812040090560913
-0.5348837375640869 -0.13178294897079468 -0.2878893315792084
-0.5348837375640869 -0.13178294897079468 -0.007539099082350731
-0.5348837375640869 -0.11627906560897827 -0.28858572244644165
-0.5348837375640869 -0.11627906560897827 -0.006595989689230919
-0.5348837375640869 -0.10077518224716187 -0.2893204092979431
-0.5348837375640869 -0.10077518969774246 -0.0049161408096551895
-0.5348837375640869 -0.08527129888534546 -0.2900480628013611
-0.5348837375640869 -0.08527129888534546 -0.0027758979704231024
-0.5348837375640869 -0.06976741552352905 -0.2906177341938019
-0.5348837375640869 -0.06976741552352905 -0.00015764450654387474
-0.5348837375640869 -0.05426359176635742 -0.2907850444316864
-0.5348837375640869 -0.05426359176635742 0.0028427010402083397
-0.5348837375640869 -0.038759708404541016 -0.2905406057834625
-0.5348837375640869 -0.038759708404541016 0.0067016202956438065
-0.5348837375640869 -0.02325582504272461 -0.2903916835784912
-0.5348837375640869 -0.02325582504272461 0.009658635593950748
-0.5348837375640869 -0.007751941680908203 -0.29038769006729126
-0.5348837375640869 -0.007751941680908203 0.011659983545541763
-0.5348837375640869 0.007751941680908203 -0.2902714014053345
-0.5348837375640869 0.007751941680908203 0.0112222358584404
-0.5348837375640869 0.02325582504272461 -0.29037025570869446
-0.5348837375640869 0.02325582504272461 0.00885499082505703
-0.5348837375640869 0.038759708404541016 -0.29038819670677185
-0.5348837375640869 0.038759708404541016 0.0029082726687192917
-0.5348837375640869 0.05426359176635742 -0.2903648912906647
-0.5348837375640869 0.05426359176635742 -1.1024530977010727e-05
-0.5348837375640869 0.06976747512817383 -0.2902399003505707
-0.5348837375640869 0.06976747512817383 0.0022628549486398697
-0.5348837375640869 0.08527135848999023 -0.29040950536727905
-0.5348837375640869 0.08527135848999023 -0.16295653581619263
-0.5348837375640869 0.08527135848999023 -0.16271919012069702
-0.5348837375640869 0.08527135848999023 0.026989860460162163
-0.5348837375640869 0.10077524185180664 -0.29070359468460083
-0.5348837375640869 0.10077524185180664 -0.1650736927986145
-0.5348837375640869 0.10077524185180664 -0.16187867522239685
-0.5348837375640869 0.10077524185180664 0.15977640450000763
-0.5348837375640869 0.11627912521362305 -0.29063862562179565
-0.5348837375640869 0.11627912521362305 0.2751075029373169
-0.5348837375640869 0.1317828893661499 -0.2905193865299225
-0.5348837375640869 0.1317828893661499 -0.18264088034629822
-0.5348837375640869 0.1317828893661499 -0.15291927754878998
-0.5348837375640869 0.1317828893661499 0.34978482127189636
-0.5348837375640869 0.1472867727279663 -0.29017698764801025
-0.5348837375640869 0.1472867727279663 -0.1924009770154953
-0.5348837375640869 0.1472867727279663 -0.13955014944076538
-0.5348837375640869 0.1472867727279663 0.3896781802177429
-0.5348837375640869 0.16279065608978271 -0.2894538938999176
-0.5348837375640869 0.16279065608978271 -0.19553744792938232
-0.5348837375640869 0.16279065608978271 -0.13344140350818634
-0.5348837375640869 0.16279065608978271 0.4010995924472809
-0.5348837375640869 0.17829453945159912 -0.28881514072418213
-0.5348837375640869 0.17829453945159912 -0.19639402627944946
-0.5348837375640869 0.17829453945159912 -0.13106147944927216
-0.5348837375640869 0.17829453945159912 0.4107702076435089
-0.5348837375640869 0.19379842281341553 -0.2884059250354767
-0.5348837375640869 0.19379842281341553 -0.1970183104276657
-0.5348837375640869 0.19379842281341553 -0.1297370195388794
-0.5348837375640869 0.19379842281341553 0.4150610566139221
-0.5348837375640869 0.20930230617523193 -0.288080632686615
-0.5348837375640869 0.20930230617523193 -0.19673213362693787
-0.5348837375640869 0.20930230617523193 -0.12995097041130066
-0.5348837375640869 0.20930230617523193 0.4177890419960022
-0.5348837375640869 0.22480618953704834 -0.2878235876560211
-0.5348837375640869 0.22480618953704834 -0.19785940647125244
-0.5348837375640869 0.22480618953704834 -0.1286247819662094
-0.5348837375640869 0.22480618953704834 0.41850683093070984
-0.5348837375640869 0.24031007289886475 -0.28781622648239136
-0.5348837375640869 0.24031007289886475 -0.19890226423740387
-0.5348837375640869 0.24031007289886475 -0.12723413109779358
-0.5348837375640869 0.24031007289886475 0.4171208143234253
-0.5348837375640869 0.25581395626068115 -0.28783130645751953
-0.5348837375640869 0.25581395626068115 -0.19651910662651062
-0.5348837375640869 0.25581395626068115 -0.12908640503883362
-0.5348837375640869 0.25581395626068115 0.41363686323165894
-0.5348837375640869 0.27131783962249756 -0.2878822386264801
-0.5348837375640869 0.27131783962249756 -0.19185155630111694
-0.5348837375640869 0.27131783962249756 -0.13212284445762634
-0.5348837375640869 0.27131783962249756 0.4071231484413147
-0.5348837375640869 0.28682172298431396 -0.28785666823387146
-0.5348837375640869 0.28682172298431396 -0.18376517295837402
-0.5348837375640869 0.28682172298431396 -0.13831359148025513
-0.5348837375640869 0.28682172298431396 0.40185511112213135
-0.5348837375640869 0.30232560634613037 -0.2876015901565552
-0.5348837375640869 0.30232560634613037 -0.16307777166366577
-0.5348837375640869 0.30232560634613037 -0.16227760910987854
-0.5348837375640869 0.30232560634613037 0.39698326587677
-0.5348837375640869 0.3178294897079468 -0.28725600242614746
-0.5348837375640869 0.3178294897079468 0.38434064388275146
-0.5348837375640869 0.3333333730697632 -0.28685659170150757
-0.5348837375640869 0.3333333730697632 0.3222808837890625
-0.5348837375640869 0.3488372564315796 -0.2849268913269043
-0.5348837375640869 0.3488372564315796 0.19974181056022644
-0.5348837375640869 0.3643411099910736 -0.28279346227645874
-0.5348837375640869 0.364341139793396 0.18025264143943787
-0.5348837375640869 0.37984490394592285 -0.28185105323791504
-0.5348837375640869 0.37984490394592285 0.1757338047027588
-0.5348837375640869 0.39534878730773926 -0.2824946641921997
-0.5348837375640869 0.39534878730773926 0.17443576455116272
-0.5348837375640869 0.41085267066955566 -0.28280922770500183
-0.5348837375640869 0.41085267066955566 0.1710326373577118
-0.5193798542022705 -0.42635661363601685 -0.25966906547546387
-0.5193798542022705 -0.42635661363601685 -0.04644281044602394
-0.5193798542022705 -0.41085273027420044 -0.2820349335670471
-0.5193798542022705 -0.41085273027420044 -0.03267447650432587
-0.5193798542022705 -0.39534884691238403 -0.2794996500015259
-0.5193798542022705 -0.39534884691238403 -0.03341049700975418
-0.5193798542022705 -0.3798449635505676 -0.2785773277282715
-0.5193798542022705 -0.3798449635505676 -0.032956819981336594
-0.5193798542022705 -0.3643410801887512 -0.2790777087211609
-0.5193798542022705 -0.3643410801887512 -0.030984755605459213
-0.5193798542022705 -0.3488371968269348 -0.2809074819087982
-0.5193798542022705 -0.3488371968269348 -0.028504598885774612
-0.5193798542022705 -0.3333333134651184 -0.2828717529773712
-0.5193798542022705 -0.3333333134651184 -0.026214582845568657
-0.5193798542022705 -0.317829430103302 -0.2847961485385895
-0.5193798542022705 -0.317829430103302 -0.023389678448438644
-0.5193798542022705 -0.30232560634613037 -0.28649166226387024
-0.5193798542022705 -0.30232560634613037 -0.02185860089957714
-0.5193798542022705 -0.28682172298431396 -0.2868330776691437
-0.5193798542022705 -0.28682172298431396 -0.020273230969905853
-0.5193798542022705 -0.27131783962249756 -0.286295086145401
-0.5193798542022705 -0.27131783962249756 -0.01891396939754486
-0.5193798542022705 -0.25581395626068115 -0.2862445116043091
-0.5193798542022705 -0.25581395626068115 -0.16388863325119019
-0.5193798542022705 -0.25581395626068115 -0.1624986231327057
-0.5193798542022705 -0.25581395626068115 -0.01729031279683113
-0.5193799138069153 -0.24031007289886475 -0.28675344586372375
-0.5193798542022705 -0.24031007289886475 -0.18022897839546204
-0.5193798542022705 -0.24031007289886475 -0.1558539867401123
-0.5193798542022705 -0.24031007289886475 -0.01564939320087433
-0.5193798542022705 -0.22480618953704834 -0.28714972734451294
-0.5193798542022705 -0.22480618953704834 -0.1797851026058197
-0.5193798542022705 -0.22480618953704834 -0.15617918968200684
-0.5193798542022705 -0.22480618953704834 -0.01420662272721529
-0.5193798542022705 -0.20930230617523193 -0.28748980164527893
-0.5193798542022705 -0.20930230617523193 -0.18070055544376373
-0.5193798542022705 -0.20930230617523193 -0.15406587719917297
-0.5193798542022705 -0.20930230617523193 -0.012687267735600471
-0.5193798542022705 -0.19379842281341553 -0.2877686023712158
-0.5193798542022705 -0.19379842281341553 -0.18026752769947052
-0.5193798542022705 -0.19379842281341553 -0.1547040343284607
-0.5193798542022705 -0.19379842281341553 -0.01068171113729477
-0.5193798542022705 -0.1782945990562439 -0.2877092659473419
-0.5193798542022705 -0.1782945990562439 -0.009272781200706959
-0.5193798542022705 -0.1627907156944275 -0.2876010835170746
-0.5193798542022705 -0.1627907156944275 -0.00831770058721304
-0.5193798542022705 -0.14728683233261108 -0.2877577245235443
-0.5193798542022705 -0.14728683233261108 -0.007370627485215664
-0.5193798542022705 -0.13178294897079468 -0.2881629467010498
-0.5193798542022705 -0.13178294897079468 -0.00662700179964304
-0.5193798542022705 -0.11627906560897827 -0.28889888525009155
-0.5193798542022705 -0.11627906560897827 -0.0054783811792731285
-0.5193798542022705 -0.10077518224716187 -0.28966978192329407
-0.5193798542022705 -0.10077518224716187 -0.003419662592932582
-0.5193798542022705 -0.08527129888534546 -0.290438175201416
-0.5193798542022705 -0.08527129888534546 -0.0007387551013380289
-0.5193798542022705 -0.06976741552352905 -0.2910535931587219
-0.5193798542022705 -0.06976741552352905 0.002716263523325324
-0.5193798542022705 -0.05426359176635742 -0.2912498414516449
-0.5193798542022705 -0.05426359176635742 0.006732878275215626
-0.5193798542022705 -0.038759708404541016 -0.29097282886505127
-0.5193798542022705 -0.038759708404541016 0.008982829749584198
-0.5193798542022705 -0.02325582504272461 -0.29080596566200256
-0.5193798542022705 -0.02325582504272461 0.011352181434631348
-0.5193798542022705 -0.007751941680908203 -0.29078638553619385
-0.5193798542022705 -0.007751941680908203 0.01323681604117155
-0.5193798542022705 0.007751941680908203 -0.290667861700058
-0.5193798542022705 0.007751941680908203 0.012627776712179184
-0.5193798542022705 0.02325582504272461 -0.29079294204711914
-0.5193798542022705 0.02325582504272461 0.01001686044037342
-0.5193798542022705 0.038759708404541016 -0.29080623388290405
-0.5193798542022705 0.038759708404541016 0.004634729586541653
-0.5193798542022705 0.05426359176635742 -0.29077643156051636
-0.5193798542022705 0.05426359176635742 0.0010713785886764526
-0.5193798542022705 0.06976747512817383 -0.29062989354133606
-0.5193798542022705 0.06976747512817383 0.003250009147450328
-0.5193798542022705 0.08527135848999023 -0.29078012704849243
-0.5193798542022705 0.08527135848999023 0.029153291136026382
-0.5193798542022705 0.10077524185180664 -0.29105883836746216
-0.5193798542022705 0.10077523440122604 0.1633121222257614
-0.5193798542022705 0.11627912521362305 -0.29098403453826904
-0.5193798542022705 0.11627912521362305 0.27779173851013184
-0.5193798542022705 0.1317828893661499 -0.29086101055145264
-0.5193798542022705 0.1317828893661499 -0.18209871649742126
-0.5193798542022705 0.1317828893661499 -0.154221773147583
-0.5193798542022705 0.1317828893661499 0.35230767726898193
-0.5193798542022705 0.1472867727279663 -0.29050517082214355
-0.5193798542022705 0.1472867727279663 -0.19211381673812866
-0.5193798542022705 0.1472867727279663 -0.14003944396972656
-0.5193798542022705 0.1472867727279663 0.3903462886810303
-0.5193798542022705 0.16279065608978271 -0.289756715297699
-0.5193798542022705 0.16279065608978271 -0.19546647369861603
-0.5193798542022705 0.16279065608978271 -0.13383397459983826
-0.5193798542022705 0.16279065608978271 0.4012208580970764
-0.5193798542022705 0.17829453945159912 -0.28907737135887146
-0.5193798542022705 0.17829453945159912 -0.19645245373249054
-0.5193798542022705 0.17829453945159912 -0.13138006627559662
-0.5193798542022705 0.17829453945159912 0.410534143447876
-0.5193798542022705 0.19379842281341553 -0.28864815831184387
-0.5193798542022705 0.19379842281341553 -0.19722117483615875
-0.5193798542022705 0.19379842281341553 -0.12994733452796936
-0.5193798542022705 0.19379842281341553 0.4148538410663605
-0.5193798542022705 0.20930230617523193 -0.28830498456954956
-0.5193798542022705 0.20930230617523193 -0.19705645740032196
-0.5193798542022705 0.20930230617523193 -0.13001909852027893
-0.5193798542022705 0.20930230617523193 0.4175334572792053
-0.5193798542022705 0.22480618953704834 -0.28804293274879456
-0.5193798542022705 0.22480618953704834 -0.19821739196777344
-0.5193798542022705 0.22480618953704834 -0.1286165714263916
-0.5193798542022705 0.22480618953704834 0.4182528853416443
-0.5193798542022705 0.24031007289886475 -0.28803569078445435
-0.5193798542022705 0.24031007289886475 -0.19921711087226868
-0.5193798542022705 0.24031007289886475 -0.12720757722854614
-0.5193798542022705 0.24031007289886475 0.41691550612449646
-0.5193798542022705 0.25581395626068115 -0.28805017471313477
-0.5193798542022705 0.25581395626068115 -0.19685080647468567
-0.5193798542022705 0.25581395626068115 -0.1289539486169815
-0.5193798542022705 0.25581395626068115 0.41344767808914185
-0.5193798542022705 0.27131783962249756 -0.2881169617176056
-0.5193798542022705 0.27131783962249756 -0.1923404335975647
-0.5193798542022705 0.27131783962249756 -0.13177824020385742
-0.5193798542022705 0.27131783962249756 0.40695422887802124
-0.5193798542022705 0.28682172298431396 -0.28808656334877014
-0.5193798542022705 0.28682172298431396 -0.1840423047542572
-0.5193798542022705 0.28682172298431396 -0.1380453258752823
-0.5193798542022705 0.28682172298431396 0.40189406275749207
-0.5193798542022705 0.30232560634613037 -0.2878147065639496
-0.5193798542022705 0.30232560634613037 -0.1632056087255478
-0.5193798542022705 0.302325576543808 -0.16204968094825745
-0.5193798542022705 0.30232563614845276 0.3969827890396118
-0.5193798542022705 0.3178294897079468 -0.28745195269584656
-0.5193798542022705 0.3178294897079468 0.3846265971660614
-0.5193798542022705 0.3333333730697632 -0.2870370149612427
-0.5193798542022705 0.3333333730697632 0.32313597202301025
-0.5193798542022705 0.3488372564315796 -0.2856736183166504
-0.5193798542022705 0.3488372564315796 0.20078927278518677
-0.5193798542022705 0.364341139793396 -0.2833053767681122
-0.5193798542022705 0.364341139793396 0.1804194152355194
-0.5193798542022705 0.37984487414360046 -0.28210633993148804
-0.5193798542022705 0.37984490394592285 0.17630505561828613
-0.5193798542022705 0.39534878730773926 -0.28267669677734375
-0.5193798542022705 0.39534878730773926 0.17489711940288544
-0.5193798542022705 0.41085267066955566 -0.2830002009868622
-0.5193798542022705 0.41085267066955566 0.17142459750175476
-0.5038759708404541 -0.42635661363601685 -0.2604106068611145
-0.5038759708404541 -0.42635661363601685 -0.045079462230205536
-0.5038759708404541 -0.41085273027420044 -0.2825376093387604
-0.5038759708404541 -0.41085273027420044 -0.03224918991327286
-0.5038759708404541 -0.39534884691238403 -0.279975950717926
-0.5038759708404541 -0.39534884691238403 -0.032925091683864594
-0.5038759708404541 -0.3798449635505676 -0.27899807691574097
-0.5038759708404541 -0.3798449635505676 -0.032438039779663086
-0.5038759708404541 -0.3643410801887512 -0.27950620651245117
-0.5038759708404541 -0.3643410801887512 -0.03045121766626835
-0.5038759708404541 -0.3488371968269348 -0.28144320845603943
-0.5038759708404541 -0.3488371968269348 -0.027941860258579254
-0.5038759708404541 -0.3333333134651184 -0.2835187315940857
-0.5038759708404541 -0.3333333134651184 -0.02549814246594906
-0.5038759708404541 -0.317829430103302 -0.2855354845523834
-0.5038759708404541 -0.317829430103302 -0.022952932864427567
-0.5038759708404541 -0.30232560634613037 -0.28693675994873047
-0.5038759708404541 -0.30232560634613037 -0.021416829898953438
-0.5038759708404541 -0.28682172298431396 -0.2870374619960785
-0.5038759708404541 -0.28682172298431396 -0.01972639001905918
-0.5038759708404541 -0.27131783962249756 -0.28686484694480896
-0.5038759708404541 -0.27131783962249756 -0.018292155116796494
-0.5038759708404541 -0.25581395626068115 -0.2867854833602905
-0.5038759708404541 -0.25581395626068115 -0.016538027673959732
-0.5038759708404541 -0.24031007289886475 -0.2869100570678711
-0.5038759708404541 -0.24031007289886475 -0.16768626868724823
-0.5038759708404541 -0.24031007289886475 -0.1615026593208313
-0.5038759708404541 -0.24031007289886475 -0.014756062999367714
-0.5038759708404541 -0.22480618953704834 -0.28726956248283386
-0.5038759708404541 -0.22480618953704834 -0.16861611604690552
-0.5038759708404541 -0.22480618953704834 -0.16111654043197632
-0.5038759708404541 -0.22480618953704834 -0.013191836886107922
-0.5038759708404541 -0.20930230617523193 -0.2876526117324829
-0.5038759708404541 -0.20930229127407074 -0.17788340151309967
-0.5038759708404541 -0.20930230617523193 -0.15778261423110962
-0.5038759708404541 -0.20930230617523193 -0.01150168851017952
-0.5038759708404541 -0.19379842281341553 -0.28796643018722534
-0.5038759708404541 -0.19379842281341553 -0.17799654603004456
-0.5038759708404541 -0.19379842281341553 -0.1575908660888672
-0.5038759708404541 -0.19379842281341553 -0.009287955239415169
-0.5038759708404541 -0.1782945990562439 -0.28792721033096313
-0.5038760304450989 -0.1782945990562439 -0.007741723675280809
-0.5038759708404541 -0.1627907156944275 -0.28781402111053467
-0.5038759708404541 -0.1627907156944275 -0.007346713449805975
-0.5038759708404541 -0.14728683233261108 -0.28797611594200134
-0.5038759708404541 -0.14728683233261108 -0.00666549988090992
-0.5038759708404541 -0.13178294897079468 -0.28839409351348877
-0.5038759708404541 -0.13178294897079468 -0.005769127048552036
-0.5038759708404541 -0.11627906560897827 -0.2891455590724945
-0.5038759708404541 -0.11627906560897827 -0.004317391198128462
-0.5038759708404541 -0.10077518224716187 -0.2899346649646759
-0.5038759708404541 -0.10077518224716187 -0.0016730211209505796
-0.5038759708404541 -0.08527129888534546 -0.29071134328842163
-0.5038759708404541 -0.08527129888534546 0.0019164702389389277
-0.5038759708404541 -0.06976741552352905 -0.2913404405117035
-0.5038759708404541 -0.06976741552352905 0.006690571084618568
-0.5038759708404541 -0.05426359176635742 -0.29154956340789795
-0.5038759708404541 -0.05426359549164772 0.009106217883527279
-0.5038759708404541 -0.038759708404541016 -0.29129648208618164
-0.5038759708404541 -0.038759708404541016 0.010942114517092705
-0.5038759708404541 -0.02325582504272461 -0.29110032320022583
-0.5038759708404541 -0.02325582504272461 0.01360609196126461
-0.5038759708404541 -0.007751941680908203 -0.2910546064376831
-0.5038759708404541 -0.007751941680908203 0.01536579616367817
-0.5038759708404541 0.007751941680908203 -0.2909242808818817
-0.5038759708404541 0.007751941680908203 0.014131329953670502
-0.5038759708404541 0.02325582504272461 -0.2910403609275818
-0.5038759708404541 0.02325582504272461 0.010948024690151215
-0.5038759708404541 0.038759708404541016 -0.2910737097263336
-0.5038759708404541 0.038759708404541016 0.0055581796914339066
-0.5038759708404541 0.05426359176635742 -0.2910442352294922
-0.5038759708404541 0.05426359176635742 0.0014083741698414087
-0.5038759708404541 0.06976747512817383 -0.29089751839637756
-0.5038759708404541 0.06976747512817383 0.0034549133852124214
-0.5038759708404541 0.08527135848999023 -0.2910509407520294
-0.5038759708404541 0.08527135848999023 0.0326196625828743
-0.5038759708404541 0.10077524185180664 -0.2913490831851959
-0.5038759708404541 0.10077524185180664 0.16751641035079956
-0.5038759708404541 0.11627912521362305 -0.29128754138946533
-0.5038759708404541 0.11627912521362305 0.280093789100647
-0.5038759708404541 0.1317828893661499 -0.2911880910396576
-0.5038759708404541 0.1317828893661499 -0.1687324345111847
-0.5038759708404541 0.1317828893661499 -0.161611869931221
-0.5038759708404541 0.1317828893661499 0.35508379340171814
-0.5038759708404541 0.1472867727279663 -0.2908519208431244
-0.5038759708404541 0.1472867727279663 -0.1889936774969101
-0.5038759708404541 0.1472867727279663 -0.1425255686044693
-0.5038759708404541 0.1472867727279663 0.39082175493240356
-0.5038759708404541 0.16279065608978271 -0.2900806665420532
-0.5038759708404541 0.16279065608978271 -0.19358401000499725
-0.5038759708404541 0.16279065608978271 -0.13549941778182983
-0.5038759708404541 0.16279065608978271 0.40123987197875977
-0.5038759708404541 0.17829453945159912 -0.28939345479011536
-0.5038759708404541 0.17829453945159912 -0.1948697417974472
-0.5038759708404541 0.17829453945159912 -0.1326603889465332
-0.5038759708404541 0.17829453945159912 0.4101567268371582
-0.5038759708404541 0.19379842281341553 -0.2889432907104492
-0.5038759708404541 0.19379842281341553 -0.1956414133310318
-0.5038759708404541 0.19379842281341553 -0.13121077418327332
-0.5038759708404541 0.19379842281341553 0.4145018756389618
-0.5038759708404541 0.20930230617523193 -0.28858262300491333
-0.5038759708404541 0.20930230617523193 -0.19543957710266113
-0.5038759708404541 0.20930230617523193 -0.1313398778438568
-0.5038759708404541 0.20930230617523193 0.4170495271682739
-0.5038759708404541 0.22480618953704834 -0.2883075177669525
-0.5038759708404541 0.22480618953704834 -0.19667139649391174
-0.5038759708404541 0.22480618953704834 -0.1298740655183792
-0.5038759708404541 0.22480618953704834 0.4177646040916443
-0.5038759708404541 0.24031007289886475 -0.28830522298812866
-0.5038759708404541 0.24031007289886475 -0.19782301783561707
-0.5038759708404541 0.24031007289886475 -0.12827347218990326
-0.5038759708404541 0.24031007289886475 0.4164603054523468
-0.5038759708404541 0.25581395626068115 -0.2883230447769165
-0.5038759708404541 0.25581395626068115 -0.1955304890871048
-0.5038759708404541 0.25581395626068115 -0.12988834083080292
-0.5038759708404541 0.25581395626068115 0.4130980968475342
-0.5038759708404541 0.27131783962249756 -0.2883748412132263
-0.5038759708404541 0.27131783962249756 -0.19043020904064178
-0.5038759708404541 0.27131783962249756 -0.13303887844085693
-0.5038759708404541 0.27131783962249756 0.40657874941825867
-0.5038759708404541 0.28682172298431396 -0.28834113478660583
-0.5038759708404541 0.28682172298431396 -0.18230877816677094
-0.5038759708404541 0.28682172298431396 -0.13944315910339355
-0.5038759708404541 0.28682172298431396 0.401755154132843
-0.5038759708404541 0.30232560634613037 -0.2880566716194153
-0.5038759708404541 0.30232560634613037 0.3968268930912018
-0.5038759708404541 0.3178294897079468 -0.2876838445663452
-0.5038759708404541 0.3178294897079468 0.38475602865219116
-0.5038759708404541 0.3333333730697632 -0.2872661352157593
-0.5038759708404541 0.3333333730697632 0.3249320983886719
-0.5038759708404541 0.3488372564315796 -0.2867588698863983
-0.5038759708404541 0.3488372564315796 0.20334497094154358
-0.5038759708404541 0.364341139793396 -0.2840426564216614
-0.5038759708404541 0.3643411695957184 0.180838942527771
-0.5038759708404541 0.37984490394592285 -0.2824568748474121
-0.5038759708404541 0.37984490394592285 0.1769062876701355
-0.5038759708404541 0.39534878730773926 -0.28296494483947754
-0.5038759708404541 0.39534878730773926 0.17532391846179962
-0.5038759708404541 0.41085267066955566 -0.28331440687179565
-0.5038759708404541 0.41085267066955566 0.17166408896446228
-0.4883720874786377 -0.42635661363601685 -0.2606186270713806
-0.4883720874786377 -0.42635661363601685 -0.04506188631057739
-0.4883720874786377 -0.41085273027420044 -0.28277158737182617
-0.4883720874786377 -0.41085273027420044 -0.03211839869618416
-0.4883720874786377 -0.39534884691238403 -0.2801748514175415
-0.4883720874786377 -0.39534884691238403 -0.032840292900800705
-0.4883720874786377 -0.3798449635505676 -0.27911609411239624
-0.4883720576763153 -0.3798449635505676 -0.03256979212164879
-0.4883720874786377 -0.3643410801887512 -0.2793877124786377
-0.4883720874786377 -0.3643410801887512 -0.030888669192790985
-0.4883720874786377 -0.3488371968269348 -0.28109362721443176
-0.4883720874786377 -0.3488371968269348 -0.028608378022909164
-0.4883720874786377 -0.3333333134651184 -0.28306227922439575
-0.4883720874786377 -0.3333333134651184 -0.02624635025858879
-0.4883720874786377 -0.317829430103302 -0.2849093973636627
-0.4883720874786377 -0.317829430103302 -0.023249655961990356
-0.4883720874786377 -0.30232560634613037 -0.28653374314308167
-0.4883720874786377 -0.30232560634613037 -0.021824954077601433
-0.4883720874786377 -0.28682172298431396 -0.2868589758872986
-0.4883720874786377 -0.28682172298431396 -0.020253442227840424
-0.4883720874786377 -0.27131783962249756 -0.28627943992614746
-0.4883720874786377 -0.27131783962249756 -0.018899090588092804
-0.4883720874786377 -0.25581395626068115 -0.28600916266441345
-0.4883720874786377 -0.25581395626068115 -0.017232859507203102
-0.4883720874786377 -0.24031008780002594 -0.2862302362918854
-0.4883720874786377 -0.24031007289886475 -0.015532921068370342
-0.4883720874786377 -0.22480618953704834 -0.2869795262813568
-0.4883720874786377 -0.22480618953704834 -0.014005078002810478
-0.4883720874786377 -0.20930230617523193 -0.287376344203949
-0.4883720874786377 -0.20930230617523193 -0.16673488914966583
-0.4883720874786377 -0.20930232107639313 -0.16141824424266815
-0.4883720874786377 -0.20930230617523193 -0.012310648337006569
-0.4883720874786377 -0.19379842281341553 -0.28772827982902527
-0.4883720874786377 -0.19379842281341553 -0.16832023859024048
-0.4883720874786377 -0.19379842281341553 -0.16081029176712036
-0.4883720874786377 -0.19379842281341553 -0.010119636543095112
-0.4883720874786377 -0.1782945990562439 -0.28772827982902527
-0.4883720874786377 -0.1782945990562439 -0.008591435849666595
-0.4883720874786377 -0.1627907156944275 -0.2876305878162384
-0.4883720874786377 -0.16279073059558868 -0.0076894210651516914
-0.4883720874786377 -0.14728683233261108 -0.2877819538116455
-0.4883721172809601 -0.14728683233261108 -0.00703697744756937
-0.4883720874786377 -0.13178294897079468 -0.2881557047367096
-0.4883720874786377 -0.13178294897079468 -0.006160495802760124
-0.4883720874786377 -0.11627906560897827 -0.2888299822807312
-0.4883720874786377 -0.11627906560897827 -0.0046954769641160965
-0.4883720874786377 -0.10077518224716187 -0.28953132033348083
-0.4883720874786377 -0.10077518224716187 -0.002008080715313554
-0.4883720874786377 -0.08527129888534546 -0.2902025282382965
-0.4883720874786377 -0.08527129888534546 0.0016218803357332945
-0.4883720874786377 -0.06976741552352905 -0.29072409868240356
-0.4883720874786377 -0.06976741552352905 0.006265491247177124
-0.4883720874786377 -0.05426359176635742 -0.2908490300178528
-0.4883720874786377 -0.05426359176635742 0.008873018436133862
-0.4883720874786377 -0.038759708404541016 -0.29058122634887695
-0.4883720874786377 -0.038759708404541016 0.010660985484719276
-0.4883720874786377 -0.02325582504272461 -0.2903500199317932
-0.4883720874786377 -0.02325582504272461 0.013271883130073547
-0.4883720874786377 -0.007751941680908203 -0.29028353095054626
-0.4883720874786377 -0.007751941680908203 0.014970963820815086
-0.4883720874786377 0.007751941680908203 -0.2901676893234253
-0.4883720874786377 0.007751941680908203 0.013590328395366669
-0.4883720874786377 0.02325582504272461 -0.2903001308441162
-0.4883720874786377 0.02325582690536976 0.010448705404996872
-0.4883720874786377 0.038759708404541016 -0.2903847098350525
-0.4883720874786377 0.038759708404541016 0.004459383897483349
-0.4883720874786377 0.05426359176635742 -0.29039835929870605
-0.4883720874786377 0.05426359176635742 0.0004707956686615944
-0.4883720874786377 0.06976747512817383 -0.29028967022895813
-0.4883720874786377 0.06976747512817383 0.0023086664732545614
-0.4883720874786377 0.08527135848999023 -0.29047608375549316
-0.4883720874786377 0.08527135848999023 0.030886560678482056
-0.4883720874786377 0.10077524185180664 -0.29083487391471863
-0.4883720874786377 0.10077524185180664 0.16975802183151245
-0.4883720874786377 0.11627912521362305 -0.29084211587905884
-0.4883720874786377 0.11627912521362305 0.281047523021698
-0.4883720874786377 0.1317828893661499 -0.2907748222351074
-0.4883720874786377 0.1317828893661499 0.35737013816833496
-0.4883720874786377 0.1472867727279663 -0.2904675304889679
-0.4883720874786377 0.1472867727279663 -0.18586625158786774
-0.4883720874786377 0.1472867727279663 -0.14499084651470184
-0.4883720874786377 0.1472867727279663 0.3913772702217102
-0.4883720874786377 0.16279065608978271 -0.28974390029907227
-0.4883720874786377 0.16279065608978271 -0.19100697338581085
-0.4883720874786377 0.16279065608978271 -0.1372785121202469
-0.4883720874786377 0.16279065608978271 0.4013170599937439
-0.4883720874786377 0.17829453945159912 -0.2891155481338501
-0.4883720576763153 0.17829453945159912 -0.19250443577766418
-0.4883720874786377 0.17829453945159912 -0.13437919318675995
-0.4883720874786377 0.17829453945159912 0.4100649952888489
-0.4883720874786377 0.19379842281341553 -0.2886795103549957
-0.4883720874786377 0.19379842281341553 -0.1932511180639267
-0.4883720874786377 0.19379842281341553 -0.13313284516334534
-0.4883720874786377 0.19379842281341553 0.414273202419281
-0.4883720874786377 0.20930230617523193 -0.2883198857307434
-0.4883720874786377 0.20930230617523193 -0.1929011344909668
-0.4883720874786377 0.20930230617523193 -0.13341514766216278
-0.4883720874786377 0.20930230617523193 0.41669589281082153
-0.4883720874786377 0.22480618953704834 -0.28805744647979736
-0.4883720874786377 0.22480618953704834 -0.19440633058547974
-0.4883720874786377 0.22480618953704834 -0.13187748193740845
-0.4883720874786377 0.22480618953704834 0.4173988997936249
-0.4883720874786377 0.24031007289886475 -0.2880660891532898
-0.4883720874786377 0.24031007289886475 -0.19577006995677948
-0.4883720576763153 0.24031007289886475 -0.13018767535686493
-0.4883720874786377 0.24031007289886475 0.416124165058136
-0.4883720874786377 0.25581395626068115 -0.28808990120887756
-0.4883720874786377 0.25581395626068115 -0.19347381591796875
-0.4883720874786377 0.25581395626068115 -0.13185319304466248
-0.4883720874786377 0.25581395626068115 0.41283896565437317
-0.4883720874786377 0.27131783962249756 -0.28813353180885315
-0.4883720874786377 0.27131783962249756 -0.18785139918327332
-0.4883720874786377 0.27131783962249756 -0.13548234105110168
-0.4883720874786377 0.27131783962249756 0.4062351584434509
-0.4883720874786377 0.28682172298431396 -0.28812217712402344
-0.4883720874786377 0.28682172298431396 -0.1798665076494217
-0.4883720874786377 0.28682172298431396 -0.14219291508197784
-0.4883720874786377 0.28682172298431396 0.40159115195274353
-0.4883720874786377 0.30232560634613037 -0.2878781855106354
-0.4883720874786377 0.30232560634613037 0.39664140343666077
-0.4883720874786377 0.3178294897079468 -0.2875230312347412
-0.4883720874786377 0.3178294897079468 0.3847683072090149
-0.4883720874786377 0.3333333730697632 -0.2870824337005615
-0.4883720874786377 0.3333333730697632 0.3258618712425232
-0.4883720874786377 0.3488372564315796 -0.28574660420417786
-0.4883720874786377 0.3488372564315796 0.20436972379684448
-0.4883720576763153 0.364341139793396 -0.28344136476516724
-0.4883720874786377 0.364341139793396 0.18107661604881287
-0.4883720874786377 0.37984490394592285 -0.2823046147823334
-0.4883720874786377 0.37984490394592285 0.17769497632980347
-0.4883720576763153 0.39534878730773926 -0.28303682804107666
-0.4883720874786377 0.39534878730773926 0.1760072410106659
-0.4883720874786377 0.41085267066955566 -0.2833501696586609
-0.4883720874786377 0.41085267066955566 0.1720048189163208
-0.4728682041168213 -0.42635661363601685 -0.2609677016735077
-0.4728682041168213 -0.42635661363601685 -0.04542534053325653
-0.4728682041168213 -0.41085270047187805 -0.2829968333244324
-0.4728682041168213 -0.41085273027420044 -0.03220106288790703
-0.4728682041168213 -0.39534884691238403 -0.28037744760513306
-0.4728682041168213 -0.39534884691238403 -0.032989583909511566
-0.4728682041168213 -0.3798449635505676 -0.27924007177352905
-0.4728682041168213 -0.3798449635505676 -0.032878577709198
-0.4728682041168213 -0.3643410801887512 -0.27924689650535583
-0.4728682041168213 -0.3643410801887512 -0.03144010901451111
-0.4728682041168213 -0.3488371968269348 -0.28056246042251587
-0.4728682041168213 -0.3488371968269348 -0.029429014772176743
-0.4728682041168213 -0.3333333134651184 -0.28231164813041687
-0.4728682041168213 -0.3333333134651184 -0.027260560542345047
-0.4728682041168213 -0.3178294003009796 -0.28396573662757874
-0.4728682041168213 -0.317829430103302 -0.024443624541163445
-0.4728682041168213 -0.30232560634613037 -0.2854592800140381
-0.4728682041168213 -0.30232560634613037 -0.022333096712827682
-0.4728682041168213 -0.28682172298431396 -0.285926878452301
-0.4728682041168213 -0.28682172298431396 -0.020835237577557564
-0.4728682041168213 -0.27131783962249756 -0.28540533781051636
-0.4728682041168213 -0.27131783962249756 -0.019493343308568
-0.4728682041168213 -0.25581395626068115 -0.28521785140037537
-0.4728682041168213 -0.25581395626068115 -0.01788434199988842
-0.4728681743144989 -0.24031005799770355 -0.2853866219520569
-0.4728682041168213 -0.24031007289886475 -0.016274763271212578
-0.4728682041168213 -0.22480618953704834 -0.2863571047782898
-0.4728682041168213 -0.22480618953704834 -0.014839678071439266
-0.4728682041168213 -0.20930230617523193 -0.2870653569698334
-0.4728682041168213 -0.20930230617523193 -0.1632826179265976
-0.4728682339191437 -0.20930230617523193 -0.16261275112628937
-0.4728682041168213 -0.20930230617523193 -0.013306479901075363
-0.4728682041168213 -0.19379842281341553 -0.28742343187332153
-0.4728682041168213 -0.19379842281341553 -0.1660425066947937
-0.4728682041168213 -0.19379842281341553 -0.1615757942199707
-0.4728682041168213 -0.19379842281341553 -0.011370223015546799
-0.4728682041168213 -0.1782945990562439 -0.2874471843242645
-0.4728682041168213 -0.1782945990562439 -0.010108156129717827
-0.4728682041168213 -0.1627907156944275 -0.2873745262622833
-0.4728682041168213 -0.1627907156944275 -0.00935327261686325
-0.4728682041168213 -0.14728683233261108 -0.2875232696533203
-0.4728682041168213 -0.14728683233261108 -0.007935639470815659
-0.4728682041168213 -0.13178294897079468 -0.2878423035144806
-0.4728682041168213 -0.13178294897079468 -0.007136387750506401
-0.4728682041168213 -0.11627906560897827 -0.2884189784526825
-0.4728682041168213 -0.11627906560897827 -0.006023744586855173
-0.4728682041168213 -0.10077518224716187 -0.28900831937789917
-0.4728682041168213 -0.10077518969774246 -0.0039807772263884544
-0.4728682041168213 -0.08527129888534546 -0.2895492613315582
-0.4728682041168213 -0.08527129888534546 -0.0013629107270389795
-0.4728682041168213 -0.06976741552352905 -0.2899276912212372
-0.4728682041168213 -0.06976741552352905 0.001813150942325592
-0.4728682041168213 -0.05426359176635742 -0.28994259238243103
-0.4728682041168213 -0.05426359176635742 0.005344935692846775
-0.4728682041168213 -0.038759708404541016 -0.2896365225315094
-0.4728682041168213 -0.038759708404541016 0.008392482064664364
-0.4728682041168213 -0.02325582504272461 -0.2893878221511841
-0.4728682041168213 -0.02325582504272461 0.010507983155548573
-0.4728682041168213 -0.007751941680908203 -0.28931400179862976
-0.4728682041168213 -0.007751941215246916 0.012091821059584618
-0.4728682041168213 0.007751941680908203 -0.2892231345176697
-0.4728682041168213 0.007751941680908203 0.011165857315063477
-0.4728682041168213 0.02325582504272461 -0.289398193359375
-0.4728681743144989 0.02325582504272461 0.008647583425045013
-0.4728682041168213 0.038759708404541016 -0.28952276706695557
-0.4728682041168213 0.038759708404541016 0.001785191474482417
-0.4728682041168213 0.05426359176635742 -0.2895873188972473
-0.4728682041168213 0.05426359176635742 -0.001354520209133625
-0.4728682041168213 0.06976747512817383 -0.28952905535697937
-0.4728682041168213 0.06976747512817383 0.0003410903736948967
-0.4728682041168213 0.08527135848999023 -0.28975701332092285
-0.4728682041168213 0.08527135848999023 0.026138123124837875
-0.4728682041168213 0.10077524185180664 -0.29017937183380127
-0.4728682041168213 0.10077524185180664 0.16955985128879547
-0.4728682041168213 0.11627912521362305 -0.29027730226516724
-0.4728682041168213 0.11627912521362305 0.28043419122695923
-0.4728682041168213 0.1317828893661499 -0.29027217626571655
-0.4728682041168213 0.1317828893661499 0.3581831455230713
-0.4728682041168213 0.1472867727279663 -0.2900049090385437
-0.4728682041168213 0.1472867727279663 -0.18468382954597473
-0.4728682041168213 0.1472867727279663 -0.1464506983757019
-0.4728682041168213 0.1472867727279663 0.3914449214935303
-0.4728682041168213 0.16279065608978271 -0.28935006260871887
-0.4728682041168213 0.16279065608978271 -0.1904824674129486
-0.4728682041168213 0.16279065608978271 -0.13785876333713531
-0.4728682339191437 0.16279065608978271 0.4013533890247345
-0.4728682041168213 0.17829453945159912 -0.2887710928916931
-0.4728681743144989 0.17829453945159912 -0.19215022027492523
-0.4728682041168213 0.17829453945159912 -0.13457006216049194
-0.4728682041168213 0.17829453945159912 0.41000697016716003
-0.4728682041168213 0.19379842281341553 -0.2883533835411072
-0.4728682339191437 0.19379842281341553 -0.19315436482429504
-0.4728682041168213 0.19379842281341553 -0.1330338418483734
-0.4728682041168213 0.19379842281341553 0.4141741096973419
-0.4728682041168213 0.20930230617523193 -0.28798720240592957
-0.4728681743144989 0.20930230617523193 -0.19320787489414215
-0.4728682041168213 0.20930230617523193 -0.13295787572860718
-0.4728682041168213 0.20930230617523193 0.41649821400642395
-0.4728682041168213 0.22480618953704834 -0.28772521018981934
-0.4728682041168213 0.22480618953704834 -0.19489459693431854
-0.4728682041168213 0.22480618953704834 -0.13122357428073883
-0.4728682041168213 0.22480618953704834 0.4171913266181946
-0.4728682041168213 0.24031007289886475 -0.2877248227596283
-0.4728682041168213 0.24031007289886475 -0.1964675784111023
-0.4728682041168213 0.24031007289886475 -0.129422128200531
-0.4728682041168213 0.24031007289886475 0.4159575402736664
-0.4728682041168213 0.25581395626068115 -0.287738561630249
-0.4728682041168213 0.25581395626068115 -0.19464758038520813
-0.4728682041168213 0.25581395626068115 -0.13075315952301025
-0.4728682041168213 0.25581395626068115 0.41272884607315063
-0.4728682041168213 0.27131783962249756 -0.28777819871902466
-0.4728681743144989 0.27131783962249756 -0.1901681274175644
-0.4728682041168213 0.27131783962249756 -0.13366037607192993
-0.4728682041168213 0.27131783962249756 0.4061129689216614
-0.4728682041168213 0.28682172298431396 -0.28777438402175903
-0.4728682041168213 0.28682172298431396 -0.1829673945903778
-0.4728682041168213 0.28682172298431396 -0.1398385465145111
-0.4728682041168213 0.28682172298431396 0.40160244703292847
-0.4728682041168213 0.30232560634613037 -0.28758883476257324
-0.4728681743144989 0.302325576543808 0.3966543674468994
-0.4728682041168213 0.3178294897079468 -0.28729259967803955
-0.4728682339191437 0.3178294897079468 0.3850398659706116
-0.4728682041168213 0.3333333730697632 -0.28685832023620605
-0.4728682041168213 0.3333333730697632 0.32594117522239685
-0.4728682041168213 0.3488372564315796 -0.2847605347633362
-0.4728682041168213 0.3488372564315796 0.20424768328666687
-0.4728682041168213 0.364341139793396 -0.2829555571079254
-0.4728682041168213 0.3643411695957184 0.18110975623130798
-0.4728682339191437 0.37984490394592285 -0.2821918725967407
-0.4728682041168213 0.37984490394592285 0.1781722605228424
-0.4728682041168213 0.39534878730773926 -0.2830371856689453
-0.4728682041168213 0.39534878730773926 0.1765119731426239
-0.4728682041168213 0.41085267066955566 -0.2833985984325409
-0.4728682041168213 0.41085267066955566 0.17233572900295258
-0.4573643207550049 -0.42635661363601685 -0.26161253452301025
-0.4573643207550049 -0.42635661363601685 -0.04551616683602333
-0.4573643207550049 -0.41085273027420044 -0.2831586003303528
-0.4573643207550049 -0.41085273027420044 -0.032260727137327194
-0.4573643207550049 -0.39534884691238403 -0.28049764037132263
-0.4573642909526825 -0.39534884691238403 -0.03305087983608246
-0.4573643207550049 -0.3798449635505676 -0.27932220697402954
-0.4573643207550049 -0.3798449635505676 -0.033000536262989044
-0.4573643207550049 -0.3643410801887512 -0.27906179428100586
-0.4573643207550049 -0.3643410801887512 -0.031701333820819855
-0.4573643207550049 -0.3488371968269348 -0.2799305319786072
-0.4573643207550049 -0.3488371968269348 -0.029905501753091812
-0.45736435055732727 -0.3333333134651184 -0.28136783838272095
-0.4573643207550049 -0.3333333134651184 -0.027914857491850853
-0.4573643207550049 -0.317829430103302 -0.2827798128128052
-0.4573643207550049 -0.317829430103302 -0.02521919086575508
-0.4573643207550049 -0.30232560634613037 -0.28415966033935547
-0.4573643207550049 -0.30232560634613037 -0.02263314090669155
-0.4573643207550049 -0.28682172298431396 -0.2847428023815155
-0.4573642909526825 -0.28682172298431396 -0.021185142919421196
-0.4573643207550049 -0.27131783962249756 -0.2845114767551422
-0.4573643207550049 -0.27131783962249756 -0.01984086073935032
-0.4573643207550049 -0.25581395626068115 -0.2844695448875427
-0.4573643207550049 -0.25581395626068115 -0.01826746016740799
-0.4573643207550049 -0.24031007289886475 -0.28460630774497986
-0.4573643207550049 -0.24031005799770355 -0.016734350472688675
-0.4573643207550049 -0.22480618953704834 -0.28526991605758667
-0.4573643207550049 -0.22480618953704834 -0.015423279255628586
-0.4573643207550049 -0.20930232107639313 -0.2863936722278595
-0.4573643207550049 -0.20930230617523193 -0.014132892712950706
-0.4573643207550049 -0.19379842281341553 -0.28704702854156494
-0.4573643207550049 -0.19379842281341553 -0.012495975941419601
-0.4573643207550049 -0.1782945990562439 -0.28708237409591675
-0.4573643207550049 -0.1782945990562439 -0.011465588584542274
-0.4573643207550049 -0.1627907156944275 -0.2870257496833801
-0.4573643207550049 -0.1627907156944275 -0.010887924581766129
-0.4573643207550049 -0.14728683233261108 -0.28717169165611267
-0.4573643207550049 -0.14728683233261108 -0.009638102725148201
-0.4573643207550049 -0.13178294897079468 -0.28743740916252136
-0.4573643207550049 -0.13178294897079468 -0.008066462352871895
-0.4573643207550049 -0.11627906560897827 -0.28792208433151245
-0.4573643207550049 -0.11627906560897827 -0.006979681551456451
-0.4573643207550049 -0.10077518224716187 -0.2884156405925751
-0.4573643207550049 -0.10077518224716187 -0.005426960065960884
-0.4573643207550049 -0.08527129888534546 -0.2888413369655609
-0.4573643207550049 -0.08527129888534546 -0.00359136750921607
-0.4573643207550049 -0.06976741552352905 -0.28907510638237
-0.4573643207550049 -0.06976741552352905 -0.0014734526630491018
-0.4573643207550049 -0.05426359176635742 -0.28896695375442505
-0.4573643207550049 -0.05426359176635742 0.0008754013106226921
-0.4573643207550049 -0.038759708404541016 -0.2886168658733368
-0.4573643207550049 -0.038759708404541016 0.003962969407439232
-0.4573643207550049 -0.02325582504272461 -0.2883221507072449
-0.4573643207550049 -0.02325582504272461 0.008258270099759102
-0.4573643207550049 -0.007751941680908203 -0.28822457790374756
-0.4573643207550049 -0.007751941680908203 0.009749844670295715
-0.4573643207550049 0.007751941680908203 -0.28815895318984985
-0.4573643207550049 0.007751941680908203 0.009345294907689095
-0.4573643207550049 0.02325582504272461 -0.28837132453918457
-0.4573643207550049 0.02325582504272461 0.006939929910004139
-0.4573643207550049 0.038759708404541016 -0.2885386347770691
-0.4573643207550049 0.038759708404541016 0.0002045854926109314
-0.4573643207550049 0.05426359176635742 -0.28866779804229736
-0.45736435055732727 0.05426359549164772 -0.0024071764200925827
-0.4573643207550049 0.06976747512817383 -0.2886804938316345
-0.4573642909526825 0.06976747512817383 -0.0008768339175730944
-0.4573643207550049 0.08527135848999023 -0.2889699339866638
