-0.3643410801887512 0.12350843846797943 0.3178294897079468
-0.3643410801887512 0.12827196717262268 0.3333333730697632
-0.3643410801887512 0.13122181594371796 0.3488372564315796
-0.3643410801887512 0.14082913100719452 -0.08527129888534546
-0.3643410801887512 0.1388634443283081 0.364341139793396
-0.3643410801887512 0.14550761878490448 0.37984490394592285
-0.3643410801887512 0.15966755151748657 0.39534878730773926
-0.3643410801887512 0.2516414523124695 0.39534878730773926
-0.3643410801887512 0.27726203203201294 0.37984490394592285
-0.3643410801887512 0.29358065128326416 -0.08527129888534546
-0.3643410801887512 0.3012680113315582 0.3488372564315796
-0.3643410801887512 0.2921410799026489 0.364341139793396
-0.3643410801887512 0.31683290004730225 0.30232560634613037
-0.3643410801887512 0.3093143701553345 0.3178294897079468
-0.3643410801887512 0.3056653141975403 0.3333333730697632
-0.3643410801887512 0.33323541283607483 -0.11627906560897827
-0.3643410801887512 0.3194587826728821 -0.10077518224716187
-0.3643410801887512 0.32458245754241943 0.28682172298431396
-0.3643410801887512 0.33711016178131104 -0.30232560634613037
-0.3643410801887512 0.34021759033203125 -0.24031007289886475
-0.3643410801887512 0.3453074097633362 -0.13178294897079468
-0.3643410801887512 0.349778950214386 -0.22480618953704834
-0.3643410801887512 0.3545922636985779 -0.20930230617523193
-0.3643410801887512 0.3564068377017975 -0.19379842281341553
-0.3643410801887512 0.35687774419784546 -0.1782945990562439
-0.3643410801887512 0.3567790389060974 -0.1627907156944275
-0.3643410801887512 0.3533112406730652 -0.14728683233261108
-0.3643410801887512 0.3599752187728882 0.27131783962249756
-0.3643410801887512 0.394222229719162 0.24031007289886475
-0.3643410801887512 0.38505104184150696 0.25581395626068115
-0.3643410801887512 0.4060688316822052 -0.28682172298431396
-0.3643410801887512 0.40788260102272034 -0.27131783962249756
-0.3643410801887512 0.4070337116718292 -0.25581395626068115
-0.3643410801887512 0.40733176469802856 -0.24031007289886475
-0.3643410801887512 0.40804117918014526 -0.22480618953704834
-0.3643410801887512 0.4083859920501709 -0.20930230617523193
-0.3643410801887512 0.4087889790534973 -0.19379842281341553
-0.3643410801887512 0.4090944826602936 -0.1782945990562439
-0.3643410801887512 0.4091900885105133 -0.1627907156944275
-0.3643410801887512 0.40929114818573 -0.14728683233261108
-0.3643410801887512 0.4095739722251892 -0.13178294897079468
-0.3643410801887512 0.40987080335617065 -0.11627906560897827
-0.3643410801887512 0.40984466671943665 -0.10077518224716187
-0.3643410801887512 0.4095912277698517 -0.08527129888534546
-0.3643410801887512 0.4093359708786011 -0.06976741552352905
-0.3643410801887512 0.40913912653923035 -0.05426359176635742
-0.3643410801887512 0.408801406621933 -0.038759708404541016
-0.3643410801887512 0.40843960642814636 -0.02325582504272461
-0.3643410801887512 0.40812164545059204 -0.007751941680908203
-0.3643410801887512 0.40788179636001587 0.007751941680908203
-0.3643410801887512 0.4077386260032654 0.02325582504272461
-0.3643410801887512 0.40746009349823 0.038759708404541016
-0.3643410801887512 0.40682530403137207 0.05426359176635742
-0.3643410801887512 0.4061855673789978 0.06976747512817383
-0.3643410801887512 0.40542131662368774 0.08527135848999023
-0.3643410801887512 0.40463778376579285 0.10077524185180664
-0.3643410801887512 0.4040996730327606 0.11627912521362305
-0.3643410801887512 0.4036949574947357 0.1317828893661499
-0.3643410801887512 0.4029127359390259 0.1472867727279663
-0.3643410801887512 0.4022868573665619 0.16279065608978271
-0.3643410801887512 0.4014381766319275 0.17829453945159912
-0.3643410801887512 0.4003887176513672 0.19379842281341553
-0.3643410801887512 0.39933642745018005 0.20930232107639313
-0.3643410801887512 0.3980036973953247 0.22480618953704834
-0.3488371968269348 -0.4108927249908447 -0.24031007289886475
-0.3488371968269348 -0.4116833806037903 -0.22480618953704834
-0.3488371968269348 -0.4122677445411682 -0.20930230617523193
-0.3488371968269348 -0.412699818611145 -0.19379842281341553
-0.3488371968269348 -0.4130456745624542 -0.1782945990562439
-0.3488371968269348 -0.4132775068283081 -0.1627907156944275
-0.3488371968269348 -0.4134190082550049 -0.14728683233261108
-0.3488371968269348 -0.41355961561203003 -0.13178294897079468
-0.3488371968269348 -0.413615345954895 -0.11627906560897827
-0.3488371968269348 -0.41345247626304626 -0.10077518224716187
-0.3488371968269348 -0.4130796492099762 -0.08527129888534546
-0.3488371968269348 -0.4123050570487976 -0.06976741552352905
-0.3488371968269348 -0.4031645357608795 -0.28682172298431396
-0.3488371968269348 -0.4064438045024872 -0.27131783962249756
-0.3488371968269348 -0.40845775604248047 -0.25581395626068115
-0.3488371670246124 -0.4098181426525116 -0.05426359176635742
-0.3488371968269348 -0.40276235342025757 -0.038759708404541016
-0.3488371968269348 -0.37411218881607056 -0.02325582504272461
-0.3488371968269348 -0.3334072530269623 -0.1782945990562439
-0.3488371968269348 -0.3305042088031769 -0.30232560634613037
-0.3488371968269348 -0.3259596526622772 -0.20930230617523193
-0.3488371968269348 -0.33120474219322205 -0.19379842281341553
-0.3488371968269348 -0.3317123055458069 -0.1627907156944275
-0.3488371968269348 -0.32330358028411865 -0.14728683233261108
-0.3488371968269348 -0.30956968665122986 -0.22480618953704834
-0.3488371968269348 -0.29281342029571533 -0.13178294897079468
-0.3488371968269348 -0.2698093354701996 -0.00775194214656949
-0.3488371968269348 -0.08655409514904022 -0.24031007289886475
-0.3488371968269348 -0.05675804615020752 -0.11627906560897827
-0.3488371968269348 -0.02932162396609783 0.007751941680908203
-0.3488371968269348 -0.012531585060060024 -0.11627906560897827
-0.3488371968269348 -0.004778237082064152 0.007751941680908203
-0.3488372266292572 0.023911023512482643 -0.11627906560897827
-0.3488371968269348 0.06645987927913666 0.007751941680908203
-0.3488371968269348 0.07844291627407074 0.02325582504272461
-0.3488371968269348 0.0815923884510994 0.038759708404541016
-0.3488371968269348 0.08345051109790802 0.05426359176635742
-0.3488371968269348 0.08489765971899033 0.06976747512817383
-0.3488371968269348 0.0894882082939148 0.08527135848999023
-0.3488371968269348 0.0927325114607811 0.10077524185180664
-0.3488371968269348 0.09484648704528809 0.11627912521362305
-0.3488371968269348 0.09627062827348709 0.1317828893661499
-0.3488371968269348 0.09752154350280762 0.1472867727279663
-0.3488371968269348 0.0979493111371994 0.16279065608978271
-0.3488371968269348 0.09867015480995178 0.17829453945159912
-0.3488371968269348 0.09952642023563385 0.19379842281341553
-0.3488371968269348 0.10045967251062393 0.20930230617523193
-0.3488371968269348 0.10097408294677734 -0.10077518224716187
-0.3488371968269348 0.10366630554199219 0.22480618953704834
-0.3488371968269348 0.10745556652545929 0.24031007289886475
-0.3488371968269348 0.11075931787490845 0.25581395626068115
-0.3488371968269348 0.11292942613363266 0.27131783962249756
-0.3488371968269348 0.11462351679801941 0.28682172298431396
-0.3488371968269348 0.11672130972146988 0.302325576543808
-0.3488371968269348 0.12415575981140137 0.3178294897079468
-0.3488371968269348 0.12863734364509583 0.3333333730697632
-0.3488371968269348 0.13150738179683685 0.3488372564315796
-0.3488371968269348 0.1393773853778839 -0.08527129888534546
-0.3488371968269348 0.1393318921327591 0.364341139793396
-0.3488371968269348 0.14570754766464233 0.37984490394592285
-0.3488371968269348 0.15978291630744934 0.39534878730773926
-0.3488371968269348 0.25166603922843933 0.39534878730773926
-0.3488371968269348 0.27723631262779236 0.37984490394592285
-0.3488371968269348 0.2939773201942444 -0.08527129888534546
-0.3488371968269348 0.30074357986450195 0.3488372564315796
-0.3488371968269348 0.29206445813179016 0.364341139793396
-0.3488371968269348 0.3169199526309967 0.30232560634613037
-0.3488371968269348 0.3092028498649597 0.3178294897079468
-0.3488371968269348 0.3054707646369934 0.3333333730697632
-0.3488371968269348 0.3199298083782196 -0.10077518224716187
-0.3488371968269348 0.324815958738327 0.28682172298431396
-0.3488371968269348 0.3383371829986572 -0.30232560634613037
-0.3488371968269348 0.34034574031829834 -0.24031005799770355
-0.3488371968269348 0.3466491401195526 -0.13178294897079468
-0.3488371968269348 0.33422377705574036 -0.11627906560897827
-0.3488371968269348 0.3502947688102722 -0.22480618953704834
-0.3488371968269348 0.35513758659362793 -0.20930230617523193
-0.3488371968269348 0.3570635914802551 -0.19379842281341553
-0.3488371968269348 0.3576781749725342 -0.1782945990562439
-0.3488371968269348 0.3577365279197693 -0.1627907156944275
-0.3488371968269348 0.3545316457748413 -0.14728683233261108
-0.3488371968269348 0.3617776930332184 0.27131783962249756
-0.3488371968269348 0.3941362202167511 0.24031007289886475
-0.3488371968269348 0.38513943552970886 0.25581395626068115
-0.3488371968269348 0.4060123562812805 -0.28682172298431396
-0.3488371968269348 0.4078575372695923 -0.27131783962249756
-0.3488371968269348 0.4070265591144562 -0.25581395626068115
-0.3488371968269348 0.4073082208633423 -0.24031007289886475
-0.3488371968269348 0.40809014439582825 -0.22480618953704834
-0.3488371968269348 0.40846511721611023 -0.20930230617523193
-0.3488371968269348 0.4088720381259918 -0.19379842281341553
-0.3488371968269348 0.40917152166366577 -0.1782945990562439
-0.3488371968269348 0.4092549681663513 -0.1627907156944275
-0.3488371968269348 0.40935444831848145 -0.14728683233261108
-0.3488371968269348 0.40962791442871094 -0.13178294897079468
-0.3488371968269348 0.40991419553756714 -0.11627906560897827
-0.3488371968269348 0.4098794758319855 -0.10077518224716187
-0.3488371968269348 0.40962374210357666 -0.08527129888534546
-0.3488371968269348 0.4093879759311676 -0.06976741552352905
-0.3488371968269348 0.4092281758785248 -0.05426359176635742
-0.3488371968269348 0.4088885188102722 -0.038759708404541016
-0.3488371968269348 0.40852275490760803 -0.02325582504272461
-0.3488371968269348 0.4082046449184418 -0.007751941680908203
-0.3488371968269348 0.4079599380493164 0.007751941680908203
-0.3488371968269348 0.4078200161457062 0.02325582504272461
-0.3488371968269348 0.4075446128845215 0.038759708404541016
-0.3488371968269348 0.40691137313842773 0.05426359176635742
-0.3488371968269348 0.40627312660217285 0.06976747512817383
-0.3488371968269348 0.4054880738258362 0.08527135848999023
-0.3488371968269348 0.4046573042869568 0.10077524185180664
-0.3488371968269348 0.4040897488594055 0.11627912521362305
-0.3488371968269348 0.4036950469017029 0.1317828893661499
-0.3488371968269348 0.4029017686843872 0.1472867727279663
-0.3488371968269348 0.4022381901741028 0.16279065608978271
-0.3488371968269348 0.40138131380081177 0.17829453945159912
-0.3488371968269348 0.4003526568412781 0.19379842281341553
-0.3488371968269348 0.39931556582450867 0.20930230617523193
-0.3488371968269348 0.3979775309562683 0.22480618953704834
-0.3333333134651184 -0.41087520122528076 -0.24031007289886475
-0.3333333134651184 -0.41166743636131287 -0.22480618953704834
-0.3333333134651184 -0.4122489094734192 -0.20930230617523193
-0.3333333134651184 -0.4126775562763214 -0.19379842281341553
-0.3333333134651184 -0.41300904750823975 -0.1782945990562439
-0.3333333134651184 -0.413237988948822 -0.1627907156944275
-0.3333333134651184 -0.41337403655052185 -0.14728683233261108
-0.3333333134651184 -0.4135184586048126 -0.13178294897079468
-0.3333333134651184 -0.41357356309890747 -0.11627906560897827
-0.3333333134651184 -0.4134042263031006 -0.10077518224716187
-0.3333333134651184 -0.4130435585975647 -0.08527129888534546
-0.3333333134651184 -0.41229209303855896 -0.06976741552352905
-0.3333333134651184 -0.4031466841697693 -0.28682172298431396
-0.3333333134651184 -0.40634387731552124 -0.27131783962249756
-0.3333333134651184 -0.408399373292923 -0.25581395626068115
-0.3333333134651184 -0.40979012846946716 -0.05426359176635742
-0.3333333134651184 -0.40280085802078247 -0.038759708404541016
-0.3333333134651184 -0.37513267993927 -0.02325582504272461
-0.3333333134651184 -0.3319501280784607 -0.30232560634613037
-0.3333333134651184 -0.32351237535476685 -0.20930230617523193
-0.3333333134651184 -0.32946017384529114 -0.19379842281341553
-0.3333333134651184 -0.3319128453731537 -0.1782945990562439
-0.3333333134651184 -0.330060750246048 -0.1627907156944275
-0.3333333134651184 -0.32097262144088745 -0.14728683233261108
-0.3333333134651184 -0.30279597640037537 -0.22480618953704834
-0.3333333134651184 -0.28669360280036926 -0.13178293406963348
-0.333333283662796 -0.26809149980545044 -0.007751941680908203
-0.3333333134651184 -0.07988438010215759 -0.24031007289886475
-0.3333333134651184 -0.047774430364370346 -0.11627906560897827
-0.3333333134651184 -0.024318473413586617 -0.11627906560897827
-0.3333333134651184 -0.029349403455853462 0.007751941680908203
-0.3333333134651184 -0.004124565981328487 0.007751941680908203
-0.3333333134651184 0.029668571427464485 -0.11627906560897827
-0.3333333134651184 0.06552807241678238 0.007751941680908203
-0.3333333134651184 0.07818606495857239 0.02325582504272461
-0.3333333134651184 0.08146729320287704 0.038759708404541016
-0.3333333134651184 0.08341284096240997 0.05426359176635742
-0.3333333134651184 0.08495388180017471 0.06976747512817383
-0.3333333134651184 0.08985688537359238 0.08527135848999023
-0.3333333134651184 0.09307321161031723 0.10077524185180664
-0.3333333134651184 0.09512415528297424 0.11627912521362305
-0.3333333134651184 0.09646232426166534 0.1317828893661499
-0.3333333134651184 0.0977422446012497 0.1472867727279663
-0.3333333134651184 0.09814629703760147 0.16279065608978271
-0.3333333134651184 0.09884526580572128 0.17829453945159912
-0.3333333134651184 0.09970079362392426 0.19379842281341553
-0.3333333134651184 0.10065837949514389 0.20930230617523193
-0.3333333134651184 0.10439074039459229 -0.10077518224716187
-0.3333333134651184 0.1044142097234726 0.22480618953704834
-0.3333333134651184 0.10804767161607742 0.24031007289886475
-0.3333333134651184 0.11114431172609329 0.25581395626068115
-0.3333333134651184 0.11318255960941315 0.27131783962249756
-0.3333333134651184 0.11479803919792175 0.28682172298431396
-0.3333333134651184 0.11756204813718796 0.30232560634613037
-0.3333333134651184 0.12469129264354706 0.3178294897079468
-0.3333333134651184 0.12896916270256042 0.3333333730697632
-0.3333333134651184 0.14652737975120544 -0.08527129888534546
-0.3333333134651184 0.13184893131256104 0.3488372564315796
-0.3333333134651184 0.13986767828464508 0.364341139793396
-0.3333333134651184 0.14598195254802704 0.37984490394592285
-0.3333333134651184 0.16004429757595062 0.39534878730773926
-0.3333333134651184 0.2511487603187561 0.39534878730773926
-0.3333333134651184 0.27699270844459534 0.37984490394592285
-0.3333333134651184 0.29153087735176086 -0.08527129888534546
-0.3333333134651184 0.3001398742198944 0.3488372564315796
-0.3333333134651184 0.291892945766449 0.364341139793396
-0.3333333134651184 0.3166312873363495 0.30232560634613037
-0.3333333134651184 0.3089876174926758 0.3178294897079468
-0.3333333134651184 0.3052363693714142 0.3333333432674408
-0.3333333134651184 0.31862732768058777 -0.10077518224716187
-0.3333333134651184 0.3247861862182617 0.28682172298431396
-0.3333333134651184 0.34113287925720215 -0.30232560634613037
-0.3333333134651184 0.3387637734413147 -0.24031007289886475
-0.3333333134651184 0.3462190628051758 -0.13178294897079468
-0.3333333134651184 0.3336787223815918 -0.11627906560897827
-0.3333333134651184 0.349445104598999 -0.22480617463588715
-0.3333333134651184 0.3544844090938568 -0.20930232107639313
-0.3333333134651184 0.3566009998321533 -0.19379842281341553
-0.3333333134651184 0.3572149872779846 -0.1782945990562439
-0.3333333134651184 0.3573315143585205 -0.1627907156944275
-0.3333333134651184 0.35411036014556885 -0.14728683233261108
-0.3333333134651184 0.36181458830833435 0.27131783962249756
-0.3333333134651184 0.3939662575721741 0.24031007289886475
-0.3333333134651184 0.3851258158683777 0.25581395626068115
-0.3333333134651184 0.40592920780181885 -0.28682172298431396
-0.3333333134651184 0.4077785909175873 -0.27131783962249756
-0.3333333134651184 0.40695029497146606 -0.25581395626068115
-0.3333333134651184 0.40719759464263916 -0.24031007289886475
-0.3333333134651184 0.4080454111099243 -0.22480618953704834
-0.3333333134651184 0.40844255685806274 -0.20930230617523193
-0.3333333134651184 0.40885525941848755 -0.19379842281341553
-0.3333333134651184 0.40914031863212585 -0.1782945990562439
-0.3333333134651184 0.4092206358909607 -0.1627907156944275
-0.3333333134651184 0.4093192219734192 -0.14728683233261108
-0.3333333134651184 0.40960001945495605 -0.13178294897079468
-0.3333333134651184 0.40988174080848694 -0.11627906560897827
-0.3333333134651184 0.4098236858844757 -0.10077518224716187
-0.3333333134651184 0.40954333543777466 -0.08527129888534546
-0.3333333134651184 0.40930262207984924 -0.06976741552352905
-0.3333333134651184 0.40916815400123596 -0.05426359176635742
-0.3333333134651184 0.4088374972343445 -0.038759708404541016
-0.3333333134651184 0.40849611163139343 -0.02325582504272461
-0.3333333134651184 0.4081743657588959 -0.007751941680908203
-0.3333333134651184 0.4079127013683319 0.007751941680908203
-0.3333333134651184 0.4077688157558441 0.02325582504272461
-0.3333333134651184 0.40749478340148926 0.038759708404541016
-0.3333333134651184 0.4068741500377655 0.05426359176635742
-0.3333333134651184 0.40624529123306274 0.06976747512817383
-0.3333333134651184 0.40545302629470825 0.08527135848999023
-0.3333333134651184 0.40458789467811584 0.10077524185180664
-0.3333333134651184 0.4040009081363678 0.11627912521362305
-0.3333333134651184 0.40361806750297546 0.1317828893661499
-0.3333333134651184 0.4028301537036896 0.1472867727279663
-0.3333333134651184 0.4021473526954651 0.16279065608978271
-0.3333333134651184 0.40128257870674133 0.17829453945159912
-0.3333333134651184 0.4002571105957031 0.19379842281341553
-0.3333333134651184 0.39922890067100525 0.20930230617523193
-0.3333333134651184 0.3979093134403229 0.22480618953704834
-0.317829430103302 -0.41161689162254333 -0.22480618953704834
-0.317829430103302 -0.4121991991996765 -0.20930230617523193
-0.317829430103302 -0.4126242399215698 -0.19379842281341553
-0.317829430103302 -0.4129451513290405 -0.1782945990562439
-0.317829430103302 -0.4131755828857422 -0.1627907156944275
-0.317829430103302 -0.4133187532424927 -0.14728683233261108
-0.317829430103302 -0.4134787321090698 -0.13178294897079468
-0.317829430103302 -0.4135414659976959 -0.11627906560897827
-0.317829430103302 -0.41336506605148315 -0.10077518224716187
-0.317829430103302 -0.4129999279975891 -0.08527129888534546
-0.317829430103302 -0.41225987672805786 -0.06976741552352905
-0.317829430103302 -0.4031378924846649 -0.28682172298431396
-0.317829430103302 -0.40628013014793396 -0.27131783962249756
-0.3178294003009796 -0.4082854390144348 -0.25581395626068115
-0.317829430103302 -0.4107372462749481 -0.24031007289886475
-0.317829430103302 -0.4097808003425598 -0.05426359176635742
-0.317829430103302 -0.40291550755500793 -0.038759708404541016
-0.317829430103302 -0.3779003322124481 -0.02325582504272461
-0.317829430103302 -0.333406925201416 -0.30232560634613037
-0.317829430103302 -0.31809237599372864 -0.20930230617523193
-0.317829430103302 -0.325204998254776 -0.19379842281341553
-0.317829430103302 -0.32789599895477295 -0.1782945990562439
-0.317829430103302 -0.3255384862422943 -0.1627907156944275
-0.317829430103302 -0.313763827085495 -0.14728683233261108
-0.317829430103302 -0.2855275571346283 -0.22480618953704834
-0.317829430103302 -0.27479100227355957 -0.13178294897079468
-0.317829430103302 -0.26901406049728394 -0.007751941215246916
-0.317829430103302 -0.156769260764122 -0.13178294897079468
-0.317829430103302 -0.1230921745300293 -0.13178294897079468
-0.317829430103302 -0.06282051652669907 -0.24031007289886475
-0.317829430103302 -0.06965426355600357 0.007751941215246916
-0.317829430103302 -0.01690833829343319 -0.24031007289886475
-0.317829430103302 0.007378985174000263 0.007751941680908203
-0.317829430103302 0.032180413603782654 -0.24031007289886475
-0.317829430103302 0.03649548068642616 -0.11627906560897827
-0.317829430103302 0.061810482293367386 0.007751941680908203
-0.317829430103302 0.07684680074453354 0.02325582504272461
-0.317829430103302 0.08081863820552826 0.038759708404541016
-0.317829430103302 0.08305811136960983 0.05426359176635742
-0.317829430103302 0.0846901684999466 0.06976747512817383
-0.317829430103302 0.08917433768510818 0.08527135848999023
-0.317829430103302 0.09267785400152206 0.10077524185180664
-0.317829430103302 0.094882532954216 0.11627912521362305
-0.317829430103302 0.09632185101509094 0.1317828893661499
-0.317829430103302 0.09772095829248428 0.1472867727279663
-0.317829430103302 0.09814262390136719 0.16279065608978271
-0.317829430103302 0.09886488318443298 0.17829453945159912
-0.317829430103302 0.09977129101753235 0.19379842281341553
-0.317829430103302 0.1007729098200798 0.20930230617523193
-0.317829430103302 0.1103873997926712 -0.10077518224716187
-0.317829430103302 0.10487362742424011 0.22480618953704834
-0.317829430103302 0.10844303667545319 0.24031007289886475
-0.317829430103302 0.11139971017837524 0.25581395626068115
-0.317829430103302 0.11336451768875122 0.27131783962249756
-0.317829430103302 0.11493880301713943 0.28682172298431396
-0.317829430103302 0.1181076318025589 0.30232560634613037
-0.317829430103302 0.1249837875366211 0.3178294897079468
-0.317829430103302 0.12914741039276123 0.3333333730697632
-0.317829430103302 0.13244527578353882 0.3488372564315796
-0.317829430103302 0.14027924835681915 0.364341139793396
-0.317829430103302 0.1462916135787964 0.37984490394592285
-0.317829430103302 0.16094401478767395 -0.08527129888534546
-0.317829430103302 0.16051122546195984 0.39534878730773926
-0.317829430103302 0.2505528926849365 0.39534878730773926
-0.317829430103302 0.2761787474155426 -0.08527129888534546
-0.317829430103302 0.27674299478530884 0.37984490394592285
-0.317829430103302 0.29963138699531555 0.3488372564315796
-0.317829430103302 0.2917148172855377 0.364341139793396
-0.317829430103302 0.31350255012512207 -0.10077518224716187
-0.317829430103302 0.3158954381942749 0.30232560634613037
-0.317829430103302 0.3086603283882141 0.3178294897079468
-0.317829430103302 0.3049936592578888 0.3333333730697632
-0.317829430103302 0.3309507966041565 -0.24031007289886475
-0.317829430103302 0.3299556374549866 -0.11627906560897827
-0.317829430103302 0.3245288133621216 0.28682172298431396
-0.317829430103302 0.3442732095718384 -0.30232560634613037
-0.317829430103302 0.3456595242023468 -0.22480618953704834
-0.317829430103302 0.34283125400543213 -0.13178294897079468
-0.317829430103302 0.35149967670440674 -0.20930230617523193
-0.317829430103302 0.35413140058517456 -0.19379842281341553
-0.317829430103302 0.35479283332824707 -0.1782945990562439
-0.317829430103302 0.3548683822154999 -0.1627907156944275
-0.3178294003009796 0.3512383699417114 -0.14728683233261108
-0.317829430103302 0.3594790995121002 0.27131783962249756
-0.317829430103302 0.39323651790618896 0.24031007289886475
-0.317829430103302 0.38477057218551636 0.25581395626068115
-0.317829430103302 0.40576988458633423 -0.28682172298431396
-0.317829430103302 0.40750357508659363 -0.27131783962249756
-0.317829430103302 0.4067453444004059 -0.25581395626068115
-0.317829430103302 0.40697214007377625 -0.24031007289886475
-0.317829430103302 0.4078052043914795 -0.22480618953704834
-0.317829430103302 0.4081888794898987 -0.20930230617523193
-0.317829430103302 0.4085926115512848 -0.19379842281341553
-0.317829430103302 0.4088789224624634 -0.1782945990562439
-0.317829430103302 0.4089668393135071 -0.1627907156944275
-0.317829430103302 0.40907031297683716 -0.14728683233261108
-0.317829430103302 0.409359872341156 -0.13178294897079468
-0.317829430103302 0.40965384244918823 -0.11627906560897827
-0.317829430103302 0.4095909595489502 -0.10077518224716187
-0.317829430103302 0.40929898619651794 -0.08527129888534546
-0.317829430103302 0.4090496897697449 -0.06976741552352905
-0.317829430103302 0.4089162051677704 -0.05426359176635742
-0.317829430103302 0.40860509872436523 -0.038759708404541016
-0.317829430103302 0.4082859754562378 -0.02325582504272461
-0.317829430103302 0.4079686403274536 -0.007751941680908203
-0.317829430103302 0.4076951742172241 0.007751941680908203
-0.317829430103302 0.4075529873371124 0.02325582504272461
-0.317829430103302 0.40728527307510376 0.038759708404541016
-0.317829430103302 0.4066758453845978 0.05426359176635742
-0.317829430103302 0.4060731530189514 0.06976747512817383
-0.317829430103302 0.40529048442840576 0.08527135848999023
-0.317829430103302 0.4044029712677002 0.10077524185180664
-0.317829430103302 0.4037880301475525 0.11627912521362305
-0.317829430103302 0.40339362621307373 0.1317828893661499
-0.317829430103302 0.40261170268058777 0.1472867727279663
-0.317829430103302 0.40192773938179016 0.16279065608978271
-0.317829430103302 0.40105652809143066 0.17829453945159912
-0.317829430103302 0.39998969435691833 0.19379842281341553
-0.317829430103302 0.3989548981189728 0.20930229127407074
-0.317829430103302 0.39765405654907227 0.22480618953704834
-0.30232560634613037 -0.41155460476875305 -0.22480618953704834
-0.30232560634613037 -0.4121350944042206 -0.20930230617523193
-0.30232560634613037 -0.41255518794059753 -0.19379842281341553
-0.30232560634613037 -0.4128747284412384 -0.1782945990562439
-0.30232560634613037 -0.41310298442840576 -0.1627907156944275
-0.30232560634613037 -0.41325855255126953 -0.14728683233261108
-0.30232560634613037 -0.41343191266059875 -0.13178294897079468
-0.30232560634613037 -0.4135035276412964 -0.11627906560897827
-0.30232560634613037 -0.4133281409740448 -0.10077518224716187
-0.30232560634613037 -0.4129496216773987 -0.08527129888534546
-0.30232560634613037 -0.4121893346309662 -0.06976741552352905
-0.30232560634613037 -0.40318235754966736 -0.28682172298431396
-0.30232560634613037 -0.4061872959136963 -0.27131783962249756
-0.30232560634613037 -0.4081350564956665 -0.25581395626068115
-0.30232560634613037 -0.4105342924594879 -0.24031007289886475
-0.30232560634613037 -0.40970489382743835 -0.05426359176635742
-0.30232560634613037 -0.4029694199562073 -0.038759708404541016
-0.30232560634613037 -0.38008666038513184 -0.02325582504272461
-0.30232560634613037 -0.3370739221572876 -0.30232560634613037
-0.30232560634613037 -0.32300543785095215 -0.19379842281341553
-0.30232560634613037 -0.3258196711540222 -0.1782945990562439
-0.30232560634613037 -0.323156476020813 -0.1627907156944275
-0.30232560634613037 -0.31396228075027466 -0.20930230617523193
-0.30232560634613037 -0.30963999032974243 -0.14728683233261108
-0.30232560634613037 -0.27870112657546997 -0.22480618953704834
-0.30232560634613037 -0.2710683047771454 -0.13178294897079468
-0.30232560634613037 -0.2679041922092438 -0.007751941680908203
-0.30232560634613037 -0.1626688688993454 -0.13178294897079468
-0.30232560634613037 -0.11628266423940659 -0.13178294897079468
-0.30232560634613037 -0.11564910411834717 0.007751941680908203
-0.30232560634613037 -0.05058177188038826 -0.24031007289886475
-0.30232560634613037 -0.02909853123128414 -0.24031007289886475
-0.30232560634613037 0.015390271320939064 0.007751941680908203
-0.30232560634613037 0.03742010146379471 -0.11627906560897827
-0.30232560634613037 0.045867517590522766 -0.24031007289886475
-0.30232560634613037 0.058445192873477936 0.007751941680908203
-0.30232560634613037 0.07577106356620789 0.02325582504272461
-0.30232560634613037 0.08036485314369202 0.038759708404541016
-0.30232560634613037 0.08278250694274902 0.05426359176635742
-0.30232560634613037 0.08441852033138275 0.06976747512817383
-0.30232560634613037 0.0881737545132637 0.08527135848999023
-0.30232560634613037 0.09199602901935577 0.10077524185180664
-0.30232560634613037 0.09438158571720123 0.11627912521362305
-0.30232560634613037 0.09595495462417603 0.1317828893661499
-0.30232560634613037 0.09756174683570862 0.1472867727279663
-0.30232560634613037 0.09801910072565079 0.16279065608978271
-0.30232560634613037 0.09878051280975342 0.17829453945159912
-0.30232560634613037 0.0997467041015625 0.19379842281341553
-0.30232560634613037 0.10945606231689453 -0.10077518224716187
-0.30232560634613037 0.10085920244455338 0.20930230617523193
-0.30232560634613037 0.10504843294620514 0.22480618953704834
-0.30232560634613037 0.10859972983598709 0.24031007289886475
-0.30232560634613037 0.11148351430892944 0.25581395626068115
-0.30232560634613037 0.1134059950709343 0.27131783962249756
-0.30232560634613037 0.11497529596090317 0.28682172298431396
-0.30232560634613037 0.11834139376878738 0.30232560634613037
-0.30232560634613037 0.12518255412578583 0.3178294897079468
-0.30232560634613037 0.12932461500167847 0.3333333730697632
-0.30232560634613037 0.13313442468643188 0.3488372564315796
-0.30232560634613037 0.14067968726158142 0.364341139793396
-0.30232560634613037 0.14660006761550903 0.37984490394592285
-0.30232560634613037 0.1592339128255844 -0.08527129888534546
-0.30232560634613037 0.16093647480010986 0.39534878730773926
-0.30232560634613037 0.24980327486991882 0.39534878730773926
-0.30232560634613037 0.26610809564590454 -0.08527129888534546
-0.30232560634613037 0.27631253004074097 0.37984490394592285
-0.30232560634613037 0.2989303171634674 0.3488372564315796
-0.30232560634613037 0.29135966300964355 0.364341139793396
-0.30232560634613037 0.3120705187320709 -0.10077518224716187
-0.30232560634613037 0.3162652254104614 0.30232560634613037
-0.30232560634613037 0.30857381224632263 0.3178294897079468
-0.30232560634613037 0.30474790930747986 0.3333333730697632
-0.30232560634613037 0.3276745676994324 -0.24031007289886475
-0.30232560634613037 0.32925426959991455 -0.11627906560897827
-0.30232560634613037 0.324785053730011 0.28682172298431396
-0.30232560634613037 0.3443441092967987 -0.22480618953704834
-0.30232560634613037 0.34227225184440613 -0.13178294897079468
-0.30232560634613037 0.3506397008895874 -0.30232560634613037
-0.30232560634613037 0.3505672216415405 -0.20930230617523193
-0.30232560634613037 0.3534441590309143 -0.19379842281341553
-0.30232560634613037 0.3542669117450714 -0.1782945990562439
-0.30232560634613037 0.3543391823768616 -0.1627907156944275
-0.30232560634613037 0.3507203161716461 -0.14728683233261108
-0.30232560634613037 0.35887062549591064 0.27131783962249756
-0.30232560634613037 0.3928530216217041 0.24031007289886475
-0.30232560634613037 0.38462960720062256 0.25581395626068115
-0.30232560634613037 0.4056852459907532 -0.28682172298431396
-0.30232560634613037 0.40731996297836304 -0.27131783962249756
-0.30232560634613037 0.4065990149974823 -0.25581395626068115
-0.30232560634613037 0.40676870942115784 -0.24031007289886475
-0.30232560634613037 0.40758073329925537 -0.22480618953704834
-0.30232560634613037 0.40794551372528076 -0.20930230617523193
-0.30232560634613037 0.4083227515220642 -0.19379842281341553
-0.30232560634613037 0.4086093306541443 -0.1782945990562439
-0.30232560634613037 0.4086959660053253 -0.1627907156944275
-0.30232560634613037 0.4088205099105835 -0.14728683233261108
-0.30232560634613037 0.4091174304485321 -0.13178294897079468
-0.30232560634613037 0.40940478444099426 -0.11627906560897827
-0.30232560634613037 0.4093332886695862 -0.10077518224716187
-0.30232560634613037 0.4090467691421509 -0.08527129888534546
-0.30232560634613037 0.4088177978992462 -0.06976741552352905
-0.30232560634613037 0.40867912769317627 -0.05426359176635742
-0.30232560634613037 0.40836822986602783 -0.038759708404541016
-0.30232560634613037 0.40802857279777527 -0.02325582504272461
-0.30232560634613037 0.4077191650867462 -0.007751941680908203
-0.30232560634613037 0.4074569344520569 0.007751941680908203
-0.30232560634613037 0.40734028816223145 0.02325582504272461
-0.30232560634613037 0.4071018397808075 0.038759708404541016
-0.30232560634613037 0.4065074324607849 0.05426359176635742
-0.30232560634613037 0.4059382677078247 0.06976747512817383
-0.30232560634613037 0.40515413880348206 0.08527135848999023
-0.30232560634613037 0.4042418599128723 0.10077524185180664
-0.30232560634613037 0.403603732585907 0.11627912521362305
-0.30232560634613037 0.4032142162322998 0.1317828893661499
-0.30232560634613037 0.40242457389831543 0.1472867727279663
-0.30232560634613037 0.40173912048339844 0.16279065608978271
-0.30232560634613037 0.4008807837963104 0.17829453945159912
-0.30232560634613037 0.3998112380504608 0.19379842281341553
-0.30232560634613037 0.39879170060157776 0.20930230617523193
-0.30232560634613037 0.3974996507167816 0.22480618953704834
-0.28682172298431396 -0.4115002751350403 -0.22480618953704834
-0.28682172298431396 -0.41207289695739746 -0.20930230617523193
-0.28682172298431396 -0.4124831557273865 -0.19379842281341553
-0.28682172298431396 -0.41279101371765137 -0.1782945990562439
-0.28682172298431396 -0.41301435232162476 -0.1627907156944275
-0.28682172298431396 -0.41316795349121094 -0.14728683233261108
-0.28682172298431396 -0.41334760189056396 -0.13178294897079468
-0.28682172298431396 -0.4134257435798645 -0.11627906560897827
-0.28682172298431396 -0.41325250267982483 -0.10077518224716187
-0.28682172298431396 -0.41286665201187134 -0.08527129888534546
-0.28682172298431396 -0.41208237409591675 -0.06976741552352905
-0.28682172298431396 -0.40317824482917786 -0.28682172298431396
-0.28682172298431396 -0.40606021881103516 -0.27131783962249756
-0.28682172298431396 -0.4079890251159668 -0.25581395626068115
-0.28682172298431396 -0.4103619158267975 -0.24031007289886475
-0.28682172298431396 -0.4094987213611603 -0.05426359176635742
-0.28682172298431396 -0.40284401178359985 -0.038759708404541016
-0.28682172298431396 -0.38005879521369934 -0.02325582504272461
-0.28682172298431396 -0.3410625755786896 -0.30232560634613037
-0.28682172298431396 -0.32423239946365356 -0.19379842281341553
-0.28682172298431396 -0.3270331621170044 -0.1782945990562439
-0.28682172298431396 -0.3244350254535675 -0.1627907156944275
-0.28682172298431396 -0.3159645199775696 -0.20930230617523193
-0.28682172298431396 -0.3114607632160187 -0.14728683233261108
-0.28682172298431396 -0.2822367250919342 -0.22480617463588715
-0.28682172298431396 -0.27468782663345337 -0.13178294897079468
-0.28682172298431396 -0.26476922631263733 -0.007751941680908203
-0.28682172298431396 -0.15883558988571167 -0.13178294897079468
-0.28682172298431396 -0.13619621098041534 0.007751941680908203
-0.28682172298431396 -0.11887234449386597 -0.13178294897079468
-0.28682172298431396 -0.05463823303580284 -0.24031007289886475
-0.28682172298431396 -0.049030762165784836 -0.11627905815839767
-0.2868216931819916 -0.02298611029982567 -0.24031007289886475
-0.2868216931819916 -0.022349519655108452 -0.11627906560897827
-0.28682172298431396 0.02185939997434616 0.007751941680908203
-0.28682172298431396 0.029756315052509308 -0.11627906560897827
-0.28682172298431396 0.040552109479904175 -0.24031007289886475
-0.28682172298431396 0.05590800940990448 0.00775194214656949
-0.28682172298431396 0.07513000071048737 0.02325582504272461
-0.28682172298431396 0.08009424805641174 0.038759708404541016
-0.28682172298431396 0.08263160288333893 0.05426359176635742
-0.28682172298431396 0.08428244292736053 0.06976747512817383
-0.28682172298431396 0.087591253221035 0.08527135848999023
-0.28682172298431396 0.09158910810947418 0.10077524185180664
-0.28682172298431396 0.09407567232847214 0.11627912521362305
-0.28682172298431396 0.09571869671344757 0.1317828893661499
-0.28682172298431396 0.09751768410205841 0.1472867727279663
-0.28682172298431396 0.0979800596833229 0.16279065608978271
-0.28682172298431396 0.09875521063804626 0.17829453945159912
-0.28682172298431396 0.0997655913233757 0.19379842281341553
-0.28682172298431396 0.1043829396367073 -0.10077518224716187
-0.28682172298431396 0.10113214701414108 0.20930230617523193
-0.28682172298431396 0.10534320771694183 0.22480618953704834
-0.28682172298431396 0.10884524881839752 0.24031007289886475
-0.28682172298431396 0.11165408790111542 0.25581395626068115
-0.28682172298431396 0.1135239377617836 0.27131783962249756
-0.28682172298431396 0.11506754159927368 0.28682172298431396
-0.28682172298431396 0.11881544440984726 0.30232560634613037
-0.28682172298431396 0.12558934092521667 0.3178294897079468
-0.28682172298431396 0.1296975016593933 0.3333333730697632
-0.28682172298431396 0.13448311388492584 0.3488372564315796
-0.28682172298431396 0.14140978455543518 0.364341139793396
-0.28682172298431396 0.14697498083114624 0.37984490394592285
-0.28682172298431396 0.1558380126953125 -0.08527129888534546
-0.28682172298431396 0.16134604811668396 0.39534878730773926
-0.28682172298431396 0.24914267659187317 0.39534878730773926
-0.28682172298431396 0.27050089836120605 -0.08527129888534546
-0.28682172298431396 0.27594900131225586 0.37984490394592285
-0.28682172298431396 0.2982833683490753 0.3488372564315796
-0.28682172298431396 0.291020929813385 0.364341139793396
-0.28682172298431396 0.3123006522655487 -0.10077518224716187
-0.28682172298431396 0.3167366683483124 0.30232560634613037
-0.28682172298431396 0.3085242807865143 0.3178294897079468
-0.28682172298431396 0.30452555418014526 0.3333333730697632
-0.28682172298431396 0.3281102180480957 -0.24031007289886475
-0.28682172298431396 0.32935506105422974 -0.11627906560897827
-0.28682172298431396 0.32492882013320923 0.28682172298431396
-0.28682172298431396 0.3444809913635254 -0.22480618953704834
-0.28682172298431396 0.34228938817977905 -0.13178294897079468
-0.28682172298431396 0.35514140129089355 -0.30232560634613037
-0.28682172298431396 0.3507780134677887 -0.20930230617523193
-0.28682172298431396 0.3536769449710846 -0.19379842281341553
-0.28682172298431396 0.35447895526885986 -0.1782945990562439
-0.28682172298431396 0.354553759098053 -0.1627907156944275
-0.28682172298431396 0.3508313298225403 -0.14728683233261108
-0.28682172298431396 0.35891830921173096 0.27131783962249756
-0.28682172298431396 0.39246082305908203 0.24031007289886475
-0.28682172298431396 0.3844988942146301 0.25581395626068115
-0.28682172298431396 0.405557781457901 -0.28682172298431396
-0.28682172298431396 0.4070800542831421 -0.27131783962249756
-0.28682172298431396 0.4063998758792877 -0.25581395626068115
-0.28682172298431396 0.4065329134464264 -0.24031007289886475
-0.28682172298431396 0.407331645488739 -0.22480618953704834
-0.28682172298431396 0.4076744616031647 -0.20930230617523193
-0.28682172298431396 0.4080193340778351 -0.19379842281341553
-0.28682172298431396 0.4082820415496826 -0.1782945990562439
-0.28682172298431396 0.4083624482154846 -0.1627907156944275
-0.28682172298431396 0.4084915220737457 -0.14728683233261108
-0.28682172298431396 0.40878862142562866 -0.13178294897079468
-0.28682172298431396 0.40905672311782837 -0.11627906560897827
-0.28682172298431396 0.40896180272102356 -0.10077518224716187
-0.28682172298431396 0.4086894392967224 -0.08527129888534546
-0.28682172298431396 0.4084996283054352 -0.06976741552352905
-0.28682172298431396 0.4083767235279083 -0.05426359176635742
-0.28682172298431396 0.40805917978286743 -0.038759708404541016
-0.28682172298431396 0.40769070386886597 -0.02325582504272461
-0.28682172298431396 0.40736082196235657 -0.007751941680908203
-0.28682172298431396 0.4070948362350464 0.007751941680908203
-0.28682172298431396 0.40699511766433716 0.02325582504272461
-0.28682172298431396 0.40678632259368896 0.038759708404541016
-0.28682172298431396 0.4062369763851166 0.05426359176635742
-0.28682172298431396 0.40569615364074707 0.06976747512817383
-0.28682172298431396 0.40492936968803406 0.08527135848999023
-0.28682172298431396 0.40401992201805115 0.10077524185180664
-0.28682172298431396 0.4033939242362976 0.11627912521362305
-0.28682172298431396 0.40303388237953186 0.1317828893661499
-0.28682172298431396 0.4022263288497925 0.1472867727279663
-0.28682172298431396 0.401535302400589 0.16279065608978271
-0.28682172298431396 0.40067532658576965 0.17829453945159912
-0.28682172298431396 0.39960548281669617 0.19379842281341553
-0.28682172298431396 0.39860081672668457 0.20930230617523193
-0.28682172298431396 0.39731645584106445 0.22480620443820953
-0.27131783962249756 -0.41150587797164917 -0.22480618953704834
-0.27131783962249756 -0.4120711088180542 -0.20930230617523193
-0.27131783962249756 -0.4124692678451538 -0.19379842281341553
-0.27131783962249756 -0.41276228427886963 -0.1782945990562439
-0.27131783962249756 -0.4129805862903595 -0.1627907156944275
-0.27131783962249756 -0.41313299536705017 -0.14728683233261108
-0.27131783962249756 -0.413318932056427 -0.13178294897079468
-0.27131783962249756 -0.41340577602386475 -0.11627906560897827
-0.27131783962249756 -0.4132317900657654 -0.10077518224716187
-0.27131783962249756 -0.41282573342323303 -0.08527129888534546
-0.27131783962249756 -0.41199907660484314 -0.06976741552352905
-0.27131783962249756 -0.4031177759170532 -0.28682172298431396
-0.27131783962249756 -0.4059883952140808 -0.27131783962249756
-0.27131783962249756 -0.4079211950302124 -0.25581395626068115
-0.27131783962249756 -0.41034820675849915 -0.24031008780002594
-0.27131783962249756 -0.4091508388519287 -0.05426359176635742
-0.27131783962249756 -0.40242424607276917 -0.038759708404541016
-0.27131783962249756 -0.37594953179359436 -0.02325582504272461
-0.27131783962249756 -0.3423062562942505 -0.30232560634613037
-0.27131783962249756 -0.3185533285140991 -0.20930230617523193
-0.27131783962249756 -0.3259430229663849 -0.19379842281341553
-0.27131783962249756 -0.328612744808197 -0.1782945990562439
-0.27131783962249756 -0.32599586248397827 -0.1627907156944275
-0.27131783962249756 -0.3132553994655609 -0.14728683233261108
-0.27131783962249756 -0.2857281267642975 -0.22480620443820953
-0.27131783962249756 -0.2768076956272125 -0.13178294897079468
-0.27131783962249756 -0.25957366824150085 -0.007751941680908203
-0.27131783962249756 -0.15442726016044617 -0.13178294897079468
-0.27131783962249756 -0.12331116199493408 -0.13178294897079468
-0.27131783962249756 -0.12549272179603577 0.007751941680908203
-0.27131783962249756 -0.05795940011739731 -0.24031007289886475
-0.27131783962249756 -0.05696040019392967 -0.11627906560897827
-0.27131783962249756 -0.01823531463742256 -0.24031005799770355
-0.27131783962249756 -0.008220303803682327 -0.11627906560897827
-0.27131783962249756 0.01896030642092228 -0.11627906560897827
-0.27131783962249756 0.02261841855943203 0.007751941680908203
-0.27131783962249756 0.03555145487189293 -0.24031007289886475
-0.27131783962249756 0.05569266155362129 0.007751941680908203
-0.27131783962249756 0.07505723834037781 0.02325582504272461
-0.27131783962249756 0.0800805315375328 0.038759708404541016
-0.27131783962249756 0.0826592817902565 0.05426359176635742
-0.27131783962249756 0.08432140946388245 0.06976747512817383
-0.27131783962249756 0.0876961499452591 0.08527135848999023
-0.27131783962249756 0.0916319340467453 0.10077524185180664
-0.27131783962249756 0.0941070169210434 0.11627912521362305
-0.27131783962249756 0.09575733542442322 0.1317828893661499
-0.27131783962249756 0.09766726940870285 0.1472867727279663
-0.27131783962249756 0.09809327870607376 0.16279065608978271
-0.27131783962249756 0.09885759651660919 0.17829453945159912
-0.27131783962249756 0.09990041702985764 0.19379842281341553
-0.27131783962249756 0.10227852314710617 -0.10077518224716187
-0.27131783962249756 0.10185349732637405 0.20930230617523193
-0.27131783962249756 0.1059703379869461 0.22480618953704834
-0.27131783962249756 0.10939042270183563 0.24031007289886475
-0.27131783962249756 0.11207036674022675 0.25581395626068115
-0.27131783962249756 0.11388081312179565 0.27131783962249756
-0.27131783962249756 0.11537452787160873 0.28682172298431396
-0.27131783962249756 0.12004781514406204 0.30232560634613037
-0.27131783962249756 0.1263800859451294 0.3178294897079468
-0.27131783962249756 0.13031181693077087 0.3333333730697632
-0.27131783962249756 0.13658690452575684 0.3488372564315796
-0.27131783962249756 0.14243009686470032 0.364341139793396
-0.27131783962249756 0.15577030181884766 -0.08527129888534546
-0.27131783962249756 0.14786560833454132 0.37984490394592285
-0.27131783962249756 0.16189195215702057 0.39534878730773926
-0.27131783962249756 0.24838343262672424 0.39534878730773926
-0.27131783962249756 0.2620919942855835 -0.08527129888534546
-0.27131783962249756 0.27560681104660034 0.37984490394592285
-0.27131783962249756 0.2977633476257324 0.3488372564315796
-0.27131783962249756 0.29080307483673096 0.364341139793396
-0.27131783962249756 0.3108808398246765 -0.10077518224716187
-0.27131783962249756 0.3158474266529083 0.30232560634613037
-0.27131783962249756 0.30807217955589294 0.3178294897079468
-0.27131783962249756 0.30420517921447754 0.3333333730697632
-0.27131783962249756 0.327895849943161 -0.24031007289886475
-0.27131783962249756 0.32793864607810974 -0.11627906560897827
-0.27131783962249756 0.3244338631629944 0.28682172298431396
-0.27131783962249756 0.34473204612731934 -0.22480618953704834
-0.27131783962249756 0.34140923619270325 -0.13178294897079468
-0.27131783962249756 0.35480552911758423 -0.30232560634613037
-0.27131783962249756 0.35117244720458984 -0.20930230617523193
-0.27131783962249756 0.35394346714019775 -0.19379842281341553
-0.27131783962249756 0.3545528054237366 -0.1782945990562439
-0.27131783962249756 0.3544809818267822 -0.1627907156944275
-0.27131783962249756 0.3505233824253082 -0.14728683233261108
-0.27131783962249756 0.35803893208503723 0.27131783962249756
-0.27131783962249756 0.39227184653282166 0.24031007289886475
-0.27131783962249756 0.384311705827713 0.25581395626068115
-0.27131783962249756 0.405397891998291 -0.28682172298431396
-0.27131783962249756 0.406817227602005 -0.27131783962249756
-0.27131783962249756 0.4061468541622162 -0.25581395626068115
-0.27131783962249756 0.4063224494457245 -0.24031007289886475
-0.27131783962249756 0.4071146845817566 -0.22480618953704834
-0.27131783962249756 0.4074335992336273 -0.20930230617523193
-0.27131783962249756 0.4077528119087219 -0.19379842281341553
-0.27131783962249756 0.40799179673194885 -0.1782945990562439
-0.27131783962249756 0.4080660045146942 -0.1627907156944275
-0.27131783962249756 0.40819281339645386 -0.14728683233261108
-0.27131783962249756 0.4084984362125397 -0.13178294897079468
-0.27131783962249756 0.40877923369407654 -0.11627906560897827
-0.27131783962249756 0.40869271755218506 -0.10077518224716187
-0.27131783962249756 0.4084399938583374 -0.08527129888534546
-0.27131783962249756 0.4082683026790619 -0.06976741552352905
-0.27131783962249756 0.4081454575061798 -0.05426359176635742
-0.27131783962249756 0.4078275263309479 -0.038759708404541016
-0.27131783962249756 0.4074379503726959 -0.02325582504272461
-0.27131783962249756 0.4070875644683838 -0.007751941680908203
-0.27131783962249756 0.40682005882263184 0.007751941680908203
-0.27131783962249756 0.40674352645874023 0.02325582504272461
-0.27131783962249756 0.40656742453575134 0.038759708404541016
-0.27131783962249756 0.4060609042644501 0.05426359176635742
-0.27131783962249756 0.40555712580680847 0.06976747512817383
-0.27131783962249756 0.4048137068748474 0.08527135848999023
-0.27131783962249756 0.4039095640182495 0.10077524185180664
-0.27131783962249756 0.4032963514328003 0.11627912521362305
-0.27131783962249756 0.4029644727706909 0.1317828893661499
-0.27131783962249756 0.402142196893692 0.1472867727279663
-0.27131783962249756 0.401449978351593 0.16279065608978271
-0.27131783962249756 0.400587797164917 0.17829453945159912
-0.27131783962249756 0.3995078206062317 0.19379842281341553
-0.27131783962249756 0.39851129055023193 0.20930230617523193
-0.27131783962249756 0.39724206924438477 0.22480618953704834
-0.25581395626068115 -0.41146600246429443 -0.22480618953704834
-0.25581395626068115 -0.4120209515094757 -0.20930230617523193
-0.25581395626068115 -0.4124056398868561 -0.19379842281341553
-0.25581395626068115 -0.4126841425895691 -0.1782945990562439
-0.25581395626068115 -0.4128909707069397 -0.1627907156944275
-0.25581395626068115 -0.4130406081676483 -0.14728683233261108
-0.25581395626068115 -0.4132234454154968 -0.13178294897079468
-0.25581395626068115 -0.41330885887145996 -0.11627906560897827
-0.25581395626068115 -0.41314032673835754 -0.10077518224716187
