0.06976747512817383 -0.30232560634613037 0.02145860530436039
0.06976747512817383 -0.30232560634613037 0.030807673931121826
0.06976747512817383 -0.28682172298431396 0.021328194066882133
0.06976747512817383 -0.28682172298431396 0.03052678145468235
0.06976747512817383 -0.27131783962249756 0.02103499136865139
0.06976747512817383 -0.27131783962249756 0.029382294043898582
0.06976747512817383 -0.25581395626068115 0.02015906758606434
0.06976747512817383 -0.25581395626068115 0.02792540192604065
0.06976747512817383 -0.24031007289886475 0.01827181503176689
0.06976747512817383 -0.24031007289886475 0.0267653651535511
0.06976747512817383 -0.22480618953704834 0.014688882976770401
0.06976747512817383 -0.22480618953704834 0.025942042469978333
0.06976747512817383 -0.20930230617523193 0.00765386875718832
0.06976747512817383 -0.20930230617523193 0.02560935541987419
0.06976747512817383 -0.19379842281341553 0.007034508511424065
0.06976747512817383 -0.19379842281341553 0.025231104344129562
0.06976747512817383 -0.1782945990562439 0.006087993271648884
0.06976747512817383 -0.1782945990562439 0.024699987843632698
0.06976747512817383 -0.1627907156944275 0.005712378770112991
0.06976747512817383 -0.1627907156944275 0.024317489936947823
0.06976747512817383 -0.14728683233261108 0.005646267905831337
0.06976747512817383 -0.14728683233261108 0.02402929589152336
0.06976747512817383 -0.13178294897079468 0.005369480699300766
0.06976747512817383 -0.13178294897079468 0.02361697144806385
0.06976747512817383 -0.11627906560897827 0.005070347338914871
0.06976747512817383 -0.11627906560897827 0.022058919072151184
0.06976747512817383 -0.10077518224716187 0.004912239499390125
0.06976747512817383 -0.10077518224716187 0.019351379945874214
0.06976747512817383 -0.08527129888534546 0.004694856703281403
0.06976747512817383 -0.08527129888534546 0.017674101516604424
0.06976747512817383 -0.06976741552352905 0.004431154578924179
0.06976747512817383 -0.06976741552352905 0.015916328877210617
0.06976747512817383 -0.05426359176635742 0.0042524319142103195
0.06976747512817383 -0.05426359176635742 0.014001164585351944
0.06976747512817383 -0.038759708404541016 0.00400262326002121
0.06976747512817383 -0.038759708404541016 0.012642370536923409
0.06976747512817383 -0.02325582504272461 0.0035630064085125923
0.06976747512817383 -0.02325582504272461 0.011717744171619415
0.06976747512817383 -0.007751941680908203 0.003003244986757636
0.06976747512817383 -0.007751941680908203 0.010712968185544014
0.06976747512817383 0.007751941680908203 0.0018696747720241547
0.06976747512817383 0.00775194214656949 0.010079958476126194
0.06976747512817383 0.02325582504272461 0.000519411638379097
0.06976747512817383 0.02325582504272461 0.009890757501125336
0.06976747512817383 0.038759708404541016 -0.00017848238348960876
0.06976747512817383 0.038759708404541016 0.009747789241373539
0.06976747512817383 0.05426359176635742 -0.0010607303120195866
0.06976747512817383 0.05426359176635742 0.00948873907327652
0.06976747512817383 0.06976747512817383 -0.003211821196600795
0.06976747512817383 0.06976747512817383 0.0091350506991148
0.06976747512817383 0.08527136594057083 -0.007129764650017023
0.06976747512817383 0.08527135848999023 0.008898519910871983
0.06976747512817383 0.10077524185180664 -0.008117682300508022
0.06976747512817383 0.10077524185180664 0.008789687417447567
0.06976747512817383 0.11627912521362305 -0.008476990275084972
0.06976747512817383 0.11627912521362305 0.008832729421555996
0.06976747512817383 0.1317828893661499 -0.00902179628610611
0.06976747512817383 0.1317828893661499 0.00907010305672884
0.06976747512817383 0.1472867727279663 -0.00987190566956997
0.06976747512817383 0.14728675782680511 0.009381771087646484
0.06976747512817383 0.16279065608978271 -0.010966688394546509
0.06976747512817383 0.16279065608978271 0.009475902654230595
0.06976747512817383 0.17829453945159912 -0.011408770456910133
0.06976747512817383 0.17829453945159912 0.009224219247698784
0.06976747512817383 0.19379842281341553 -0.011615198105573654
0.06976747512817383 0.19379843771457672 0.008957495912909508
0.06976747512817383 0.20930230617523193 -0.012248094193637371
0.06976747512817383 0.20930230617523193 0.008720370009541512
0.06976747512817383 0.22480618953704834 -0.012504709884524345
0.06976747512817383 0.22480618953704834 0.008338852785527706
0.06976747512817383 0.24031007289886475 -0.011792068369686604
0.06976747512817383 0.24031007289886475 0.006173720583319664
0.06976747512817383 0.25581395626068115 -0.01125505194067955
0.06976747512817383 0.25581395626068115 0.0009957824368029833
0.06976747512817383 0.27131783962249756 -0.01135021261870861
0.06976747512817383 0.27131783962249756 -0.0015668044798076153
0.06976747512817383 0.28682172298431396 -0.011970214545726776
0.06976747512817383 0.28682172298431396 -0.002798312110826373
0.06976747512817383 0.30232560634613037 -0.013636382296681404
0.06976747512817383 0.30232560634613037 -0.003968711942434311
0.06976747512817383 0.3178294897079468 -0.015013106167316437
0.06976747512817383 0.3178294897079468 -0.005360401701182127
0.06976747512817383 0.3333333730697632 -0.017020000144839287
0.06976747512817383 0.3333333730697632 -0.005885308142751455
0.06976747512817383 0.3488372564315796 -0.019537465646862984
0.06976747512817383 0.3488372564315796 -0.006115631200373173
0.06976747512817383 0.364341139793396 -0.023595117032527924
0.06976747512817383 0.364341139793396 -0.006259364075958729
0.06976747512817383 0.37984490394592285 -0.02461111545562744
0.06976747512817383 0.37984490394592285 -0.007241895422339439
0.06976747512817383 0.39534878730773926 -0.02550884708762169
0.06976747512817383 0.39534878730773926 -0.01390499621629715
0.06976747512817383 0.41085267066955566 -0.0256938673555851
0.06976747512817383 0.41085267066955566 -0.01760944165289402
0.06976747512817383 0.42635655403137207 -0.025466134771704674
0.06976747512817383 0.42635655403137207 -0.0197457205504179
0.06976747512817383 0.4418604373931885 -0.02546720579266548
0.06976747512817383 0.4418604075908661 -0.020689992234110832
0.06976747512817383 0.4573643207550049 -0.025596942752599716
0.06976747512817383 0.4573643207550049 -0.021126581355929375
0.06976747512817383 0.4728682041168213 -0.02567661926150322
0.06976747512817383 0.4728682041168213 -0.021204126998782158
0.06976747512817383 0.4883720874786377 -0.025903187692165375
0.06976747512817383 0.4883720874786377 -0.02097996696829796
0.06976747512817383 0.5038759708404541 -0.026074469089508057
0.06976747512817383 0.5038759708404541 -0.020647743716835976
0.06976747512817383 0.5193798542022705 -0.026301804929971695
0.06976747512817383 0.5193798542022705 -0.02036420814692974
0.06976747512817383 0.5348837375640869 -0.026304060593247414
0.06976747512817383 0.5348837375640869 -0.020540427416563034
0.06976747512817383 0.5503876209259033 -0.025299035012722015
0.06976747512817383 0.5503876209259033 -0.021241651847958565
0.06976747512817383 0.5658915042877197 -0.025333726778626442
0.06976747512817383 0.5658915042877197 -0.021720675751566887
0.06976747512817383 0.5813953876495361 -0.026954438537359238
0.06976747512817383 0.5813953876495361 -0.021435527130961418
0.06976747512817383 0.5968992710113525 -0.02685835398733616
0.06976747512817383 0.5968992710113525 -0.021563323214650154
0.06976747512817383 0.612403154373169 -0.026183748617768288
0.06976747512817383 0.612403154373169 -0.021781986579298973
0.06976747512817383 0.6279069185256958 -0.02583526074886322
0.06976748257875443 0.6279069185256958 -0.02189050428569317
0.06976747512817383 0.6434108018875122 -0.025218497961759567
0.06976747512817383 0.6434108018875122 -0.022114718332886696
0.06976747512817383 0.7209302186965942 -0.024646814912557602
0.06976747512817383 0.7209302186965942 -0.02217267081141472
0.06976747512817383 0.7364341020584106 -0.025464680045843124
0.06976747512817383 0.7364341020584106 -0.02189708687365055
0.06976747512817383 0.751937985420227 -0.025840388610959053
0.06976747512817383 0.7519380450248718 -0.022126460447907448
0.06976747512817383 0.7674418687820435 -0.023654520511627197
0.06976747512817383 0.7674418687820435 -0.023158343508839607
0.08527135848999023 -0.7984496355056763 0.0351397842168808
0.08527135848999023 -0.7984496355056763 0.04505878686904907
0.08527135848999023 -0.7829457521438599 0.03310336172580719
0.08527135848999023 -0.7829457521438599 0.05158718302845955
0.08527135848999023 -0.7674418687820435 0.03368975967168808
0.08527135848999023 -0.7674418687820435 0.055729907006025314
0.08527135848999023 -0.751937985420227 0.03450367599725723
0.08527135848999023 -0.751937985420227 0.05676393210887909
0.08527135848999023 -0.7364341020584106 0.03582984209060669
0.08527135848999023 -0.7364341020584106 0.057166192680597305
0.08527135848999023 -0.7209302186965942 0.03646961227059364
0.08527135848999023 -0.7209302186965942 0.05756290256977081
0.08527135848999023 -0.7054263353347778 0.03655821830034256
0.08527135848999023 -0.7054263353347778 0.05810242146253586
0.08527135848999023 -0.6899224519729614 0.03645194694399834
0.08527135848999023 -0.6899224519729614 0.05855979025363922
0.08527135848999023 -0.674418568611145 0.0363960787653923
0.08527135848999023 -0.674418568611145 0.058672405779361725
0.08527135848999023 -0.6589146852493286 0.03636651113629341
0.08527135848999023 -0.6589146852493286 0.05895844101905823
0.08527135848999023 -0.643410861492157 0.03624240309000015
0.08527135848999023 -0.643410861492157 0.059268731623888016
0.08527135848999023 -0.6279069781303406 0.03604089841246605
0.08527135848999023 -0.6279069781303406 0.05917411297559738
0.08527135848999023 -0.6124030947685242 0.03554350882768631
0.08527135848999023 -0.6124030947685242 0.05880795791745186
0.08527135848999023 -0.5968992114067078 0.03444322198629379
0.08527135848999023 -0.5968992114067078 0.05785659700632095
0.08527135848999023 -0.5813953876495361 0.03290373831987381
0.08527135848999023 -0.5813953876495361 0.05661066249012947
0.08527135848999023 -0.5658915042877197 0.03172844275832176
0.08527136594057083 -0.5658915042877197 0.055578213185071945
0.08527135848999023 -0.5503876209259033 0.032719165086746216
0.08527135848999023 -0.5503875613212585 0.05489610508084297
0.08527135848999023 -0.5348837375640869 0.034373726695775986
0.08527135848999023 -0.5348837375640869 0.05435899272561073
0.08527135848999023 -0.5193798542022705 0.03553842008113861
0.08527135848999023 -0.5193798542022705 0.05239998176693916
0.08527135848999023 -0.5038759708404541 0.03607844188809395
0.08527135848999023 -0.5038759708404541 0.05073617398738861
0.08527135848999023 -0.4883720874786377 0.0362468920648098
0.08527135848999023 -0.4883720874786377 0.04875069856643677
0.08527135848999023 -0.4728682041168213 0.03606007620692253
0.08527135848999023 -0.4728682041168213 0.04711877182126045
0.08527135848999023 -0.4573643207550049 0.035693079233169556
0.08527135848999023 -0.4573643207550049 0.04593966156244278
0.08527135848999023 -0.4418604373931885 0.03571748360991478
0.08527135848999023 -0.44186046719551086 0.04475317895412445
0.08527135848999023 -0.42635661363601685 0.035599153488874435
0.08527135848999023 -0.42635661363601685 0.04307429492473602
0.08527135848999023 -0.41085273027420044 0.034078020602464676
0.08527135103940964 -0.41085273027420044 0.04157963767647743
0.08527135848999023 -0.39534884691238403 0.028231952339410782
0.08527135848999023 -0.39534884691238403 0.040549103170633316
0.08527135848999023 -0.3798449635505676 0.02204582840204239
0.08527135848999023 -0.3798449635505676 0.039556678384542465
0.08527135848999023 -0.3643410801887512 0.021375037729740143
0.08527135848999023 -0.3643410801887512 0.034888606518507004
0.08527135848999023 -0.3488371968269348 0.02140362188220024
0.08527135848999023 -0.3488371968269348 0.030742304399609566
0.08527135848999023 -0.3333333134651184 0.021449023857712746
0.08527135848999023 -0.3333333134651184 0.029696013778448105
0.08527135848999023 -0.317829430103302 0.02146114595234394
0.08527135848999023 -0.317829430103302 0.029939038679003716
0.08527135848999023 -0.30232560634613037 0.02142212726175785
0.08527135848999023 -0.30232560634613037 0.03021368943154812
0.08527135848999023 -0.28682172298431396 0.021214023232460022
0.08527135848999023 -0.28682172298431396 0.030091281980276108
0.08527135848999023 -0.27131783962249756 0.02077261172235012
0.08527135848999023 -0.27131783962249756 0.029041694477200508
0.08527135848999023 -0.25581395626068115 0.01958722621202469
0.08527135848999023 -0.25581395626068115 0.02767443284392357
0.08527135848999023 -0.24031007289886475 0.016990624368190765
0.08527135848999023 -0.24031007289886475 0.02663590759038925
0.08527135848999023 -0.22480618953704834 0.012331128120422363
0.08527135848999023 -0.22480618953704834 0.02589065581560135
0.08527135848999023 -0.20930230617523193 0.007404104806482792
0.08527135848999023 -0.20930230617523193 0.025493109598755836
0.08527135848999023 -0.19379842281341553 0.0065618520602583885
0.08527135848999023 -0.19379840791225433 0.02509230189025402
0.08527135848999023 -0.1782945990562439 0.005690411664545536
0.08527135848999023 -0.1782945990562439 0.024579422548413277
0.08527135848999023 -0.1627907156944275 0.005419806577265263
0.08527136594057083 -0.1627907156944275 0.024191906675696373
0.08527135848999023 -0.14728683233261108 0.005377756431698799
0.08527136594057083 -0.14728683233261108 0.02393164671957493
0.08527135848999023 -0.13178294897079468 0.005163482390344143
0.08527135848999023 -0.13178293406963348 0.023478001356124878
0.08527135848999023 -0.11627906560897827 0.005003118887543678
0.08527135848999023 -0.11627906560897827 0.021076207980513573
0.08527135848999023 -0.10077518224716187 0.004806859418749809
0.08527135848999023 -0.10077518224716187 0.018390970304608345
0.08527135848999023 -0.08527129888534546 0.004373922012746334
0.08527135848999023 -0.08527129888534546 0.016859514638781548
0.08527135848999023 -0.06976741552352905 0.003831273876130581
0.08527135848999023 -0.06976741552352905 0.015745848417282104
0.08527135848999023 -0.05426359176635742 0.003460533684119582
0.08527135848999023 -0.05426359176635742 0.014318795874714851
0.08527135848999023 -0.038759708404541016 0.00318740657530725
0.08527135848999023 -0.038759708404541016 0.01295718364417553
0.08527135848999023 -0.02325582504272461 0.0031580664217472076
0.08527135848999023 -0.02325582504272461 0.011770576238632202
0.08527135848999023 -0.007751941680908203 0.002851322293281555
0.08527135848999023 -0.007751941680908203 0.010652001947164536
0.08527135848999023 0.007751941680908203 0.001405063085258007
0.08527135848999023 0.007751941680908203 0.009997312910854816
0.08527135848999023 0.02325582504272461 -0.00012689991854131222
0.08527135848999023 0.02325582504272461 0.009818807244300842
0.08527135848999023 0.038759708404541016 -0.000769786536693573
0.08527135848999023 0.038759708404541016 0.009666036814451218
0.08527135848999023 0.05426359176635742 -0.0022686002776026726
0.08527135848999023 0.05426359176635742 0.009413252584636211
0.08527135848999023 0.06976747512817383 -0.0064389025792479515
0.08527135848999023 0.06976746767759323 0.009099391289055347
0.08527135848999023 0.08527135848999023 -0.008022834546864033
0.08527135848999023 0.08527135848999023 0.008863164111971855
0.08527135848999023 0.10077524185180664 -0.008311383426189423
0.08527135848999023 0.10077524185180664 0.008700662292540073
0.08527135848999023 0.11627912521362305 -0.008397870697081089
0.08527135848999023 0.11627912521362305 0.0085973609238863
0.08527135848999023 0.1317828893661499 -0.00883497390896082
0.08527135848999023 0.1317828893661499 0.008641391061246395
0.08527135848999023 0.1472867727279663 -0.009958440437912941
0.08527135848999023 0.14728675782680511 0.00896451622247696
0.08527135848999023 0.16279065608978271 -0.011402547359466553
0.08527135848999023 0.16279065608978271 0.009363086894154549
0.08527135848999023 0.17829453945159912 -0.011788514442741871
0.08527135848999023 0.17829453945159912 0.00897633284330368
0.08527135848999023 0.19379842281341553 -0.011858019977807999
0.08527135848999023 0.19379842281341553 0.008641647174954414
0.08527135848999023 0.20930230617523193 -0.012542882934212685
0.08527135848999023 0.20930230617523193 0.00840007420629263
0.08527135848999023 0.22480618953704834 -0.012867660261690617
0.08527135848999023 0.22480618953704834 0.007984837517142296
0.08527135848999023 0.24031007289886475 -0.012194529175758362
0.08527135848999023 0.24031007289886475 0.005402334965765476
0.08527135848999023 0.25581395626068115 -0.011634220369160175
0.08527135848999023 0.25581395626068115 0.0007810539100319147
0.08527135848999023 0.27131783962249756 -0.011879229918122292
0.08527135848999023 0.27131783962249756 -0.001693258062005043
0.08527135848999023 0.28682172298431396 -0.012709859758615494
0.08527135848999023 0.28682172298431396 -0.002913166070356965
0.08527135848999023 0.30232560634613037 -0.014714209362864494
0.08527135848999023 0.30232560634613037 -0.0038425156380981207
0.08527135848999023 0.3178294897079468 -0.01624326780438423
0.08527135848999023 0.3178294897079468 -0.005182795226573944
0.08527135848999023 0.3333333730697632 -0.01810838282108307
0.08527135848999023 0.3333333730697632 -0.005902250297367573
0.08527135848999023 0.3488372564315796 -0.020552154630422592
0.08527135848999023 0.3488372564315796 -0.006321083754301071
0.08527135848999023 0.364341139793396 -0.023565473034977913
0.08527135848999023 0.3643411099910736 -0.006834137253463268
0.08527135848999023 0.37984490394592285 -0.024597633630037308
0.08527135848999023 0.37984490394592285 -0.01096624881029129
0.08527135848999023 0.39534878730773926 -0.02554689347743988
0.08527135848999023 0.39534878730773926 -0.016508297994732857
0.08527135848999023 0.41085267066955566 -0.02563164196908474
0.08527135848999023 0.41085267066955566 -0.019012773409485817
0.08527135848999023 0.42635655403137207 -0.025505654513835907
0.08527135848999023 0.4263565242290497 -0.020265940576791763
0.08527135848999023 0.4418604373931885 -0.025604981929063797
0.08527135848999023 0.4418604373931885 -0.02087029442191124
0.08527135848999023 0.4573643207550049 -0.025774480774998665
0.08527135848999023 0.45736435055732727 -0.021242655813694
0.08527135848999023 0.4728682041168213 -0.025979693979024887
0.08527135848999023 0.4728682041168213 -0.02124832011759281
0.08527135848999023 0.4883720874786377 -0.026285819709300995
0.08527135848999023 0.4883720874786377 -0.02098812721669674
0.08527135848999023 0.5038759708404541 -0.026474397629499435
0.08527136594057083 0.5038759708404541 -0.020685691386461258
0.08527135848999023 0.5193798542022705 -0.026676909998059273
0.08527136594057083 0.5193798542022705 -0.020659256726503372
0.08527135848999023 0.5348837375640869 -0.026506755501031876
0.08527135848999023 0.5348837375640869 -0.021150942891836166
0.08527135848999023 0.5503876209259033 -0.023893527686595917
0.08527136594057083 0.5503876209259033 -0.02277885191142559
0.08527135848999023 0.5813953876495361 -0.024246199056506157
0.08527135848999023 0.5813953876495361 -0.02294563688337803
0.08527135848999023 0.5968992710113525 -0.026744971051812172
0.08527135848999023 0.5968992114067078 -0.02232392132282257
0.08527135848999023 0.612403154373169 -0.026557238772511482
0.08527135848999023 0.612403154373169 -0.022282231599092484
0.08527135848999023 0.6279069185256958 -0.02701583132147789
0.08527135848999023 0.6279069781303406 -0.022024216130375862
0.08527135848999023 0.6434108018875122 -0.02679934725165367
0.08527135848999023 0.6434108018875122 -0.021923284977674484
0.08527135848999023 0.6589146852493286 -0.024607809260487556
0.08527135848999023 0.6589146256446838 -0.022554952651262283
0.08527135848999023 0.7364341020584106 -0.024312293156981468
0.08527135848999023 0.7364341020584106 -0.022693166509270668
0.08527135848999023 0.751937985420227 -0.023470500484108925
0.08527135848999023 0.7519379258155823 -0.023167213425040245
0.10077524185180664 -0.7829457521438599 0.03346714377403259
0.10077524185180664 -0.7829457521438599 0.04597203806042671
0.10077524185180664 -0.7674418687820435 0.03208130598068237
0.10077524185180664 -0.7674418687820435 0.052129052579402924
0.10077524185180664 -0.751937985420227 0.03375241532921791
0.10077524185180664 -0.751937985420227 0.05538557842373848
0.10077524185180664 -0.7364341020584106 0.03522273525595665
0.10077524185180664 -0.7364341616630554 0.05617817863821983
0.10077524185180664 -0.7209302186965942 0.0360543429851532
0.10077524185180664 -0.7209302186965942 0.05677691847085953
0.10077524185180664 -0.7054263353347778 0.036232251673936844
0.10077523440122604 -0.7054263353347778 0.05725874751806259
0.10077524185180664 -0.6899224519729614 0.03626319020986557
0.10077524185180664 -0.6899224519729614 0.05745560675859451
0.10077524185180664 -0.674418568611145 0.03630603104829788
0.10077524185180664 -0.674418568611145 0.057609714567661285
0.10077524185180664 -0.6589146852493286 0.03628721088171005
0.10077524185180664 -0.6589146852493286 0.05793175846338272
0.10077524185180664 -0.643410861492157 0.03601058945059776
0.10077524185180664 -0.6434109210968018 0.05834630876779556
0.10077524185180664 -0.6279069781303406 0.03554229438304901
0.10077524185180664 -0.6279070377349854 0.05849777162075043
0.10077524185180664 -0.6124030947685242 0.03471751883625984
0.10077524185180664 -0.6124030947685242 0.05817537009716034
0.10077524185180664 -0.5968992114067078 0.03334525227546692
0.10077524185180664 -0.5968992114067078 0.05709051340818405
0.10077524185180664 -0.5813953876495361 0.03174363076686859
0.10077524185180664 -0.5813953876495361 0.05619985982775688
0.10077524185180664 -0.5658915042877197 0.03094450756907463
0.10077524185180664 -0.5658915042877197 0.05548734962940216
0.10077524185180664 -0.5503876209259033 0.032414425164461136
0.10077523440122604 -0.5503876209259033 0.054883915930986404
0.10077524185180664 -0.5348837375640869 0.03385956585407257
0.10077524930238724 -0.5348837375640869 0.054333411157131195
0.10077524185180664 -0.5193798542022705 0.03488735854625702
0.10077524185180664 -0.5193798542022705 0.05173022300004959
0.10077524185180664 -0.5038759708404541 0.03545792028307915
0.10077524185180664 -0.5038759708404541 0.049802958965301514
0.10077524185180664 -0.4883720874786377 0.03571902588009834
0.10077524185180664 -0.4883720874786377 0.047992043197155
0.10077524185180664 -0.4728682041168213 0.035620447248220444
0.10077524185180664 -0.4728682041168213 0.04655405133962631
0.10077524185180664 -0.4573643207550049 0.035221703350543976
0.10077524185180664 -0.4573643207550049 0.045481882989406586
0.10077524185180664 -0.4418604373931885 0.0352303646504879
0.10077524185180664 -0.4418604075908661 0.04442854970693588
0.10077524185180664 -0.42635661363601685 0.03510114923119545
0.10077524185180664 -0.42635661363601685 0.042952775955200195
0.10077524185180664 -0.41085273027420044 0.03358624875545502
0.10077524185180664 -0.41085273027420044 0.04146668314933777
0.10077524185180664 -0.39534884691238403 0.02718104049563408
0.10077524185180664 -0.39534884691238403 0.04044066369533539
0.10077524185180664 -0.3798449635505676 0.021723425015807152
0.10077524185180664 -0.3798449635505676 0.03961772099137306
0.10077524185180664 -0.3643410801887512 0.02131977491080761
0.10077524185180664 -0.3643410801887512 0.03629413619637489
0.10077524185180664 -0.3488371968269348 0.02142680622637272
0.10077524185180664 -0.3488371968269348 0.031474046409130096
0.10077524185180664 -0.3333333134651184 0.021522577852010727
0.10077524185180664 -0.3333333134651184 0.029981771484017372
0.10077524185180664 -0.317829430103302 0.02152474783360958
0.10077524185180664 -0.317829430103302 0.03002653270959854
0.10077524185180664 -0.30232560634613037 0.02140074223279953
0.10077524185180664 -0.30232560634613037 0.030346401035785675
0.10077524185180664 -0.28682172298431396 0.02107795886695385
0.10077524185180664 -0.28682172298431396 0.030169319361448288
0.10077524185180664 -0.27131783962249756 0.02042379416525364
0.10077524185180664 -0.27131783962249756 0.029111728072166443
0.10077524185180664 -0.25581395626068115 0.01896095834672451
0.10077524185180664 -0.25581395626068115 0.027679279446601868
0.10077524185180664 -0.24031007289886475 0.01485908217728138
0.10077524185180664 -0.24031007289886475 0.026751942932605743
0.10077524185180664 -0.22480618953704834 0.007547548972070217
0.10077524185180664 -0.22480618953704834 0.026090627536177635
0.10077524185180664 -0.20930230617523193 0.0068023186177015305
0.10077524185180664 -0.20930229127407074 0.025515899062156677
0.10077524185180664 -0.19379842281341553 0.006051898933947086
0.10077524185180664 -0.19379843771457672 0.025018641725182533
0.10077524185180664 -0.1782945990562439 0.0054174913093447685
0.10077524185180664 -0.1782945990562439 0.02458002418279648
0.10077524185180664 -0.1627907156944275 0.005195777863264084
0.10077524185180664 -0.1627907156944275 0.024244332686066628
0.10077524185180664 -0.14728683233261108 0.005128378048539162
0.10077524185180664 -0.14728683233261108 0.023931097239255905
0.10077524185180664 -0.13178294897079468 0.005068277940154076
0.10077524185180664 -0.13178294897079468 0.023386279121041298
0.10077524185180664 -0.11627906560897827 0.005000867880880833
0.10077524185180664 -0.11627906560897827 0.020151691511273384
0.10077524185180664 -0.10077518224716187 0.004762823693454266
0.10077524185180664 -0.10077518224716187 0.01737661473453045
0.10077524185180664 -0.08527129888534546 0.004200303927063942
0.10077524185180664 -0.08527129888534546 0.015796683728694916
0.10077524185180664 -0.06976741552352905 0.003583434969186783
0.10077524185180664 -0.06976741552352905 0.014713938347995281
0.10077524185180664 -0.05426359176635742 0.003110291203483939
0.10077524185180664 -0.05426359176635742 0.013752812519669533
0.10077524185180664 -0.038759708404541016 0.0026857948396354914
0.10077524185180664 -0.038759708404541016 0.012797623872756958
0.10077524185180664 -0.02325582504272461 0.0028087152168154716
0.10077524185180664 -0.02325582504272461 0.011810101568698883
0.10077524185180664 -0.007751941680908203 0.00276072695851326
0.10077524185180664 -0.007751941680908203 0.010786661878228188
0.10077524185180664 0.007751941680908203 0.0006990591064095497
0.10077524185180664 0.007751941680908203 0.0101842749863863
0.10077524185180664 0.02325582504272461 -0.0009579181205481291
0.10077524185180664 0.02325582504272461 0.009983362630009651
0.10077524185180664 0.038759708404541016 -0.0014242450706660748
0.10077524185180664 0.038759708404541016 0.009785790927708149
0.10077524185180664 0.05426359176635742 -0.0034669830929487944
0.10077524185180664 0.05426359176635742 0.009452340193092823
0.10077524185180664 0.06976747512817383 -0.007879450917243958
0.10077524185180664 0.06976746767759323 0.009136837907135487
0.10077524185180664 0.08527135848999023 -0.008211509324610233
0.10077524185180664 0.08527135848999023 0.008916712366044521
0.10077524185180664 0.10077524185180664 -0.008373663760721684
0.10077524930238724 0.10077524930238724 0.008737837895751
0.10077524185180664 0.11627912521362305 -0.008360457606613636
0.10077524185180664 0.11627912521362305 0.008546234108507633
0.10077524185180664 0.1317828893661499 -0.009011614136397839
0.10077524930238724 0.1317828893661499 0.008544465526938438
0.10077524185180664 0.1472867727279663 -0.010361023247241974
0.10077524185180664 0.1472867727279663 0.008992151357233524
0.10077524185180664 0.16279065608978271 -0.011679941788315773
0.10077524185180664 0.16279065608978271 0.009478635154664516
0.10077524185180664 0.17829453945159912 -0.011881253682076931
0.10077524185180664 0.17829453945159912 0.008969485759735107
0.10077524185180664 0.19379842281341553 -0.011876820586621761
0.10077524185180664 0.19379842281341553 0.008279018104076385
0.10077524185180664 0.20930230617523193 -0.012650536373257637
0.10077524185180664 0.20930230617523193 0.008001706562936306
0.10077524185180664 0.22480618953704834 -0.013249512761831284
0.10077524185180664 0.22480618953704834 0.006811551749706268
0.10077524185180664 0.24031007289886475 -0.012674523517489433
0.10077524185180664 0.24031007289886475 0.00395040400326252
0.10077524185180664 0.25581395626068115 -0.011604858562350273
0.10077524185180664 0.25581395626068115 -0.00017775478772819042
0.10077524185180664 0.27131783962249756 -0.011289775371551514
0.10077524185180664 0.27131783962249756 -0.0028945598751306534
0.10077524185180664 0.28682172298431396 -0.011384902521967888
0.10077524185180664 0.28682172298431396 -0.004349761642515659
0.10077524185180664 0.30232560634613037 -0.013464484363794327
0.10077523440122604 0.30232560634613037 -0.004688906483352184
0.10077524185180664 0.3178294897079468 -0.01963553950190544
0.10077524185180664 0.3178294897079468 -0.005052633583545685
0.10077524185180664 0.3333333730697632 -0.02345815859735012
0.10077524185180664 0.3333333730697632 -0.005903741344809532
0.10077524185180664 0.3488372564315796 -0.023903725668787956
0.10077524185180664 0.3488372564315796 -0.0065709250047802925
0.10077524185180664 0.364341139793396 -0.024148061871528625
0.10077524185180664 0.3643411695957184 -0.007467036135494709
0.10077524185180664 0.37984490394592285 -0.024856489151716232
0.10077524185180664 0.37984490394592285 -0.015476852655410767
0.10077524185180664 0.39534878730773926 -0.02558598294854164
0.10077524185180664 0.39534878730773926 -0.018418626859784126
0.10077524185180664 0.41085267066955566 -0.025464575737714767
0.10077523440122604 0.41085267066955566 -0.020236000418663025
0.10077524185180664 0.42635655403137207 -0.02516714297235012
0.10077524185180664 0.42635655403137207 -0.021211711689829826
0.10077524185180664 0.4418604373931885 -0.02563709393143654
0.10077524185180664 0.4418604373931885 -0.021230120211839676
0.10077524185180664 0.4573643207550049 -0.02587946131825447
0.10077524185180664 0.4573643207550049 -0.02151438221335411
0.10077524185180664 0.4728682041168213 -0.026136834174394608
0.10077524185180664 0.4728682041168213 -0.021560652181506157
0.10077524185180664 0.4883720874786377 -0.026462044566869736
0.10077524185180664 0.4883720874786377 -0.0213945135474205
0.10077524185180664 0.5038759708404541 -0.02666342258453369
0.10077524185180664 0.5038759708404541 -0.021152324974536896
0.10077524185180664 0.5193798542022705 -0.026358287781476974
0.10077524185180664 0.5193798542022705 -0.02136879228055477
0.11627911776304245 -0.7674418687820435 0.030402101576328278
0.11627912521362305 -0.7674418687820435 0.04829385504126549
0.11627912521362305 -0.751937985420227 0.03326098620891571
0.11627912521362305 -0.751937985420227 0.05439148470759392
0.11627912521362305 -0.7364341020584106 0.03537410497665405
0.11627912521362305 -0.7364341020584106 0.05527689680457115
0.11627912521362305 -0.7209302186965942 0.03637288883328438
0.11627912521362305 -0.7209302186965942 0.05585861951112747
0.11627912521362305 -0.7054263353347778 0.03650513291358948
0.11627912521362305 -0.7054263353347778 0.05636737123131752
0.11627912521362305 -0.6899224519729614 0.03657606244087219
0.11627912521362305 -0.6899223923683167 0.05671054869890213
0.11627912521362305 -0.674418568611145 0.036488670855760574
0.11627911776304245 -0.674418568611145 0.05689394101500511
0.11627912521362305 -0.6589146852493286 0.036328379064798355
0.11627913266420364 -0.6589146852493286 0.057230595499277115
0.11627912521362305 -0.643410861492157 0.035868193954229355
0.11627912521362305 -0.643410861492157 0.057770851999521255
0.11627912521362305 -0.6279069781303406 0.03511291742324829
0.11627912521362305 -0.6279069781303406 0.05813545733690262
0.11627912521362305 -0.6124030947685242 0.034302160143852234
0.11627912521362305 -0.6124030947685242 0.05778513848781586
0.11627912521362305 -0.5968992114067078 0.03317972272634506
0.11627912521362305 -0.5968992710113525 0.056697651743888855
0.11627912521362305 -0.5813953876495361 0.03212609887123108
0.11627912521362305 -0.5813953876495361 0.05598263069987297
0.11627912521362305 -0.5658915042877197 0.03201884776353836
0.11627912521362305 -0.565891444683075 0.055481426417827606
0.11627912521362305 -0.5503876209259033 0.033033326268196106
0.11627913266420364 -0.5503876209259033 0.054964784532785416
0.11627912521362305 -0.5348837375640869 0.03405631333589554
0.11627912521362305 -0.5348837375640869 0.05438636243343353
0.11627912521362305 -0.5193798542022705 0.03483230620622635
0.11627912521362305 -0.5193798542022705 0.052092134952545166
0.11627912521362305 -0.5038759708404541 0.03520497307181358
0.11627912521362305 -0.5038759708404541 0.0505131296813488
0.11627912521362305 -0.4883720874786377 0.03546498715877533
0.11627912521362305 -0.4883720874786377 0.0489870123565197
0.11627912521362305 -0.4728682041168213 0.03555692359805107
0.11627912521362305 -0.4728682041168213 0.04742255061864853
0.11627912521362305 -0.4573643207550049 0.03527369722723961
0.11627912521362305 -0.4573643207550049 0.04597519338130951
0.11627912521362305 -0.4418604373931885 0.03503911942243576
0.11627912521362305 -0.4418604373931885 0.044539179652929306
0.11627912521362305 -0.42635661363601685 0.03473576158285141
0.11627912521362305 -0.42635664343833923 0.04294769465923309
0.11627912521362305 -0.41085273027420044 0.03402309864759445
0.11627912521362305 -0.41085273027420044 0.04144950211048126
0.11627912521362305 -0.39534884691238403 0.030510641634464264
0.11627912521362305 -0.39534884691238403 0.04046621546149254
0.11627912521362305 -0.3798449635505676 0.021821321919560432
0.11627912521362305 -0.3798449635505676 0.039841242134571075
0.11627912521362305 -0.3643410801887512 0.021385284140706062
0.11627912521362305 -0.3643410801887512 0.038907308131456375
0.11627912521362305 -0.3488371968269348 0.02141563594341278
0.11627912521362305 -0.3488371968269348 0.034448716789484024
0.11627912521362305 -0.3333333134651184 0.021476969122886658
0.11627912521362305 -0.3333333134651184 0.03219280391931534
0.11627912521362305 -0.317829430103302 0.021486341953277588
0.11627912521362305 -0.317829430103302 0.03161323815584183
0.11627912521362305 -0.30232560634613037 0.02135382406413555
0.11627912521362305 -0.30232560634613037 0.031168395653367043
0.11627912521362305 -0.28682172298431396 0.020945781841874123
0.11627912521362305 -0.28682172298431396 0.03052510879933834
0.11627912521362305 -0.27131783962249756 0.019945131614804268
0.11627912521362305 -0.27131783962249756 0.029430199414491653
0.11627912521362305 -0.25581395626068115 0.017776435241103172
0.11627912521362305 -0.25581395626068115 0.02805348113179207
0.11627912521362305 -0.24031007289886475 0.01189530361443758
0.11627912521362305 -0.24031007289886475 0.02701982483267784
0.11627912521362305 -0.22480618953704834 0.00722774863243103
0.11627912521362305 -0.22480618953704834 0.026197798550128937
0.11627912521362305 -0.20930230617523193 0.006549437530338764
0.11627912521362305 -0.20930230617523193 0.025526253506541252
0.11627912521362305 -0.19379842281341553 0.00583162996917963
0.11627912521362305 -0.19379842281341553 0.025049518793821335
0.11627912521362305 -0.1782945990562439 0.005207129754126072
0.11627911776304245 -0.1782945841550827 0.02475636452436447
0.11627912521362305 -0.1627907156944275 0.004888175055384636
0.11627912521362305 -0.16279073059558868 0.024507082998752594
0.11627912521362305 -0.14728683233261108 0.0049051204696297646
0.11627912521362305 -0.14728683233261108 0.02410094067454338
0.11627912521362305 -0.13178294897079468 0.0051247067749500275
0.11627912521362305 -0.13178294897079468 0.023456687107682228
0.11627912521362305 -0.11627906560897827 0.00516906101256609
0.11627912521362305 -0.11627906560897827 0.019760960713028908
0.11627912521362305 -0.10077518224716187 0.0049185436218976974
0.11627912521362305 -0.10077518224716187 0.016498269513249397
0.11627912521362305 -0.08527129888534546 0.004325052723288536
0.11627912521362305 -0.08527129888534546 0.01460288092494011
0.11627912521362305 -0.06976741552352905 0.0037665599957108498
0.11627912521362305 -0.06976741552352905 0.013342099264264107
0.11627912521362305 -0.05426359176635742 0.003278502030298114
0.11627912521362305 -0.05426359176635742 0.012649619951844215
0.11627912521362305 -0.038759708404541016 0.002813811646774411
0.11627912521362305 -0.038759708404541016 0.012098193168640137
0.11627912521362305 -0.02325582504272461 0.002694413997232914
0.11627912521362305 -0.02325582504272461 0.011549798771739006
0.11627912521362305 -0.007751941680908203 0.0026078401133418083
0.11627912521362305 -0.007751941680908203 0.010843206197023392
0.11627912521362305 0.007751941680908203 -0.0008944745641201735
0.11627912521362305 0.007751941680908203 0.010486530140042305
0.11627912521362305 0.02325582504272461 -0.003828682703897357
0.11627912521362305 0.02325582504272461 0.010228710249066353
0.11627911776304245 0.038759708404541016 -0.005664024502038956
0.11627912521362305 0.038759708404541016 0.009882334619760513
0.11627912521362305 0.05426359176635742 -0.007928711362183094
0.11627912521362305 0.05426359176635742 0.009535563178360462
0.11627912521362305 0.06976747512817383 -0.008195344358682632
0.11627912521362305 0.06976747512817383 0.009276192635297775
0.11627912521362305 0.08527135848999023 -0.008396708406507969
0.11627913266420364 0.08527135848999023 0.00910254754126072
0.11627912521362305 0.10077524185180664 -0.00860863272100687
0.11627912521362305 0.10077524185180664 0.009045292623341084
0.11627912521362305 0.11627912521362305 -0.008805498480796814
0.11627912521362305 0.11627912521362305 0.008884460665285587
0.11627912521362305 0.1317828893661499 -0.009571848437190056
0.11627912521362305 0.1317828893661499 0.008845974691212177
0.11627912521362305 0.1472867727279663 -0.010888556018471718
0.11627912521362305 0.1472867727279663 0.009333278052508831
0.11627912521362305 0.16279065608978271 -0.012019986286759377
0.11627912521362305 0.16279065608978271 0.00969143956899643
0.11627912521362305 0.17829453945159912 -0.01170186884701252
0.11627912521362305 0.17829453945159912 0.008813666179776192
0.11627912521362305 0.19379842281341553 -0.011571517214179039
0.11627912521362305 0.19379842281341553 0.007991724647581577
0.11627912521362305 0.20930230617523193 -0.01264672726392746
0.11627912521362305 0.20930230617523193 0.007574145682156086
0.11627912521362305 0.22480618953704834 -0.013706343248486519
0.11627912521362305 0.22480618953704834 0.005707357078790665
0.11627912521362305 0.24031007289886475 -0.013025505468249321
0.11627912521362305 0.24031007289886475 0.00299951434135437
0.11627912521362305 0.25581395626068115 -0.010909713804721832
0.11627912521362305 0.25581395626068115 -0.0017167653422802687
0.11627912521362305 0.27131783962249756 -0.008317400701344013
0.11627912521362305 0.27131783962249756 -0.006906917318701744
0.11627912521362305 0.3178294897079468 -0.0201735720038414
0.11627912521362305 0.3178294897079468 -0.005785606801509857
0.11627912521362305 0.3333333730697632 -0.024262886494398117
0.11627912521362305 0.3333333730697632 -0.0061965212225914
0.11627912521362305 0.3488372564315796 -0.02460455149412155
0.11627912521362305 0.3488372564315796 -0.006932350806891918
0.11627912521362305 0.364341139793396 -0.024835068732500076
0.11627912521362305 0.364341139793396 -0.010084986686706543
0.11627912521362305 0.37984490394592285 -0.025294357910752296
0.11627912521362305 0.37984490394592285 -0.01642020046710968
0.11627912521362305 0.39534878730773926 -0.02562025561928749
0.11627912521362305 0.39534878730773926 -0.019446706399321556
0.11627912521362305 0.41085267066955566 -0.025153731927275658
0.11627913266420364 0.41085267066955566 -0.021082604303956032
0.11627912521362305 0.4573643207550049 -0.02536037191748619
0.11627912521362305 0.4573643207550049 -0.022005019709467888
0.11627912521362305 0.4728682041168213 -0.026018928736448288
0.11627912521362305 0.4728682041168213 -0.021779637783765793
0.11627912521362305 0.4883720874786377 -0.025562496855854988
0.11627912521362305 0.4883720874786377 -0.021899137645959854
0.11627912521362305 0.5038759708404541 -0.023661838844418526
0.11627912521362305 0.5038759708404541 -0.022961055859923363
0.1317828893661499 -0.7674418687820435 0.03249866142868996
0.1317828893661499 -0.7674418687820435 0.04515578970313072
0.1317828893661499 -0.751937985420227 0.03442039340734482
0.1317828893661499 -0.751937985420227 0.05242888629436493
0.1317828893661499 -0.7364341020584106 0.03691558539867401
0.1317828744649887 -0.7364341020584106 0.054460614919662476
0.1317828893661499 -0.7209302186965942 0.04494750499725342
0.1317828893661499 -0.7209302186965942 0.05460277199745178
0.1317828893661499 -0.7054263353347778 0.04081228747963905
0.1317828893661499 -0.7054263353347778 0.055031951516866684
0.1317828893661499 -0.6899224519729614 0.048105426132678986
0.1317828893661499 -0.6899224519729614 0.05517801642417908
0.1317828893661499 -0.674418568611145 0.04868017137050629
0.1317828893661499 -0.674418568611145 0.0554589219391346
0.1317828893661499 -0.6589146852493286 0.03840336576104164
0.1317828893661499 -0.6589146256446838 0.05620058625936508
0.1317828893661499 -0.643410861492157 0.036818135529756546
0.1317828893661499 -0.643410861492157 0.05677943676710129
0.1317828893661499 -0.6279069781303406 0.03599127382040024
0.1317828893661499 -0.6279069781303406 0.05707192420959473
0.1317828893661499 -0.6124030947685242 0.035830751061439514
0.1317828893661499 -0.6124030947685242 0.056882694363594055
0.1317828893661499 -0.5968992114067078 0.03585183247923851
0.1317828893661499 -0.5968992114067078 0.05604994297027588
0.1317828893661499 -0.5813953876495361 0.0358390249311924
0.1317828893661499 -0.5813953876495361 0.055613502860069275
0.1317828893661499 -0.5658915042877197 0.03557519614696503
0.1317828893661499 -0.5658915042877197 0.05535619705915451
0.1317828893661499 -0.5503876209259033 0.03533134609460831
0.1317828893661499 -0.5503876209259033 0.0549800880253315
0.1317828893661499 -0.5348837375640869 0.03559640422463417
0.1317828893661499 -0.5348837375640869 0.054441601037979126
0.1317828893661499 -0.5193798542022705 0.03602754697203636
0.1317828893661499 -0.5193798542022705 0.052831340581178665
0.1317828893661499 -0.5038759708404541 0.036082662642002106
0.1317828893661499 -0.5038759708404541 0.050942935049533844
0.1317828893661499 -0.4883720874786377 0.03634082153439522
0.1317828893661499 -0.4883720874786377 0.04952094703912735
0.1317828893661499 -0.4728682041168213 0.036558981984853745
0.1317828893661499 -0.4728682041168213 0.048556141555309296
0.1317828893661499 -0.4573643207550049 0.03628954291343689
0.1317828893661499 -0.4573643207550049 0.047150418162345886
0.1317828893661499 -0.4418604373931885 0.036156170070171356
0.1317828893661499 -0.4418604373931885 0.04489773511886597
0.1317828893661499 -0.42635661363601685 0.03648481145501137
0.1317828893661499 -0.42635661363601685 0.04244868457317352
0.1317828893661499 -0.41085273027420044 0.037074875086545944
0.1317828893661499 -0.41085273027420044 0.04058634489774704
0.1317828893661499 -0.39534884691238403 0.0367145910859108
0.1317828893661499 -0.39534884691238403 0.040008772164583206
0.1317828893661499 -0.3798449635505676 0.02322460524737835
0.1317828893661499 -0.3798449635505676 0.040052853524684906
0.1317828893661499 -0.3643410801887512 0.021484890952706337
0.1317828893661499 -0.3643411099910736 0.03946107253432274
0.1317828893661499 -0.3488371968269348 0.02120140753686428
0.1317828893661499 -0.3488372266292572 0.03891783580183983
0.1317828893661499 -0.3333333134651184 0.02110391855239868
0.1317828893661499 -0.3333333134651184 0.036044228821992874
0.1317828893661499 -0.317829430103302 0.021085277199745178
0.1317828893661499 -0.317829430103302 0.03383876755833626
0.1317828893661499 -0.30232560634613037 0.021025555208325386
0.1317828893661499 -0.30232560634613037 0.03208127245306969
0.1317828893661499 -0.28682172298431396 0.02064497582614422
0.1317828893661499 -0.28682172298431396 0.03080577775835991
0.1317828893661499 -0.27131783962249756 0.0195674616843462
0.1317828893661499 -0.27131783962249756 0.02972116693854332
0.1317828893661499 -0.25581395626068115 0.017646877095103264
0.1317828893661499 -0.25581395626068115 0.02841966226696968
0.1317828893661499 -0.24031007289886475 0.014036670327186584
0.1317828893661499 -0.24031007289886475 0.02733156457543373
0.1317828893661499 -0.22480618953704834 0.00971168465912342
0.1317828893661499 -0.22480618953704834 0.026417728513479233
0.1317828893661499 -0.20930230617523193 0.006976250559091568
0.1317828893661499 -0.20930230617523193 0.025719285011291504
0.1317828893661499 -0.19379842281341553 0.005927611142396927
0.1317828893661499 -0.19379842281341553 0.025228364393115044
0.1317828893661499 -0.1782945990562439 0.005188805051147938
0.1317828893661499 -0.1782946139574051 0.024944577366113663
0.1317828893661499 -0.1627907156944275 0.00480884313583374
0.1317828893661499 -0.1627907156944275 0.02462710626423359
0.1317828893661499 -0.14728683233261108 0.00485839881002903
0.1317828893661499 -0.14728683233261108 0.02421669289469719
0.1317828893661499 -0.13178294897079468 0.005225885659456253
0.1317828893661499 -0.13178294897079468 0.023564927279949188
0.1317828893661499 -0.11627906560897827 0.00539875403046608
0.1317828893661499 -0.11627906560897827 0.019895365461707115
0.1317828893661499 -0.10077518224716187 0.005193873308598995
0.1317828893661499 -0.10077518224716187 0.016013193875551224
0.1317828893661499 -0.08527129888534546 0.004689971916377544
0.1317828893661499 -0.08527129888534546 0.013794142752885818
0.1317828893661499 -0.06976741552352905 0.004199836403131485
0.1317828893661499 -0.06976741552352905 0.012461794540286064
0.1317828893661499 -0.05426359176635742 0.0035769420210272074
0.1317828893661499 -0.05426359176635742 0.011965487152338028
0.1317828893661499 -0.038759708404541016 0.0030468227341771126
0.1317828893661499 -0.038759708404541016 0.011687712743878365
0.1317828893661499 -0.02325582504272461 0.0028239453677088022
0.1317828893661499 -0.02325582504272461 0.011439584195613861
0.1317828893661499 -0.007751941680908203 0.002462182193994522
0.1317828893661499 -0.007751941680908203 0.010965907946228981
0.1317828893661499 0.007751941215246916 -0.0025756354443728924
0.1317828893661499 0.007751941680908203 0.010835707187652588
0.1317828893661499 0.02325582504272461 -0.007954908534884453
0.1317828893661499 0.02325582504272461 0.01046243030577898
0.1317828893661499 0.038759708404541016 -0.008475244045257568
0.1317828893661499 0.038759708404541016 0.010079296305775642
0.1317828893661499 0.05426359176635742 -0.008760891854763031
0.1317828893661499 0.05426359176635742 0.00992894358932972
0.1317828893661499 0.06976747512817383 -0.008734328672289848
0.1317828893661499 0.06976747512817383 0.009836375713348389
0.1317828893661499 0.08527135848999023 -0.008651879616081715
0.1317828893661499 0.08527135848999023 0.00979209877550602
0.1317828893661499 0.10077524185180664 -0.008358624763786793
0.1317828893661499 0.10077524185180664 0.009702477604150772
0.1317828893661499 0.11627912521362305 -0.008907709270715714
0.1317828893661499 0.11627912521362305 0.00964429508894682
0.1317828893661499 0.1317828893661499 -0.010017454624176025
0.1317828893661499 0.1317828893661499 0.009591896086931229
0.1317828893661499 0.1472867727279663 -0.011176727712154388
0.1317828893661499 0.1472867727279663 0.009793581441044807
0.1317828893661499 0.16279065608978271 -0.011765895411372185
0.1317828893661499 0.16279065608978271 0.009546102955937386
0.1317828893661499 0.17829453945159912 -0.011327866464853287
0.1317828893661499 0.17829453945159912 0.008626645430922508
0.1317828893661499 0.19379842281341553 -0.011296883225440979
0.1317828893661499 0.19379842281341553 0.008073958568274975
0.1317828893661499 0.20930230617523193 -0.01232367567718029
0.1317828893661499 0.20930230617523193 0.007566130720078945
0.1317828893661499 0.22480618953704834 -0.01300535537302494
0.1317828893661499 0.22480618953704834 0.004786955192685127
0.1317828893661499 0.24031007289886475 -0.012195023708045483
0.1317828893661499 0.24031007289886475 0.0012979854363948107
0.1317828893661499 0.25581395626068115 -0.01079704612493515
0.1317828893661499 0.25581395626068115 -0.0031925227958709
0.1317828893661499 0.3178294897079468 -0.0179807897657156
0.1317828893661499 0.3178294897079468 -0.005795649718493223
