0.1690433919429779 0.1472867727279663 -0.05426358804106712
0.16615530848503113 0.1472867727279663 0.038759708404541016
0.16711920499801636 0.16279065608978271 -0.038759708404541016
0.17550045251846313 0.16279065608978271 -0.02325582504272461
0.16788934171199799 0.16279065608978271 0.05426359176635742
0.1782742142677307 0.16279065608978271 0.06976747512817383
0.16385503113269806 0.17829453945159912 -0.02325582690536976
0.16835513710975647 0.17829453945159912 -0.007751941680908203
0.17173132300376892 0.17829453945159912 0.007751941680908203
0.17617720365524292 0.17829453945159912 0.02325582504272461
0.16760601103305817 0.17829453945159912 0.06976747512817383
0.17772890627384186 0.17829453945159912 0.08527135848999023
0.16404707729816437 0.19379842281341553 0.038759708404541016
0.16592468321323395 0.19379842281341553 0.05426359176635742
0.16555756330490112 0.19379842281341553 0.06976747512817383
0.18168151378631592 -0.05426359549164772 -0.28682172298431396
0.18932120501995087 -0.05426359176635742 -0.27131783962249756
0.18337103724479675 -0.05426359176635742 -0.24031007289886475
0.18914484977722168 -0.038759708404541016 -0.30232560634613037
0.1880488246679306 -0.02325582504272461 -0.30232560634613037
0.19132737815380096 -0.007751941680908203 -0.28682172298431396
0.1843416690826416 0.007751941680908203 -0.25581395626068115
0.18354593217372894 0.02325582504272461 -0.20930230617523193
0.17831659317016602 0.038759708404541016 -0.1782945841550827
0.18436649441719055 0.038759708404541016 -0.1627907156944275
0.1906813234090805 0.038759708404541016 -0.14728683233261108
0.18997184932231903 0.05426359176635742 -0.11627906560897827
0.1936531513929367 0.06976747512817383 -0.10077518224716187
0.17895843088626862 0.06976747512817383 -0.038759708404541016
0.18207944929599762 0.10077524185180664 -0.08527129888534546
0.1916847825050354 0.10077524185180664 0.007751941680908203
0.18375670909881592 0.11627912521362305 -0.06976741552352905
0.1865176558494568 0.11627912521362305 0.02325582504272461
0.18200033903121948 0.1317828893661499 -0.05426359176635742
0.18263119459152222 0.1317828893661499 0.038759708404541016
0.1803087294101715 0.1472867727279663 -0.038759708404541016
0.1903407722711563 0.1472867727279663 -0.02325582504272461
0.1812986135482788 0.1472867727279663 0.05426359176635742
0.19268155097961426 0.1472867727279663 0.06976747512817383
0.183717280626297 0.16279065608978271 -0.007751941680908203
0.18920987844467163 0.16279065608978271 0.007751941680908203
0.1906164288520813 0.16279065608978271 0.08527135848999023
0.18124042451381683 0.17829453945159912 0.038759708404541016
0.18480223417282104 0.17829453945159912 0.05426359176635742
0.19138000905513763 0.17829453945159912 0.06976747512817383
0.19239334762096405 0.17829453945159912 0.10077524185180664
0.19482102990150452 -0.05426359176635742 -0.25581395626068115
0.20345598459243774 -0.038759708404541016 -0.28682172298431396
0.20467567443847656 -0.007751941680908203 -0.27131783962249756
0.205123633146286 -0.007751941680908203 -0.11627906560897827
0.19565337896347046 0.007751941680908203 -0.24031007289886475
0.20501849055290222 0.007751941680908203 -0.22480618953704834
0.1954869031906128 0.02325582504272461 -0.19379842281341553
0.20659419894218445 0.02325582504272461 -0.1782945990562439
0.19746315479278564 0.038759708404541016 -0.13178294897079468
0.19671474397182465 0.08527135848999023 -0.08527129888534546
0.20172914862632751 0.08527135848999023 -0.007751941680908203
0.19796855747699738 0.10077524185180664 -0.06976741552352905
0.1967426836490631 0.11627912521362305 -0.05426359176635742
0.20309871435165405 0.11627912521362305 0.038759708404541016
0.19545771181583405 0.1317828893661499 -0.038759708404541016
0.19689634442329407 0.1317828893661499 0.05426359549164772
0.20195266604423523 0.1472867727279663 -0.007751941680908203
0.20531651377677917 0.1472867727279663 0.08527135848999023
0.19633734226226807 0.16279065608978271 0.02325582504272461
0.20332175493240356 0.16279065608978271 0.038759708404541016
0.20157483220100403 0.16279065608978271 0.10077524185180664
0.20808808505535126 0.16279065608978271 0.11627912521362305
0.19828125834465027 0.17829453945159912 0.08527135848999023
0.20471812784671783 0.17829453945159912 0.11627912521362305
0.20805664360523224 0.17829453945159912 0.1317828893661499
0.21335719525814056 -0.038759708404541016 -0.27131783962249756
0.21010687947273254 -0.02325582504272461 -0.28682172298431396
0.22225749492645264 -0.02325582504272461 -0.27131783962249756
0.21524041891098022 -0.007751941680908203 -0.25581395626068115
0.21675215661525726 0.007751941680908203 -0.20930230617523193
0.21447208523750305 0.02325582504272461 -0.1627907156944275
0.22284714877605438 0.02325582504272461 -0.14728683233261108
0.21364688873291016 0.038759708404541016 -0.11627905815839767
0.2142043113708496 0.05426359176635742 -0.10077518224716187
0.21539291739463806 0.06976747512817383 -0.08527129888534546
0.221269890666008 0.06976747512817383 -0.02325582504272461
0.2144806683063507 0.08527135848999023 -0.06976741552352905
0.2128215730190277 0.10077524185180664 -0.05426359176635742
0.21358536183834076 0.10077524185180664 0.02325582504272461
0.2139875590801239 0.11627912521362305 -0.038759708404541016
0.22103238105773926 0.11627912521362305 0.05426359176635742
0.21012724936008453 0.1317828893661499 -0.02325582504272461
0.2106953114271164 0.1317828893661499 0.06976747512817383
0.2131229043006897 0.1472867727279663 0.007751941680908203
0.22472231090068817 0.1472867727279663 0.02325582504272461
0.216398686170578 0.1472867727279663 0.10077524185180664
0.21484391391277313 0.16279065608978271 0.05426358804106712
0.21745043992996216 0.16279065608978271 0.1317828893661499
0.22281621396541595 0.16279065608978271 0.1472867727279663
0.21022659540176392 0.17829453945159912 0.10077524185180664
0.215315043926239 0.17829453945159912 0.1472867727279663
0.22207264602184296 0.17829453945159912 0.16279065608978271
0.2251804918050766 -0.038759708404541016 -0.25581395626068115
0.2289789468050003 -0.038759708404541016 -0.24031007289886475
0.23976877331733704 -0.038759708404541016 -0.1627907156944275
0.23096288740634918 -0.02325582504272461 -0.25581395626068115
0.23927918076515198 -0.02325582504272461 -0.13178294897079468
0.22614726424217224 -0.007751941680908203 -0.24031007289886475
0.23766577243804932 -0.007751941680908203 -0.22480618953704834
0.23281721770763397 0.007751941680908203 -0.19379842281341553
0.239828422665596 0.02325582504272461 -0.13178294897079468
0.234713613986969 0.06976747512817383 -0.06976741552352905
0.22994069755077362 0.08527135848999023 -0.05426359176635742
0.23613522946834564 0.08527135848999023 0.007751941680908203
0.2347157746553421 0.10077524185180664 -0.038759708404541016
0.23711925745010376 0.10077524185180664 0.038759708404541016
0.23287515342235565 0.11627912521362305 -0.02325582504272461
0.2259340137243271 0.1317828893661499 -0.007751941680908203
0.22622396051883698 0.1317828893661499 0.08527135848999023
0.22678376734256744 0.1472867727279663 0.11627913266420364
0.23640227317810059 0.1472867727279663 0.1317828893661499
0.22976115345954895 0.16279065608978271 0.06976747512817383
0.2296740710735321 0.16279065608978271 0.16279065608978271
0.2372276782989502 0.16279065608978271 0.17829453945159912
0.22916492819786072 0.17829453945159912 0.11627912521362305
0.22683271765708923 0.17829453945159912 0.17829453945159912
0.23616193234920502 0.17829453945159912 0.19379842281341553
0.24347877502441406 -0.02325582504272461 -0.24031007289886475
0.2457871437072754 0.02325582504272461 -0.06976741552352905
0.2427568882703781 0.038759708404541016 -0.10077518224716187
0.2471664845943451 0.038759708404541016 -0.05426359176635742
0.24064140021800995 0.05426359176635742 -0.08527130633592606
0.24868547916412354 0.06976747512817383 -0.05426359176635742
0.253728449344635 0.08527135848999023 -0.038759708404541016
0.254308819770813 0.11627912521362305 -0.007751941680908203
0.2404269129037857 0.11627911776304245 0.06976746767759323
0.24163755774497986 0.1317828893661499 0.007751941680908203
0.2420462965965271 0.1317828893661499 0.10077524930238724
0.24068288505077362 0.14728675782680511 0.038759708404541016
0.2419617772102356 0.14728675782680511 0.14728675782680511
0.2504493296146393 0.1472867727279663 0.16279065608978271
0.24723409116268158 0.16279065608978271 0.08527135848999023
0.24492216110229492 0.16279065608978271 0.19379842281341553
0.2523176074028015 0.16279065608978271 0.20930230617523193
0.2403472661972046 0.17829453945159912 0.20930229127407074
0.2500612139701843 0.17829453945159912 0.22480618953704834
0.2693398892879486 -0.038759708404541016 -0.22480618953704834
0.25974375009536743 -0.007751941680908203 -0.20930230617523193
0.2567439377307892 0.007751941680908203 -0.1782945841550827
0.2667796015739441 0.05426359176635742 -0.06976741552352905
0.2559646964073181 0.05426359176635742 -0.038759712129831314
0.26118916273117065 0.06976747512817383 -0.007751941680908203
0.26434680819511414 0.08527135848999023 0.02325582504272461
0.2598957121372223 0.10077524185180664 -0.02325582504272461
0.26141107082366943 0.10077524185180664 0.05426359176635742
0.26303404569625854 0.11627912521362305 0.08527135848999023
0.25927552580833435 0.1317828893661499 0.02325582504272461
0.2562771737575531 0.1317828893661499 0.11627912521362305
0.2708662748336792 0.1317828893661499 0.1317828893661499
0.2590921223163605 0.1472867727279663 0.05426359176635742
0.2594342827796936 0.1472867727279663 0.17829452455043793
0.26830118894577026 0.1472867727279663 0.19379842281341553
0.2616342604160309 0.16279065608978271 0.22480618953704834
0.2710442543029785 0.16279065608978271 0.24031007289886475
0.25598928332328796 0.17829453945159912 0.1317828893661499
0.26071402430534363 0.17829453945159912 0.24031007289886475
0.2756340503692627 -0.02325582504272461 -0.22480618953704834
0.2816063463687897 0.007751941680908203 -0.08527129888534546
0.2735055387020111 0.02325582504272461 -0.11627906560897827
0.285596638917923 0.038759708404541016 -0.08527129888534546
0.2850925624370575 0.038759708404541016 -0.038759708404541016
0.27874624729156494 0.05426359176635742 -0.02325582504272461
0.28675177693367004 0.06976747512817383 0.007751941680908203
0.28656941652297974 0.10077524185180664 0.06976747512817383
0.2762712240219116 0.11627913266420364 0.007751941680908203
0.28093039989471436 0.11627912521362305 0.10077524185180664
0.2786707580089569 0.1317828893661499 0.038759708404541016
0.2769894003868103 0.1472867727279663 0.06976747512817383
0.2787405252456665 0.1472867727279663 0.20930230617523193
0.2717660665512085 0.16279065608978271 0.10077523440122604
0.285553514957428 0.16279065608978271 0.25581395626068115
0.2773057520389557 0.17829453945159912 0.1472867727279663
0.2771069407463074 0.17829453945159912 0.25581395626068115
0.3005034029483795 -0.007751941680908203 -0.10077518224716187
0.29494786262512207 0.007751941680908203 -0.1627907156944275
0.2939521074295044 0.02325582504272461 -0.05426359176635742
0.3014671504497528 0.05426359176635742 -0.007751941680908203
0.2878272831439972 0.08527135848999023 0.038759712129831314
0.2942749261856079 0.10077524185180664 -0.007751941680908203
0.295692503452301 0.11627912521362305 0.02325582504272461
0.3007437288761139 0.11627912521362305 0.11627912521362305
0.2955968379974365 0.1317828893661499 0.05426359176635742
0.2889821529388428 0.1317828893661499 0.1472867727279663
0.2943515181541443 0.1472867727279663 0.08527135848999023
0.2910415530204773 0.1472867727279663 0.22480618953704834
0.3013905882835388 0.1472867727279663 0.24031007289886475
0.288237065076828 0.16279065608978271 0.11627912521362305
0.30135130882263184 0.16279065608978271 0.1317828893661499
0.29869532585144043 0.16279065608978271 0.27131783962249756
0.2914101183414459 0.17829453945159912 0.16279065608978271
0.2941659986972809 0.17829453945159912 0.27131783962249756
0.3055829703807831 -0.038759708404541016 -0.20930230617523193
0.3080987334251404 -0.02325582504272461 -0.20930230617523193
0.309215784072876 -0.02325582504272461 -0.11627906560897827
0.3031148910522461 -0.007751941680908203 -0.19379840791225433
0.30535003542900085 0.007751941680908203 -0.14728683233261108
0.315695583820343 0.007751941680908203 -0.13178294897079468
0.30498063564300537 0.02325582504272461 -0.10077518224716187
0.31378376483917236 0.038759708404541016 -0.02325582504272461
0.31638914346694946 0.06976747512817383 0.02325582504272461
0.3165144622325897 0.08527135848999023 -0.02325582504272461
0.31333380937576294 0.08527135848999023 0.05426359176635742
0.31416478753089905 0.10077524185180664 0.007751941680908203
0.31013399362564087 0.10077524185180664 0.08527135848999023
0.31441831588745117 0.11627912521362305 0.038759708404541016
0.31331464648246765 0.1317828893661499 0.06976747512817383
0.303890585899353 0.1317828893661499 0.16279065608978271
0.30866539478302 0.1317828893661499 0.17829453945159912
0.3121856153011322 0.1317828893661499 0.19379842281341553
0.3115043044090271 0.1472867727279663 0.10077524185180664
0.3142439126968384 0.1472867727279663 0.25581395626068115
0.3102845549583435 0.16279065608978271 0.28682172298431396
0.30847686529159546 0.17829453945159912 0.17829453945159912
0.31059908866882324 0.17829453945159912 0.28682172298431396
0.3212812840938568 -0.007751941680908203 -0.1782945990562439
0.3265557885169983 0.007751941680908203 -0.06976741552352905
0.33312636613845825 0.10077524185180664 0.10077524185180664
0.3333110213279724 0.11627912521362305 0.05426359176635742
0.3239811658859253 0.11627912521362305 0.1317828893661499
0.3244134783744812 0.1317828893661499 0.20930230617523193
0.3248669505119324 0.1472867727279663 0.27131783962249756
0.33185893297195435 0.1472867727279663 0.28682172298431396
0.32247355580329895 0.16279065608978271 0.1472867727279663
0.32117629051208496 0.16279065608978271 0.30232560634613037
0.32706621289253235 0.17829453945159912 0.19379842281341553
0.32985737919807434 0.17829453945159912 0.30232560634613037
0.33363065123558044 -0.038759708404541016 -0.19379842281341553
0.34789565205574036 -0.038759708404541016 -0.1627907156944275
0.3341571092605591 -0.02325582504272461 -0.19379840791225433
0.33766162395477295 -0.007751941680908203 -0.1627907156944275
0.3434646427631378 0.007751941680908203 -0.11627906560897827
0.3461678922176361 0.02325582504272461 -0.038759708404541016
0.3429586887359619 0.08527135848999023 -0.007751941680908203
0.34104976058006287 0.08527135848999023 0.06976747512817383
0.3353261351585388 0.10077524185180664 0.02325582504272461
0.3397330939769745 0.11627912521362305 0.1472867727279663
0.33398064970970154 0.1317828893661499 0.08527135848999023
0.33523768186569214 0.1317828893661499 0.22480618953704834
0.34425652027130127 0.1317828893661499 0.24031007289886475
0.3337300419807434 0.1472867727279663 0.11627912521362305
0.342031866312027 0.1472867727279663 0.30232560634613037
0.3449952006340027 0.16279065608978271 0.16279065608978271
0.33393800258636475 0.16279065608978271 0.3178294897079468
0.3461533784866333 0.16279065608978271 0.3333333730697632
0.3368346691131592 0.17829453945159912 0.20930230617523193
0.3467855453491211 0.17829453945159912 0.22480618953704834
0.350043386220932 -0.03875970467925072 -0.1782945841550827
0.3520449995994568 -0.02325582504272461 -0.1782945990562439
0.358185350894928 -0.007751941680908203 -0.14728683233261108
0.3617834448814392 -0.007751941680908203 -0.08527129888534546
0.35730576515197754 0.038759708404541016 -0.06976741552352905
0.3643367290496826 0.05426359176635742 -0.05426359176635742
0.34996405243873596 0.05426359176635742 0.007751941680908203
0.3525286316871643 0.06976747512817383 -0.038759708404541016
0.35135263204574585 0.06976747512817383 0.038759708404541016
0.36120790243148804 0.10077524185180664 0.038759708404541016
0.35630694031715393 0.10077524185180664 0.11627912521362305
0.36038291454315186 0.11627912521362305 0.06976747512817383
0.34958529472351074 0.11627912521362305 0.16279065608978271
0.3592413365840912 0.11627912521362305 0.17829453945159912
0.3594939708709717 0.1317828893661499 0.10077524185180664
0.35771703720092773 0.1317828893661499 0.25581395626068115
0.35571253299713135 0.1472867727279663 0.1317828893661499
0.35602688789367676 0.1472867727279663 0.3178294897079468
0.3592435121536255 0.16279065608978271 0.17829453945159912
0.35593700408935547 0.16279065608978271 0.3488372564315796
0.36352676153182983 0.16279065608978271 0.364341139793396
0.35305649042129517 0.17829453945159912 0.24031007289886475
0.35788440704345703 0.17829453945159912 0.25581395626068115
0.3613596260547638 0.17829453945159912 0.27131783962249756
0.3542857766151428 0.17829453945159912 0.3178294897079468
0.3644323945045471 0.02325582504272461 -0.08527129888534546
0.3718405067920685 0.038759708404541016 -0.007751941680908203
0.374700665473938 0.06976747512817383 0.05426359176635742
0.3725626468658447 0.08527135848999023 0.007751941680908203
0.36637336015701294 0.08527135848999023 0.08527135848999023
0.37074655294418335 0.10077524185180664 0.1317828893661499
0.36779651045799255 0.11627912521362305 0.19379842281341553
0.37774723768234253 0.11627912521362305 0.20930230617523193
0.3678988814353943 0.1317828893661499 0.27131783962249756
0.37500497698783875 0.1317828893661499 0.28682172298431396
0.37345147132873535 0.1472867727279663 0.1472867727279663
0.36703917384147644 0.1472867727279663 0.3333333730697632
0.3761363923549652 0.1472867727279663 0.3488372564315796
0.3715360164642334 0.16279065608978271 0.19379842281341553
0.3771056532859802 0.16279065608978271 0.37984490394592285
0.3661234676837921 0.17829453945159912 0.28682172298431396
0.3685714602470398 0.17829453945159912 0.30232560634613037
0.3670812249183655 0.17829453945159912 0.3178294897079468
0.38052546977996826 -0.02325582690536976 -0.1627907156944275
0.3825641870498657 0.007751941680908203 -0.05426359176635742
0.3938746452331543 0.02325582504272461 -0.02325582504272461
0.38043880462646484 0.05426359176635742 0.02325582504272461
0.385631799697876 0.06976747512817383 -0.02325582504272461
0.38801324367523193 0.08527135848999023 0.10077524185180664
0.3927317261695862 0.10077524185180664 0.05426359176635742
0.381786048412323 0.10077524185180664 0.1472867727279663
0.3935728073120117 0.10077524185180664 0.16279065608978271
0.3889787793159485 0.11627912521362305 0.08527135848999023
0.38875192403793335 0.11627912521362305 0.22480618953704834
0.38576000928878784 0.1317828893661499 0.11627912521362305
0.3823147714138031 0.1317828893661499 0.30232560634613037
0.39203909039497375 0.1317828893661499 0.3178294897079468
0.3883900046348572 0.1472867727279663 0.16279065608978271
0.3847830891609192 0.1472867727279663 0.364341139793396
0.3939644992351532 0.1472867727279663 0.37984490394592285
0.3826555609703064 0.16279065608978271 0.20930230617523193
0.3913770914077759 0.16279065608978271 0.22480618953704834
0.40106630325317383 -0.02325582504272461 -0.11627906560897827
0.41064825654029846 0.007751941680908203 -0.10077518224716187
0.40772026777267456 0.038759708404541016 0.007751941680908203
0.4096411168575287 0.05426359176635742 0.038759708404541016
0.40314000844955444 0.06976747512817383 0.06976747512817383
0.3994310796260834 0.08527135848999023 0.02325582504272461
0.4090661108493805 0.08527135848999023 0.11627912521362305
0.4071870744228363 0.10077524185180664 0.17829453945159912
0.39808323979377747 0.11627912521362305 0.24031007289886475
0.4102841317653656 0.11627912521362305 0.25581395626068115
0.39979487657546997 0.1317828893661499 0.3333333730697632
0.40707486867904663 0.1317828893661499 0.3488372564315796
0.4027823209762573 0.1472867727279663 0.17829453945159912
0.4094615578651428 0.1472867727279663 0.39534878730773926
0.3984733819961548 0.16279065608978271 0.24031007289886475
0.406535804271698 0.16279065608978271 0.25581395626068115
0.39862126111984253 0.16279065608978271 0.39534878730773926
0.4177905321121216 0.05426359176635742 -0.038759708404541016
0.4159993529319763 0.06976747512817383 -0.00775194214656949
0.4237343370914459 0.10077524185180664 0.19379842281341553
0.4210701584815979 0.11627912521362305 0.27131783962249756
0.41388484835624695 0.1317828893661499 0.1317828893661499
0.41547128558158875 0.1317828893661499 0.364341139793396
0.4260004758834839 0.1317828893661499 0.37984490394592285
0.418439656496048 0.1472867727279663 0.19379842281341553
0.41385871171951294 0.16279065608978271 0.27131783962249756
0.42262786626815796 0.16279065608978271 0.28682172298431396
0.44173356890678406 -0.02325582504272461 -0.13178294897079468
0.4305116832256317 0.00775194214656949 -0.10077518224716187
0.43939775228500366 0.007751941680908203 -0.038759708404541016
0.43938112258911133 0.08527135848999023 0.1317828893661499
0.4333895146846771 0.11627912521362305 0.10077524185180664
0.4264887869358063 0.11627912521362305 0.2868216931819916
0.4358067810535431 0.11627912521362305 0.30232560634613037
0.43496817350387573 0.1317828893661499 0.1472867727279663
0.441540002822876 0.1317828893661499 0.39534878730773926
0.43478673696517944 0.1472867727279663 0.20930230617523193
0.42962807416915894 0.1472867727279663 0.41085267066955566
0.4314209818840027 0.16279065608978271 0.30232560634613037
0.4402352273464203 0.16279065608978271 0.3178294897079468
0.44173794984817505 0.16279065608978271 0.41085267066955566
0.44246551394462585 -0.02325582504272461 -0.14728683233261108
0.4458211660385132 0.02325582504272461 -0.007751941680908203
0.44878074526786804 0.038759708404541016 0.02325582504272461
0.44918835163116455 0.06976747512817383 0.08527135848999023
0.4419737458229065 0.10077524185180664 0.20930230617523193
0.4482717216014862 0.11627912521362305 0.3178294897079468
0.45347434282302856 0.1317828893661499 0.16279065608978271
0.4518240988254547 0.1472867727279663 0.22480618953704834
0.45290204882621765 0.1472867727279663 0.42635655403137207
0.4500599503517151 0.16279065608978271 0.3333333730697632
0.44527044892311096 0.16279065608978271 0.41085267066955566
0.46185755729675293 -0.007751941680908203 -0.13178294897079468
0.45972853899002075 0.038759708404541016 -0.05426359176635742
0.45832592248916626 0.05426359549164772 0.05426359549164772
0.4692305028438568 0.08527135848999023 0.1472867727279663
0.464200496673584 0.10077524185180664 0.22480618953704834
0.47282713651657104 0.11627912521362305 0.11627912521362305
0.4622645974159241 0.11627912521362305 0.3333333730697632
0.47260212898254395 0.1317828893661499 0.17829453945159912
0.4633305072784424 0.1317828893661499 0.41085267066955566
0.46355491876602173 0.1472867727279663 0.24031007289886475
0.45812830328941345 0.16279065608978271 0.3488372564315796
0.4648391008377075 0.16279065608978271 0.364341139793396
0.4691441059112549 0.16279065608978271 0.37984490394592285
0.4690786302089691 0.16279065608978271 0.39534878730773926
0.48788756132125854 0.08527135848999023 0.16279065608978271
0.48689329624176025 0.10077524185180664 0.24031007289886475
0.4754214584827423 0.11627912521362305 0.3488372564315796
0.48811304569244385 0.11627912521362305 0.364341139793396
0.4853776693344116 0.1317828893661499 0.42635655403137207
0.47417306900024414 0.1472867727279663 0.25581395626068115
0.48491960763931274 0.1472867727279663 0.27131783962249756
0.47600477933883667 0.1472867727279663 0.4418604373931885
0.4993688762187958 0.06976747512817383 0.10077524185180664
0.501280665397644 0.11627912521362305 0.37984490394592285
0.5003931522369385 0.1472867727279663 0.28682172298431396
0.5004793405532837 0.1472867727279663 0.4573643207550049
0.5074823498725891 -0.007751941680908203 -0.11627906560897827
0.5041914582252502 0.007751941680908203 -0.10077518224716187
0.519345223903656 0.10077524185180664 0.25581395626068115
0.5085551142692566 0.1317828893661499 0.19379842281341553
0.5047184228897095 0.1317828893661499 0.4418604373931885
0.532030463218689 -0.007751941680908203 -0.10077518224716187
0.5236240029335022 -0.007751941680908203 -0.08527129888534546
0.5228206515312195 0.038759708404541016 0.038759708404541016
0.5329660177230835 0.05426359176635742 0.06976747512817383
0.5213472843170166 0.08527135848999023 0.17829453945159912
0.5237406492233276 0.11627912521362305 0.39534878730773926
0.5300242900848389 0.1317828893661499 0.4573643207550049
0.5319114923477173 0.1472867727279663 0.4728682041168213
0.5455257296562195 0.06976747512817383 -0.007751941680908203
0.5408698916435242 0.06976747512817383 0.11627912521362305
0.5499526262283325 0.08527135848999023 0.02325582504272461
0.5392091274261475 0.10077524185180664 0.27131783962249756
0.5479066371917725 0.10077524185180664 0.28682172298431396
0.5479575395584106 0.1472867727279663 0.30232560634613037
0.5569146871566772 0.007751941680908203 -0.08527129888534546
0.5535383224487305 0.007751941680908203 -0.038759708404541016
0.5558785796165466 0.02325582504272461 -0.06976741552352905
0.5549025535583496 0.08527135848999023 0.19379842281341553
0.5525104403495789 0.10077523440122604 0.30232560634613037
0.5506976246833801 0.11627912521362305 0.41085267066955566
0.5516535043716431 0.1317828893661499 0.20930230617523193
0.5577208995819092 0.1317828893661499 0.4728682041168213
0.5552394390106201 0.1472867727279663 0.4883720874786377
0.5618579983711243 0.1472867727279663 0.5038759708404541
0.5647004842758179 0.1472867727279663 0.5193798542022705
0.5700671672821045 0.06976747512817383 0.1317828893661499
0.5797790288925171 0.08527135848999023 0.20930230617523193
0.5698174238204956 0.10077524185180664 0.3178294897079468
0.5786486268043518 0.11627912521362305 0.42635655403137207
0.5746756792068481 0.1317828893661499 0.22480618953704834
0.5704593062400818 0.1317828893661499 0.4883720874786377
0.5738374590873718 0.1317828893661499 0.5038759708404541
0.5789892077445984 0.1317828893661499 0.5193798542022705
0.5683704614639282 0.1472867727279663 0.3178294897079468
0.5734468698501587 0.1472867727279663 0.5348837375640869
0.5818161368370056 0.007751941680908203 -0.06976741552352905
0.5836800336837769 0.007751941680908203 -0.05426359176635742
0.5895752906799316 0.05426359176635742 0.08527135848999023
0.5926716923713684 0.10077524185180664 0.3333333730697632
0.5886734127998352 0.1472867727279663 0.3333333730697632
0.5999780893325806 0.02325582504272461 -0.05426359176635742
0.6106927394866943 0.06976747512817383 0.1472867727279663
0.608299732208252 0.11627912521362305 0.1317828893661499
0.5986306667327881 0.11627912521362305 0.4418604373931885
0.6186306476593018 0.02325582504272461 -0.007751941680908203
0.6151086688041687 0.038759708404541016 -0.038759708404541016
0.6174429059028625 0.08527135848999023 0.22480618953704834
0.6145923733711243 0.11627912521362305 0.45736435055732727
0.615888774394989 0.1472867727279663 0.3488372564315796
0.6283790469169617 0.02325582504272461 -0.03875970467925072
0.63700270652771 0.02325582504272461 -0.02325582504272461
0.6342794299125671 0.05426359176635742 -0.02325582504272461
0.6382917165756226 0.11627912521362305 0.4728682041168213
0.6521358489990234 0.038759708404541016 -0.02325582504272461
0.6476746797561646 0.06976747512817383 -0.00775194214656949
0.6743674278259277 0.05426359176635742 -0.007751941680908203
0.6672134399414062 0.05426359176635742 0.10077524185180664
0.6739925146102905 0.06976747512817383 0.16279065608978271
0.6685635447502136 0.08527135848999023 0.24031007289886475
0.6734413504600525 0.11627912521362305 0.1317828893661499
0.6597519516944885 0.1472867727279663 0.5348837375640869
0.678980827331543 0.038759708404541016 -0.007751941680908203
0.6832023859024048 0.08527135848999023 0.02325582504272461
0.6855723857879639 0.11627912521362305 0.4728682041168213
0.6793040633201599 0.1317828893661499 0.5193798542022705
0.6819983720779419 0.1472867727279663 0.5193798542022705
0.7003560662269592 0.038759708404541016 0.007751941680908203
0.7029593586921692 0.038759708404541016 0.038759708404541016
0.69957435131073 0.05426359176635742 0.007751941680908203
0.6926729679107666 0.06976747512817383 0.00775194214656949
0.6975712776184082 0.10077524185180664 0.3333333730697632
0.6926946043968201 0.1317828893661499 0.5038759708404541
0.6945903897285461 0.1472867727279663 0.5038759708404541
0.7096700668334961 0.038759708404541016 0.02325582504272461
0.7113339900970459 0.05426359176635742 0.10077524185180664
0.7179867625236511 0.06976747512817383 0.16279065608978271
0.7203750014305115 0.11627912521362305 0.4418604373931885
0.706151008605957 0.11627913266420364 0.4573643207550049
0.7105170488357544 0.1317828893661499 0.22480618953704834
0.7068097591400146 0.1317828893661499 0.4883720874786377
0.7083469033241272 0.1472867727279663 0.4883720874786377
0.7216458916664124 0.05426359176635742 0.02325582504272461
0.7334163784980774 0.05426359176635742 0.08527135848999023
0.7220569849014282 0.06976747512817383 0.02325582504272461
0.7219237089157104 0.08527135848999023 0.24031007289886475
0.7298877239227295 0.10077524185180664 0.3178294897079468
0.7302039861679077 0.11627912521362305 0.42635655403137207
0.7220757007598877 0.1317828893661499 0.4728682041168213
0.7234348654747009 0.1472867727279663 0.4728682041168213
0.7394154071807861 0.05426359176635742 0.038759708404541016
0.750438928604126 0.05426359176635742 0.05426359176635742
0.7510400414466858 0.05426359176635742 0.06976747512817383
0.7422561049461365 0.06976747512817383 0.038759708404541016
0.7507790923118591 0.06976747512817383 0.1472867727279663
0.7392409443855286 0.08527135848999023 0.038759708404541016
0.7411806583404541 0.08527135848999023 0.22480620443820953
0.7490317821502686 0.11627912521362305 0.39534878730773926
0.7403930425643921 0.11627913266420364 0.41085267066955566
0.7374938726425171 0.1317828893661499 0.4573643207550049
0.738297700881958 0.1472867727279663 0.4573643207550049
0.7592906951904297 0.06976747512817383 0.05426359176635742
0.7654276490211487 0.08527135848999023 0.05426359176635742
0.765779435634613 0.08527135848999023 0.20930230617523193
0.761281430721283 0.10077524185180664 0.30232560634613037
0.7643548250198364 0.11627912521362305 0.37984490394592285
0.7528226375579834 0.1317828893661499 0.4418604373931885
0.7528481483459473 0.1472867727279663 0.4418604373931885
0.7729521989822388 0.06976747512817383 0.06976747512817383
0.7780484557151794 0.11627912521362305 0.364341139793396
0.7716696858406067 0.1317828893661499 0.20930230617523193
0.7704721093177795 0.1317828893661499 0.42635655403137207
0.7711201906204224 0.1472867727279663 0.42635658383369446
0.7842669486999512 0.06976747512817383 0.08527135848999023
0.7898476123809814 0.06976747512817383 0.10077524185180664
0.7909602522850037 0.06976747512817383 0.11627912521362305
0.7832226157188416 0.06976747512817383 0.1317828893661499
0.7834687829017639 0.08527135848999023 0.06976747512817383
0.7878605127334595 0.08527135848999023 0.19379842281341553
0.7864001989364624 0.10077524185180664 0.06976747512817383
0.7907527685165405 0.10077524185180664 0.28682172298431396
0.7909084558486938 0.11627912521362305 0.3488372564315796
0.7943838834762573 0.1472867727279663 0.3488372564315796
0.7986333966255188 0.08527135848999023 0.08527135848999023
0.810593843460083 0.08527135848999023 0.10077524185180664
0.8100396990776062 0.08527135848999023 0.17829453945159912
0.8063869476318359 0.10077524185180664 0.08527135848999023
0.8052065372467041 0.11627912521362305 0.3333333730697632
0.8246278762817383 0.10077524185180664 0.10077524185180664
0.8206313848495483 0.1317828893661499 0.19379842281341553
0.8373805284500122 0.08527135848999023 0.11627912521362305
0.8321781158447266 0.10077524185180664 0.27131783962249756
0.8383136987686157 0.1472867727279663 0.3333333730697632
0.859216570854187 0.08527135848999023 0.1317828893661499
0.8506883382797241 0.08527135848999023 0.16279065608978271
0.8478220701217651 0.10077524185180664 0.11627912521362305
0.8574922680854797 0.10077524185180664 0.25581395626068115
0.8463963270187378 0.11627912521362305 0.3178294897079468
0.8474854826927185 0.1317828893661499 0.41085267066955566
0.8652740716934204 0.08527135848999023 0.1472867727279663
0.8705015182495117 0.10077524185180664 0.1317828893661499
0.8720393180847168 0.10077524185180664 0.24031007289886475
0.8609328866004944 0.11627912521362305 0.1317828893661499
0.8754330277442932 0.11627912521362305 0.30232560634613037
0.8706244230270386 0.1317828893661499 0.19379842281341553
0.8716781139373779 0.1317828893661499 0.39534878730773926
0.8711625933647156 0.1472867727279663 0.3333333730697632
0.8694905042648315 0.1472867727279663 0.41085267066955566
0.8841509819030762 0.10077524185180664 0.20930230617523193
0.8784669637680054 0.10077524185180664 0.22480618953704834
0.8818626999855042 0.11627912521362305 0.1472867727279663
0.878931999206543 0.1317828893661499 0.37984490394592285
0.8854182958602905 0.1472867727279663 0.37984490394592285
0.8836008310317993 0.1472867727279663 0.39534878730773926
0.8917089104652405 0.10077523440122604 0.1472867727279663
0.8976655006408691 0.10077524185180664 0.16279065608978271
0.8974494934082031 0.10077524185180664 0.17829453945159912
0.89193195104599 0.10077523440122604 0.19379842281341553
0.8983514904975891 0.11627912521362305 0.16279065608978271
0.906711757183075 0.1317828893661499 0.3488372564315796
0.8922144770622253 0.1317828893661499 0.364341139793396
0.8970323801040649 0.1472867727279663 0.3488372564315796
0.8930642008781433 0.1472867727279663 0.364341139793396
0.9120148420333862 0.11627913266420364 0.17829453945159912
0.9164162874221802 0.11627912521362305 0.19379842281341553
0.9140522480010986 0.11627912521362305 0.20930230617523193
0.9138345122337341 0.11627912521362305 0.22480618953704834
0.9155558943748474 0.11627912521362305 0.24031007289886475
0.9204317331314087 0.11627912521362305 0.28682172298431396
0.9092038869857788 0.1317828893661499 0.20930230617523193
0.9187320470809937 0.1317828893661499 0.22480618953704834
0.9209703803062439 0.1317828893661499 0.3333333730697632
0.9313176870346069 0.11627912521362305 0.25581395626068115
0.9286749362945557 0.1317828893661499 0.24031007289886475
0.9477847814559937 0.11627912521362305 0.27131783962249756
0.9674046635627747 0.11627912521362305 0.27131783962249756
0.9604529738426208 0.1317828893661499 0.30232560634613037
0.9580970406532288 0.1317828893661499 0.3178294897079468
0.9690463542938232 0.11627912521362305 0.27131783962249756
0.9700247049331665 0.1317828893661499 0.25581395626068115
0.9841735363006592 0.1317828893661499 0.27131783962249756
0.9845719337463379 0.1317828893661499 0.28682172298431396
-0.9844961166381836 0.1304781585931778 0.27131783962249756
-0.9844961166381836 0.13218489289283752 0.27131783962249756
-0.9689922332763672 0.11580253392457962 0.27131783962249756
-0.9689922332763672 0.12448534369468689 0.25581395626068115
-0.9689922332763672 0.1264554262161255 0.28682172298431396
-0.9689922332763672 0.1333545297384262 0.25581395626068115
-0.9689922332763672 0.1352982223033905 0.27131783962249756
-0.9689922332763672 0.13486717641353607 0.28682172298431396
-0.9534883499145508 0.11613773554563522 0.25581395626068115
-0.9534883499145508 0.11542439460754395 0.27131783962249756
-0.9534883499145508 0.12435142695903778 0.28682172298431396
-0.9534883499145508 0.13402606546878815 0.25581395626068115
-0.9534884095191956 0.13499459624290466 0.27131783962249756
-0.9534883499145508 0.13506707549095154 0.28682172298431396
-0.9379844665527344 0.11484625190496445 0.25581395626068115
-0.9379844665527344 0.11497708410024643 0.27131783962249756
-0.9379844665527344 0.11856573075056076 0.28682172298431396
-0.9379844665527344 0.12804117798805237 0.30232560634613037
-0.9379844665527344 0.13421159982681274 0.25581395626068115
-0.9379844665527344 0.1352655440568924 0.27131783962249756
-0.9379844665527344 0.1352226436138153 0.28682172298431396
-0.9379844665527344 0.13467289507389069 0.30232560634613037
-0.9224806427955627 0.11503376811742783 0.24031007289886475
-0.9224806427955627 0.11398663371801376 0.25581395626068115
-0.922480583190918 0.11397337913513184 0.27131783962249756
-0.9224806427955627 0.11534309387207031 0.28682172298431396
-0.9224806427955627 0.12498259544372559 0.30232560634613037
-0.922480583190918 0.1290840059518814 0.3178294897079468
-0.9224806427955627 0.13186082243919373 0.24031007289886475
-0.9224806427955627 0.13407161831855774 0.25581395626068115
-0.9224806427955627 0.13576120138168335 0.27131783962249756
-0.9224807024002075 0.13567441701889038 0.28682172298431396
-0.9224806427955627 0.13521704077720642 0.30232560634613037
-0.9224806427955627 0.1345621794462204 0.3178294897079468
-0.9069766998291016 0.11323029547929764 0.17829453945159912
-0.9069766998291016 0.1109374612569809 0.19379842281341553
-0.9069766998291016 0.11217767000198364 0.20930230617523193
-0.9069767594337463 0.11196963489055634 0.22480618953704834
-0.9069768190383911 0.11196129769086838 0.24031007289886475
-0.9069767594337463 0.11241599917411804 0.25581395626068115
-0.9069767594337463 0.1118675023317337 0.27131783962249756
-0.9069767594337463 0.11410380899906158 0.28682172298431396
-0.9069768190383911 0.11777409166097641 0.17829453945159912
-0.9069766998291016 0.12228837609291077 0.19379842281341553
-0.9069767594337463 0.12689457833766937 0.20930230617523193
-0.9069767594337463 0.11982016265392303 0.30232560634613037
-0.9069768190383911 0.12670361995697021 0.3178294897079468
-0.9069767594337463 0.1280592381954193 0.3333333730697632
-0.9069766998291016 0.13193441927433014 0.22480618953704834
-0.9069767594337463 0.13299420475959778 0.24031007289886475
-0.9069768190383911 0.1341763585805893 0.25581395626068115
-0.9069766998291016 0.13644462823867798 0.27131783962249756
-0.9069767594337463 0.13622599840164185 0.28682172298431396
-0.9069767594337463 0.1354806125164032 0.30232560634613037
-0.9069767594337463 0.13569660484790802 0.3178294897079468
-0.9069766998291016 0.13753047585487366 0.3333333730697632
-0.8914729356765747 0.0980546846985817 0.16279065608978271
-0.8914728760719299 0.09907021373510361 0.17829453945159912
-0.8914728760719299 0.10066335648298264 0.19379842281341553
-0.8914729356765747 0.10553945600986481 0.20930230617523193
-0.8914729356765747 0.10719051957130432 0.22480618953704834
-0.8914728760719299 0.10816210508346558 0.24031007289886475
-0.8914728760719299 0.10974355041980743 0.25581395626068115
-0.8914728164672852 0.11013783514499664 0.27131783962249756
-0.8914728760719299 0.11321715265512466 0.28682172298431396
-0.8914728760719299 0.11616174876689911 0.30232560634613037
-0.8914728760719299 0.11840013414621353 0.1627906709909439
-0.8914728164672852 0.12156200408935547 0.17829453945159912
-0.8914728164672852 0.126445934176445 0.19379842281341553
-0.8914728760719299 0.1315852552652359 0.20930230617523193
-0.8914729356765747 0.12396299839019775 0.3178294897079468
-0.8914729356765747 0.12582539021968842 0.3333333730697632
-0.8914728760719299 0.1280469298362732 0.3488372564315796
-0.8914728760719299 0.13254623115062714 0.22480618953704834
-0.8914728760719299 0.13315309584140778 0.24031007289886475
-0.8914729356765747 0.1344090849161148 0.25581395626068115
-0.8914729356765747 0.13660302758216858 0.27131783962249756
-0.8914728164672852 0.13633285462856293 0.28682172298431396
-0.8914729356765747 0.13547593355178833 0.30232560634613037
-0.8914728164672852 0.13669972121715546 0.3178294897079468
-0.8914729356765747 0.13953477144241333 0.3333333730697632
-0.8914728760719299 0.1424882709980011 0.3488372564315796
-0.8759689927101135 0.08919499069452286 0.1472867727279663
-0.8759689927101135 0.09305474162101746 0.16279065608978271
-0.8759689927101135 0.09605786204338074 0.17829453945159912
-0.8759689927101135 0.09799902141094208 0.19379842281341553
-0.8759689927101135 0.09984077513217926 0.20930230617523193
-0.8759689927101135 0.10077384114265442 0.22480618953704834
-0.8759690523147583 0.10390697419643402 0.24031007289886475
-0.8759690523147583 0.1072198748588562 0.25581395626068115
-0.8759689927101135 0.10906542837619781 0.27131783962249756
-0.8759689927101135 0.1126449704170227 0.28682172298431396
-0.8759689927101135 0.1155817061662674 0.30232560634613037
-0.8759690523147583 0.11762554198503494 0.1472867727279663
-0.8759689927101135 0.1199365183711052 0.16279065608978271
-0.8759689331054688 0.12355007231235504 0.17829453945159912
-0.8759690523147583 0.1276499330997467 0.19379842281341553
-0.8759689331054688 0.12127243727445602 0.3178294897079468
-0.8759689927101135 0.12445096671581268 0.3333333730697632
-0.8759690523147583 0.12670348584651947 0.3488372564315796
-0.8759689927101135 0.1284368336200714 0.364341139793396
-0.8759689927101135 0.1297977864742279 0.37984490394592285
-0.8759689927101135 0.1317015290260315 0.39534878730773926
-0.8759689927101135 0.13220301270484924 0.20930230617523193
-0.8759689927101135 0.13299505412578583 0.22480618953704834
-0.8759689927101135 0.13356052339076996 0.24031005799770355
-0.8759689927101135 0.1347268968820572 0.25581395626068115
-0.8759689927101135 0.13663534820079803 0.27131783962249756
-0.8759689927101135 0.13637414574623108 0.28682172298431396
-0.8759689927101135 0.13566401600837708 0.30232560634613037
-0.8759689927101135 0.13790810108184814 0.3178294897079468
-0.8759689927101135 0.14041849970817566 0.3333333730697632
-0.8759689927101135 0.1431044191122055 0.3488372564315796
-0.8759690523147583 0.14776581525802612 0.364341139793396
-0.8759689927101135 0.14880777895450592 0.37984490394592285
-0.8759690523147583 0.14791081845760345 0.39534878730773926
-0.8604651093482971 0.0838543251156807 0.1317828893661499
-0.8604651093482971 0.08349581062793732 0.1472867727279663
-0.8604650497436523 0.08862663805484772 0.16279065608978271
-0.8604651093482971 0.09344482421875 0.17829453945159912
-0.8604651093482971 0.09567929059267044 0.19379842281341553
-0.8604651093482971 0.09795751422643661 0.20930230617523193
-0.8604651093482971 0.0993308499455452 0.22480618953704834
-0.8604651093482971 0.10017216950654984 0.24031007289886475
-0.8604651093482971 0.10379339754581451 0.25581395626068115
-0.8604651093482971 0.10761849582195282 0.27131783962249756
-0.8604651093482971 0.11186809837818146 0.28682172298431396
-0.8604651093482971 0.1149023249745369 0.30232560634613037
-0.8604651093482971 0.11634766310453415 0.1317828893661499
-0.8604651093482971 0.11829638481140137 0.1472867727279663
-0.8604650497436523 0.12064537405967712 0.16279065608978271
-0.8604651093482971 0.12429259717464447 0.17829453945159912
-0.8604650497436523 0.12906798720359802 0.19379842281341553
-0.8604651689529419 0.1175851970911026 0.3178294897079468
-0.8604651093482971 0.12273308634757996 0.3333333730697632
-0.8604651093482971 0.12541791796684265 0.3488372564315796
-0.8604651689529419 0.12753826379776 0.364341139793396
-0.8604651093482971 0.12819302082061768 0.37984490394592285
-0.8604651093482971 0.12832807004451752 0.39534878730773926
-0.8604651093482971 0.1290617436170578 0.41085267066955566
-0.8604651093482971 0.13273948431015015 0.20930230617523193
-0.8604650497436523 0.13352909684181213 0.22480618953704834
-0.8604650497436523 0.13407626748085022 0.24031007289886475
-0.8604650497436523 0.13530804216861725 0.25581395626068115
-0.8604650497436523 0.13730236887931824 0.27131783962249756
-0.8604650497436523 0.1371012032032013 0.28682172298431396
-0.8604651689529419 0.1362592577934265 0.30232560634613037
-0.8604651093482971 0.13891533017158508 0.3178294897079468
-0.8604650497436523 0.1412169337272644 0.3333333730697632
-0.8604651093482971 0.1436242163181305 0.3488372564315796
-0.8604651689529419 0.14750733971595764 0.364341139793396
-0.8604651093482971 0.14878982305526733 0.37984490394592285
-0.8604651093482971 0.149539053440094 0.39534881711006165
-0.8604650497436523 0.14904499053955078 0.4108526408672333
-0.8449611663818359 0.07920537889003754 0.1317828893661499
-0.8449612259864807 0.08271525800228119 0.1472867727279663
-0.8449612259864807 0.09082503616809845 0.11627912521362305
-0.8449611663818359 0.08570414036512375 0.16279065608978271
-0.8449612259864807 0.09305977821350098 0.17829453945159912
-0.8449612259864807 0.09546166658401489 0.19379842281341553
-0.8449612259864807 0.09739365428686142 0.20930230617523193
-0.8449612259864807 0.09885071963071823 0.22480618953704834
-0.8449612259864807 0.0998372882604599 0.24031007289886475
-0.8449611663818359 0.10593637824058533 0.11627912521362305
-0.8449612259864807 0.10236138850450516 0.25581395626068115
-0.8449612259864807 0.10699780285358429 0.27131783962249756
-0.8449611663818359 0.1112457811832428 0.28682172298431396
-0.8449612259864807 0.11453542113304138 0.30232560634613037
-0.8449612259864807 0.11731314659118652 0.1317828893661499
-0.8449612259864807 0.11837797611951828 0.1472867727279663
-0.8449612259864807 0.1211618036031723 0.16279065608978271
-0.8449612259864807 0.12458990514278412 0.17829453945159912
-0.8449612259864807 0.1302453875541687 0.19379842281341553
-0.8449612259864807 0.11739644408226013 0.3178294897079468
-0.8449612259864807 0.1228983998298645 0.3333333730697632
-0.8449611663818359 0.12577906250953674 0.3488372564315796
-0.8449612259864807 0.12834742665290833 0.364341139793396
-0.8449612855911255 0.12854239344596863 0.37984490394592285
-0.8449612259864807 0.12801797688007355 0.39534878730773926
-0.8449612259864807 0.1283164918422699 0.41085267066955566
-0.8449612259864807 0.1306285560131073 0.42635655403137207
-0.8449612259864807 0.1332721710205078 0.20930230617523193
-0.8449612259864807 0.1343868374824524 0.22480618953704834
-0.8449612259864807 0.13494980335235596 0.24031007289886475
-0.8449612259864807 0.13638342916965485 0.25581395626068115
-0.8449611663818359 0.1387825310230255 0.27131783962249756
-0.8449611663818359 0.13881057500839233 0.28682172298431396
-0.8449611663818359 0.13758619129657745 0.30232560634613037
-0.8449612259864807 0.13961517810821533 0.3178294897079468
-0.8449612855911255 0.14194539189338684 0.3333333730697632
-0.8449612259864807 0.1440889537334442 0.3488372564315796
-0.8449612259864807 0.14515192806720734 0.364341139793396
-0.8449612259864807 0.14836452901363373 0.37984490394592285
-0.8449611663818359 0.1493189036846161 0.39534878730773926
-0.8449612259864807 0.1494535207748413 0.41085267066955566
-0.8449612259864807 0.14794008433818817 0.42635655403137207
-0.8294573426246643 0.08289140462875366 0.11627912521362305
-0.8294572830200195 0.07933825999498367 0.1317828893661499
-0.8294574022293091 0.08240682631731033 0.1472867727279663
-0.8294573426246643 0.08579377830028534 0.16279065608978271
-0.8294573426246643 0.09338697046041489 0.17829453945159912
-0.8294574022293091 0.09535194933414459 0.19379842281341553
-0.8294573426246643 0.09673795849084854 0.20930230617523193
-0.8294573426246643 0.09841572493314743 0.22480618953704834
-0.8294573426246643 0.09964223206043243 0.24031007289886475
-0.8294573426246643 0.10076970607042313 0.25581395626068115
-0.8294573426246643 0.11537262052297592 0.11627912521362305
-0.8294573426246643 0.10641957819461823 0.27131783962249756
-0.8294573426246643 0.11081299185752869 0.28682172298431396
-0.8294573426246643 0.11419638246297836 0.30232560634613037
-0.8294573426246643 0.11772707849740982 0.1317828893661499
-0.8294572830200195 0.1189434751868248 0.1472867727279663
-0.8294573426246643 0.12161755561828613 0.16279065608978271
-0.8294573426246643 0.12455278635025024 0.17829453945159912
-0.8294573426246643 0.13093149662017822 0.19379842281341553
-0.8294573426246643 0.11644749343395233 0.3178294897079468
-0.8294573426246643 0.12314155697822571 0.3333333730697632
-0.8294573426246643 0.12629656493663788 0.3488372564315796
-0.8294573426246643 0.12886016070842743 0.364341139793396
-0.8294573426246643 0.12896279990673065 0.37984490394592285
-0.8294573426246643 0.1281621903181076 0.39534878730773926
-0.8294573426246643 0.1286681890487671 0.41085267066955566
-0.8294573426246643 0.13119493424892426 0.42635655403137207
-0.8294573426246643 0.13356658816337585 0.20930230617523193
-0.8294572830200195 0.13482989370822906 0.22480618953704834
-0.8294574022293091 0.1357959806919098 0.24031007289886475
-0.8294574022293091 0.13726623356342316 0.25581395626068115
-0.8294573426246643 0.13956274092197418 0.27131783962249756
-0.8294573426246643 0.13967788219451904 0.28682172298431396
-0.8294573426246643 0.13868063688278198 0.30232560634613037
