-0.038759708404541016 -0.06976741552352905 0.018010353669524193
-0.038759708404541016 -0.06976741552352905 0.040812812745571136
-0.038759708404541016 -0.05426359176635742 0.011902570724487305
-0.038759708404541016 -0.05426359176635742 0.04019945487380028
-0.038759708404541016 -0.038759708404541016 0.010045990347862244
-0.038759708404541016 -0.038759708404541016 0.03492920845746994
-0.038759708404541016 -0.02325582504272461 0.003773908130824566
-0.038759708404541016 -0.02325582504272461 0.0339713953435421
-0.038759708404541016 -0.00775194214656949 -0.0002779481001198292
-0.038759708404541016 -0.007751941680908203 0.03387836739420891
-0.038759708404541016 0.007751941680908203 -0.0025157462805509567
-0.038759708404541016 0.007751941680908203 0.03116646781563759
-0.038759708404541016 0.02325582504272461 -0.004714515991508961
-0.038759708404541016 0.02325582318007946 0.028018580749630928
-0.038759708404541016 0.038759708404541016 -0.008636318147182465
-0.03875970467925072 0.03875970467925072 0.025317121297121048
-0.038759708404541016 0.05426359176635742 -0.011105667799711227
-0.038759708404541016 0.05426359176635742 0.023281317204236984
-0.038759708404541016 0.06976747512817383 -0.012496104463934898
-0.038759708404541016 0.06976747512817383 0.015549344941973686
-0.038759708404541016 0.08527135848999023 -0.010810602456331253
-0.038759708404541016 0.08527135848999023 0.010981215164065361
-0.038759708404541016 0.10077524185180664 -0.009087051264941692
-0.038759708404541016 0.10077524185180664 0.008731584995985031
-0.038759708404541016 0.11627912521362305 -0.016712578013539314
-0.038759708404541016 0.11627912521362305 0.008188992738723755
-0.038759708404541016 0.1317828893661499 -0.03558212146162987
-0.038759708404541016 0.1317829042673111 0.007909499108791351
-0.038759708404541016 0.1472867727279663 -0.04043025150895119
-0.038759708404541016 0.1472867727279663 0.004544973373413086
-0.038759708404541016 0.16279065608978271 -0.04198121279478073
-0.038759708404541016 0.16279065608978271 0.0010371645912528038
-0.038759708404541016 0.17829453945159912 -0.04288864880800247
-0.038759708404541016 0.17829453945159912 -0.002218079287558794
-0.038759708404541016 0.19379842281341553 -0.04307548701763153
-0.038759708404541016 0.19379842281341553 -0.0070805419236421585
-0.038759708404541016 0.20930230617523193 -0.04221940040588379
-0.038759708404541016 0.20930230617523193 -0.019859889522194862
-0.038759708404541016 0.22480618953704834 -0.03907609358429909
-0.038759708404541016 0.22480618953704834 -0.03728901222348213
-0.02325582504272461 -0.5193798542022705 0.06771345436573029
-0.02325582504272461 -0.5193798542022705 0.07192716002464294
-0.02325582504272461 -0.5038759708404541 0.06059686094522476
-0.02325582504272461 -0.5038759708404541 0.08773264288902283
-0.02325582504272461 -0.4883721172809601 0.05732118338346481
-0.02325582504272461 -0.4883720874786377 0.09377101063728333
-0.02325582504272461 -0.4728682041168213 0.05558325722813606
-0.02325582504272461 -0.4728682339191437 0.10082688927650452
-0.02325582690536976 -0.4573643207550049 0.05482032522559166
-0.02325582504272461 -0.4573643207550049 0.10382010042667389
-0.02325582504272461 -0.4418604373931885 0.05348221957683563
-0.02325582504272461 -0.4418604373931885 0.1084226742386818
-0.02325582504272461 -0.42635661363601685 0.05157480016350746
-0.02325582504272461 -0.42635661363601685 0.10992233455181122
-0.02325582504272461 -0.41085273027420044 0.04980040341615677
-0.02325582504272461 -0.41085273027420044 0.10799089074134827
-0.02325582504272461 -0.39534884691238403 0.048712946474552155
-0.02325582504272461 -0.39534884691238403 0.10285890102386475
-0.02325582504272461 -0.3798449635505676 0.050290778279304504
-0.02325582504272461 -0.3798449635505676 0.09373591840267181
-0.02325582504272461 -0.3643410801887512 0.052735865116119385
-0.02325582504272461 -0.3643410801887512 0.08896180242300034
-0.02325582690536976 -0.3488371968269348 0.05438810959458351
-0.02325582504272461 -0.3488371670246124 0.08632174134254456
-0.02325582504272461 -0.3333333134651184 0.05437631532549858
-0.02325582504272461 -0.3333333134651184 0.08539409190416336
-0.02325582504272461 -0.317829430103302 0.052890270948410034
-0.02325582504272461 -0.317829430103302 0.08541805297136307
-0.02325582504272461 -0.30232560634613037 0.05122049152851105
-0.02325582690536976 -0.30232563614845276 0.08538112789392471
-0.02325582504272461 -0.28682172298431396 0.05010851100087166
-0.02325582504272461 -0.28682172298431396 0.0843791514635086
-0.02325582504272461 -0.27131783962249756 0.04905889183282852
-0.02325582504272461 -0.27131783962249756 0.08339101076126099
-0.02325582504272461 -0.25581395626068115 0.04764757305383682
-0.02325582504272461 -0.25581395626068115 0.08369334787130356
-0.02325582504272461 -0.24031007289886475 0.04588889330625534
-0.02325582504272461 -0.24031007289886475 0.08432809263467789
-0.02325582504272461 -0.22480618953704834 0.04338847100734711
-0.02325582504272461 -0.22480618953704834 0.08186576515436172
-0.02325582504272461 -0.20930230617523193 0.03762375935912132
-0.02325582504272461 -0.20930230617523193 0.07729718089103699
-0.02325582504272461 -0.19379842281341553 0.009657028131186962
-0.02325582504272461 -0.19379842281341553 0.07393157482147217
-0.02325582504272461 -0.1782945990562439 0.00395209901034832
-0.02325582504272461 -0.1782945990562439 0.07135657966136932
-0.02325582504272461 -0.1627907156944275 0.004249519668519497
-0.02325582504272461 -0.1627907156944275 0.06456233561038971
-0.02325582504272461 -0.14728683233261108 0.004059105180203915
-0.02325582504272461 -0.14728683233261108 0.03043517842888832
-0.02325582504272461 -0.14728683233261108 0.04817042127251625
-0.02325582504272461 -0.14728683233261108 0.05592603608965874
-0.02325582504272461 -0.13178294897079468 0.0024000040721148252
-0.02325582504272461 -0.13178294897079468 0.03018159046769142
-0.02325582504272461 -0.11627907305955887 -0.0007953550666570663
-0.02325582504272461 -0.11627906560897827 0.031252291053533554
-0.02325582504272461 -0.10077518224716187 -0.005819885991513729
-0.02325582504272461 -0.10077518224716187 0.032051388174295425
-0.02325582504272461 -0.08527129888534546 -0.009586136788129807
-0.02325582504272461 -0.08527129888534546 0.0328659825026989
-0.02325582504272461 -0.06976741552352905 -0.012823598459362984
-0.02325582504272461 -0.06976741552352905 0.03811868652701378
-0.02325582504272461 -0.05426359176635742 -0.01662903092801571
-0.02325582504272461 -0.05426359176635742 0.0370415523648262
-0.02325582504272461 -0.038759708404541016 -0.022118868306279182
-0.02325582504272461 -0.038759708404541016 0.03365648537874222
-0.02325582504272461 -0.02325582504272461 -0.026485947892069817
-0.02325582504272461 -0.02325582504272461 0.0356605127453804
-0.02325582504272461 -0.007751941680908203 -0.031622257083654404
-0.02325582504272461 -0.007751941680908203 0.035399727523326874
-0.02325582504272461 0.00775194214656949 -0.03460875153541565
-0.02325582504272461 0.007751941680908203 0.03277718275785446
-0.02325582504272461 0.02325582504272461 -0.03393629193305969
-0.02325582504272461 0.02325582504272461 0.028691157698631287
-0.02325582504272461 0.038759708404541016 -0.0358499139547348
-0.02325582504272461 0.038759708404541016 0.024811480194330215
-0.02325582504272461 0.05426359176635742 -0.03951939940452576
-0.02325582504272461 0.05426359176635742 0.01860661990940571
-0.02325582504272461 0.06976747512817383 -0.04119376838207245
-0.02325582504272461 0.06976747512817383 0.012669497169554234
-0.02325582504272461 0.08527135848999023 -0.04334188997745514
-0.02325582504272461 0.08527135848999023 0.010222524404525757
-0.02325582504272461 0.10077524185180664 -0.04570658504962921
-0.02325582504272461 0.10077524185180664 0.009025645442306995
-0.02325582504272461 0.11627911776304245 -0.047452233731746674
-0.02325582690536976 0.11627913266420364 0.008370732888579369
-0.02325582504272461 0.1317828893661499 -0.0485384538769722
-0.02325582504272461 0.1317828893661499 0.006204527802765369
-0.02325582504272461 0.1472867727279663 -0.04969176650047302
-0.02325582504272461 0.1472867727279663 0.0022951040882617235
-0.02325582504272461 0.16279065608978271 -0.05089542269706726
-0.02325582504272461 0.16279065608978271 0.0004759558942168951
-0.02325582504272461 0.17829453945159912 -0.05177336931228638
-0.02325582504272461 0.17829453945159912 -0.0016593001782894135
-0.02325582504272461 0.19379842281341553 -0.052477337419986725
-0.02325582504272461 0.19379842281341553 -0.0053180824033916
-0.02325582504272461 0.20930230617523193 -0.05360907316207886
-0.02325582504272461 0.20930230617523193 -0.011113310232758522
-0.02325582504272461 0.22480618953704834 -0.0544511079788208
-0.02325582504272461 0.22480618953704834 -0.01938481628894806
-0.02325582504272461 0.24031007289886475 -0.05495784431695938
-0.02325582504272461 0.24031007289886475 -0.023967726156115532
-0.02325582504272461 0.25581395626068115 -0.05568850040435791
-0.02325582504272461 0.25581395626068115 -0.033374473452568054
-0.02325582504272461 0.27131783962249756 -0.05655008926987648
-0.02325582504272461 0.27131783962249756 -0.03752222657203674
-0.02325582504272461 0.28682172298431396 -0.0569986030459404
-0.02325582504272461 0.28682172298431396 -0.04148484021425247
-0.02325582504272461 0.30232560634613037 -0.05578135699033737
-0.02325582504272461 0.30232560634613037 -0.05096672475337982
-0.007751941680908203 -0.5348837375640869 0.049706775695085526
-0.007751941680908203 -0.5348837375640869 0.07336040586233139
-0.007751941680908203 -0.5193798542022705 0.04854969680309296
-0.007751941680908203 -0.5193798542022705 0.08228172361850739
-0.007751941680908203 -0.5038759708404541 0.049207571893930435
-0.007751941680908203 -0.5038759708404541 0.08968387544155121
-0.007751941680908203 -0.4883720874786377 0.04876809939742088
-0.007751941680908203 -0.4883720874786377 0.095957912504673
-0.007751941680908203 -0.4728682041168213 0.047853983938694
-0.007751941680908203 -0.4728682041168213 0.10152100771665573
-0.007751941680908203 -0.4573643207550049 0.04641135409474373
-0.007751941680908203 -0.4573643207550049 0.10448382049798965
-0.00775194214656949 -0.44186046719551086 0.043663389980793
-0.007751941680908203 -0.4418604373931885 0.10848245024681091
-0.007751941680908203 -0.42635661363601685 0.03838897496461868
-0.007751941680908203 -0.42635661363601685 0.11007462441921234
-0.007751941680908203 -0.41085273027420044 0.036137621849775314
-0.007751941680908203 -0.41085273027420044 0.1085016131401062
-0.007751941680908203 -0.39534884691238403 0.034068334847688675
-0.007751941680908203 -0.39534884691238403 0.10409650206565857
-0.007751941680908203 -0.3798449635505676 0.03284294158220291
-0.007751941680908203 -0.3798449635505676 0.09815801680088043
-0.007751941680908203 -0.3643410801887512 0.03279506415128708
-0.007751941680908203 -0.3643410801887512 0.093873992562294
-0.007751941680908203 -0.3488371968269348 -0.10331498831510544
-0.007751941680908203 -0.3488371968269348 -0.09675227850675583
-0.007751941680908203 -0.3488371968269348 0.033507559448480606
-0.007751941680908203 -0.3488371968269348 0.09181143343448639
-0.007751941680908203 -0.3333333134651184 -0.10161301493644714
-0.007751941680908203 -0.333333283662796 -0.08457379788160324
-0.007751941680908203 -0.3333333134651184 0.03446600213646889
-0.007751941680908203 -0.3333333134651184 0.08973726630210876
-0.007751941680908203 -0.317829430103302 0.03459329530596733
-0.007751941680908203 -0.317829430103302 0.08820840716362
-0.007751941680908203 -0.30232560634613037 0.034270063042640686
-0.007751941680908203 -0.30232560634613037 0.08702730387449265
-0.007751941680908203 -0.28682172298431396 0.03360623121261597
-0.007751941680908203 -0.28682172298431396 0.08607761561870575
-0.007751941680908203 -0.27131783962249756 0.031947385519742966
-0.007751941680908203 -0.27131783962249756 0.08547673374414444
-0.007751941680908203 -0.25581395626068115 0.02748745307326317
-0.007751941680908203 -0.25581395626068115 0.08540484309196472
-0.007751941680908203 -0.24031007289886475 0.01746959052979946
-0.007751941680908203 -0.24031008780002594 0.08546163141727448
-0.007751941680908203 -0.22480618953704834 -0.006234007887542248
-0.007751941680908203 -0.22480618953704834 0.08321802318096161
-0.007751941680908203 -0.20930230617523193 -0.020329898223280907
-0.007751941680908203 -0.20930230617523193 0.07842300832271576
-0.007751941680908203 -0.19379842281341553 -0.023306293413043022
-0.007751941680908203 -0.19379842281341553 0.07483633607625961
-0.00775194214656949 -0.1782945990562439 -0.018132897093892097
-0.007751941680908203 -0.1782945990562439 0.07212083786725998
-0.007751941680908203 -0.1627907156944275 -0.013328295201063156
-0.007751941680908203 -0.1627907156944275 0.06899168342351913
-0.007751941680908203 -0.14728683233261108 -0.011039169505238533
-0.007751941680908203 -0.14728683233261108 0.06077537685632706
-0.007751941680908203 -0.13178294897079468 -0.010744437575340271
-0.007751941680908203 -0.13178294897079468 0.05683298408985138
-0.007751941680908203 -0.11627906560897827 -0.012075243517756462
-0.007751941680908203 -0.11627906560897827 0.05390685796737671
-0.007751941680908203 -0.10077518224716187 -0.014975139871239662
-0.007751941680908203 -0.10077518224716187 0.04547697305679321
-0.007751941680908203 -0.08527129888534546 -0.020768025889992714
-0.007751941680908203 -0.08527129888534546 0.041788965463638306
-0.007751941680908203 -0.06976741552352905 -0.025468986481428146
-0.007751941215246916 -0.06976741552352905 0.04011501371860504
-0.007751941680908203 -0.05426359176635742 -0.030081775039434433
-0.007751941680908203 -0.05426359549164772 0.03904371336102486
-0.007751941680908203 -0.03875970467925072 -0.03788238391280174
-0.007751941680908203 -0.038759708404541016 0.03841107338666916
-0.007751941680908203 -0.02325582504272461 -0.04096366837620735
-0.007751941680908203 -0.02325582504272461 0.03802243992686272
-0.007751941680908203 -0.007751941680908203 -0.04306035861372948
-0.007751941680908203 -0.007751941680908203 0.03624223545193672
-0.007751941680908203 0.007751941680908203 -0.0450916662812233
-0.007751941680908203 0.007751941680908203 0.033483803272247314
-0.007751941680908203 0.02325582504272461 -0.04620499908924103
-0.007751941680908203 0.02325582504272461 0.029570940881967545
-0.007751941680908203 0.038759708404541016 -0.04692105948925018
-0.007751941215246916 0.03875970467925072 0.025555090978741646
-0.007751941680908203 0.05426359176635742 -0.04834623634815216
-0.007751941680908203 0.05426359176635742 0.021409442648291588
-0.007751941680908203 0.06976747512817383 -0.04971477389335632
-0.007751941680908203 0.06976747512817383 0.01537570171058178
-0.007751941215246916 0.08527135848999023 -0.05161037668585777
-0.007751941680908203 0.08527135848999023 0.012384863570332527
-0.007751941680908203 0.10077524185180664 -0.05410880967974663
-0.007751941680908203 0.10077524185180664 0.01064053550362587
-0.007751941680908203 0.11627912521362305 -0.05471836030483246
-0.007751941680908203 0.11627912521362305 0.0095448587089777
-0.007751941680908203 0.1317828893661499 -0.055153291672468185
-0.007751941680908203 0.1317828893661499 0.008558526635169983
-0.007751941680908203 0.1472867727279663 -0.055677980184555054
-0.007751941680908203 0.1472867727279663 0.007041097618639469
-0.007751941680908203 0.16279065608978271 -0.056001123040914536
-0.007751941680908203 0.16279065608978271 0.003991692326962948
-0.007751941680908203 0.17829453945159912 -0.056055840104818344
-0.007751941680908203 0.17829453945159912 0.0007673313375562429
-0.007751941680908203 0.19379842281341553 -0.05602859705686569
-0.007751941680908203 0.19379842281341553 -0.0033340100198984146
-0.007751941680908203 0.20930230617523193 -0.05614882707595825
-0.007751941680908203 0.20930230617523193 -0.0066541703417897224
-0.007751941680908203 0.22480618953704834 -0.056384071707725525
-0.007751941680908203 0.22480618953704834 -0.014149406924843788
-0.007751941680908203 0.24031007289886475 -0.056884974241256714
-0.007751941680908203 0.24031007289886475 -0.020054273307323456
-0.007751941680908203 0.25581395626068115 -0.05780664086341858
-0.007751941680908203 0.25581395626068115 -0.02246430702507496
-0.007751941680908203 0.27131783962249756 -0.05925053730607033
-0.007751941680908203 0.27131783962249756 -0.028413280844688416
-0.007751941680908203 0.28682172298431396 -0.061219722032547
-0.007751941680908203 0.28682172298431396 -0.03339046612381935
-0.007751941680908203 0.30232560634613037 -0.06453154236078262
-0.007751941680908203 0.30232560634613037 -0.03580694645643234
-0.007751941680908203 0.3178294897079468 -0.06858178973197937
-0.007751941680908203 0.31782951951026917 -0.03729173541069031
-0.007751941680908203 0.3333333730697632 -0.06989095360040665
-0.007751941680908203 0.3333333730697632 -0.040136031806468964
-0.007751941680908203 0.3488372564315796 -0.06728483736515045
-0.007751941680908203 0.3488372564315796 -0.050244592130184174
0.007751941680908203 -0.5348837375640869 0.049128010869026184
0.007751941680908203 -0.5348837375640869 0.07289430499076843
0.007751941680908203 -0.5193798542022705 0.04809151217341423
0.007751941680908203 -0.5193798542022705 0.08172066509723663
0.007751941680908203 -0.5038759708404541 0.04879753664135933
0.007751941680908203 -0.5038759708404541 0.08952286839485168
0.007751941680908203 -0.4883720874786377 0.0483102947473526
0.007751941680908203 -0.4883720874786377 0.0957886278629303
0.007751941680908203 -0.4728682041168213 0.04734569042921066
0.007751941680908203 -0.4728682041168213 0.10153958201408386
0.007751941680908203 -0.4573643207550049 0.0458596795797348
0.007751941680908203 -0.4573643207550049 0.10443788766860962
0.007751941680908203 -0.4418604373931885 0.043131161481142044
0.007751941680908203 -0.4418604373931885 0.10826413333415985
0.007751941680908203 -0.42635661363601685 0.038262031972408295
0.007751941680908203 -0.42635661363601685 0.1098586767911911
0.007751941680908203 -0.41085273027420044 0.03605728596448898
0.007751941680908203 -0.41085273027420044 0.10835044085979462
0.007751941680908203 -0.39534884691238403 0.03391709178686142
0.007751941680908203 -0.39534884691238403 0.1041249930858612
0.007751941680908203 -0.3798449635505676 0.03274177387356758
0.007751941680908203 -0.3798449635505676 0.09846369922161102
0.007751941680908203 -0.3643410801887512 0.03292889893054962
0.007751941680908203 -0.3643410801887512 0.09418849647045135
0.007751941680908203 -0.3488371968269348 -0.10298551619052887
0.007751941215246916 -0.3488371968269348 -0.09806759655475616
0.007751941680908203 -0.3488371968269348 0.03382164612412453
0.007751941680908203 -0.3488371968269348 0.09204892069101334
0.007751941680908203 -0.3333333134651184 -0.10117381066083908
0.00775194214656949 -0.3333333134651184 -0.09743859618902206
0.007751941680908203 -0.3333333134651184 0.03469417989253998
0.007751941680908203 -0.3333333134651184 0.08993449807167053
0.007751941680908203 -0.317829430103302 0.034225206822156906
0.007751941680908203 -0.317829430103302 0.08826804161071777
0.007751941680908203 -0.30232560634613037 0.03319694846868515
0.007751941680908203 -0.30232560634613037 0.08697627484798431
0.007751941680908203 -0.28682172298431396 0.031950678676366806
0.007751941680908203 -0.28682172298431396 0.08596739917993546
0.007751941680908203 -0.27131783962249756 -0.07051784545183182
0.007751941680908203 -0.27131783962249756 -0.0611574649810791
0.007751941680908203 -0.27131783962249756 0.02953401207923889
0.007751941680908203 -0.27131783962249756 0.08532694727182388
0.007751941680908203 -0.25581395626068115 -0.06281618773937225
0.007751941680908203 -0.25581395626068115 -0.05137120559811592
0.007751941680908203 -0.25581395626068115 0.02386566624045372
0.007751941680908203 -0.25581395626068115 0.08507252484560013
0.007751941680908203 -0.24031007289886475 -0.05571720004081726
0.007751941680908203 -0.24031007289886475 -0.04946218430995941
0.007751941680908203 -0.24031007289886475 0.012322057038545609
0.007751941680908203 -0.24031007289886475 0.0851156935095787
0.007751941680908203 -0.22480618953704834 -0.010519779287278652
0.007751941680908203 -0.22480618953704834 0.08256679773330688
0.007751941680908203 -0.20930230617523193 -0.023203987628221512
0.007751941680908203 -0.20930230617523193 0.07818831503391266
0.007751941680908203 -0.19379842281341553 -0.024520544335246086
0.007751941680908203 -0.19379842281341553 0.07478763908147812
0.007751941680908203 -0.1782945990562439 -0.019730057567358017
0.007751941680908203 -0.1782945990562439 0.07212729007005692
0.007751941680908203 -0.1627907156944275 -0.01463252305984497
0.007751941680908203 -0.1627907156944275 0.06897969543933868
0.007751941680908203 -0.14728683233261108 -0.012069148942828178
0.007751941680908203 -0.14728683233261108 0.060690995305776596
0.007751941680908203 -0.13178294897079468 -0.011832987889647484
0.007751941680908203 -0.13178294897079468 0.056822601705789566
0.007751941680908203 -0.11627906560897827 -0.01361233089119196
0.007751941680908203 -0.11627906560897827 0.05392354726791382
0.007751941680908203 -0.10077518224716187 -0.016863558441400528
0.007751941215246916 -0.10077518224716187 0.045599564909935
0.007751941680908203 -0.08527129888534546 -0.0233454592525959
0.007751941680908203 -0.08527129888534546 0.041944921016693115
0.007751941680908203 -0.06976741552352905 -0.026525970548391342
0.007751941680908203 -0.06976741552352905 0.0402633473277092
0.007751941680908203 -0.05426359176635742 -0.031704314053058624
0.007751941680908203 -0.05426359176635742 0.03912567347288132
0.007751941680908203 -0.038759708404541016 -0.03905026242136955
0.007751941680908203 -0.038759708404541016 0.03838207572698593
0.007751941680908203 -0.02325582504272461 -0.041453201323747635
0.007751941680908203 -0.02325582504272461 0.03788430243730545
0.007751941680908203 -0.007751941680908203 -0.04367803782224655
0.007751941680908203 -0.007751941680908203 0.03611690178513527
0.007751941680908203 0.007751941680908203 -0.045594677329063416
0.007751941680908203 0.007751941680908203 0.0333939790725708
0.007751941680908203 0.02325582504272461 -0.04662808030843735
0.007751941680908203 0.02325582504272461 0.029508601874113083
0.007751941680908203 0.038759708404541016 -0.04730745404958725
0.007751941680908203 0.038759708404541016 0.02543303184211254
0.007751941680908203 0.05426358804106712 -0.04875266179442406
0.007751941680908203 0.05426359176635742 0.02116035297513008
0.007751941215246916 0.06976747512817383 -0.050239142030477524
0.007751941680908203 0.06976747512817383 0.015391474589705467
0.007751941680908203 0.08527135848999023 -0.05222465842962265
0.007751941680908203 0.08527135848999023 0.012516159564256668
0.007751941680908203 0.10077524185180664 -0.05439939349889755
0.007751941680908203 0.10077524185180664 0.01081252284348011
0.007751941680908203 0.11627912521362305 -0.05490627512335777
0.007751941680908203 0.11627912521362305 0.009719938039779663
0.007751941680908203 0.1317828893661499 -0.05532029643654823
0.007751941680908203 0.1317828893661499 0.008783834986388683
0.007751941680908203 0.1472867727279663 -0.05577988550066948
0.007751941680908203 0.1472867727279663 0.007785147521644831
0.007751941680908203 0.16279065608978271 -0.05608247220516205
0.007751941680908203 0.16279065608978271 0.0046303970739245415
0.007751941680908203 0.17829453945159912 -0.056156229227781296
0.007751941680908203 0.17829453945159912 0.0013561726082116365
0.007751941680908203 0.19379842281341553 -0.05611730366945267
0.00775194214656949 0.19379842281341553 -0.0030411486513912678
0.007751941680908203 0.20930230617523193 -0.05619197338819504
0.007751941680908203 0.20930230617523193 -0.006566569209098816
0.007751941680908203 0.22480618953704834 -0.056399863213300705
0.007751941680908203 0.22480618953704834 -0.013921594247221947
0.007751941680908203 0.24031007289886475 -0.05690388381481171
0.007751941680908203 0.24031007289886475 -0.019821766763925552
0.007751941680908203 0.25581395626068115 -0.057847730815410614
0.007751941680908203 0.25581395626068115 -0.0222892127931118
0.007751941680908203 0.27131783962249756 -0.059270087629556656
0.007751941680908203 0.27131783962249756 -0.0278396587818861
0.007751941680908203 0.28682172298431396 -0.061131227761507034
0.007751941680908203 0.28682172298431396 -0.03309549763798714
0.00775194214656949 0.30232560634613037 -0.06421031802892685
0.007751941680908203 0.30232560634613037 -0.03562498837709427
0.007751941680908203 0.3178294897079468 -0.06795956939458847
0.007751941680908203 0.3178294897079468 -0.03712974116206169
0.007751941680908203 0.3333333730697632 -0.06981372833251953
0.007751941680908203 0.3333333730697632 -0.03897615522146225
0.007751941680908203 0.3488372564315796 -0.06743417680263519
0.007751941680908203 0.3488372564315796 -0.04975144937634468
0.02325582504272461 -0.5038759708404541 0.06394189596176147
0.02325582690536976 -0.5038759708404541 0.08705868571996689
0.02325582504272461 -0.4883720874786377 0.060885459184646606
0.02325582504272461 -0.4883720874786377 0.09338143467903137
0.02325582504272461 -0.4728681743144989 0.058781698346138
0.02325582318007946 -0.4728681743144989 0.1009315773844719
0.02325582504272461 -0.4573643207550049 0.05714825540781021
0.02325582504272461 -0.4573643207550049 0.10365132987499237
0.02325582504272461 -0.4418604373931885 0.054736074060201645
0.02325582504272461 -0.4418604373931885 0.10789395868778229
0.02325582504272461 -0.42635661363601685 0.05292012542486191
0.02325582504272461 -0.42635661363601685 0.10956378281116486
0.02325582504272461 -0.41085273027420044 0.05163951590657234
0.02325582504272461 -0.41085273027420044 0.10794934630393982
0.02325582504272461 -0.39534884691238403 0.05163751170039177
0.02325582504272461 -0.39534884691238403 0.10315139591693878
0.02325582504272461 -0.3798449635505676 0.053423672914505005
0.02325582504272461 -0.3798449635505676 0.09627228230237961
0.02325582504272461 -0.36434105038642883 0.05686844140291214
0.02325582504272461 -0.3643410801887512 0.09126634895801544
0.02325582504272461 -0.3488371968269348 0.05907474458217621
0.02325582504272461 -0.3488371968269348 0.08837825059890747
0.02325582504272461 -0.3333333134651184 0.05852779000997543
0.02325582504272461 -0.3333333134651184 0.08675742149353027
0.02325582504272461 -0.317829430103302 0.05421075597405434
0.02325582504272461 -0.317829430103302 0.08601728826761246
0.02325582504272461 -0.30232560634613037 0.05170823633670807
0.02325582504272461 -0.30232560634613037 0.08537927269935608
0.02325582504272461 -0.28682172298431396 0.04915850982069969
0.02325582504272461 -0.28682172298431396 0.0832892581820488
0.02325582504272461 -0.27131783962249756 0.04704232141375542
0.02325582504272461 -0.27131783962249756 0.08205937594175339
0.02325582504272461 -0.25581395626068115 0.045013464987277985
0.02325582504272461 -0.25581395626068115 0.08224622160196304
0.02325582504272461 -0.24031007289886475 0.04292089864611626
0.02325582504272461 -0.24031007289886475 0.0826626718044281
0.02325582504272461 -0.22480618953704834 0.040781423449516296
0.02325582504272461 -0.22480618953704834 0.08070310950279236
0.02325582504272461 -0.20930230617523193 0.03745308890938759
0.02325582504272461 -0.20930230617523193 0.07692018151283264
0.02325582504272461 -0.19379842281341553 0.018036112189292908
0.02325582504272461 -0.19379842281341553 0.07388428598642349
0.02325582504272461 -0.1782945990562439 0.022762665525078773
0.02325582504272461 -0.1782945990562439 0.02362469770014286
0.02325582504272461 -0.1782945990562439 0.04106631129980087
0.02325582504272461 -0.1782945990562439 0.07139593362808228
0.02325582504272461 -0.1627907156944275 0.05031972378492355
0.02325582504272461 -0.1627907156944275 0.06020871922373772
0.02325582504272461 -0.13178294897079468 0.0076089780777692795
0.02325582504272461 -0.13178294897079468 0.009161574766039848
0.02325582504272461 -0.11627906560897827 0.0015380363911390305
0.02325582504272461 -0.11627906560897827 0.026790540665388107
0.02325582504272461 -0.10077518224716187 -0.006296892650425434
0.02325582504272461 -0.10077518224716187 0.031161721795797348
0.02325582504272461 -0.08527129888534546 -0.01185429934412241
0.02325582504272461 -0.08527129888534546 0.03412469103932381
0.02325582504272461 -0.06976741552352905 -0.017411023378372192
0.02325582504272461 -0.06976740807294846 0.03899381309747696
0.02325582504272461 -0.05426359176635742 -0.023616841062903404
0.02325582504272461 -0.05426359176635742 0.03765729442238808
0.02325582504272461 -0.038759708404541016 -0.028054842725396156
0.02325582504272461 -0.038759708404541016 0.03389019891619682
0.02325582504272461 -0.02325582504272461 -0.03542375564575195
0.02325582504272461 -0.02325582504272461 0.03525925800204277
0.02325582504272461 -0.007751941680908203 -0.039780862629413605
0.02325582504272461 -0.007751941680908203 0.03500808775424957
0.02325582504272461 0.007751941680908203 -0.040619056671857834
0.02325582504272461 0.007751941680908203 0.03239357843995094
0.02325582504272461 0.02325582504272461 -0.04097822681069374
0.02325582504272461 0.02325582504272461 0.02842237427830696
0.02325582504272461 0.038759708404541016 -0.04129327833652496
0.02325582504272461 0.038759708404541016 0.024588333442807198
0.02325582504272461 0.05426359176635742 -0.04254765808582306
0.02325582504272461 0.05426359176635742 0.01887260563671589
0.02325582504272461 0.06976747512817383 -0.04421576112508774
0.02325582504272461 0.06976747512817383 0.013352558948099613
0.02325582504272461 0.08527135848999023 -0.04598322510719299
0.02325582690536976 0.08527135848999023 0.010992188937962055
0.02325582504272461 0.10077524185180664 -0.04781140387058258
0.02325582504272461 0.10077524185180664 0.009764536283910275
0.02325582504272461 0.11627912521362305 -0.049102459102869034
0.02325582504272461 0.11627912521362305 0.009002547711133957
0.02325582318007946 0.1317828893661499 -0.04991571232676506
0.02325582504272461 0.1317828893661499 0.008205007761716843
0.02325582504272461 0.1472867727279663 -0.0506330206990242
0.02325582504272461 0.1472867727279663 0.00525822676718235
0.02325582318007946 0.16279065608978271 -0.05142977461218834
0.02325582504272461 0.16279065608978271 0.002685190411284566
0.02325582504272461 0.17829453945159912 -0.0522136352956295
0.02325582504272461 0.17829453945159912 -0.0002700537443161011
0.02325582690536976 0.19379842281341553 -0.0526951402425766
0.02325582504272461 0.19379842281341553 -0.004526062868535519
0.02325582504272461 0.20930230617523193 -0.05331910774111748
0.02325582504272461 0.20930230617523193 -0.009526005946099758
0.02325582504272461 0.22480618953704834 -0.054287418723106384
0.02325582504272461 0.22480618953704834 -0.018058139830827713
0.02325582504272461 0.24031007289886475 -0.05481838434934616
0.02325582318007946 0.24031005799770355 -0.022124802693724632
0.02325582504272461 0.25581395626068115 -0.055722203105688095
0.02325582504272461 0.25581395626068115 -0.029604997485876083
0.02325582504272461 0.27131783962249756 -0.056816499680280685
0.02325582504272461 0.27131783962249756 -0.03567546233534813
0.02325582504272461 0.28682172298431396 -0.057542745023965836
0.02325582318007946 0.28682172298431396 -0.037979915738105774
0.02325582504272461 0.30232560634613037 -0.0570593997836113
0.02325582504272461 0.30232560634613037 -0.046052806079387665
0.038759708404541016 -0.4728682041168213 0.07959568500518799
0.038759708404541016 -0.4728682041168213 0.09050515294075012
0.038759708404541016 -0.4573643207550049 0.07981255650520325
0.038759708404541016 -0.4573643207550049 0.09578894823789597
0.038759708404541016 -0.4418604373931885 0.0804290696978569
0.038759708404541016 -0.4418604373931885 0.10134652256965637
0.038759708404541016 -0.42635661363601685 0.08099279552698135
0.038759712129831314 -0.42635661363601685 0.10175767540931702
0.038759708404541016 -0.41085273027420044 0.08328696340322495
0.038759708404541016 -0.41085273027420044 0.09404423832893372
0.038759708404541016 -0.27131783962249756 0.0679175928235054
0.038759708404541016 -0.27131783962249756 0.0726189911365509
0.038759708404541016 -0.25581395626068115 0.06590879708528519
0.038759708404541016 -0.25581395626068115 0.07461301982402802
0.038759708404541016 -0.24031007289886475 0.06501274555921555
0.038759708404541016 -0.24031008780002594 0.07499963790178299
0.038759708404541016 -0.22480618953704834 0.06520423293113708
0.038759708404541016 -0.22480618953704834 0.07387431710958481
0.038759708404541016 -0.20930230617523193 0.0640166848897934
0.038759708404541016 -0.20930230617523193 0.07272186130285263
0.038759708404541016 -0.19379842281341553 0.06056748703122139
0.038759708404541016 -0.19379842281341553 0.07169361412525177
0.038759708404541016 -0.1782945990562439 0.06960824131965637
0.038759708404541016 -0.1782946139574051 0.06978438049554825
0.038759708404541016 -0.06976741552352905 0.009868009947240353
0.038759708404541016 -0.06976741552352905 0.041106633841991425
0.038759708404541016 -0.05426359176635742 0.005458316765725613
0.038759708404541016 -0.05426359176635742 0.04026545584201813
0.038759708404541016 -0.038759708404541016 0.004686369560658932
0.038759708404541016 -0.038759708404541016 0.03573594242334366
0.038759708404541016 -0.02325582504272461 4.211673513054848e-05
0.038759708404541016 -0.02325582504272461 0.03379880636930466
0.038759708404541016 -0.00775194214656949 -0.002405358012765646
0.038759708404541016 -0.007751941680908203 0.03330424800515175
0.038759708404541016 0.007751941215246916 -0.004137833137065172
0.038759708404541016 0.007751941680908203 0.030540544539690018
0.038759708404541016 0.02325582504272461 -0.006805486977100372
0.038759708404541016 0.02325582504272461 0.027633965015411377
0.038759708404541016 0.038759708404541016 -0.011686721816658974
0.038759708404541016 0.038759708404541016 0.02508961595594883
0.038759708404541016 0.05426359176635742 -0.017551900818943977
0.038759708404541016 0.05426359176635742 0.02332528494298458
0.038759708404541016 0.06976747512817383 -0.023292502388358116
0.038759708404541016 0.06976747512817383 0.016713513061404228
0.038759708404541016 0.08527135848999023 -0.024241741746664047
0.038759708404541016 0.08527135848999023 0.012098060920834541
0.038759708404541016 0.10077524185180664 -0.02894756756722927
0.038759708404541016 0.10077524185180664 0.009559279307723045
0.038759708404541016 0.11627912521362305 -0.039823390543460846
0.038759708404541016 0.11627912521362305 0.008804675191640854
0.038759708404541016 0.1317828893661499 -0.041951734572649
0.038759708404541016 0.1317829042673111 0.008457462303340435
0.038759708404541016 0.1472867727279663 -0.04327184706926346
0.038759708404541016 0.1472867727279663 0.008100186474621296
0.038759708404541016 0.16279065608978271 -0.04395420849323273
0.038759708404541016 0.16279065608978271 0.005781441926956177
0.038759708404541016 0.17829453945159912 -0.044365040957927704
0.038759708404541016 0.17829453945159912 7.338100112974644e-05
0.038759708404541016 0.19379842281341553 -0.04448631778359413
0.038759708404541016 0.19379842281341553 -0.005638734437525272
0.038759708404541016 0.20930230617523193 -0.0443931482732296
0.038759708404541016 0.20930230617523193 -0.013883605599403381
0.038759708404541016 0.22480618953704834 -0.04368269816040993
0.038759708404541016 0.22480618953704834 -0.02155444584786892
0.038759708404541016 0.24031007289886475 -0.04124757647514343
0.038759708404541016 0.24031007289886475 -0.03230796381831169
0.05426359176635742 -0.20930230617523193 0.0687771588563919
0.05426359176635742 -0.20930230617523193 0.07035963982343674
0.05426359176635742 -0.19379842281341553 0.06282045692205429
0.05426359176635742 -0.19379842281341553 0.07092195749282837
0.05426359176635742 -0.08527129888534546 0.03220256790518761
0.05426359176635742 -0.08527129888534546 0.04035188630223274
0.05426359176635742 -0.06976741552352905 0.011145494878292084
0.05426359176635742 -0.06976741552352905 0.042039819061756134
0.05426359176635742 -0.05426359176635742 0.006505623459815979
0.05426359176635742 -0.05426359176635742 0.04088250920176506
0.05426359176635742 -0.038759708404541016 0.0063696252182126045
0.05426359176635742 -0.038759708404541016 0.0396067351102829
0.05426359176635742 -0.02325582504272461 0.003265801817178726
0.05426359176635742 -0.02325582504272461 0.03833033889532089
0.05426359176635742 -0.007751941680908203 0.0017248725052922964
0.05426359176635742 -0.007751941680908203 0.034256309270858765
0.05426359176635742 0.007751941680908203 0.0005264822393655777
0.05426359176635742 0.007751941680908203 0.030184172093868256
0.05426359176635742 0.02325582504272461 -0.00399848073720932
0.05426359176635742 0.02325582318007946 0.02811499312520027
0.05426359176635742 0.038759708404541016 -0.011237367987632751
0.05426359176635742 0.038759708404541016 0.026447013020515442
0.05426359176635742 0.05426359176635742 -0.016765927895903587
0.05426359549164772 0.05426359549164772 0.02515244111418724
0.05426359176635742 0.06976747512817383 -0.020917395129799843
0.05426358804106712 0.06976747512817383 0.023923484608530998
0.05426359176635742 0.08527135848999023 -0.019984213635325432
0.05426359176635742 0.08527135848999023 0.019847434014081955
0.05426359176635742 0.10077524185180664 -0.014759877696633339
0.05426359176635742 0.10077524185180664 0.01404597982764244
0.05426359176635742 0.11627912521362305 -0.01252768561244011
0.05426359176635742 0.11627912521362305 0.011634759604930878
0.05426359176635742 0.1317828893661499 -0.017866723239421844
0.05426359549164772 0.1317828893661499 0.0117145124822855
0.05426359176635742 0.1472867727279663 -0.02674802765250206
0.05426358804106712 0.1472867727279663 0.010916603729128838
0.05426359176635742 0.16279065608978271 -0.033175624907016754
0.05426359176635742 0.16279065608978271 0.009676140733063221
0.05426359176635742 0.17829453945159912 -0.035765841603279114
0.05426359176635742 0.17829455435276031 0.008305077441036701
0.05426359176635742 0.19379842281341553 -0.03417240455746651
0.05426359176635742 0.19379842281341553 -0.0014367904514074326
0.05426359176635742 0.20930230617523193 -0.029064327478408813
0.05426359549164772 0.20930230617523193 -0.006710788235068321
0.05426359176635742 0.22480618953704834 -0.025509528815746307
0.05426359176635742 0.22480620443820953 -0.017988814041018486
0.05426359176635742 0.24031007289886475 -0.024933280423283577
0.05426358804106712 0.24031005799770355 -0.02155260182917118
0.06976747512817383 -0.20930230617523193 0.0647919550538063
0.06976747512817383 -0.20930230617523193 0.0713086649775505
0.06976747512817383 -0.19379842281341553 0.051299598067998886
0.06976747512817383 -0.19379842281341553 0.07112820446491241
0.06976747512817383 -0.1782945990562439 0.04862796515226364
0.06976747512817383 -0.1782945990562439 0.0689234733581543
0.06976747512817383 -0.1627907156944275 0.04833146557211876
0.06976747512817383 -0.1627907156944275 0.060504406690597534
0.06976747512817383 -0.14728683233261108 0.0496969074010849
0.06976747512817383 -0.14728683233261108 0.05659203231334686
0.06976747512817383 -0.08527129888534546 0.0217890702188015
0.06976747512817383 -0.08527129888534546 0.04218678921461105
0.06976747512817383 -0.06976741552352905 0.012678800150752068
0.06976747512817383 -0.06976741552352905 0.041472092270851135
0.06976747512817383 -0.05426359176635742 0.00723535381257534
0.06976747512817383 -0.05426359176635742 0.04042498394846916
0.06976747512817383 -0.038759708404541016 0.00633145309984684
0.06976747512817383 -0.038759708404541016 0.03953303396701813
0.06976747512817383 -0.02325582504272461 0.004182389006018639
0.06976746767759323 -0.02325582318007946 0.03887807950377464
0.06976747512817383 -0.007751941680908203 0.00333523191511631
0.06976747512817383 -0.007751941680908203 0.035325922071933746
0.06976747512817383 0.007751941680908203 0.0031637605279684067
0.06976747512817383 0.007751941680908203 0.03085479512810707
0.06976747512817383 0.02325582504272461 0.00045166281051933765
0.06976747512817383 0.02325582504272461 0.028770267963409424
0.06976748257875443 0.038759708404541016 -0.0069585517048835754
0.06976747512817383 0.038759708404541016 0.02736956998705864
0.06976747512817383 0.05426359176635742 -0.010328316129744053
0.06976747512817383 0.05426359176635742 0.02619609236717224
0.06976747512817383 0.06976747512817383 -0.012343112379312515
0.06976747512817383 0.06976747512817383 0.024991856887936592
0.06976747512817383 0.08527135848999023 -0.012801412492990494
0.06976747512817383 0.08527135848999023 0.023924754932522774
0.06976747512817383 0.10077524185180664 -0.01074751652777195
0.06976747512817383 0.10077524185180664 0.02042406052350998
0.06976747512817383 0.11627912521362305 -0.00793180800974369
0.06976747512817383 0.11627912521362305 0.01647171564400196
0.06976747512817383 0.1317828893661499 -0.009554324671626091
0.06976747512817383 0.1317828893661499 0.015117865055799484
0.06976747512817383 0.1472867727279663 -0.013830837793648243
0.06976747512817383 0.1472867727279663 0.013460673391819
0.06976747512817383 0.16279065608978271 -0.017930785194039345
0.06976747512817383 0.16279065608978271 0.011668048799037933
0.06976747512817383 0.17829453945159912 -0.02003435790538788
0.06976747512817383 0.17829452455043793 0.01004166528582573
0.06976747512817383 0.19379842281341553 -0.019196035340428352
0.06976747512817383 0.19379842281341553 0.008594481274485588
0.06976747512817383 0.20930230617523193 -0.01919928565621376
0.06976747512817383 0.20930230617523193 9.97595489025116e-05
0.06976747512817383 0.22480618953704834 -0.02363521419465542
0.06976747512817383 0.22480618953704834 -0.0037640996742993593
0.06976747512817383 0.24031007289886475 -0.026285510510206223
0.06976747512817383 0.24031007289886475 -0.005843847990036011
0.06976747512817383 0.25581395626068115 -0.028072189539670944
0.06976747512817383 0.25581395626068115 -0.0074436357244849205
0.06976747512817383 0.27131783962249756 -0.025711573660373688
0.06976747512817383 0.27131783962249756 -0.02106962725520134
0.06976747512817383 0.37984490394592285 -0.07132096588611603
0.06976747512817383 0.37984490394592285 -0.06801676750183105
0.06976747512817383 0.39534878730773926 -0.07263447344303131
0.06976747512817383 0.39534878730773926 -0.06796552240848541
0.06976747512817383 0.4418604373931885 -0.08625970035791397
0.06976747512817383 0.4418604373931885 -0.08365784585475922
0.06976747512817383 0.4573643207550049 -0.08665522933006287
0.06976747512817383 0.4573643207550049 -0.08321543037891388
0.06976747512817383 0.4728682041168213 -0.08655912429094315
0.06976747512817383 0.4728682339191437 -0.08281868696212769
0.08527135848999023 -0.20930230617523193 0.05424733832478523
0.08527135103940964 -0.20930230617523193 0.07164322584867477
0.08527135848999023 -0.19379842281341553 0.04825013130903244
0.08527135848999023 -0.19379842281341553 0.07106323540210724
0.08527135848999023 -0.1782945990562439 0.044039055705070496
0.08527135848999023 -0.1782945990562439 0.06724902987480164
0.08527135848999023 -0.1627907156944275 0.039290640503168106
0.08527135848999023 -0.1627907156944275 0.06001414358615875
0.08527135848999023 -0.14728683233261108 0.03673188015818596
0.08527135848999023 -0.14728683233261108 0.05691169202327728
0.08527135848999023 -0.13178294897079468 0.03492908924818039
0.08527135848999023 -0.13178294897079468 0.055341094732284546
0.08527135848999023 -0.11627906560897827 0.03383626043796539
0.08527135848999023 -0.11627906560897827 0.04645107313990593
0.08527135848999023 -0.10077518224716187 0.03247694671154022
0.08527135848999023 -0.10077518224716187 0.04201933741569519
0.08527135848999023 -0.08527129888534546 0.0214186143130064
0.08527135103940964 -0.08527129888534546 0.042071543633937836
0.08527135848999023 -0.06976741552352905 0.017157334834337234
0.08527135848999023 -0.06976741552352905 0.04106491059064865
0.08527135848999023 -0.05426359549164772 0.013902824372053146
0.08527136594057083 -0.05426359176635742 0.040180690586566925
0.08527135848999023 -0.038759708404541016 0.00897527951747179
0.08527135848999023 -0.038759708404541016 0.03940689563751221
0.08527135848999023 -0.02325582504272461 0.0063619352877140045
0.08527135848999023 -0.02325582504272461 0.03876444697380066
0.08527135848999023 -0.007751941680908203 0.005731291137635708
0.08527135848999023 -0.007751941680908203 0.03486020117998123
0.08527135848999023 0.007751941680908203 0.005620543844997883
0.08527135848999023 0.007751941680908203 0.030989162623882294
0.08527135848999023 0.02325582504272461 0.004373708739876747
0.08527135848999023 0.02325582504272461 0.029088206589221954
0.08527135848999023 0.038759708404541016 0.002291379263624549
0.08527135848999023 0.038759708404541016 0.027697063982486725
0.08527135848999023 0.05426359176635742 5.3956639021635056e-05
0.08527136594057083 0.05426359176635742 0.026542920619249344
0.08527135848999023 0.06976747512817383 -0.001693718833848834
0.08527135848999023 0.06976747512817383 0.025340136140584946
0.08527135848999023 0.08527135848999023 -0.0028346243780106306
0.08527135848999023 0.08527135848999023 0.02442692592740059
0.08527135848999023 0.10077524185180664 -0.001669977093115449
0.08527135848999023 0.10077524185180664 0.02374422363936901
0.08527135848999023 0.11627912521362305 9.594019502401352e-06
0.08527135848999023 0.11627912521362305 0.021799704059958458
0.08527135848999023 0.1317828893661499 -0.00151737779378891
0.08527135848999023 0.1317828893661499 0.018378017470240593
0.08527135848999023 0.1472867876291275 -0.006287368945777416
0.08527135848999023 0.1472867727279663 0.01575099304318428
0.08527135848999023 0.16279065608978271 -0.00938112661242485
0.08527135848999023 0.16279065608978271 0.01371367834508419
0.08527135848999023 0.17829453945159912 -0.010775870643556118
0.08527135848999023 0.17829453945159912 0.011754222214221954
0.08527135848999023 0.19379842281341553 -0.011413579806685448
0.08527135848999023 0.19379842281341553 0.010125447995960712
0.08527135848999023 0.20930230617523193 -0.012192151509225368
0.08527135848999023 0.20930230617523193 0.008815492503345013
0.08527135848999023 0.22480618953704834 -0.013332346454262733
0.08527135848999023 0.22480618953704834 0.007662072777748108
0.08527135848999023 0.24031007289886475 -0.015962999314069748
0.08527135848999023 0.24031007289886475 -0.001291588880121708
0.08527135848999023 0.25581395626068115 -0.022367315366864204
0.08527135848999023 0.25581395626068115 -0.005437586456537247
0.08527135848999023 0.27131783962249756 -0.025096343830227852
0.08527135848999023 0.27131783962249756 -0.0069178431294858456
0.08527135848999023 0.28682172298431396 -0.02403278648853302
0.08527135848999023 0.28682172298431396 -0.021593881770968437
0.10077524185180664 -0.20930230617523193 0.05347773805260658
0.10077524185180664 -0.20930230617523193 0.07133848965167999
0.10077524185180664 -0.19379842281341553 0.0475805401802063
0.10077524185180664 -0.19379842281341553 0.07076593488454819
0.10077524185180664 -0.1782945841550827 0.04060287028551102
0.10077524185180664 -0.1782945990562439 0.06658703833818436
0.10077524185180664 -0.1627907156944275 0.03605093061923981
0.10077524185180664 -0.1627907156944275 0.059837087988853455
0.10077524185180664 -0.14728683233261108 0.03321640565991402
0.10077524930238724 -0.14728683233261108 0.05688702315092087
0.10077524185180664 -0.13178294897079468 0.031056465581059456
0.10077524185180664 -0.13178294897079468 0.0553758442401886
0.10077524185180664 -0.11627906560897827 0.029363874346017838
0.10077524185180664 -0.11627906560897827 0.0497078076004982
0.10077524185180664 -0.10077518224716187 0.026462547481060028
0.10077524185180664 -0.10077518224716187 0.04395591840147972
0.10077524185180664 -0.08527129888534546 0.02186254970729351
0.10077524185180664 -0.08527129888534546 0.042054057121276855
0.10077524185180664 -0.06976741552352905 0.019233504310250282
0.10077524185180664 -0.06976741552352905 0.04091767594218254
0.10077524185180664 -0.05426359176635742 0.01725640706717968
0.10077524185180664 -0.05426359176635742 0.04014500975608826
0.10077524185180664 -0.038759708404541016 0.015402207151055336
0.10077524185180664 -0.038759708404541016 0.0394422747194767
0.10077524185180664 -0.02325582504272461 0.010761674493551254
