-0.41085273027420044 -0.06976741552352905 0.020551513880491257
-0.41085273027420044 -0.06976741552352905 0.027886372059583664
-0.41085273027420044 -0.05426359176635742 0.019610514864325523
-0.41085273027420044 -0.05426359176635742 0.028336599469184875
-0.41085273027420044 -0.038759708404541016 0.017776532098650932
-0.41085273027420044 -0.038759708404541016 0.028227126225829124
-0.41085273027420044 -0.02325582504272461 0.015865618363022804
-0.41085273027420044 -0.02325582504272461 0.027702488005161285
-0.41085273027420044 -0.007751941680908203 0.016011079773306847
-0.41085273027420044 -0.007751941680908203 0.02684573084115982
-0.41085273027420044 0.007751941680908203 0.017280394211411476
-0.41085273027420044 0.007751941680908203 0.026668820530176163
-0.41085273027420044 0.02325582504272461 0.01807757280766964
-0.41085273027420044 0.02325582504272461 0.026886241510510445
-0.41085273027420044 0.038759708404541016 0.01767532154917717
-0.41085273027420044 0.038759708404541016 0.027220360934734344
-0.41085273027420044 0.05426359176635742 0.017113137990236282
-0.41085273027420044 0.05426359176635742 0.027846254408359528
-0.41085273027420044 0.06976747512817383 0.016853580251336098
-0.41085273027420044 0.06976747512817383 0.0285072959959507
-0.41085273027420044 0.08527135848999023 0.01667116768658161
-0.41085273027420044 0.08527135848999023 0.028452543541789055
-0.41085273027420044 0.10077524185180664 0.014322980307042599
-0.41085273027420044 0.10077523440122604 0.028205763548612595
-0.41085273027420044 0.11627912521362305 0.010038572363555431
-0.41085273027420044 0.11627912521362305 0.02845190279185772
-0.41085273027420044 0.1317828893661499 0.010869698598980904
-0.41085273027420044 0.1317828893661499 0.028943493962287903
-0.41085273027420044 0.1472867727279663 0.012688351795077324
-0.41085273027420044 0.1472867727279663 0.029691044241189957
-0.41085273027420044 0.16279065608978271 0.010344620794057846
-0.41085273027420044 0.16279065608978271 0.030870160087943077
-0.41085273027420044 0.17829453945159912 0.007491197437047958
-0.41085273027420044 0.17829453945159912 0.030736804008483887
-0.41085273027420044 0.19379840791225433 0.008853350766003132
-0.41085273027420044 0.19379842281341553 0.029488086700439453
-0.41085273027420044 0.20930230617523193 0.012048132717609406
-0.41085270047187805 0.20930230617523193 0.027851935476064682
-0.41085273027420044 0.22480618953704834 0.014391226693987846
-0.41085273027420044 0.22480618953704834 0.026430975645780563
-0.41085273027420044 0.24031007289886475 0.015234885737299919
-0.41085273027420044 0.24031007289886475 0.02544363960623741
-0.41085273027420044 0.25581395626068115 0.01145494170486927
-0.41085273027420044 0.25581395626068115 0.024558626115322113
-0.41085273027420044 0.27131783962249756 0.0070463018491864204
-0.41085273027420044 0.27131783962249756 0.023396052420139313
-0.39534884691238403 -0.13178294897079468 0.022863946855068207
-0.3953488767147064 -0.13178294897079468 0.02362566441297531
-0.39534884691238403 -0.11627906560897827 0.021777719259262085
-0.39534884691238403 -0.11627906560897827 0.024631358683109283
-0.39534884691238403 -0.10077518224716187 0.0212386604398489
-0.39534884691238403 -0.10077518224716187 0.025104258209466934
-0.39534884691238403 -0.08527129888534546 0.020170176401734352
-0.39534884691238403 -0.08527129888534546 0.0258187148720026
-0.39534884691238403 -0.06976741552352905 0.01834864541888237
-0.39534884691238403 -0.06976741552352905 0.02614733949303627
-0.39534884691238403 -0.05426359176635742 0.01283949427306652
-0.39534884691238403 -0.05426359176635742 0.026299219578504562
-0.39534884691238403 -0.038759708404541016 0.006868160329759121
-0.3953488767147064 -0.038759708404541016 0.026298917829990387
-0.39534884691238403 -0.02325582504272461 0.006178171373903751
-0.39534884691238403 -0.02325582504272461 0.02603875659406185
-0.39534884691238403 -0.007751941680908203 0.006229792721569538
-0.39534884691238403 -0.00775194214656949 0.025494428351521492
-0.39534884691238403 0.007751941680908203 0.0073053548112511635
-0.39534884691238403 0.007751941680908203 0.02549608424305916
-0.39534884691238403 0.02325582504272461 0.011861460283398628
-0.39534884691238403 0.02325582504272461 0.025660568848252296
-0.39534884691238403 0.038759708404541016 0.0113518126308918
-0.39534884691238403 0.038759708404541016 0.02580420672893524
-0.39534884691238403 0.05426359176635742 0.011519055813550949
-0.39534884691238403 0.05426359176635742 0.02619972452521324
-0.39534881711006165 0.06976747512817383 0.012282056733965874
-0.39534884691238403 0.06976747512817383 0.026620686054229736
-0.39534884691238403 0.08527135848999023 0.010954377241432667
-0.39534884691238403 0.08527135848999023 0.026408784091472626
-0.39534884691238403 0.10077524185180664 0.006777544505894184
-0.3953488767147064 0.10077524185180664 0.0262172669172287
-0.39534884691238403 0.11627912521362305 0.005664895288646221
-0.39534884691238403 0.11627912521362305 0.02619481086730957
-0.39534884691238403 0.1317828893661499 0.005603158846497536
-0.39534884691238403 0.1317828893661499 0.0263302493840456
-0.39534884691238403 0.1472867727279663 0.0066545940935611725
-0.39534884691238403 0.1472867727279663 0.026606597006320953
-0.39534884691238403 0.16279065608978271 0.006455008871853352
-0.39534884691238403 0.16279065608978271 0.027542952448129654
-0.39534884691238403 0.17829453945159912 0.004700921475887299
-0.39534884691238403 0.17829453945159912 0.027956988662481308
-0.39534884691238403 0.19379842281341553 0.005187525413930416
-0.3953488767147064 0.19379843771457672 0.027154292911291122
-0.39534884691238403 0.20930230617523193 0.006537679582834244
-0.39534884691238403 0.20930230617523193 0.0260696392506361
-0.39534884691238403 0.22480618953704834 0.007019253447651863
-0.39534884691238403 0.22480618953704834 0.025081099942326546
-0.39534884691238403 0.24031007289886475 0.0063379621133208275
-0.39534884691238403 0.24031007289886475 0.024244703352451324
-0.39534884691238403 0.25581395626068115 0.005178553983569145
-0.39534884691238403 0.25581395626068115 0.02303106151521206
-0.39534884691238403 0.27131783962249756 0.007242828607559204
-0.39534884691238403 0.27131783962249756 0.008973861113190651
-0.3798449635505676 -0.13178294897079468 0.022148145362734795
-0.3798449635505676 -0.13178294897079468 0.023927470669150352
-0.3798449635505676 -0.11627906560897827 0.021516527980566025
-0.37984493374824524 -0.11627906560897827 0.02410666085779667
-0.3798449635505676 -0.10077518224716187 0.020303603261709213
-0.3798449635505676 -0.10077518224716187 0.024328598752617836
-0.3798449635505676 -0.08527129888534546 0.01758453994989395
-0.3798449635505676 -0.08527129888534546 0.024578319862484932
-0.3798449635505676 -0.06976741552352905 0.007460174150764942
-0.3798449635505676 -0.06976742297410965 0.024612154811620712
-0.3798449635505676 -0.05426359176635742 0.00585987139493227
-0.3798449635505676 -0.05426359176635742 0.024683572351932526
-0.3798449635505676 -0.038759708404541016 0.004822224378585815
-0.3798449635505676 -0.038759708404541016 0.02476578578352928
-0.3798449635505676 -0.02325582504272461 0.003871321678161621
-0.3798449635505676 -0.02325582504272461 0.024670515209436417
-0.3798449635505676 -0.007751941680908203 0.003652323968708515
-0.3798449635505676 -0.007751941680908203 0.024390971288084984
-0.3798449635505676 0.007751941680908203 0.0042437342926859856
-0.3798449635505676 0.007751941680908203 0.02448238618671894
-0.3798449635505676 0.02325582504272461 0.004977059550583363
-0.3798449635505676 0.02325582504272461 0.024661339819431305
-0.3798449635505676 0.038759708404541016 0.00493298564106226
-0.3798449635505676 0.038759708404541016 0.024680234491825104
-0.3798449635505676 0.05426359176635742 0.004954616539180279
-0.37984493374824524 0.05426359176635742 0.024893000721931458
-0.3798449635505676 0.06976747512817383 0.005238407291471958
-0.3798449635505676 0.06976747512817383 0.025227760896086693
-0.3798449635505676 0.08527135848999023 0.004849922843277454
-0.3798449635505676 0.08527135848999023 0.025150064378976822
-0.3798449635505676 0.10077524185180664 0.003530915128067136
-0.3798449635505676 0.10077524185180664 0.02488536573946476
-0.3798449635505676 0.11627912521362305 0.002448095940053463
-0.3798449635505676 0.11627912521362305 0.024651460349559784
-0.3798449635505676 0.1317828893661499 0.002244185423478484
-0.3798449635505676 0.1317828893661499 0.024718699976801872
-0.3798449635505676 0.1472867727279663 0.002967678941786289
-0.37984493374824524 0.1472867727279663 0.02506435289978981
-0.3798449635505676 0.16279065608978271 0.002174836816266179
-0.3798449635505676 0.16279064118862152 0.025703242048621178
-0.3798449635505676 0.17829453945159912 0.0003114717546850443
-0.3798449635505676 0.17829453945159912 0.025904735550284386
-0.3798449635505676 0.19379842281341553 0.0007584374397993088
-0.3798449635505676 0.19379842281341553 0.025391051545739174
-0.3798449635505676 0.20930230617523193 0.0021468030754476786
-0.3798449635505676 0.20930230617523193 0.024560483172535896
-0.3798449635505676 0.22480618953704834 0.0027725582476705313
-0.3798449635505676 0.22480618953704834 0.023612121120095253
-0.3798449635505676 0.24031007289886475 0.002762582153081894
-0.3798449635505676 0.24031007289886475 0.019520090892910957
-0.3798449635505676 0.25581395626068115 0.003274981863796711
-0.3798449635505676 0.25581395626068115 0.012901587411761284
-0.3643410801887512 -0.10077518224716187 0.023192273452878
-0.3643410801887512 -0.10077518224716187 0.02325764112174511
-0.3643410801887512 -0.08527129888534546 0.006964750587940216
-0.3643411099910736 -0.08527129888534546 0.023397427052259445
-0.3643410801887512 -0.06976741552352905 0.0056863632053136826
-0.3643410801887512 -0.06976741552352905 0.023482009768486023
-0.3643410801887512 -0.05426359176635742 0.0042833322659134865
-0.36434105038642883 -0.05426359176635742 0.02358301728963852
-0.3643410801887512 -0.038759708404541016 0.0022761905565857887
-0.36434105038642883 -0.03875970467925072 0.02354571782052517
-0.3643410801887512 -0.02325582504272461 6.676651537418365e-05
-0.36434105038642883 -0.02325582318007946 0.023338137194514275
-0.3643410801887512 -0.007751941680908203 -0.0005888764280825853
-0.3643410801887512 -0.007751941680908203 0.021694157272577286
-0.3643410801887512 0.007751941680908203 0.00022823805920779705
-0.3643410801887512 0.007751941680908203 0.0212708692997694
-0.3643410801887512 0.02325582504272461 0.0012062247842550278
-0.3643410801887512 0.02325582504272461 0.02206178940832615
-0.3643410801887512 0.038759708404541016 0.0011378631461411715
-0.3643410801887512 0.038759708404541016 0.022102607414126396
-0.3643410801887512 0.05426359176635742 0.0007471377030014992
-0.3643410801887512 0.05426359176635742 0.02300834096968174
-0.3643410801887512 0.06976747512817383 0.0006060574669390917
-0.3643410801887512 0.06976747512817383 0.023650413379073143
-0.3643410801887512 0.08527135848999023 0.00034831580705940723
-0.36434105038642883 0.08527135848999023 0.023838162422180176
-0.3643410801887512 0.10077524185180664 -0.0008216577116400003
-0.3643410801887512 0.10077524185180664 0.02365698106586933
-0.3643410801887512 0.11627911776304245 -0.002238469198346138
-0.3643410801887512 0.11627912521362305 0.02349747344851494
-0.3643410801887512 0.1317828893661499 -0.0018281170632690191
-0.3643410801887512 0.1317828893661499 0.023624949157238007
-0.3643410801887512 0.1472867727279663 -0.0012111824471503496
-0.3643410801887512 0.1472867727279663 0.024055182933807373
-0.3643410801887512 0.16279065608978271 -0.003142925910651684
-0.3643410801887512 0.16279065608978271 0.024355752393603325
-0.3643410801887512 0.17829453945159912 -0.004910152405500412
-0.3643410801887512 0.17829453945159912 0.02407245710492134
-0.3643410801887512 0.19379842281341553 -0.004287963733077049
-0.3643410801887512 0.19379840791225433 0.023451954126358032
-0.3643410801887512 0.20930230617523193 -0.0029387902468442917
-0.3643410801887512 0.20930230617523193 0.01990167610347271
-0.3643410801887512 0.22480618953704834 -0.0020912857726216316
-0.3643410801887512 0.22480618953704834 0.01579858921468258
-0.3643410801887512 0.24031007289886475 -0.0020920420065522194
-0.3643410801887512 0.24031007289886475 0.012104998342692852
-0.3643410801887512 0.25581395626068115 0.0038098429795354605
-0.3643410801887512 0.25581395626068115 0.008498992770910263
-0.3488371968269348 -0.13178294897079468 0.0074179647490382195
-0.3488371670246124 -0.13178294897079468 0.009003665298223495
-0.3488371968269348 -0.11627906560897827 0.006856733933091164
-0.3488371968269348 -0.11627906560897827 0.011654172092676163
-0.3488371968269348 -0.10077518224716187 0.006219196133315563
-0.3488371968269348 -0.10077518224716187 0.014172296039760113
-0.3488371968269348 -0.08527129888534546 0.005415258929133415
-0.3488371968269348 -0.08527129888534546 0.016276581212878227
-0.3488371968269348 -0.06976741552352905 0.004226659424602985
-0.3488371968269348 -0.06976741552352905 0.017768073827028275
-0.3488371968269348 -0.05426359176635742 0.0022097385954111814
-0.3488371968269348 -0.05426359176635742 0.018456799909472466
-0.3488371968269348 -0.038759708404541016 -0.000719715841114521
-0.3488371968269348 -0.038759708404541016 0.017843734472990036
-0.3488371968269348 -0.02325582504272461 -0.0042193131521344185
-0.3488371968269348 -0.02325582504272461 0.017024291679263115
-0.3488371968269348 -0.007751941680908203 -0.006675870157778263
-0.3488371968269348 -0.007751941680908203 0.015986429527401924
-0.3488372266292572 0.007751941680908203 -0.007716027088463306
-0.3488371968269348 0.007751941680908203 0.015572801232337952
-0.3488371968269348 0.02325582504272461 -0.006433895789086819
-0.3488371968269348 0.02325582504272461 0.015315810218453407
-0.3488371968269348 0.038759708404541016 -0.004915082827210426
-0.3488371968269348 0.038759708404541016 0.014911584556102753
-0.3488371968269348 0.05426359176635742 -0.0040137069299817085
-0.3488371968269348 0.05426359176635742 0.015264919959008694
-0.3488371968269348 0.06976747512817383 -0.003208284266293049
-0.3488371968269348 0.06976747512817383 0.016886483877897263
-0.3488371968269348 0.08527135848999023 -0.0035464444663375616
-0.3488371968269348 0.08527135848999023 0.01842140592634678
-0.3488371968269348 0.10077524185180664 -0.006252589635550976
-0.3488371968269348 0.10077524185180664 0.018650423735380173
-0.3488371968269348 0.11627912521362305 -0.0080783162266016
-0.3488371968269348 0.11627912521362305 0.019137879833579063
-0.3488371968269348 0.1317828893661499 -0.007850341498851776
-0.3488371968269348 0.1317828893661499 0.020031588152050972
-0.3488371968269348 0.1472867727279663 -0.007907580584287643
-0.3488371968269348 0.1472867727279663 0.02084299363195896
-0.3488371968269348 0.16279065608978271 -0.008752958849072456
-0.3488371968269348 0.16279065608978271 0.020295023918151855
-0.3488371968269348 0.17829453945159912 -0.009318362921476364
-0.3488371968269348 0.17829453945159912 0.018509194254875183
-0.3488371968269348 0.19379842281341553 -0.009364869445562363
-0.3488371968269348 0.19379842281341553 0.016462350264191628
-0.3488371968269348 0.20930230617523193 -0.00925468560308218
-0.3488371968269348 0.20930230617523193 0.013969089835882187
-0.3488371968269348 0.22480618953704834 -0.009588886052370071
-0.3488371968269348 0.22480618953704834 0.011236798018217087
-0.3488371968269348 0.24031007289886475 -0.010020531713962555
-0.3488371968269348 0.24031007289886475 0.009205969050526619
-0.3333333134651184 -0.13178294897079468 0.006128903478384018
-0.3333333134651184 -0.13178294897079468 0.009828329086303711
-0.3333333134651184 -0.11627906560897827 0.0058083925396203995
-0.3333333134651184 -0.11627907305955887 0.010307743214070797
-0.3333333134651184 -0.10077518224716187 0.005119205452501774
-0.3333333134651184 -0.10077518224716187 0.01123799104243517
-0.3333333134651184 -0.08527129888534546 0.0037348668556660414
-0.3333333134651184 -0.08527129888534546 0.012363692745566368
-0.3333333134651184 -0.06976741552352905 0.001939874142408371
-0.3333333134651184 -0.06976741552352905 0.013248858973383904
-0.3333333134651184 -0.05426359176635742 -0.0006337943486869335
-0.3333333134651184 -0.05426359176635742 0.013587629422545433
-0.3333333134651184 -0.038759708404541016 -0.004648412577807903
-0.3333333134651184 -0.038759708404541016 0.013303248211741447
-0.3333333134651184 -0.02325582504272461 -0.008156545460224152
-0.3333333134651184 -0.02325582504272461 0.013143546879291534
-0.3333333134651184 -0.007751941680908203 -0.008869471028447151
-0.3333333134651184 -0.007751941680908203 0.012691938318312168
-0.3333333134651184 0.007751941680908203 -0.009408615529537201
-0.3333333134651184 0.007751941680908203 0.012295668944716454
-0.3333333134651184 0.02325582504272461 -0.009481527842581272
-0.3333333134651184 0.02325582504272461 0.011858541518449783
-0.3333333134651184 0.038759708404541016 -0.009384118020534515
-0.3333333134651184 0.038759708404541016 0.011299900710582733
-0.3333333134651184 0.05426359176635742 -0.009328635409474373
-0.333333283662796 0.05426358804106712 0.011224208399653435
-0.3333333134651184 0.06976747512817383 -0.008868583478033543
-0.3333333134651184 0.06976747512817383 0.01197274960577488
-0.3333333134651184 0.08527135848999023 -0.008730169385671616
-0.3333333134651184 0.08527135848999023 0.013022605329751968
-0.3333333134651184 0.10077524185180664 -0.00980830006301403
-0.3333333134651184 0.10077524185180664 0.013720979914069176
-0.3333333134651184 0.11627912521362305 -0.010382479056715965
-0.3333333134651184 0.11627912521362305 0.01431560330092907
-0.3333333134651184 0.1317828893661499 -0.010390274226665497
-0.3333333134651184 0.1317828893661499 0.01460395846515894
-0.3333333134651184 0.1472867727279663 -0.010778981260955334
-0.3333333134651184 0.1472867727279663 0.01442475151270628
-0.3333333134651184 0.16279065608978271 -0.011694207787513733
-0.3333333134651184 0.16279065608978271 0.013936657458543777
-0.3333333134651184 0.17829453945159912 -0.012430833652615547
-0.3333333134651184 0.17829453945159912 0.013004395179450512
-0.3333333134651184 0.19379842281341553 -0.012987187132239342
-0.3333333134651184 0.19379842281341553 0.011830802075564861
-0.3333333134651184 0.20930230617523193 -0.013518254272639751
-0.3333333134651184 0.20930230617523193 0.010461458936333656
-0.3333333134651184 0.22480618953704834 -0.01400243490934372
-0.3333333134651184 0.22480618953704834 0.009072481654584408
-0.3333333134651184 0.24031007289886475 -0.013436603359878063
-0.3333333134651184 0.24031007289886475 0.004297585226595402
-0.317829430103302 -0.13178294897079468 0.006330975331366062
-0.317829430103302 -0.13178294897079468 0.008725852705538273
-0.317829430103302 -0.11627906560897827 0.005547521635890007
-0.317829430103302 -0.11627906560897827 0.009021783247590065
-0.317829430103302 -0.10077518224716187 0.00435912050306797
-0.317829430103302 -0.10077518224716187 0.009264826774597168
-0.317829430103302 -0.08527129888534546 0.0017861488740891218
-0.317829430103302 -0.08527129888534546 0.009795835241675377
-0.317829430103302 -0.06976741552352905 -0.0012006727047264576
-0.317829430103302 -0.06976741552352905 0.010269641876220703
-0.3178294003009796 -0.05426359176635742 -0.005353233776986599
-0.317829430103302 -0.05426359176635742 0.0104652289301157
-0.317829430103302 -0.038759708404541016 -0.008290386758744717
-0.317829430103302 -0.038759708404541016 0.01041685976088047
-0.317829430103302 -0.02325582504272461 -0.00911035854369402
-0.3178294599056244 -0.02325582504272461 0.010525061748921871
-0.317829430103302 -0.007751941680908203 -0.009874435141682625
-0.317829430103302 -0.007751941680908203 0.01037474162876606
-0.317829430103302 0.007751941680908203 -0.010485155507922173
-0.317829430103302 0.007751941680908203 0.010135795921087265
-0.317829430103302 0.02325582504272461 -0.010713426396250725
-0.317829430103302 0.02325582504272461 0.009818711318075657
-0.317829430103302 0.038759708404541016 -0.010901577770709991
-0.317829430103302 0.038759708404541016 0.009394907392561436
-0.317829430103302 0.05426359176635742 -0.01120835542678833
-0.317829430103302 0.05426359176635742 0.009251881390810013
-0.317829430103302 0.06976747512817383 -0.011321657337248325
-0.317829430103302 0.06976747512817383 0.00961963552981615
-0.317829430103302 0.08527135848999023 -0.011328090913593769
-0.317829430103302 0.08527135103940964 0.010245789773762226
-0.317829430103302 0.10077524185180664 -0.012231403030455112
-0.317829430103302 0.10077524185180664 0.010789668187499046
-0.317829430103302 0.11627912521362305 -0.013052580878138542
-0.317829430103302 0.11627912521362305 0.01105292048305273
-0.317829430103302 0.1317828893661499 -0.0135866180062294
-0.317829430103302 0.1317828893661499 0.01101063471287489
-0.317829430103302 0.1472867727279663 -0.014401953667402267
-0.317829430103302 0.1472867727279663 0.010794078931212425
-0.317829430103302 0.16279065608978271 -0.015483428724110126
-0.317829430103302 0.16279065608978271 0.010581918992102146
-0.317829430103302 0.17829453945159912 -0.016325371339917183
-0.3178294599056244 0.17829453945159912 0.01017761044204235
-0.317829430103302 0.19379842281341553 -0.017306968569755554
-0.3178294599056244 0.19379842281341553 0.009617534466087818
-0.317829430103302 0.20930230617523193 -0.01869012787938118
-0.317829430103302 0.20930229127407074 0.008758433163166046
-0.317829430103302 0.22480618953704834 -0.020138733088970184
-0.317829430103302 0.22480618953704834 0.005418945103883743
-0.317829430103302 0.24031008780002594 -0.018883811309933662
-0.317829430103302 0.24031007289886475 -0.004311081022024155
-0.30232560634613037 -0.10077518224716187 0.005901397205889225
-0.30232560634613037 -0.10077518224716187 0.008087334223091602
-0.30232560634613037 -0.08527129888534546 -0.0002930508926510811
-0.30232560634613037 -0.08527129888534546 0.008615820668637753
-0.302325576543808 -0.06976741552352905 -0.007385879755020142
-0.30232560634613037 -0.06976741552352905 0.008823736570775509
-0.30232560634613037 -0.05426359176635742 -0.008552342653274536
-0.302325576543808 -0.05426359176635742 0.008872832171618938
-0.30232560634613037 -0.038759708404541016 -0.009299643337726593
-0.30232560634613037 -0.038759708404541016 0.008796877227723598
-0.30232560634613037 -0.02325582504272461 -0.010088441893458366
-0.30232563614845276 -0.02325582504272461 0.008902853354811668
-0.30232560634613037 -0.007751941680908203 -0.010979998856782913
-0.30232560634613037 -0.007751941680908203 0.008892334997653961
-0.30232560634613037 0.007751941680908203 -0.011652184650301933
-0.30232560634613037 0.007751941680908203 0.00867705699056387
-0.30232560634613037 0.02325582504272461 -0.011966420337557793
-0.30232560634613037 0.02325582318007946 0.00833796989172697
-0.30232560634613037 0.038759708404541016 -0.012452661991119385
-0.30232563614845276 0.038759708404541016 0.007860559970140457
-0.30232560634613037 0.05426359176635742 -0.013040934689342976
-0.30232560634613037 0.05426359176635742 0.006771131418645382
-0.30232560634613037 0.06976747512817383 -0.013439791277050972
-0.30232560634613037 0.06976747512817383 0.007974768057465553
-0.30232560634613037 0.08527135848999023 -0.013743124902248383
-0.30232560634613037 0.08527135848999023 0.008585215546190739
-0.30232560634613037 0.10077524185180664 -0.014754967764019966
-0.30232560634613037 0.10077524185180664 0.009067385457456112
-0.30232560634613037 0.11627912521362305 -0.016002332791686058
-0.30232560634613037 0.11627913266420364 0.009258170612156391
-0.30232560634613037 0.1317828893661499 -0.017423000186681747
-0.302325576543808 0.1317828893661499 0.00909238401800394
-0.30232560634613037 0.1472867727279663 -0.019345568493008614
-0.30232560634613037 0.14728675782680511 0.008801775053143501
-0.30232560634613037 0.16279065608978271 -0.02152172476053238
-0.30232560634613037 0.16279065608978271 0.008603888563811779
-0.30232560634613037 0.17829453945159912 -0.023333337157964706
-0.30232560634613037 0.17829453945159912 0.008285661228001118
-0.30232560634613037 0.19379842281341553 -0.02371462620794773
-0.30232560634613037 0.19379842281341553 0.007438010536134243
-0.30232560634613037 0.20930230617523193 -0.024146178737282753
-0.30232560634613037 0.20930230617523193 0.0014929305762052536
-0.30232560634613037 0.22480618953704834 -0.024388641119003296
-0.30232560634613037 0.22480620443820953 -0.0035844254307448864
-0.30232560634613037 0.24031007289886475 -0.023914312943816185
-0.30232560634613037 0.24031007289886475 -0.0071192095056176186
-0.28682172298431396 -0.06976741552352905 -0.00866245198994875
-0.28682172298431396 -0.06976741552352905 7.293466478586197e-05
-0.28682172298431396 -0.05426359176635742 -0.009279590100049973
-0.28682172298431396 -0.05426359176635742 0.003287926083430648
-0.28682172298431396 -0.038759708404541016 -0.009961327537894249
-0.28682172298431396 -0.038759708404541016 0.00289785279892385
-0.28682172298431396 -0.02325582504272461 -0.01076598558574915
-0.28682172298431396 -0.02325582504272461 0.004223687574267387
-0.28682172298431396 -0.007751941680908203 -0.011780822649598122
-0.28682172298431396 -0.007751941680908203 0.005039074458181858
-0.28682172298431396 0.007751941680908203 -0.012649625539779663
-0.28682172298431396 0.007751941680908203 0.003999042324721813
-0.28682172298431396 0.02325582504272461 -0.013226189650595188
-0.28682172298431396 0.02325582504272461 0.0023348601534962654
-0.28682172298431396 0.038759708404541016 -0.014082318171858788
-0.28682172298431396 0.038759708404541016 0.00031817518174648285
-0.28682172298431396 0.05426359176635742 -0.015082762576639652
-0.28682172298431396 0.05426359176635742 -0.0007361483294516802
-0.28682172298431396 0.06976747512817383 -0.01576118730008602
-0.28682172298431396 0.06976747512817383 0.00010330625809729099
-0.28682172298431396 0.08527135848999023 -0.016462625935673714
-0.28682172298431396 0.08527135848999023 0.002106776461005211
-0.28682172298431396 0.10077524185180664 -0.01819196529686451
-0.28682172298431396 0.10077524185180664 0.004065582528710365
-0.28682172298431396 0.11627912521362305 -0.020500047132372856
-0.28682172298431396 0.11627912521362305 0.004806875251233578
-0.28682172298431396 0.1317828893661499 -0.02344740927219391
-0.28682172298431396 0.1317828893661499 0.003383117727935314
-0.28682172298431396 0.1472867727279663 -0.0242021307349205
-0.28682172298431396 0.1472867727279663 0.0016095072496682405
-0.28682172298431396 0.16279065608978271 -0.024773601442575455
-0.28682172298431396 0.16279065608978271 0.0007311590015888214
-0.28682172298431396 0.17829453945159912 -0.02526697888970375
-0.28682172298431396 0.17829453945159912 -0.00034801755100488663
-0.28682172298431396 0.19379842281341553 -0.025509238243103027
-0.28682172298431396 0.19379842281341553 -0.0022598823998123407
-0.28682172298431396 0.20930230617523193 -0.025624971836805344
-0.28682172298431396 0.20930229127407074 -0.004666735418140888
-0.28682172298431396 0.22480618953704834 -0.02529062330722809
-0.28682172298431396 0.22480618953704834 -0.006656413897871971
-0.27131783962249756 -0.06976741552352905 -0.00880333874374628
-0.27131783962249756 -0.06976741552352905 -0.006471832282841206
-0.27131783962249756 -0.05426359176635742 -0.0095879677683115
-0.27131783962249756 -0.05426359176635742 -0.004334650933742523
-0.27131783962249756 -0.038759708404541016 -0.010215973481535912
-0.27131783962249756 -0.038759708404541016 -0.0032440440263599157
-0.27131783962249756 -0.02325582504272461 -0.011090058833360672
-0.27131783962249756 -0.02325582504272461 -0.0020727140363305807
-0.27131783962249756 -0.007751941680908203 -0.012198938056826591
-0.27131783962249756 -0.007751941680908203 -0.001423693262040615
-0.27131783962249756 0.007751941680908203 -0.013507688418030739
-0.27131783962249756 0.007751941680908203 -0.0018688568379729986
-0.27131783962249756 0.02325582504272461 -0.01489400677382946
-0.27131783962249756 0.02325582504272461 -0.0027471284847706556
-0.27131783962249756 0.038759708404541016 -0.016760649159550667
-0.27131783962249756 0.038759708404541016 -0.003947267308831215
-0.27131783962249756 0.05426359176635742 -0.019689837470650673
-0.27131783962249756 0.05426359176635742 -0.004630342125892639
-0.27131783962249756 0.06976747512817383 -0.021873224526643753
-0.27131783962249756 0.06976747512817383 -0.004329292103648186
-0.27131783962249756 0.08527135848999023 -0.023386428132653236
-0.27131783962249756 0.08527135848999023 -0.0034944210201501846
-0.27131783962249756 0.10077524185180664 -0.02398049831390381
-0.27131783962249756 0.10077524185180664 -0.0028954839799553156
-0.27131783962249756 0.11627912521362305 -0.024518433958292007
-0.27131783962249756 0.11627912521362305 -0.002840958535671234
-0.27131783962249756 0.1317828893661499 -0.02521885186433792
-0.27131783962249756 0.1317828893661499 -0.0033741698134690523
-0.27131783962249756 0.1472867727279663 -0.02585824765264988
-0.27131783962249756 0.1472867727279663 -0.004095208831131458
-0.27131783962249756 0.16279065608978271 -0.02631748653948307
-0.27131783962249756 0.16279065608978271 -0.004577957093715668
-0.27131783962249756 0.17829453945159912 -0.026756033301353455
-0.27131783962249756 0.17829453945159912 -0.005133874248713255
-0.27131783962249756 0.19379842281341553 -0.026800289750099182
-0.27131783962249756 0.19379842281341553 -0.006112380884587765
-0.27131783962249756 0.20930230617523193 -0.026514673605561256
-0.27131783962249756 0.20930230617523193 -0.007384805008769035
-0.27131783962249756 0.22480618953704834 -0.025580711662769318
-0.27131783962249756 0.22480618953704834 -0.014760341495275497
-0.25581395626068115 -0.05426359176635742 -0.009436747059226036
-0.25581395626068115 -0.05426359176635742 -0.006377243436872959
-0.25581395626068115 -0.038759708404541016 -0.010276149958372116
-0.25581395626068115 -0.038759708404541016 -0.005589387379586697
-0.25581395626068115 -0.02325582504272461 -0.011257256381213665
-0.25581395626068115 -0.02325582504272461 -0.004732211120426655
-0.25581395626068115 -0.007751941680908203 -0.012535618618130684
-0.25581395626068115 -0.007751941680908203 -0.004338066093623638
-0.25581395626068115 0.007751941680908203 -0.014809655025601387
-0.25581395626068115 0.007751941680908203 -0.004664610140025616
-0.25581395626068115 0.02325582504272461 -0.018079809844493866
-0.25581395626068115 0.02325582504272461 -0.005204181186854839
-0.25581395626068115 0.038759708404541016 -0.02343759313225746
-0.25581395626068115 0.038759708404541016 -0.005902205593883991
-0.25581395626068115 0.05426359176635742 -0.024233635514974594
-0.25581395626068115 0.05426359176635742 -0.006334069650620222
-0.25581395626068115 0.06976747512817383 -0.024675361812114716
-0.25581395626068115 0.06976747512817383 -0.006194101646542549
-0.25581395626068115 0.08527135848999023 -0.025059828534722328
-0.25581395626068115 0.08527135103940964 -0.005766000598669052
-0.25581395626068115 0.10077524185180664 -0.025455154478549957
-0.25581395626068115 0.10077524185180664 -0.005504353903234005
-0.25581395626068115 0.11627912521362305 -0.025802938267588615
-0.25581395626068115 0.11627912521362305 -0.005477817729115486
-0.25581395626068115 0.1317828893661499 -0.026292040944099426
-0.25581395626068115 0.1317828893661499 -0.0057162931188941
-0.25581395626068115 0.1472867727279663 -0.026792410761117935
-0.25581395626068115 0.1472867727279663 -0.006158416159451008
-0.25581395626068115 0.16279065608978271 -0.027331151068210602
-0.25581395626068115 0.1627906709909439 -0.006622444838285446
-0.25581395626068115 0.17829453945159912 -0.02789328433573246
-0.25581395626068115 0.17829455435276031 -0.007199907209724188
-0.25581395626068115 0.19379842281341553 -0.027775686234235764
-0.25581395626068115 0.19379842281341553 -0.01077260822057724
-0.25581395626068115 0.20930230617523193 -0.02702391892671585
-0.25581395626068115 0.20930230617523193 -0.015950417146086693
-0.25581395626068115 0.22480618953704834 -0.02463417500257492
-0.25581395626068115 0.22480620443820953 -0.02143258787691593
-0.24031007289886475 -0.038759708404541016 -0.010301437228918076
-0.24031008780002594 -0.038759712129831314 -0.006603109184652567
-0.24031007289886475 -0.02325582504272461 -0.011750002391636372
-0.24031007289886475 -0.02325582690536976 -0.006074394099414349
-0.24031007289886475 -0.007751941680908203 -0.013467108830809593
-0.24031008780002594 -0.007751941680908203 -0.005868777632713318
-0.24031007289886475 0.007751941215246916 -0.017897462472319603
-0.24031007289886475 0.00775194214656949 -0.006097026634961367
-0.24031007289886475 0.02325582504272461 -0.023791246116161346
-0.24031007289886475 0.02325582504272461 -0.006513410247862339
-0.24031007289886475 0.038759708404541016 -0.024703027680516243
-0.24031007289886475 0.038759708404541016 -0.007197849452495575
-0.24031007289886475 0.05426359176635742 -0.025236567482352257
-0.24031007289886475 0.05426359176635742 -0.008047139272093773
-0.24031007289886475 0.06976747512817383 -0.02569064311683178
-0.24031007289886475 0.06976747512817383 -0.007712053135037422
-0.24031007289886475 0.08527135848999023 -0.02611660771071911
-0.24031007289886475 0.08527135848999023 -0.0073478687554597855
-0.24031007289886475 0.10077524185180664 -0.026423752307891846
-0.24031007289886475 0.10077524185180664 -0.007139304652810097
-0.24031007289886475 0.11627912521362305 -0.02668694034218788
-0.24031007289886475 0.11627912521362305 -0.007085417862981558
-0.24031007289886475 0.1317828893661499 -0.027118396013975143
-0.24031007289886475 0.1317828893661499 -0.007323502562940121
-0.24031007289886475 0.1472867727279663 -0.0277312770485878
-0.24031007289886475 0.1472867727279663 -0.008064466528594494
-0.24031007289886475 0.16279065608978271 -0.02847607620060444
-0.24031007289886475 0.16279065608978271 -0.011925701051950455
-0.24031007289886475 0.17829453945159912 -0.0290553979575634
-0.24031007289886475 0.17829453945159912 -0.015042781829833984
-0.24031007289886475 0.19379842281341553 -0.028708312660455704
-0.24031007289886475 0.19379842281341553 -0.017992191016674042
-0.24031007289886475 0.20930230617523193 -0.027342669665813446
-0.24031007289886475 0.20930230617523193 -0.020037993788719177
-0.22480618953704834 -0.007751941680908203 -0.023265434429049492
-0.22480618953704834 -0.007751941680908203 -0.00754882488399744
-0.22480618953704834 0.007751941680908203 -0.024365557357668877
-0.22480618953704834 0.007751941680908203 -0.00980897806584835
-0.22480618953704834 0.02325582504272461 -0.02501326985657215
-0.22480618953704834 0.02325582504272461 -0.013081161305308342
-0.22480618953704834 0.038759708404541016 -0.02545899711549282
-0.22480618953704834 0.038759708404541016 -0.015786195173859596
-0.22480618953704834 0.05426359176635742 -0.02595851942896843
-0.22480618953704834 0.05426359176635742 -0.01714455895125866
-0.22480618953704834 0.06976747512817383 -0.026603395119309425
-0.22480618953704834 0.06976747512817383 -0.01714295893907547
-0.22480618953704834 0.08527135848999023 -0.02720003016293049
-0.22480618953704834 0.08527135848999023 -0.016340969130396843
-0.22480618953704834 0.10077524185180664 -0.02760622836649418
-0.22480618953704834 0.10077524185180664 -0.015192792750895023
-0.22480618953704834 0.11627912521362305 -0.027941256761550903
-0.22480618953704834 0.11627912521362305 -0.014822869561612606
-0.22480618953704834 0.1317828893661499 -0.028556490316987038
-0.22480618953704834 0.1317828893661499 -0.015887383371591568
-0.22480618953704834 0.1472867727279663 -0.02967187948524952
-0.22480618953704834 0.1472867727279663 -0.01740030199289322
-0.22480618953704834 0.16279065608978271 -0.030941221863031387
-0.22480618953704834 0.16279065608978271 -0.018906107172369957
-0.22480618953704834 0.17829453945159912 -0.031997859477996826
-0.22480618953704834 0.17829453945159912 -0.020278647541999817
-0.22480618953704834 0.19379842281341553 -0.031129464507102966
-0.22480618953704834 0.19379842281341553 -0.021393632516264915
-0.22480618953704834 0.20930230617523193 -0.0274733304977417
-0.22480618953704834 0.20930230617523193 -0.022013304755091667
-0.20930230617523193 -0.038759708404541016 -0.023841047659516335
-0.20930230617523193 -0.038759708404541016 -0.022359484806656837
-0.20930230617523193 -0.02325582504272461 -0.024423666298389435
-0.20930230617523193 -0.02325582504272461 -0.01997409760951996
-0.20930230617523193 -0.007751941680908203 -0.024770185351371765
-0.20930230617523193 -0.007751941680908203 -0.01855367049574852
-0.20930230617523193 0.007751941680908203 -0.0251690074801445
-0.20930230617523193 0.007751941680908203 -0.01853802427649498
-0.20930230617523193 0.02325582504272461 -0.02564026415348053
-0.20930230617523193 0.02325582504272461 -0.019163766875863075
-0.20930230617523193 0.038759708404541016 -0.026353899389505386
-0.20930230617523193 0.038759708404541016 -0.019957564771175385
-0.20930230617523193 0.05426359176635742 -0.027520619332790375
-0.20930230617523193 0.05426359176635742 -0.020447080954909325
-0.20930230617523193 0.06976747512817383 -0.02860366366803646
-0.20930230617523193 0.06976747512817383 -0.020616309717297554
-0.20930230617523193 0.08527135848999023 -0.02894720435142517
-0.20930230617523193 0.08527135848999023 -0.020463958382606506
-0.20930230617523193 0.10077524185180664 -0.029766608029603958
-0.20930230617523193 0.10077524185180664 -0.020083067938685417
-0.20930230617523193 0.11627912521362305 -0.03032173588871956
-0.20930230617523193 0.11627912521362305 -0.020122231915593147
-0.20930230617523193 0.1317828893661499 -0.03183545917272568
-0.20930230617523193 0.1317828893661499 -0.02048896811902523
-0.20930230617523193 0.1472867727279663 -0.03597787767648697
-0.20930230617523193 0.1472867727279663 -0.020945226773619652
-0.20930230617523193 0.16279065608978271 -0.03911660239100456
-0.20930230617523193 0.16279065608978271 -0.021527590230107307
-0.20930230617523193 0.17829453945159912 -0.039443861693143845
-0.20930232107639313 0.17829453945159912 -0.02213301882147789
-0.20930230617523193 0.19379842281341553 -0.039318326860666275
-0.20930230617523193 0.19379842281341553 -0.02276773564517498
-0.19379842281341553 -0.038759708404541016 -0.02364232763648033
-0.19379842281341553 -0.038759708404541016 -0.022912699729204178
-0.19379842281341553 -0.02325582504272461 -0.024807412177324295
-0.19379842281341553 -0.02325582504272461 -0.021603140980005264
-0.19379842281341553 -0.007751941680908203 -0.02507680281996727
-0.19379842281341553 -0.007751941680908203 -0.021156705915927887
-0.19379842281341553 0.007751941680908203 -0.0256966445595026
-0.19379842281341553 0.007751941680908203 -0.02113918401300907
-0.19379842281341553 0.02325582504272461 -0.026975706219673157
-0.19379842281341553 0.02325582504272461 -0.021352523937821388
-0.19379842281341553 0.038759708404541016 -0.028948288410902023
-0.19379842281341553 0.038759708404541016 -0.021761581301689148
-0.19379842281341553 0.05426359176635742 -0.03246494010090828
-0.19379840791225433 0.05426359176635742 -0.02210070751607418
-0.19379842281341553 0.06976747512817383 -0.03704919293522835
-0.19379842281341553 0.06976747512817383 -0.02229725755751133
-0.19379842281341553 0.08527135848999023 -0.0388454869389534
-0.19379842281341553 0.08527135848999023 -0.02225629612803459
-0.19379842281341553 0.10077524185180664 -0.03925376757979393
-0.19379842281341553 0.10077523440122604 -0.02210899256169796
-0.19379842281341553 0.11627912521362305 -0.039349514991045
-0.19379842281341553 0.11627911776304245 -0.022300362586975098
-0.19379842281341553 0.1317828893661499 -0.03954799845814705
-0.19379842281341553 0.1317829042673111 -0.022524556145071983
-0.19379842281341553 0.1472867727279663 -0.03999302163720131
-0.19379842281341553 0.1472867727279663 -0.022608743980526924
-0.19379842281341553 0.16279065608978271 -0.040336523205041885
-0.19379842281341553 0.16279065608978271 -0.023078562691807747
-0.19379842281341553 0.17829453945159912 -0.040375202894210815
-0.19379842281341553 0.17829453945159912 -0.026845190674066544
-0.19379842281341553 0.19379842281341553 -0.04012738913297653
-0.19379842281341553 0.19379842281341553 -0.031109165400266647
-0.1782945990562439 -0.02325582504272461 -0.023794792592525482
-0.1782945990562439 -0.02325582504272461 -0.02293338067829609
-0.1782945990562439 -0.007751941680908203 -0.024078404530882835
-0.1782945990562439 -0.00775194214656949 -0.022764189168810844
-0.1782945990562439 0.007751941680908203 -0.024947278201580048
-0.1782946139574051 0.007751941680908203 -0.022798815742135048
-0.1782945990562439 0.02325582504272461 -0.02523736096918583
-0.1782945990562439 0.02325582504272461 -0.02317074127495289
-0.1782945990562439 0.038759708404541016 -0.039502326399087906
-0.1782945990562439 0.038759708404541016 -0.029441971331834793
-0.1782945990562439 0.05426359176635742 -0.0399942547082901
-0.1782945990562439 0.05426359176635742 -0.029807399958372116
-0.1782945990562439 0.06976747512817383 -0.04018447920680046
-0.1782945990562439 0.06976747512817383 -0.029614418745040894
-0.1782945990562439 0.08527135848999023 -0.04042030870914459
-0.1782945990562439 0.08527135848999023 -0.027769628912210464
-0.1782945990562439 0.10077524185180664 -0.04070432856678963
-0.1782945990562439 0.10077524185180664 -0.026000147685408592
-0.1782945990562439 0.11627912521362305 -0.040733516216278076
-0.1782945990562439 0.11627912521362305 -0.02719341218471527
-0.1782945990562439 0.1317828893661499 -0.040630944073200226
-0.1782945990562439 0.1317828893661499 -0.029471799731254578
-0.1782945990562439 0.1472867727279663 -0.040825799107551575
-0.1782945990562439 0.1472867727279663 -0.029804833233356476
-0.1782945990562439 0.16279065608978271 -0.041129738092422485
-0.1782945990562439 0.16279065608978271 -0.031132511794567108
-0.1782945990562439 0.17829453945159912 -0.04107809066772461
-0.1782945990562439 0.17829453945159912 -0.032703936100006104
-0.1782945990562439 0.19379842281341553 -0.040563564747571945
-0.1782945990562439 0.19379842281341553 -0.03463028371334076
-0.1782945990562439 0.20930230617523193 -0.03893289342522621
-0.1782946139574051 0.20930230617523193 -0.03849579021334648
-0.1627907156944275 0.02325582504272461 -0.039733003824949265
-0.1627907156944275 0.02325582504272461 -0.03474297374486923
-0.1627907156944275 0.038759708404541016 -0.040194302797317505
-0.1627907156944275 0.038759708404541016 -0.034395601600408554
-0.1627907156944275 0.05426359176635742 -0.040466491132974625
-0.1627907156944275 0.05426359549164772 -0.03435567021369934
-0.1627907156944275 0.06976747512817383 -0.0410323366522789
-0.1627907156944275 0.06976747512817383 -0.033650558441877365
-0.1627907156944275 0.08527135848999023 -0.041876859962940216
-0.1627907156944275 0.08527135848999023 -0.03244646638631821
-0.1627907156944275 0.10077524185180664 -0.0427408367395401
-0.1627907156944275 0.10077524185180664 -0.03172547370195389
-0.1627907156944275 0.11627912521362305 -0.042741645127534866
-0.1627907156944275 0.11627912521362305 -0.03207588568329811
-0.1627907156944275 0.1317828893661499 -0.04193137586116791
-0.1627907156944275 0.1317828893661499 -0.033199623227119446
-0.1627907156944275 0.1472867727279663 -0.04239748418331146
-0.1627907156944275 0.1472867727279663 -0.0332922488451004
-0.1627907156944275 0.16279065608978271 -0.04312384873628616
-0.1627907156944275 0.16279065608978271 -0.03396796062588692
-0.1627907156944275 0.17829453945159912 -0.0427267886698246
-0.1627907156944275 0.17829453945159912 -0.03483283892273903
-0.1627907156944275 0.19379842281341553 -0.04118931293487549
-0.1627907156944275 0.19379842281341553 -0.03595934063196182
-0.1627907156944275 0.20930230617523193 -0.038780953735113144
-0.1627907156944275 0.20930230617523193 -0.038735173642635345
-0.14728683233261108 0.02325582504272461 -0.039798710495233536
-0.14728683233261108 0.02325582504272461 -0.036592353135347366
-0.14728683233261108 0.038759708404541016 -0.040306199342012405
-0.14728683233261108 0.038759708404541016 -0.03619793802499771
-0.14728683233261108 0.05426359176635742 -0.04115821793675423
-0.14728683233261108 0.05426359176635742 -0.03589966148138046
-0.14728683233261108 0.06976747512817383 -0.04369542747735977
-0.14728683233261108 0.06976747512817383 -0.03507111594080925
-0.14728683233261108 0.08527135848999023 -0.046809904277324677
-0.14728683233261108 0.08527135848999023 -0.034322962164878845
-0.14728683233261108 0.10077524185180664 -0.05149364098906517
-0.14728683233261108 0.10077523440122604 -0.03411277011036873
-0.14728683233261108 0.11627912521362305 -0.05452316626906395
-0.14728683233261108 0.11627912521362305 -0.034292902797460556
-0.14728683233261108 0.1317828893661499 -0.05320633575320244
-0.14728683233261108 0.1317828893661499 -0.034979768097400665
-0.14728683233261108 0.1472867727279663 -0.05056970939040184
-0.14728683233261108 0.1472867727279663 -0.03490021079778671
-0.14728683233261108 0.16279065608978271 -0.050154779106378555
-0.14728683233261108 0.16279065608978271 -0.03541134297847748
-0.14728683233261108 0.17829453945159912 -0.04706260561943054
-0.14728683233261108 0.17829453945159912 -0.03609137982130051
-0.14728683233261108 0.19379842281341553 -0.042330168187618256
-0.14728683233261108 0.19379842281341553 -0.036854300647974014
-0.13178294897079468 -0.02325582504272461 -0.038903478533029556
-0.13178294897079468 -0.02325582504272461 -0.038532570004463196
-0.13178294897079468 -0.007751941680908203 -0.03955770656466484
-0.13178294897079468 -0.00775194214656949 -0.03734847530722618
-0.13178294897079468 0.007751941680908203 -0.03975163400173187
-0.13178294897079468 0.007751941680908203 -0.03715915232896805
-0.13178294897079468 0.02325582504272461 -0.04024629294872284
-0.13178294897079468 0.02325582504272461 -0.036997195333242416
-0.13178294897079468 0.038759708404541016 -0.04155396670103073
-0.13178294897079468 0.038759708404541016 -0.03683099150657654
-0.13178294897079468 0.05426359176635742 -0.04547186940908432
-0.13178294897079468 0.05426359176635742 -0.036480944603681564
-0.13178294897079468 0.06976747512817383 -0.05177465081214905
-0.13178294897079468 0.06976747512817383 -0.035783957690000534
-0.13178294897079468 0.08527135848999023 -0.05534657835960388
-0.13178294897079468 0.08527135848999023 -0.03527439013123512
-0.13178294897079468 0.10077524185180664 -0.057435695081949234
-0.13178294897079468 0.10077524185180664 -0.03509899228811264
-0.13178294897079468 0.11627912521362305 -0.05890250205993652
-0.13178294897079468 0.11627912521362305 -0.03513094782829285
-0.13178294897079468 0.1317828893661499 -0.058634281158447266
-0.13178294897079468 0.1317828893661499 -0.035820379853248596
-0.13178294897079468 0.1472867727279663 -0.058300137519836426
-0.13178294897079468 0.1472867727279663 -0.03574003651738167
-0.13178294897079468 0.16279065608978271 -0.057682428508996964
-0.13178294897079468 0.16279065608978271 -0.03608164191246033
-0.13178294897079468 0.17829453945159912 -0.056338317692279816
-0.13178294897079468 0.17829453945159912 -0.03687548637390137
-0.13178294897079468 0.19379842281341553 -0.05438103899359703
-0.13178294897079468 0.19379842281341553 -0.03764176368713379
-0.11627906560897827 -0.02325582504272461 -0.040128324180841446
-0.11627906560897827 -0.02325582504272461 -0.03757442533969879
-0.11627906560897827 -0.007751941680908203 -0.04101576656103134
-0.11627906560897827 -0.007751941215246916 -0.036881543695926666
-0.11627906560897827 0.007751941680908203 -0.041392259299755096
-0.11627906560897827 0.007751941215246916 -0.037040553987026215
-0.11627906560897827 0.02325582504272461 -0.04377645254135132
-0.11627906560897827 0.02325582504272461 -0.03714971989393234
-0.11627906560897827 0.038759708404541016 -0.05428498610854149
-0.11627906560897827 0.038759708404541016 -0.03706025704741478
-0.11627906560897827 0.05426359176635742 -0.05592542514204979
-0.11627906560897827 0.05426359176635742 -0.03673581779003143
-0.11627906560897827 0.06976747512817383 -0.05860799551010132
-0.11627906560897827 0.06976747512817383 -0.03614327311515808
-0.11627906560897827 0.08527135848999023 -0.06325563788414001
-0.11627906560897827 0.08527135848999023 -0.03571365028619766
-0.11627906560897827 0.10077524185180664 -0.0705408975481987
