-0.13178294897079468 -0.20930230617523193 -0.4985329210758209
-0.13178294897079468 -0.20930229127407074 -0.26925960183143616
-0.13178294897079468 -0.19379842281341553 -0.5159311294555664
-0.13178294897079468 -0.19379842281341553 -0.2472851276397705
-0.13178294897079468 -0.1782945990562439 -0.5318222641944885
-0.13178294897079468 -0.1782945990562439 -0.22840964794158936
-0.13178294897079468 -0.1627907156944275 -0.5450689792633057
-0.13178294897079468 -0.1627907156944275 -0.20788976550102234
-0.13178294897079468 -0.14728683233261108 -0.5543054938316345
-0.13178294897079468 -0.14728683233261108 -0.18670864403247833
-0.13178294897079468 -0.1472868174314499 0.07053159177303314
-0.13178294897079468 -0.14728683233261108 0.18999001383781433
-0.13178294897079468 -0.13178294897079468 -0.5581929683685303
-0.13178294897079468 -0.13178294897079468 -0.1630203127861023
-0.13178294897079468 -0.13178294897079468 0.053352706134319305
-0.13178294897079468 -0.13178294897079468 0.24661381542682648
-0.13178294897079468 -0.13178294897079468 0.8130433559417725
-0.13178294897079468 -0.13178294897079468 0.8150727152824402
-0.13178294897079468 -0.11627906560897827 -0.5619242787361145
-0.13178294897079468 -0.11627907305955887 -0.14473524689674377
-0.13178294897079468 -0.11627906560897827 0.04122788459062576
-0.13178296387195587 -0.11627906560897827 0.2868706285953522
-0.13178294897079468 -0.11627906560897827 0.8113319873809814
-0.13178294897079468 -0.11627906560897827 0.8182216882705688
-0.13178294897079468 -0.10077518224716187 -0.5670077204704285
-0.13178294897079468 -0.10077518224716187 -0.13295353949069977
-0.13178294897079468 -0.10077518224716187 0.03132091835141182
-0.13178294897079468 -0.10077518224716187 0.31530505418777466
-0.13178294897079468 -0.10077518224716187 0.8116433024406433
-0.13178294897079468 -0.10077518224716187 0.8194596767425537
-0.13178294897079468 -0.08527129888534546 -0.5716615319252014
-0.13178294897079468 -0.08527129888534546 -0.12407146394252777
-0.13178294897079468 -0.08527129888534546 0.022639751434326172
-0.13178294897079468 -0.08527129888534546 0.33814239501953125
-0.13178294897079468 -0.08527129888534546 0.8118089437484741
-0.13178294897079468 -0.08527129888534546 0.8216105699539185
-0.13178294897079468 -0.06976741552352905 -0.577509880065918
-0.13178294897079468 -0.06976741552352905 -0.11435974389314651
-0.13178294897079468 -0.06976741552352905 0.01332821138203144
-0.13178294897079468 -0.06976741552352905 0.3609302043914795
-0.13178294897079468 -0.06976741552352905 0.8115931749343872
-0.13178294897079468 -0.06976741552352905 0.8264932632446289
-0.13178294897079468 -0.05426359176635742 -0.584119439125061
-0.13178294897079468 -0.05426359176635742 -0.10176250338554382
-0.13178294897079468 -0.05426359176635742 0.0070627182722091675
-0.13178294897079468 -0.05426359176635742 0.37822240591049194
-0.13178294897079468 -0.05426359176635742 0.81100994348526
-0.13178294897079468 -0.05426359176635742 0.8304194211959839
-0.13178294897079468 -0.038759708404541016 -0.5915007591247559
-0.13178294897079468 -0.038759708404541016 -0.09174023568630219
-0.13178294897079468 -0.038759708404541016 0.0008432704489678144
-0.13178294897079468 -0.038759708404541016 0.388725221157074
-0.13178294897079468 -0.038759708404541016 0.810113787651062
-0.13178294897079468 -0.038759708404541016 0.8317292332649231
-0.13178294897079468 -0.02325582504272461 -0.5990139245986938
-0.13178294897079468 -0.02325582504272461 -0.08784914761781693
-0.13178294897079468 -0.02325582504272461 -0.0020431752782315016
-0.13178294897079468 -0.02325582318007946 0.39580780267715454
-0.13178294897079468 -0.02325582504272461 0.6313137412071228
-0.13178294897079468 -0.02325582504272461 0.6821624636650085
-0.13178294897079468 -0.02325582504272461 0.8093401193618774
-0.13178294897079468 -0.02325582504272461 0.8332741260528564
-0.13178294897079468 -0.007751941680908203 -0.9496837854385376
-0.13178294897079468 -0.007751941680908203 -0.9124189019203186
-0.13178294897079468 -0.007751941680908203 -0.61515873670578
-0.13178294897079468 -0.007751941680908203 -0.08612754940986633
-0.13178294897079468 -0.007751941680908203 -0.003414242761209607
-0.13178294897079468 -0.007751941680908203 0.39747774600982666
-0.13178294897079468 -0.007751941680908203 0.627643883228302
-0.13178294897079468 -0.007751941680908203 0.689586877822876
-0.13178294897079468 -0.007751941680908203 0.8087651133537292
-0.13178294897079468 -0.007751941680908203 0.8346884250640869
-0.13178294897079468 0.007751941680908203 -0.9636485576629639
-0.13178294897079468 0.007751941680908203 -0.8903669118881226
-0.13178294897079468 0.007751941680908203 -0.8073762655258179
-0.13178294897079468 0.007751941680908203 -0.0856843814253807
-0.13178294897079468 0.007751941680908203 -0.0036503495648503304
-0.13178294897079468 0.007751941215246916 0.3969242572784424
-0.13178294897079468 0.007751941680908203 0.6396998167037964
-0.13178294897079468 0.007751941680908203 0.6831544637680054
-0.13178294897079468 0.007751941680908203 0.8084057569503784
-0.13178294897079468 0.00775194214656949 0.8346336483955383
-0.13178294897079468 0.02325582690536976 -0.9671122431755066
-0.13178294897079468 0.02325582504272461 -0.08851432800292969
-0.13178294897079468 0.02325582504272461 -0.0017406211700290442
-0.13178294897079468 0.02325582504272461 0.39259496331214905
-0.13178294897079468 0.02325582504272461 0.8088475465774536
-0.13178294897079468 0.02325582504272461 0.8331450819969177
-0.13178294897079468 0.038759708404541016 -0.9661006331443787
-0.13178294897079468 0.038759708404541016 -0.09711147844791412
-0.13178294897079468 0.038759708404541016 0.00272575207054615
-0.13178294897079468 0.038759708404541016 0.38437360525131226
-0.13178294897079468 0.038759708404541016 0.8100467920303345
-0.13178294897079468 0.038759708404541016 0.831683874130249
-0.13178294897079468 0.05426359176635742 -0.9555251598358154
-0.13178294897079468 0.05426359176635742 -0.10780256986618042
-0.13178294897079468 0.05426359176635742 0.008771594613790512
-0.13178294897079468 0.05426359176635742 0.3723640441894531
-0.13178294897079468 0.05426359176635742 0.8113598823547363
-0.13178294897079468 0.05426359176635742 0.8306455016136169
-0.13178294897079468 0.06976747512817383 -0.6120437979698181
-0.13178294897079468 0.06976747512817383 -0.11913872510194778
-0.13178294897079468 0.06976747512817383 0.01438954658806324
-0.13178294897079468 0.06976747512817383 0.3535462021827698
-0.13178294897079468 0.06976747512817383 0.8120903968811035
-0.13178294897079468 0.06976747512817383 0.8296252489089966
-0.13178294897079468 0.08527135848999023 -0.5849579572677612
-0.13178294897079468 0.08527135848999023 -0.127330482006073
-0.13178294897079468 0.08527135848999023 0.021826190873980522
-0.13178294897079468 0.08527135848999023 0.3311748802661896
-0.13178294897079468 0.08527135848999023 0.8123053312301636
-0.13178294897079468 0.08527135848999023 0.8229688405990601
-0.13178294897079468 0.10077524185180664 -0.5720328092575073
-0.13178294897079468 0.10077524185180664 -0.1358867883682251
-0.13178294897079468 0.10077524185180664 0.031130705028772354
-0.13178294897079468 0.10077524185180664 0.30841293931007385
-0.13178294897079468 0.10077524185180664 0.8123404383659363
-0.13178294897079468 0.10077524930238724 0.8191291093826294
-0.13178294897079468 0.11627912521362305 -0.5608357787132263
-0.13178294897079468 0.11627912521362305 -0.14869143068790436
-0.13178294897079468 0.11627912521362305 0.04348472133278847
-0.13178294897079468 0.11627912521362305 0.27924951910972595
-0.13178294897079468 0.11627912521362305 0.8128379583358765
-0.13178294897079468 0.11627912521362305 0.8161908388137817
-0.13178294897079468 0.1317828893661499 -0.5516712069511414
-0.13178294897079468 0.1317828893661499 -0.1690671741962433
-0.13178294897079468 0.1317828893661499 0.06592010706663132
-0.13178294897079468 0.1317828893661499 0.240156888961792
-0.13178294897079468 0.1472867727279663 -0.5449138879776001
-0.13178294897079468 0.14728675782680511 -0.19194762408733368
-0.13178294897079468 0.16279065608978271 -0.5372829437255859
-0.13178294897079468 0.16279065608978271 -0.21291689574718475
-0.13178294897079468 0.17829453945159912 -0.5274275541305542
-0.13178294897079468 0.17829453945159912 -0.23448379337787628
-0.13178294897079468 0.19379842281341553 -0.5126156806945801
-0.13178294897079468 0.19379842281341553 -0.2571254372596741
-0.13178294897079468 0.20930230617523193 -0.49268078804016113
-0.13178294897079468 0.20930229127407074 -0.2828879654407501
-0.13178294897079468 0.22480618953704834 -0.4615507125854492
-0.13178294897079468 0.22480618953704834 -0.3148536682128906
-0.13178294897079468 0.24031007289886475 -0.39640358090400696
-0.13178294897079468 0.24031007289886475 -0.3760955333709717
-0.11627906560897827 -0.24031007289886475 -0.461264967918396
-0.11627906560897827 -0.24031007289886475 -0.32091444730758667
-0.11627906560897827 -0.22480618953704834 -0.4866723418235779
-0.11627906560897827 -0.22480618953704834 -0.28867942094802856
-0.11627906560897827 -0.20930230617523193 -0.5055871605873108
-0.11627906560897827 -0.20930230617523193 -0.2616647779941559
-0.11627906560897827 -0.19379842281341553 -0.5227440595626831
-0.11627906560897827 -0.19379842281341553 -0.24067291617393494
-0.11627906560897827 -0.1782945990562439 -0.5392848253250122
-0.11627906560897827 -0.1782945990562439 -0.21993502974510193
-0.11627906560897827 -0.1627907156944275 -0.5524111986160278
-0.11627906560897827 -0.1627907156944275 -0.1993316411972046
-0.11627906560897827 -0.1627907156944275 0.09287527203559875
-0.11627906560897827 -0.1627907156944275 0.15903770923614502
-0.11627906560897827 -0.14728683233261108 -0.558445930480957
-0.11627907305955887 -0.14728683233261108 -0.17812752723693848
-0.11627906560897827 -0.14728683233261108 0.05731189623475075
-0.11627906560897827 -0.14728683233261108 0.2348017394542694
-0.11627906560897827 -0.13178294897079468 -0.5607109665870667
-0.11627906560897827 -0.13178294897079468 -0.15361183881759644
-0.11627906560897827 -0.13178294897079468 0.04234270006418228
-0.11627906560897827 -0.13178294897079468 0.28032001852989197
-0.11627906560897827 -0.13178294897079468 0.8114800453186035
-0.11627906560897827 -0.13178294897079468 0.8185795545578003
-0.11627906560897827 -0.11627906560897827 -0.5637128949165344
-0.11627906560897827 -0.11627906560897827 -0.135290265083313
-0.11627906560897827 -0.11627906560897827 0.030945226550102234
-0.11627906560897827 -0.11627906560897827 0.3058868646621704
-0.11627906560897827 -0.11627906560897827 0.8118834495544434
-0.11627906560897827 -0.11627906560897827 0.8207360506057739
-0.11627906560897827 -0.10077518224716187 -0.5675420761108398
-0.11627906560897827 -0.10077518224716187 -0.12110353261232376
-0.11627906560897827 -0.10077518224716187 0.020026881247758865
-0.11627906560897827 -0.10077518224716187 0.3299902677536011
-0.11627906560897827 -0.10077518224716187 0.8121053576469421
-0.11627906560897827 -0.10077518224716187 0.8248679637908936
-0.11627906560897827 -0.08527129888534546 -0.5719728469848633
-0.11627906560897827 -0.08527129888534546 -0.10522662103176117
-0.11627906560897827 -0.08527129888534546 0.008899200707674026
-0.11627906560897827 -0.08527129143476486 0.35116925835609436
-0.11627906560897827 -0.08527129888534546 0.8120996952056885
-0.11627906560897827 -0.08527129888534546 0.8300191760063171
-0.11627906560897827 -0.06976741552352905 -0.5777475833892822
-0.11627906560897827 -0.06976741552352905 -0.08805327117443085
-0.11627906560897827 -0.06976741552352905 -0.0036324393004179
-0.11627906560897827 -0.06976741552352905 0.3705900311470032
-0.11627906560897827 -0.06976741552352905 0.6430099606513977
-0.11627906560897827 -0.06976741552352905 0.6644505262374878
-0.11627906560897827 -0.06976741552352905 0.8115009665489197
-0.11627906560897827 -0.06976741552352905 0.8313555121421814
-0.11627906560897827 -0.05426359176635742 -0.5846509337425232
-0.11627906560897827 -0.05426359176635742 -0.07176856696605682
-0.11627906560897827 -0.05426359176635742 -0.01602526754140854
-0.11627906560897827 -0.05426359176635742 0.3859202265739441
-0.11627906560897827 -0.05426359176635742 0.607715904712677
-0.11627906560897827 -0.05426359176635742 0.702552318572998
-0.11627906560897827 -0.05426359176635742 0.8092559576034546
-0.11627906560897827 -0.05426359176635742 0.8329389691352844
-0.11627906560897827 -0.038759708404541016 -0.5925043225288391
-0.11627906560897827 -0.038759708404541016 -0.0461510568857193
-0.11627906560897827 -0.03875970467925072 -0.03601401671767235
-0.11627906560897827 -0.038759708404541016 0.3960973918437958
-0.11627906560897827 -0.038759708404541016 0.5926138162612915
-0.11627906560897827 -0.038759708404541016 0.7544438242912292
-0.11627906560897827 -0.038759708404541016 0.8030896186828613
-0.11627906560897827 -0.038759708404541016 0.8355598449707031
-0.11627906560897827 -0.02325582504272461 -0.5992563962936401
-0.11627906560897827 -0.02325582504272461 0.4006425738334656
-0.11627906560897827 -0.02325582504272461 0.5866709351539612
-0.11627906560897827 -0.02325582504272461 0.781265139579773
-0.11627906560897827 -0.02325582504272461 0.7857677936553955
-0.11627906560897827 -0.02325582504272461 0.8387455940246582
-0.11627906560897827 -0.007751941680908203 -0.608155369758606
-0.11627906560897827 -0.007751941680908203 0.40320324897766113
-0.11627906560897827 -0.007751941680908203 0.5859123468399048
-0.11627906560897827 -0.007751941680908203 0.8421441912651062
-0.11627906560897827 0.007751941680908203 -0.6330406069755554
-0.11627906560897827 0.007751941680908203 0.4031156301498413
-0.11627906560897827 0.007751941680908203 0.5904488563537598
-0.11627906560897827 0.007751941680908203 0.8428418040275574
-0.11627906560897827 0.02325582504272461 -0.7074376344680786
-0.11627906560897827 0.02325582504272461 0.3997616171836853
-0.11627906560897827 0.02325582504272461 0.6029089689254761
-0.11627906560897827 0.02325582504272461 0.7653360366821289
-0.11627906560897827 0.02325582504272461 0.7980009913444519
-0.11627906560897827 0.02325582504272461 0.8397214412689209
-0.11627906560897827 0.038759708404541016 -0.7249167561531067
-0.11627906560897827 0.038759708404541016 -0.04356878995895386
-0.11627906560897827 0.038759708404541016 -0.03743917867541313
-0.11627906560897827 0.038759708404541016 0.39486148953437805
-0.11627906560897827 0.038759708404541016 0.6246320605278015
-0.11627906560897827 0.038759708404541016 0.7123289108276367
-0.11627906560897827 0.038759708404541016 0.8066601753234863
-0.11627906560897827 0.038759708404541016 0.8360806703567505
-0.11627906560897827 0.05426359176635742 -0.6610998511314392
-0.11627906560897827 0.05426359176635742 -0.07542425394058228
-0.11627906560897827 0.05426359176635742 -0.015611016191542149
-0.11627906560897827 0.05426359176635742 0.3850228786468506
-0.11627906560897827 0.05426359176635742 0.810403048992157
-0.11627906560897827 0.05426359176635742 0.8332896828651428
-0.11627906560897827 0.06976747512817383 -0.6043419241905212
-0.11627906560897827 0.06976747512817383 -0.09285290539264679
-0.11627906560897827 0.06976747512817383 -0.003424897789955139
-0.11627906560897827 0.06976747512817383 0.36983901262283325
-0.11627906560897827 0.06976747512817383 0.8118852376937866
-0.11627906560897827 0.06976747512817383 0.8317611813545227
-0.11627906560897827 0.08527135848999023 -0.5888935923576355
-0.11627906560897827 0.08527135848999023 -0.10978581756353378
-0.11627906560897827 0.08527135848999023 0.0076470449566841125
-0.11627906560897827 0.08527135848999023 0.34842973947525024
-0.11627906560897827 0.08527135848999023 0.8123867511749268
-0.11627906560897827 0.08527135848999023 0.830658495426178
-0.11627906560897827 0.10077524185180664 -0.5778116583824158
-0.11627906560897827 0.10077524185180664 -0.12515789270401
-0.11627906560897827 0.10077524185180664 0.01905202865600586
-0.11627906560897827 0.10077524185180664 0.32523685693740845
-0.11627906560897827 0.10077524185180664 0.8125275373458862
-0.11627906560897827 0.10077524185180664 0.8295666575431824
-0.11627906560897827 0.11627912521362305 -0.5665452480316162
-0.11627906560897827 0.11627912521362305 -0.13910628855228424
-0.11627906560897827 0.11627912521362305 0.03146786242723465
-0.11627906560897827 0.11627912521362305 0.29872217774391174
-0.11627906560897827 0.11627912521362305 0.8125540018081665
-0.11627906560897827 0.11627912521362305 0.8208974599838257
-0.11627906560897827 0.1317828893661499 -0.5578113794326782
-0.11627906560897827 0.1317828893661499 -0.15782013535499573
-0.11627906560897827 0.1317828893661499 0.050634004175662994
-0.11627905815839767 0.1317828893661499 0.26091501116752625
-0.11627906560897827 0.1317828893661499 0.8130661249160767
-0.11627906560897827 0.1317828893661499 0.8161666989326477
-0.11627906560897827 0.1472867727279663 -0.5506715774536133
-0.11627906560897827 0.1472867727279663 -0.18069961667060852
-0.11627906560897827 0.1472867727279663 0.0838874876499176
-0.11627906560897827 0.1472867727279663 0.19349326193332672
-0.11627906560897827 0.16279065608978271 -0.5444624423980713
-0.11627906560897827 0.16279065608978271 -0.20417426526546478
-0.11627906560897827 0.17829453945159912 -0.534101665019989
-0.11627906560897827 0.17829453945159912 -0.22780126333236694
-0.11627906560897827 0.19379842281341553 -0.5203859806060791
-0.11627906560897827 0.19379842281341553 -0.25098690390586853
-0.11627906560897827 0.20930230617523193 -0.5014190673828125
-0.11627906560897827 0.20930230617523193 -0.27605152130126953
-0.11627906560897827 0.22480618953704834 -0.47600752115249634
-0.11627906560897827 0.22480618953704834 -0.3057469129562378
-0.11627906560897827 0.24031007289886475 -0.42554959654808044
-0.11627906560897827 0.24031007289886475 -0.3488696217536926
-0.10077518224716187 -0.25581395626068115 -0.42825499176979065
-0.10077518969774246 -0.25581395626068115 -0.35969066619873047
-0.10077518224716187 -0.24031007289886475 -0.47306662797927856
-0.10077518224716187 -0.24031007289886475 -0.309332013130188
-0.10077518224716187 -0.22480618953704834 -0.49373364448547363
-0.10077518224716187 -0.22480618953704834 -0.2787458896636963
-0.10077518224716187 -0.20930230617523193 -0.5109389424324036
-0.10077518224716187 -0.20930230617523193 -0.2534048855304718
-0.10077518224716187 -0.19379842281341553 -0.5281894207000732
-0.10077518224716187 -0.19379842281341553 -0.23236313462257385
-0.10077518224716187 -0.1782945990562439 -0.5451772212982178
-0.10077518224716187 -0.1782945990562439 -0.21239155530929565
-0.10077518224716187 -0.1627907156944275 -0.5571079254150391
-0.10077518224716187 -0.1627907156944275 -0.1913776397705078
-0.10077518224716187 -0.1627907156944275 0.07377912104129791
-0.10077518224716187 -0.1627907156944275 0.19792422652244568
-0.10077518224716187 -0.14728683233261108 -0.5617921948432922
-0.10077518224716187 -0.14728683233261108 -0.17002002894878387
-0.10077518224716187 -0.14728683233261108 0.049601953476667404
-0.10077518224716187 -0.14728683233261108 0.2675183415412903
-0.10077518224716187 -0.14728683233261108 0.8115118741989136
-0.10077518969774246 -0.14728683233261108 0.818342387676239
-0.10077518224716187 -0.13178294897079468 -0.563016951084137
-0.10077518224716187 -0.13178294897079468 -0.14746803045272827
-0.10077518224716187 -0.13178294897079468 0.03584471344947815
-0.10077518224716187 -0.13178294897079468 0.29917672276496887
-0.10077518224716187 -0.13178294897079468 0.8118457794189453
-0.10077518224716187 -0.13178294897079468 0.8214142322540283
-0.10077518224716187 -0.11627907305955887 -0.5649782419204712
-0.10077518224716187 -0.11627905815839767 -0.12819364666938782
-0.10077518224716187 -0.11627906560897827 0.02247772365808487
-0.10077518224716187 -0.11627906560897827 0.31929925084114075
-0.10077518224716187 -0.11627906560897827 0.8120939135551453
-0.10077518224716187 -0.11627906560897827 0.828381359577179
-0.10077518224716187 -0.10077518224716187 -0.5677881240844727
-0.10077518224716187 -0.10077518224716187 -0.10556110739707947
-0.10077518224716187 -0.10077518224716187 0.0091117974370718
-0.10077518224716187 -0.10077518224716187 0.3402436375617981
-0.10077518224716187 -0.10077518224716187 0.8121548891067505
-0.10077518224716187 -0.10077518224716187 0.8307581543922424
-0.10077518224716187 -0.08527129888534546 -0.5721634030342102
-0.10077518969774246 -0.08527129888534546 -0.0823170393705368
-0.10077518224716187 -0.08527129888534546 -0.006520050577819347
-0.10077518224716187 -0.08527129888534546 0.3603557050228119
-0.10077518224716187 -0.08527129888534546 0.6244455575942993
-0.10077518224716187 -0.08527129888534546 0.6859064102172852
-0.10077518224716187 -0.08527129888534546 0.8118650317192078
-0.10077518224716187 -0.08527129888534546 0.8320246934890747
-0.10077517479658127 -0.06976741552352905 -0.5779896974563599
-0.10077518224716187 -0.06976741552352905 -0.05654223635792732
-0.10077518224716187 -0.06976741552352905 -0.03017449751496315
-0.10077518224716187 -0.06976741552352905 0.3778790831565857
-0.10077518224716187 -0.06976741552352905 0.5918346643447876
-0.10077518224716187 -0.06976741552352905 0.7217229604721069
-0.10077518224716187 -0.06976741552352905 0.809253454208374
-0.10077518224716187 -0.06976741552352905 0.8336074948310852
-0.10077518224716187 -0.05426359176635742 -0.5852190852165222
-0.10077518224716187 -0.05426359176635742 0.3929639756679535
-0.10077518224716187 -0.05426359176635742 0.57480388879776
-0.10077518224716187 -0.05426359176635742 0.8371157646179199
-0.10077518224716187 -0.038759708404541016 -0.5932729244232178
-0.10077518224716187 -0.038759708404541016 0.40110504627227783
-0.10077518224716187 -0.038759708404541016 0.565388560295105
-0.10077518224716187 -0.038759708404541016 0.8419062495231628
-0.10077518224716187 -0.02325582504272461 -0.5995321869850159
-0.10077518224716187 -0.02325582504272461 0.4069051444530487
-0.10077518224716187 -0.02325582504272461 0.5614476799964905
-0.10077518224716187 -0.02325582504272461 0.8463987112045288
-0.10077518224716187 -0.00775194214656949 -0.6060984134674072
-0.10077518224716187 -0.007751941680908203 0.41014888882637024
-0.10077518224716187 -0.007751941680908203 0.5607894659042358
-0.10077518224716187 -0.007751941680908203 0.8488004207611084
-0.10077518224716187 0.007751941680908203 -0.6139535903930664
-0.10077518224716187 0.007751941680908203 0.4103996455669403
-0.10077518224716187 0.007751941680908203 0.5640372633934021
-0.10077518224716187 0.007751941680908203 0.8490551710128784
-0.10077518224716187 0.02325582504272461 -0.6199735403060913
-0.10077518224716187 0.02325582504272461 0.40677410364151
-0.10077518224716187 0.02325582504272461 0.571911096572876
-0.10077518224716187 0.02325582504272461 0.8469499349594116
-0.10077518224716187 0.038759708404541016 -0.6207364797592163
-0.10077518224716187 0.038759708404541016 0.40152835845947266
-0.10077518224716187 0.038759708404541016 0.5873445272445679
-0.10077518224716187 0.038759708404541016 0.8450970649719238
-0.10077518224716187 0.05426359176635742 -0.613339900970459
-0.10077518224716187 0.05426359176635742 0.3938937485218048
-0.10077518224716187 0.05426359176635742 0.6088472604751587
-0.10077518224716187 0.05426359176635742 0.7501833438873291
-0.10077517479658127 0.05426358804106712 0.7999089956283569
-0.10077518224716187 0.05426359176635742 0.8388856649398804
-0.10077518224716187 0.06976747512817383 -0.6014459133148193
-0.10077518224716187 0.06976747512817383 -0.05645193159580231
-0.10077518224716187 0.06976747512817383 -0.03245467692613602
-0.10077518224716187 0.06976747512817383 0.38021594285964966
-0.10077518224716187 0.06976747512817383 0.6414780020713806
-0.10077518224716187 0.06976747512817383 0.6940776109695435
-0.10077518224716187 0.06976747512817383 0.809569239616394
-0.10077518224716187 0.06976747512817383 0.8344628810882568
-0.10077518224716187 0.08527135848999023 -0.592028021812439
-0.10077518224716187 0.08527135848999023 -0.08452445268630981
-0.10077518224716187 0.08527135848999023 -0.007563731633126736
-0.10077518224716187 0.08527135848999023 0.36177101731300354
-0.10077518224716187 0.08527135848999023 0.8119626045227051
-0.10077518224716187 0.08527135103940964 0.8324836492538452
-0.10077518224716187 0.10077524185180664 -0.58193039894104
-0.10077518224716187 0.10077524185180664 -0.11005429923534393
-0.10077518969774246 0.10077524930238724 0.007756803650408983
-0.10077518224716187 0.10077524185180664 0.33904433250427246
-0.10077518224716187 0.10077524185180664 0.8125548958778381
-0.10077518224716187 0.10077524185180664 0.831542432308197
-0.10077518224716187 0.11627912521362305 -0.5703085660934448
-0.10077518224716187 0.11627912521362305 -0.13118045032024384
-0.10077518224716187 0.11627912521362305 0.02276461571455002
-0.10077518224716187 0.11627912521362305 0.31457075476646423
-0.10077518224716187 0.11627912521362305 0.8126461505889893
-0.10077518224716187 0.11627911776304245 0.8303711414337158
-0.10077518224716187 0.1317828893661499 -0.5611667633056641
-0.10077518224716187 0.1317828893661499 -0.14973193407058716
-0.10077518224716187 0.1317828893661499 0.040804967284202576
-0.10077518224716187 0.1317828893661499 0.27792730927467346
-0.10077518224716187 0.1317828893661499 0.8126994371414185
-0.10077518224716187 0.1317828893661499 0.8225381374359131
-0.10077518224716187 0.1472867727279663 -0.5548145771026611
-0.10077518224716187 0.1472867727279663 -0.17132174968719482
-0.10077518224716187 0.1472867727279663 0.06642016768455505
-0.10077518224716187 0.1472867727279663 0.21932542324066162
-0.10077518224716187 0.1472867727279663 0.813581109046936
-0.10077518224716187 0.1472867727279663 0.8150359988212585
-0.10077518224716187 0.16279065608978271 -0.5483994483947754
-0.10077518224716187 0.16279065608978271 -0.19437257945537567
-0.10077518224716187 0.17829453945159912 -0.540727972984314
-0.10077518224716187 0.17829453945159912 -0.21966466307640076
-0.10077518224716187 0.19379842281341553 -0.5278882384300232
-0.10077518224716187 0.19379842281341553 -0.24467161297798157
-0.10077518224716187 0.20930230617523193 -0.5099194645881653
-0.10077518224716187 0.20930229127407074 -0.2692553997039795
-0.10077518224716187 0.22480618953704834 -0.4872817397117615
-0.10077518224716187 0.22480618953704834 -0.29766273498535156
-0.10077518224716187 0.24031007289886475 -0.4476526379585266
-0.10077518224716187 0.24031007289886475 -0.3350706994533539
-0.08527129888534546 -0.25581395626068115 -0.44658440351486206
-0.08527129888534546 -0.25581395626068115 -0.34017717838287354
-0.08527129888534546 -0.24031007289886475 -0.4807369112968445
-0.08527129888534546 -0.24031007289886475 -0.2979424297809601
-0.08527129888534546 -0.22480617463588715 -0.5003549456596375
-0.08527129888534546 -0.22480618953704834 -0.26901501417160034
-0.08527129888534546 -0.20930230617523193 -0.5172463655471802
-0.08527129888534546 -0.20930230617523193 -0.24559855461120605
-0.08527129888534546 -0.19379842281341553 -0.5354118943214417
-0.08527129888534546 -0.19379842281341553 -0.2249704897403717
-0.08527129888534546 -0.1782945990562439 -0.5521128177642822
-0.08527129888534546 -0.1782945990562439 -0.20374846458435059
-0.08527129888534546 -0.1627907156944275 -0.5610910654067993
-0.08527129888534546 -0.1627907156944275 -0.18394693732261658
-0.08527129888534546 -0.1627907156944275 0.06269969046115875
-0.08527129888534546 -0.1627907156944275 0.2317819595336914
-0.08527129888534546 -0.1627907156944275 0.813221275806427
-0.08527129888534546 -0.1627907156944275 0.8150179982185364
-0.08527129888534546 -0.14728683233261108 -0.5659149885177612
-0.08527129888534546 -0.14728683233261108 -0.162938192486763
-0.08527129888534546 -0.14728683233261108 0.04226117581129074
-0.08527129888534546 -0.14728683233261108 0.2887243628501892
-0.08527129888534546 -0.14728683233261108 0.81163090467453
-0.08527129888534546 -0.14728683233261108 0.8216358423233032
-0.08527129888534546 -0.13178294897079468 -0.5660696029663086
-0.08527129888534546 -0.13178294897079468 -0.1407507359981537
-0.08527129888534546 -0.13178294897079468 0.028448697179555893
-0.08527129888534546 -0.13178294897079468 0.31365036964416504
-0.08527129888534546 -0.13178294897079468 0.8118552565574646
-0.08527129888534546 -0.13178296387195587 0.8296395540237427
-0.08527129888534546 -0.11627906560897827 -0.5666189193725586
-0.08527129143476486 -0.11627906560897827 -0.11622010171413422
-0.08527129888534546 -0.11627906560897827 0.013813388533890247
-0.08527129888534546 -0.11627906560897827 0.3319740295410156
-0.08527129888534546 -0.11627906560897827 0.8119230270385742
-0.08527129888534546 -0.11627906560897827 0.8313499093055725
-0.08527129888534546 -0.10077518224716187 -0.5689483880996704
-0.08527130633592606 -0.10077518224716187 -0.08476325869560242
-0.08527129888534546 -0.10077518224716187 -0.004443235695362091
-0.08527129888534546 -0.10077518224716187 0.3506285548210144
-0.08527129888534546 -0.10077518224716187 0.6210155487060547
-0.08527129888534546 -0.10077518224716187 0.6926581859588623
-0.08527129888534546 -0.10077518224716187 0.8117110729217529
-0.08527129888534546 -0.10077518224716187 0.8327713012695312
-0.08527129888534546 -0.08527129888534546 -0.5735183954238892
-0.08527129888534546 -0.08527129888534546 -0.05097382143139839
-0.08527129888534546 -0.08527129888534546 -0.03478953614830971
-0.08527130633592606 -0.08527130633592606 0.36833831667900085
-0.08527129888534546 -0.08527129888534546 0.5855180025100708
-0.08527129888534546 -0.08527129888534546 0.7286274433135986
-0.08527129888534546 -0.08527129888534546 0.8095577359199524
-0.08527129888534546 -0.08527129888534546 0.834330677986145
-0.08527129143476486 -0.06976741552352905 -0.5792890191078186
-0.08527129888534546 -0.06976741552352905 0.38442090153694153
-0.08527129888534546 -0.06976741552352905 0.563689649105072
-0.08527129888534546 -0.06976741552352905 0.8384814262390137
-0.08527129888534546 -0.05426359176635742 -0.5864633321762085
-0.08527129888534546 -0.05426359176635742 0.39825478196144104
-0.08527129888534546 -0.05426358804106712 0.5514825582504272
-0.08527129143476486 -0.05426359176635742 0.845244824886322
-0.08527129888534546 -0.038759708404541016 -0.5941441655158997
-0.08527129888534546 -0.038759708404541016 0.40839245915412903
-0.08527129888534546 -0.038759708404541016 0.5444098711013794
-0.08527129888534546 -0.038759708404541016 0.8501637578010559
-0.08527129888534546 -0.02325582504272461 -0.5999396443367004
-0.08527129888534546 -0.02325582504272461 0.4128545820713043
-0.08527129888534546 -0.02325582504272461 0.5406449437141418
-0.08527129888534546 -0.02325582504272461 0.8546905517578125
-0.08527129888534546 -0.007751941680908203 -0.6056941747665405
-0.08527129888534546 -0.007751941680908203 0.41562914848327637
-0.08527129888534546 -0.007751941680908203 0.5399618744850159
-0.08527129888534546 -0.007751941680908203 0.8577839136123657
-0.08527129888534546 0.007751941680908203 -0.6097481846809387
-0.08527129888534546 0.007751941680908203 0.41629356145858765
-0.08527129888534546 0.007751941680908203 0.5421852469444275
-0.08527129888534546 0.007751941680908203 0.8586871027946472
-0.08527129888534546 0.02325582504272461 -0.6132052540779114
-0.08527129888534546 0.02325582504272461 0.41376468539237976
-0.08527129888534546 0.02325582504272461 0.5479596257209778
-0.08527129888534546 0.02325582504272461 0.8555477857589722
-0.08527129888534546 0.038759708404541016 -0.6129342913627625
-0.08527129888534546 0.038759708404541016 0.4093227684497833
-0.08527129888534546 0.038759708404541016 0.5580137968063354
-0.08527129888534546 0.038759708404541016 0.8511641025543213
-0.08527129888534546 0.05426359176635742 -0.6074384450912476
-0.08527129888534546 0.05426359549164772 0.4010353684425354
-0.08527129888534546 0.05426359176635742 0.5755497217178345
-0.08527129888534546 0.05426359176635742 0.8465903997421265
-0.08527129888534546 0.06976747512817383 -0.6007322072982788
-0.08527129888534546 0.06976747512817383 0.3880341649055481
-0.08527129888534546 0.06976747512817383 0.6007197499275208
-0.08527129888534546 0.06976747512817383 0.8421565294265747
-0.08527129888534546 0.08527135848999023 -0.5943043231964111
-0.08527129888534546 0.08527135848999023 0.3712822198867798
-0.08527129888534546 0.08527135848999023 0.6352485418319702
-0.08527129888534546 0.08527135848999023 0.7036618590354919
-0.08527129888534546 0.08527135848999023 0.8083447813987732
-0.08527129888534546 0.08527135848999023 0.8360884785652161
-0.08527129888534546 0.10077524185180664 -0.5836478471755981
-0.08527129888534546 0.10077524185180664 -0.0843970775604248
-0.08527129888534546 0.10077524185180664 -0.0053369756788015366
-0.08527129888534546 0.10077524185180664 0.35143887996673584
-0.08527129888534546 0.10077524185180664 0.8120419979095459
-0.08527129888534546 0.10077524185180664 0.8334153294563293
-0.08527129888534546 0.11627912521362305 -0.5742616653442383
-0.08527129888534546 0.11627912521362305 -0.11811110377311707
-0.08527129888534546 0.11627912521362305 0.013574352487921715
-0.08527129888534546 0.11627912521362305 0.32729846239089966
-0.08527129888534546 0.11627912521362305 0.8126437067985535
-0.08527129888534546 0.11627912521362305 0.8322588801383972
-0.08527129888534546 0.1317828893661499 -0.5639698505401611
-0.08527129888534546 0.1317828893661499 -0.1410948783159256
-0.08527129888534546 0.1317828893661499 0.03211437910795212
-0.08527129888534546 0.1317828893661499 0.29525989294052124
-0.08527129888534546 0.1317828893661499 0.8127099871635437
-0.08527129888534546 0.1317828893661499 0.8309580087661743
-0.08527129888534546 0.1472867727279663 -0.5585646629333496
-0.08527129888534546 0.1472867727279663 -0.16187913715839386
-0.08527129888534546 0.1472867727279663 0.05432942509651184
-0.08527129888534546 0.1472867727279663 0.2379269301891327
-0.08527129888534546 0.1472867727279663 0.8128180503845215
-0.08527129888534546 0.1472867727279663 0.8234350681304932
-0.08527129888534546 0.16279065608978271 -0.5519211292266846
-0.08527129888534546 0.16279065608978271 -0.18513163924217224
-0.08527129888534546 0.17829453945159912 -0.5450565814971924
-0.08527129888534546 0.17829453945159912 -0.21065232157707214
-0.08527129888534546 0.19379842281341553 -0.5325577855110168
-0.08527129888534546 0.19379842281341553 -0.23716208338737488
-0.08527129888534546 0.20930230617523193 -0.516335666179657
-0.08527129888534546 0.20930230617523193 -0.2630782723426819
-0.08527129888534546 0.22480618953704834 -0.4961699843406677
-0.08527129888534546 0.22480618953704834 -0.29060328006744385
-0.08527129888534546 0.24031007289886475 -0.4645405411720276
-0.08527129888534546 0.24031007289886475 -0.324554443359375
-0.06976741552352905 -0.25581395626068115 -0.46016308665275574
-0.06976741552352905 -0.25581395626068115 -0.3260907530784607
-0.06976741552352905 -0.24031007289886475 -0.4888066053390503
-0.06976741552352905 -0.24031007289886475 -0.2894980013370514
-0.06976741552352905 -0.22480618953704834 -0.506542444229126
-0.06976741552352905 -0.22480618953704834 -0.2612331807613373
-0.06976741552352905 -0.20930230617523193 -0.522756040096283
-0.06976741552352905 -0.20930230617523193 -0.23818418383598328
-0.06976741552352905 -0.19379842281341553 -0.5403597950935364
-0.06976741552352905 -0.19379842281341553 -0.21702739596366882
-0.06976741552352905 -0.1782945990562439 -0.556296706199646
-0.06976741552352905 -0.1782945990562439 -0.19715616106987
-0.06976741552352905 -0.1627907156944275 -0.5659604668617249
-0.06976741552352905 -0.1627907156944275 -0.1771312654018402
-0.06976741552352905 -0.1627907156944275 0.05487566813826561
-0.06976741552352905 -0.1627907156944275 0.2588753402233124
-0.06976741552352905 -0.1627907156944275 0.8111172914505005
-0.06976741552352905 -0.1627907156944275 0.820243239402771
-0.06976741552352905 -0.14728683233261108 -0.5680200457572937
-0.06976741552352905 -0.14728683233261108 -0.15596948564052582
-0.06976741552352905 -0.14728683233261108 0.036505695432424545
-0.06976740807294846 -0.14728683233261108 0.3027694821357727
-0.06976741552352905 -0.14728683233261108 0.8114890456199646
-0.06976741552352905 -0.14728683233261108 0.8294479846954346
-0.06976741552352905 -0.13178294897079468 -0.5680419206619263
-0.06976741552352905 -0.13178294897079468 -0.13258789479732513
-0.06976741552352905 -0.13178294897079468 0.021164165809750557
-0.06976741552352905 -0.13178294897079468 0.323696494102478
-0.06976741552352905 -0.13178294897079468 0.8114368915557861
-0.06976741552352905 -0.13178294897079468 0.8314701914787292
-0.06976741552352905 -0.11627906560897827 -0.5687445402145386
-0.06976741552352905 -0.11627905815839767 -0.0956367701292038
-0.06976741552352905 -0.11627906560897827 0.0030245045199990273
-0.06976741552352905 -0.11627906560897827 0.3417421579360962
-0.06976741552352905 -0.11627906560897827 0.6275883913040161
-0.06976741552352905 -0.11627906560897827 0.6863377094268799
-0.06976741552352905 -0.11627906560897827 0.8112891316413879
-0.06976741552352905 -0.11627906560897827 0.8332756757736206
-0.06976741552352905 -0.10077518224716187 -0.5715476274490356
-0.06976741552352905 -0.10077518224716187 -0.0596512109041214
-0.06976741552352905 -0.10077517479658127 -0.02311728335916996
-0.06976741552352905 -0.10077518224716187 0.3592926859855652
-0.06976741552352905 -0.10077518224716187 0.5872645378112793
-0.06976741552352905 -0.10077518224716187 0.7254124879837036
-0.06976741552352905 -0.10077518224716187 0.8098694086074829
-0.06976741552352905 -0.10077518224716187 0.835003137588501
-0.06976741552352905 -0.08527129888534546 -0.575791597366333
-0.06976741552352905 -0.08527129888534546 0.3751845359802246
-0.06976741552352905 -0.08527129888534546 0.5587742328643799
-0.06976741552352905 -0.08527129888534546 0.8393367528915405
-0.06976741552352905 -0.06976741552352905 -0.5817203521728516
-0.06976741552352905 -0.06976741552352905 0.3909435272216797
-0.06976741552352905 -0.06976741552352905 0.5411455035209656
-0.06976741552352905 -0.06976741552352905 0.8460440039634705
-0.06976741552352905 -0.05426359176635742 -0.5887000560760498
-0.06976741552352905 -0.05426359176635742 0.4042488634586334
-0.06976741552352905 -0.05426359176635742 0.5308870673179626
-0.06976741552352905 -0.05426359176635742 0.8526944518089294
-0.06976741552352905 -0.038759708404541016 -0.5956835150718689
-0.06976741552352905 -0.038759708404541016 0.41321882605552673
-0.06976741552352905 -0.038759708404541016 0.5232082605361938
-0.06976741552352905 -0.038759708404541016 0.8581640124320984
-0.06976741552352905 -0.02325582504272461 -0.6010231375694275
-0.06976741552352905 -0.02325582504272461 0.41920363903045654
-0.06976741552352905 -0.02325582690536976 0.5195399522781372
-0.06976741552352905 -0.02325582318007946 0.8636067509651184
-0.06976741552352905 -0.007751941680908203 -0.6062644720077515
-0.06976741552352905 -0.007751941680908203 0.4229932427406311
-0.06976741552352905 -0.007751941680908203 0.5190387964248657
-0.06976741552352905 -0.007751941680908203 0.8663387298583984
-0.06976741552352905 0.007751941680908203 -0.6089584827423096
-0.06976741552352905 0.007751941680908203 0.42429235577583313
-0.06976741552352905 0.007751941680908203 0.5209997892379761
-0.06976741552352905 0.007751941680908203 0.8667274713516235
-0.06976741552352905 0.02325582504272461 -0.6112359762191772
-0.06976741552352905 0.02325582504272461 0.42170220613479614
-0.06976741552352905 0.02325582504272461 0.525169312953949
-0.06976741552352905 0.02325582504272461 0.8646979331970215
-0.06976741552352905 0.038759708404541016 -0.6103929877281189
-0.06976741552352905 0.038759708404541016 0.41618138551712036
-0.06976741552352905 0.038759708404541016 0.5340794324874878
-0.06976741552352905 0.038759708404541016 0.8614715933799744
-0.06976741552352905 0.05426359176635742 -0.6064471006393433
-0.06976741552352905 0.05426359176635742 0.4079682528972626
-0.06976741552352905 0.05426359176635742 0.5471428036689758
-0.06976741552352905 0.05426359176635742 0.8547651767730713
-0.06976741552352905 0.06976747512817383 -0.6011915802955627
-0.06976741552352905 0.06976747512817383 0.39492249488830566
-0.06976741552352905 0.06976747512817383 0.5712260007858276
-0.06976741552352905 0.06976747512817383 0.8482293486595154
-0.06976740807294846 0.08527135103940964 -0.5959730744361877
-0.06976741552352905 0.08527135848999023 0.3788173794746399
-0.06976741552352905 0.08527135848999023 0.6025189161300659
-0.06976741552352905 0.08527135848999023 0.8451012372970581
-0.06976741552352905 0.10077524185180664 -0.5861014127731323
-0.06976741552352905 0.10077524185180664 -0.053183577954769135
-0.06976741552352905 0.10077524185180664 -0.024232447147369385
-0.06976741552352905 0.10077524185180664 0.3605257272720337
-0.06976741552352905 0.10077524185180664 0.6471871137619019
-0.06976741552352905 0.10077524185180664 0.6932598352432251
-0.06976741552352905 0.10077524185180664 0.8090236186981201
-0.06976741552352905 0.10077524185180664 0.8380675315856934
-0.06976741552352905 0.11627912521362305 -0.5765298008918762
-0.06976741552352905 0.11627912521362305 -0.09652438014745712
-0.06976741552352905 0.11627912521362305 0.003765818662941456
-0.06976741552352905 0.11627912521362305 0.33767858147621155
-0.06976741552352905 0.11627912521362305 0.8122040033340454
-0.06976741552352905 0.11627912521362305 0.8341967463493347
-0.06976741552352905 0.1317828893661499 -0.5669233798980713
-0.06976741552352905 0.1317828893661499 -0.13081462681293488
-0.06976741552352905 0.1317828893661499 0.023785065859556198
-0.06976741552352905 0.1317828893661499 0.30945897102355957
-0.06976741552352905 0.1317828893661499 0.8126639723777771
-0.06976741552352905 0.1317828893661499 0.8326723575592041
-0.06976741552352905 0.1472867727279663 -0.5611379146575928
-0.06976741552352905 0.1472867727279663 -0.1532682180404663
-0.06976741552352905 0.1472867727279663 0.04473051428794861
-0.06976741552352905 0.1472867727279663 0.2543080449104309
-0.06976741552352905 0.1472867727279663 0.8126807808876038
-0.06976741552352905 0.1472867727279663 0.8311401605606079
-0.06976741552352905 0.16279065608978271 -0.5556744337081909
-0.06976741552352905 0.16279065608978271 -0.17630518972873688
-0.06976741552352905 0.16279065608978271 0.08400069177150726
-0.06976741552352905 0.16279065608978271 0.14808182418346405
-0.06976741552352905 0.16279065608978271 0.8130409717559814
-0.06976741552352905 0.16279065608978271 0.8199822902679443
-0.06976741552352905 0.17829453945159912 -0.5477487444877625
-0.06976741552352905 0.17829453945159912 -0.20178145170211792
-0.06976741552352905 0.19379842281341553 -0.5368908047676086
-0.06976741552352905 0.19379842281341553 -0.2297680824995041
-0.06976741552352905 0.20930230617523193 -0.5211576223373413
-0.06976741552352905 0.20930230617523193 -0.2558964788913727
-0.06976741552352905 0.22480617463588715 -0.5016922950744629
-0.06976741552352905 0.22480618953704834 -0.28381770849227905
-0.06976741552352905 0.24031007289886475 -0.47600728273391724
-0.06976741552352905 0.24031007289886475 -0.316002756357193
-0.06976741552352905 0.25581395626068115 -0.41872438788414
-0.06976741552352905 0.25581395626068115 -0.3681567907333374
-0.05426359176635742 -0.25581395626068115 -0.467252254486084
-0.05426359176635742 -0.25581395626068115 -0.3172559440135956
-0.05426359176635742 -0.24031007289886475 -0.49262091517448425
-0.05426359176635742 -0.24031005799770355 -0.2828049659729004
-0.05426359176635742 -0.22480618953704834 -0.5100722908973694
-0.05426358804106712 -0.22480618953704834 -0.25503700971603394
-0.05426359176635742 -0.20930230617523193 -0.526515007019043
-0.05426359176635742 -0.20930230617523193 -0.2316187173128128
-0.05426359176635742 -0.19379842281341553 -0.5444278717041016
-0.05426359176635742 -0.19379842281341553 -0.21083474159240723
-0.05426359176635742 -0.1782945990562439 -0.5600411295890808
-0.05426359549164772 -0.1782945990562439 -0.19031816720962524
-0.05426359176635742 -0.1627907156944275 -0.5685786008834839
-0.05426359176635742 -0.1627907156944275 -0.1705414205789566
-0.05426359176635742 -0.1627907156944275 0.05008411407470703
-0.05426359176635742 -0.1627907156944275 0.27440667152404785
-0.05426359176635742 -0.1627907156944275 0.8107786178588867
-0.05426359176635742 -0.1627907156944275 0.8250230550765991
-0.05426359176635742 -0.14728683233261108 -0.5707594752311707
-0.05426359176635742 -0.14728683233261108 -0.1497868001461029
-0.05426359176635742 -0.14728683233261108 0.03157856687903404
-0.05426359176635742 -0.14728683233261108 0.3108344078063965
-0.05426359176635742 -0.14728683233261108 0.8108158111572266
-0.05426359176635742 -0.14728683233261108 0.8310096859931946
-0.05426359176635742 -0.13178294897079468 -0.5707266330718994
-0.05426359176635742 -0.13178294897079468 -0.1198279932141304
-0.05426359176635742 -0.13178294897079468 0.014352599158883095
-0.05426359176635742 -0.13178294897079468 0.330305814743042
-0.05426359176635742 -0.13178294897079468 0.8104839324951172
-0.05426359176635742 -0.13178294897079468 0.8332464694976807
-0.05426359176635742 -0.11627906560897827 -0.5716238021850586
-0.05426359176635742 -0.11627906560897827 -0.0750054195523262
-0.05426359176635742 -0.11627906560897827 -0.008296598680317402
-0.05426359176635742 -0.11627906560897827 0.3468722105026245
-0.05426359176635742 -0.11627906560897827 0.6003735065460205
-0.05426359176635742 -0.11627906560897827 0.711448073387146
-0.05426359176635742 -0.11627906560897827 0.8098599314689636
-0.05426359176635742 -0.11627906560897827 0.8353069424629211
-0.05426359176635742 -0.10077518224716187 -0.5745514035224915
-0.05426359176635742 -0.10077518224716187 0.3637337386608124
-0.05426359176635742 -0.10077518224716187 0.5627114176750183
-0.05426359549164772 -0.10077518969774246 0.7529861330986023
-0.05426359176635742 -0.10077518969774246 0.8042513132095337
-0.05426359176635742 -0.10077518224716187 0.8391652703285217
-0.05426359176635742 -0.08527129888534546 -0.578294575214386
-0.05426359176635742 -0.08527129888534546 0.37935054302215576
-0.05426359176635742 -0.08527129888534546 0.5379548072814941
-0.05426359176635742 -0.08527129888534546 0.8459526300430298
-0.05426359176635742 -0.06976741552352905 -0.5837934017181396
-0.05426359176635742 -0.06976741552352905 0.3948785960674286
-0.05426359176635742 -0.06976741552352905 0.5231956243515015
-0.05426359176635742 -0.06976741552352905 0.8521727323532104
-0.05426359176635742 -0.05426359176635742 -0.5909504890441895
-0.05426359176635742 -0.05426359176635742 0.407735139131546
-0.05426359176635742 -0.05426359176635742 0.5140078067779541
-0.05426359176635742 -0.05426359176635742 0.8591932058334351
-0.05426359176635742 -0.038759708404541016 -0.5973403453826904
-0.05426359176635742 -0.038759708404541016 0.4170103669166565
-0.05426359176635742 -0.038759708404541016 0.5063564777374268
-0.05426359176635742 -0.038759708404541016 0.8654030561447144
-0.05426359176635742 -0.02325582504272461 -0.6029560565948486
-0.05426359176635742 -0.02325582504272461 0.4248211979866028
-0.05426359176635742 -0.02325582504272461 0.5023437142372131
-0.05426359176635742 -0.02325582504272461 0.8696682453155518
-0.05426359176635742 -0.007751941215246916 -0.6074000000953674
-0.05426359176635742 -0.007751941680908203 0.42993149161338806
-0.05426359176635742 -0.007751941680908203 0.5010461807250977
-0.05426359176635742 -0.007751941680908203 0.8720350861549377
-0.05426359176635742 0.007751941680908203 -0.6095510721206665
-0.05426359176635742 0.007751941680908203 0.43194645643234253
-0.05426359176635742 0.007751941680908203 0.5028771758079529
-0.05426359176635742 0.007751941680908203 0.872475266456604
-0.05426359176635742 0.02325582504272461 -0.6110165119171143
-0.05426359176635742 0.02325582504272461 0.42889314889907837
-0.05426359176635742 0.02325582504272461 0.5070697069168091
-0.05426359176635742 0.02325582504272461 0.8705558776855469
-0.05426359176635742 0.038759708404541016 -0.6100021004676819
-0.05426359176635742 0.038759708404541016 0.42215704917907715
-0.05426359176635742 0.038759708404541016 0.5154579281806946
-0.05426359176635742 0.038759708404541016 0.8671724796295166
-0.05426359176635742 0.05426359176635742 -0.6070328950881958
-0.05426359176635742 0.05426359176635742 0.4126218855381012
-0.05426359176635742 0.05426359176635742 0.5255932211875916
