0.007751941680908203 0.13203026354312897 0.08527135848999023
0.007751941680908203 0.13310368359088898 0.7364341020584106
0.007751941680908203 0.13984259963035583 0.751937985420227
0.007751941680908203 0.14651285111904144 0.7674418687820435
0.007751941680908203 0.1476132720708847 -0.10077518224716187
0.007751941680908203 0.14831167459487915 -0.08527130633592606
0.007751941680908203 0.1490081399679184 -0.06976741552352905
0.007751941215246916 0.1495956927537918 -0.05426359176635742
0.007751941680908203 0.14994029700756073 -0.038759708404541016
0.007751941680908203 0.1497994214296341 -0.02325582504272461
0.007751941680908203 0.14950011670589447 -0.007751941680908203
0.007751941680908203 0.14864468574523926 0.007751941680908203
0.007751941680908203 0.14749886095523834 0.02325582504272461
0.007751941680908203 0.1539875864982605 0.7829457521438599
0.007751941680908203 0.15115998685359955 0.8914728164672852
0.00775194214656949 0.16286394000053406 0.7984496355056763
0.007751941680908203 0.17219549417495728 0.8139535188674927
0.00775194214656949 0.1828685998916626 0.8294574022293091
0.007751941680908203 0.1886017918586731 0.8449612855911255
0.007751941680908203 0.18803542852401733 0.8604651689529419
0.007751941680908203 0.17965711653232574 0.8759689331054688
0.02325582504272461 -0.163809671998024 0.7984496355056763
0.02325582504272461 -0.16694915294647217 0.8139535188674927
0.02325582504272461 -0.16972734034061432 0.8294574022293091
0.02325582504272461 -0.17146220803260803 0.8449612855911255
0.02325582504272461 -0.17139378190040588 0.8604651689529419
0.02325582504272461 -0.1691700518131256 0.8759689331054688
0.02325582504272461 -0.1488690823316574 0.751937985420227
0.02325582504272461 -0.1545959711074829 0.7674418687820435
0.02325582504272461 -0.15954791009426117 0.7829457521438599
0.02325582504272461 -0.15843790769577026 0.8914728164672852
0.02325582504272461 -0.1323249489068985 -0.1782945990562439
0.02325582504272461 -0.1337677538394928 -0.1627907156944275
0.02325582504272461 -0.13445186614990234 -0.14728683233261108
0.02325582504272461 -0.13535307347774506 -0.13178294897079468
0.02325582504272461 -0.13637088239192963 -0.11627906560897827
0.02325582504272461 -0.13777318596839905 -0.10077518224716187
0.02325582504272461 -0.13935741782188416 -0.08527129888534546
0.02325582504272461 -0.14118869602680206 -0.06976741552352905
0.02325582504272461 -0.14268745481967926 -0.05426359176635742
0.02325582504272461 -0.14331284165382385 -0.038759708404541016
0.02325582504272461 -0.14353163540363312 -0.02325582504272461
0.02325582504272461 -0.1437462568283081 -0.007751941680908203
0.02325582504272461 -0.14365507662296295 0.00775194214656949
0.02325582504272461 -0.14307233691215515 0.02325582504272461
0.02325582504272461 -0.14246009290218353 0.038759708404541016
0.02325582504272461 -0.14140203595161438 0.05426359176635742
0.02325582504272461 -0.13921064138412476 0.06976747512817383
0.02325582504272461 -0.1355726271867752 0.08527135848999023
0.02325582504272461 -0.13998132944107056 0.7364341020584106
0.02325582318007946 -0.127717986702919 0.10077524185180664
0.02325582504272461 -0.11729927361011505 0.11627912521362305
0.02325582504272461 -0.12078937888145447 0.7054263353347778
0.02325582504272461 -0.13136640191078186 0.7209301590919495
0.02325582504272461 -0.12091064453125 0.9069766998291016
0.02325582504272461 -0.10639069974422455 -0.19379842281341553
0.02325582504272461 -0.10246063023805618 0.1317828893661499
0.02325582504272461 -0.10450923442840576 0.674418568611145
0.02325582690536976 -0.11154218763113022 0.6899224519729614
0.02325582504272461 -0.08843684196472168 0.1472867727279663
0.02325582504272461 -0.08819957822561264 0.6279069185256958
0.02325582504272461 -0.0928138792514801 0.6434108018875122
0.02325582504272461 -0.09866168349981308 0.6589146852493286
0.02325582504272461 -0.07895911484956741 0.16279065608978271
0.02325582504272461 -0.07340006530284882 0.17829453945159912
0.02325582504272461 -0.07161924242973328 0.19379842281341553
0.02325582504272461 -0.07228784263134003 0.20930230617523193
0.02325582504272461 -0.07395192980766296 0.22480618953704834
0.02325582504272461 -0.07479000836610794 0.24031007289886475
0.02325582504272461 -0.07418286800384521 0.25581395626068115
0.02325582504272461 -0.07190107554197311 0.27131783962249756
0.02325582504272461 -0.07007065415382385 0.28682172298431396
0.02325582504272461 -0.0746871829032898 0.5968992710113525
0.02325582318007946 -0.08086998015642166 0.612403154373169
0.02325582690536976 -0.06827346980571747 0.30232560634613037
0.02325582318007946 -0.06718854606151581 0.3178294897079468
0.02325582504272461 -0.06528539210557938 0.3333333730697632
0.02325582504272461 -0.06267734616994858 0.3488372564315796
0.02325582504272461 -0.05933856964111328 0.364341139793396
0.02325582504272461 -0.05700821056962013 0.37984490394592285
0.02325582504272461 -0.05622576177120209 0.39534878730773926
0.02325582504272461 -0.05684157460927963 0.41085267066955566
0.02325582504272461 -0.058947257697582245 0.42635655403137207
0.02325582504272461 -0.06003923714160919 0.4418604373931885
0.02325582504272461 -0.059667691588401794 0.4573643207550049
0.02325582504272461 -0.0589483417570591 0.4728682041168213
0.02325582504272461 -0.06008073687553406 0.4883720874786377
0.02325582504272461 -0.06236254423856735 0.5038759708404541
0.02325582504272461 -0.0633072704076767 0.5193798542022705
0.02325582504272461 -0.0628705769777298 0.5348837375640869
0.02325582504272461 -0.06314869970083237 0.5503876209259033
0.02325582504272461 -0.06454286724328995 0.5658915042877197
0.02325582690536976 -0.06870245933532715 0.5813953876495361
0.02325582504272461 -0.04802921414375305 0.922480583190918
0.02325582504272461 0.044398222118616104 0.922480583190918
0.02325582504272461 0.06852613389492035 0.20930230617523193
0.02325582504272461 0.06962865591049194 0.364341139793396
0.02325582504272461 0.0672679916024208 0.37984490394592285
0.02325582504272461 0.06598992645740509 0.39534878730773926
0.02325582504272461 0.06550535559654236 0.41085267066955566
0.02325582504272461 0.06555522978305817 0.42635655403137207
0.02325582504272461 0.06570456176996231 0.4418604373931885
0.02325582504272461 0.06643225997686386 0.4573643207550049
0.02325582504272461 0.06804555654525757 0.4728682041168213
0.02325582504272461 0.069235660135746 0.5193798542022705
0.02325582504272461 0.06764732301235199 0.5348837375640869
0.02325582504272461 0.06686574965715408 0.5503876209259033
0.02325582504272461 0.06973965466022491 0.5658915042877197
0.02325582504272461 0.0832577794790268 0.16279065608978271
0.02325582504272461 0.07326680421829224 0.17829452455043793
0.02325582504272461 0.06987857818603516 0.19379842281341553
0.02325582504272461 0.07062326371669769 0.22480618953704834
0.02325582318007946 0.07306690514087677 0.24031007289886475
0.02325582504272461 0.0742160975933075 0.25581395626068115
0.02325582504272461 0.07491746544837952 0.27131783962249756
0.02325582504272461 0.07561429589986801 0.28682172298431396
0.02325582504272461 0.07599622011184692 0.30232560634613037
0.02325582504272461 0.07570943236351013 0.3178294897079468
0.02325582504272461 0.07476108521223068 0.3333333730697632
0.02325582504272461 0.07216913253068924 0.3488372564315796
0.02325582504272461 0.07004548609256744 0.4883720874786377
0.02325582504272461 0.07034026086330414 0.5038759708404541
0.02325582504272461 0.0744737833738327 0.5813953876495361
0.02325582504272461 0.0806533619761467 0.5968992710113525
0.02325582504272461 0.09206779301166534 0.1472867727279663
0.02325582504272461 0.0894804298877716 0.612403154373169
0.02325582504272461 0.09438556432723999 0.6279069185256958
0.02325582504272461 0.11291155964136124 0.11627912521362305
0.02325582318007946 0.10312049835920334 0.1317828893661499
0.02325582504272461 0.10181271284818649 0.6434108018875122
0.02325582504272461 0.10545282810926437 0.6589146852493286
0.02325582504272461 0.10897605121135712 0.674418568611145
0.02325582504272461 0.11395763605833054 0.6899224519729614
0.02325582504272461 0.1135668009519577 0.9069766998291016
0.02325582504272461 0.1300927847623825 0.08527135848999023
0.02325582504272461 0.12076898664236069 0.10077523440122604
0.02325582504272461 0.12083244323730469 0.7054263353347778
0.02325582504272461 0.12601689994335175 0.7209302186965942
0.02325582504272461 0.13259784877300262 -0.19379842281341553
0.02325582504272461 0.13887032866477966 -0.1782945990562439
0.02325582504272461 0.13876062631607056 -0.1627907156944275
0.02325582504272461 0.13762310147285461 -0.14728683233261108
0.02325582504272461 0.13913586735725403 -0.13178294897079468
0.02325582504272461 0.1420937031507492 -0.11627906560897827
0.02325582504272461 0.1448601633310318 -0.10077518224716187
0.02325582504272461 0.14725340902805328 0.007751941680908203
0.02325582504272461 0.1449921578168869 0.02325582504272461
0.02325582504272461 0.14255377650260925 0.038759708404541016
0.02325582504272461 0.13928091526031494 0.05426359176635742
0.02325582504272461 0.13532570004463196 0.06976747512817383
0.02325582504272461 0.13237079977989197 0.7364341020584106
0.02325582504272461 0.13926848769187927 0.751937985420227
0.02325582504272461 0.14534667134284973 0.7674418687820435
0.02325582318007946 0.14729808270931244 -0.08527129888534546
0.02325582504272461 0.14787143468856812 -0.06976742297410965
0.02325582504272461 0.14825065433979034 -0.05426359176635742
0.02325582504272461 0.14841845631599426 -0.038759708404541016
0.02325582504272461 0.14823785424232483 -0.02325582504272461
0.02325582690536976 0.14795349538326263 -0.00775194214656949
0.02325582504272461 0.15290501713752747 0.7829457521438599
0.02325582504272461 0.1611250638961792 0.7984496355056763
0.02325582504272461 0.14888238906860352 0.8914728164672852
0.02325582504272461 0.17071333527565002 0.8139535188674927
0.02325582318007946 0.18181976675987244 0.8294574022293091
0.02325582504272461 0.18721890449523926 0.8449612855911255
0.02325582504272461 0.18665248155593872 0.8604651689529419
0.02325582504272461 0.1783479005098343 0.8759689927101135
0.038759708404541016 -0.16566875576972961 0.8139535188674927
0.038759708404541016 -0.16861692070960999 0.8294574022293091
0.038759708404541016 -0.17044785618782043 0.8449612855911255
0.038759708404541016 -0.17048302292823792 0.8604651689529419
0.038759708404541016 -0.1685037612915039 0.8759689331054688
0.038759708404541016 -0.15211662650108337 0.7674418687820435
0.038759708404541016 -0.1575104296207428 0.7829457521438599
0.038759708404541016 -0.16194021701812744 0.7984496355056763
0.038759708404541016 -0.1559886634349823 0.8914728164672852
0.038759708404541016 -0.13203026354312897 -0.14728683233261108
0.038759708404541016 -0.1331050843000412 -0.13178294897079468
0.038759708404541016 -0.13390028476715088 -0.11627906560897827
0.038759708404541016 -0.13464580476284027 -0.10077518224716187
0.038759708404541016 -0.13535526394844055 -0.08527129888534546
0.038759708404541016 -0.13630206882953644 -0.06976741552352905
0.038759708404541016 -0.1372130811214447 -0.05426359176635742
0.038759708404541016 -0.13783112168312073 -0.038759708404541016
0.038759708404541016 -0.13826808333396912 -0.02325582504272461
0.038759708404541016 -0.1387975513935089 -0.007751941680908203
0.038759708404541016 -0.13906246423721313 0.007751941680908203
0.038759708404541016 -0.13887423276901245 0.02325582504272461
0.038759708404541016 -0.13862097263336182 0.038759708404541016
0.038759708404541016 -0.13796736299991608 0.05426359176635742
0.038759708404541016 -0.1363450437784195 0.06976747512817383
0.038759708404541016 -0.1323363035917282 0.08527135848999023
0.038759708404541016 -0.13616663217544556 0.7364341020584106
0.038759712129831314 -0.1461680680513382 0.751937985420227
0.038759708404541016 -0.12454313784837723 -0.1782945990562439
0.038759708404541016 -0.12859655916690826 -0.1627907156944275
0.038759708404541016 -0.12350417673587799 0.10077524185180664
0.038759708404541016 -0.11755353212356567 0.7054263353347778
0.038759708404541016 -0.12701517343521118 0.7209302186965942
0.038759708404541016 -0.11058907210826874 -0.19379842281341553
0.038759708404541016 -0.1125483587384224 0.11627912521362305
0.038759708404541016 -0.10096480697393417 0.674418568611145
0.038759708404541016 -0.10743372142314911 0.6899224519729614
0.038759708404541016 -0.11446890980005264 0.9069766998291016
0.038759708404541016 -0.09905559569597244 0.1317828893661499
0.038759708404541016 -0.08631327003240585 0.1472867727279663
0.038759708404541016 -0.08923055231571198 0.6434108018875122
0.038759708404541016 -0.09366284310817719 0.6589146852493286
0.038759708404541016 -0.07648496329784393 0.16279065608978271
0.038759708404541016 -0.07093644142150879 0.17829453945159912
0.038759708404541016 -0.0707784965634346 0.22480618953704834
0.038759708404541016 -0.0717431977391243 0.24031007289886475
0.038759708404541016 -0.07132884860038757 0.25581395626068115
0.038759708404541016 -0.06990553438663483 0.27131783962249756
0.038759708404541016 -0.07077554613351822 0.5968992710113525
0.038759708404541016 -0.07647751271724701 0.612403154373169
0.038759708404541016 -0.08327239751815796 0.6279069185256958
0.038759708404541016 -0.06923102587461472 0.19379842281341553
0.038759708404541016 -0.06967636942863464 0.20930230617523193
0.038759708404541016 -0.06780687719583511 0.28682172298431396
0.038759708404541016 -0.06659397482872009 0.30232560634613037
0.038759708404541016 -0.06543035060167313 0.3178294897079468
0.038759708404541016 -0.06343048065900803 0.3333333730697632
0.038759708404541016 -0.060605816543102264 0.3488372564315796
0.038759708404541016 -0.05736830085515976 0.364341139793396
0.038759708404541016 -0.05538265034556389 0.37984490394592285
0.038759708404541016 -0.0545068085193634 0.39534878730773926
0.038759708404541016 -0.05446891114115715 0.41085267066955566
0.038759708404541016 -0.05538107827305794 0.42635655403137207
0.038759708404541016 -0.05585426464676857 0.4418604373931885
0.038759708404541016 -0.05558215081691742 0.4573643207550049
0.038759708404541016 -0.055463049560785294 0.4728682041168213
0.038759708404541016 -0.056396111845970154 0.4883720874786377
0.038759708404541016 -0.05817786231637001 0.5038759708404541
0.038759708404541016 -0.059127792716026306 0.5193798542022705
0.038759708404541016 -0.05866386368870735 0.5348837375640869
0.038759708404541016 -0.05864869803190231 0.5503876209259033
0.038759708404541016 -0.060362450778484344 0.5658915042877197
0.038759708404541016 -0.06320015341043472 0.5813953876495361
0.038759708404541016 -0.02982214465737343 0.922480583190918
0.038759708404541016 0.021071715280413628 0.922480583190918
0.038759708404541016 0.06542570888996124 0.19379842281341553
0.038759708404541016 0.06430810689926147 0.20930230617523193
0.038759708404541016 0.06705235689878464 0.22480618953704834
0.038759708404541016 0.06832648068666458 0.364341139793396
0.038759708404541016 0.06555265188217163 0.37984490394592285
0.038759708404541016 0.06402170658111572 0.39534878730773926
0.038759708404541016 0.06324426829814911 0.41085267066955566
0.038759708404541016 0.06289662420749664 0.42635655403137207
0.038759708404541016 0.06255228072404861 0.4418604373931885
0.038759708404541016 0.06305539608001709 0.4573643207550049
0.038759708404541016 0.06498311460018158 0.4728682041168213
0.038759708404541016 0.06666770577430725 0.4883720874786377
0.038759708404541016 0.06688811630010605 0.5038759708404541
0.038759708404541016 0.06564687937498093 0.5193798542022705
0.038759708404541016 0.06449741870164871 0.5348837375640869
0.038759708404541016 0.06366539001464844 0.5503876209259033
0.038759708404541016 0.06544612348079681 0.5658915042877197
0.038759708404541016 0.07860538363456726 0.16279065608978271
0.038759712129831314 0.07047545164823532 0.17829453945159912
0.038759708404541016 0.07049131393432617 0.24031007289886475
0.038759708404541016 0.07228676229715347 0.25581395626068115
0.038759708404541016 0.07369667291641235 0.27131783962249756
0.038759708404541016 0.07480590045452118 0.28682172298431396
0.038759708404541016 0.07548762857913971 0.30232560634613037
0.038759708404541016 0.07533271610736847 0.3178294897079468
0.038759708404541016 0.07428085058927536 0.3333333730697632
0.038759708404541016 0.07154375314712524 0.3488372564315796
0.038759708404541016 0.07145672291517258 0.5813953876495361
0.038759708404541016 0.07785303890705109 0.5968992710113525
0.038759708404541016 0.10034006834030151 0.1317828893661499
0.038759708404541016 0.0885540246963501 0.1472867727279663
0.038759708404541016 0.08652349561452866 0.612403154373169
0.038759708404541016 0.09181340038776398 0.6279069185256958
0.038759708404541016 0.09701524674892426 0.6434108018875122
0.038759708404541016 0.10778047144412994 0.11627912521362305
0.038759708404541016 0.10304751992225647 0.6589146852493286
0.038759708404541016 0.1068124920129776 0.674418568611145
0.038759708404541016 0.11117854714393616 0.6899224519729614
0.038759708404541016 0.10629794746637344 0.9069766998291016
0.038759708404541016 0.13153359293937683 -0.19379842281341553
0.038759708404541016 0.12472913414239883 0.08527135848999023
0.038759708404541016 0.11761628836393356 0.10077524185180664
0.038759708404541016 0.11826363205909729 0.7054263353347778
0.038759708404541016 0.12406794726848602 0.7209302186965942
0.038759708404541016 0.12933310866355896 0.7364341020584106
0.038759708404541016 0.13635383546352386 -0.1782945990562439
0.038759708404541016 0.1361226737499237 -0.1627907156944275
0.038759708404541016 0.1350896656513214 -0.14728683233261108
0.038759708404541016 0.1356809437274933 -0.13178294897079468
0.038759708404541016 0.13751038908958435 -0.11627906560897827
0.038759708404541016 0.13965463638305664 -0.10077518224716187
0.038759708404541016 0.14161136746406555 -0.08527129888534546
0.038759708404541016 0.1432647407054901 -0.06976741552352905
0.038759708404541016 0.14437870681285858 -0.05426359176635742
0.038759708404541016 0.14477035403251648 -0.038759708404541016
0.038759708404541016 0.1443364918231964 -0.02325582504272461
0.038759708404541016 0.1437571793794632 -0.007751941680908203
0.038759708404541016 0.14246678352355957 0.007751941680908203
0.038759708404541016 0.1404428780078888 0.02325582504272461
0.038759708404541016 0.1379026174545288 0.038759708404541016
0.038759708404541016 0.13511604070663452 0.05426359176635742
0.038759712129831314 0.13231895864009857 0.06976747512817383
0.038759708404541016 0.1369307041168213 0.751937985420227
0.038759708404541016 0.14305533468723297 0.7674418687820435
0.038759708404541016 0.14496201276779175 0.8914728164672852
0.038759708404541016 0.1505892127752304 0.7829457521438599
0.038759708404541016 0.15834631025791168 0.7984496355056763
0.038759708404541016 0.16836535930633545 0.8139535188674927
0.038759708404541016 0.17272812128067017 0.8759689331054688
0.038759708404541016 0.1798035204410553 0.8294574022293091
0.038759708404541016 0.18505756556987762 0.8449612855911255
0.038759708404541016 0.1846127063035965 0.8604651689529419
0.05426359176635742 -0.16357699036598206 0.8139535188674927
0.05426359176635742 -0.1667376309633255 0.8294574022293091
0.05426359176635742 -0.16876384615898132 0.8449612855911255
0.05426359176635742 -0.16877570748329163 0.8604651689529419
0.05426359176635742 -0.16611748933792114 0.8759689331054688
0.05426359176635742 -0.14877229928970337 0.7674418687820435
0.05426359176635742 -0.1540219634771347 0.7829457521438599
0.05426359176635742 -0.15860305726528168 0.7984496355056763
0.05426359176635742 -0.15062548220157623 0.8914728164672852
0.05426359176635742 -0.13188502192497253 -0.06976741552352905
0.05426359176635742 -0.13223090767860413 -0.05426359176635742
0.05426359176635742 -0.1325315237045288 -0.038759708404541016
0.05426359176635742 -0.13284528255462646 -0.02325582504272461
0.05426359176635742 -0.13329637050628662 -0.007751941680908203
0.05426359176635742 -0.13360318541526794 0.007751941680908203
0.05426359176635742 -0.1335376650094986 0.02325582504272461
0.05426359176635742 -0.13330484926700592 0.038759708404541016
0.05426359176635742 -0.13242879509925842 0.05426359176635742
0.05426359176635742 -0.13178546726703644 0.7364341020584106
0.05426359176635742 -0.14044329524040222 0.751937985420227
0.05426359176635742 -0.12034472823143005 -0.1782945990562439
0.05426359176635742 -0.12091246247291565 -0.1627907156944275
0.05426359176635742 -0.12174104899168015 -0.14728683233261108
0.05426359176635742 -0.12351714074611664 -0.13178294897079468
0.05426359176635742 -0.12605835497379303 -0.11627906560897827
0.05426359176635742 -0.12885721027851105 -0.10077518224716187
0.05426359176635742 -0.13059069216251373 -0.08527129888534546
0.05426359176635742 -0.1299922615289688 0.06976747512817383
0.05426359176635742 -0.1252398043870926 0.08527135848999023
0.05426359176635742 -0.11775961518287659 0.10077524185180664
0.05426359176635742 -0.12050522863864899 0.7209302186965942
0.05426359176635742 -0.11027756333351135 -0.19379842281341553
0.05426359176635742 -0.10534735023975372 0.11627912521362305
0.05426359176635742 -0.10184209048748016 0.6899224519729614
0.05426359176635742 -0.11069004237651825 0.7054263353347778
0.05426359176635742 -0.10085353255271912 0.9069766998291016
0.05426359176635742 -0.09209561347961426 0.1317828893661499
0.05426359176635742 -0.08749351650476456 0.6589146852493286
0.05426359176635742 -0.09289955347776413 0.674418568611145
0.05426359176635742 -0.08150418102741241 0.1472867727279663
0.05426359176635742 -0.07168164849281311 0.16279065608978271
0.05426359176635742 -0.0748339518904686 0.6279069185256958
0.05426359176635742 -0.08104536682367325 0.6434108018875122
0.05426359176635742 -0.06536395847797394 0.17829453945159912
0.05426359176635742 -0.06167687103152275 0.19379842281341553
0.05426359176635742 -0.06241203472018242 0.20930230617523193
0.05426359176635742 -0.06455916166305542 0.22480618953704834
0.05426359176635742 -0.06605833023786545 0.24031007289886475
0.05426359176635742 -0.06630467623472214 0.25581395626068115
0.05426359176635742 -0.06545566022396088 0.27131783962249756
0.05426358804106712 -0.06453245878219604 0.28682172298431396
0.05426359176635742 -0.06356126070022583 0.30232560634613037
0.05426359176635742 -0.06216626241803169 0.3178294897079468
0.05426359176635742 -0.05976586788892746 0.3333333730697632
0.05426359176635742 -0.05671786516904831 0.3488372564315796
0.05426359176635742 -0.05919211357831955 0.5968992710113525
0.05426359176635742 -0.06806010752916336 0.612403154373169
0.05426359549164772 -0.05401938408613205 0.364341139793396
0.05426359176635742 -0.04883202910423279 0.37984490394592285
0.05426359176635742 -0.04498719424009323 0.39534878730773926
0.05426359176635742 -0.043053656816482544 0.41085267066955566
0.05426359176635742 -0.042686525732278824 0.42635655403137207
0.05426359176635742 -0.04190776124596596 0.4418604373931885
0.05426359176635742 -0.04127221554517746 0.4573643207550049
0.05426359176635742 -0.042191293090581894 0.4728682041168213
0.05426359176635742 -0.045210301876068115 0.4883720874786377
0.05426359549164772 -0.049180902540683746 0.5038759708404541
0.05426359176635742 -0.05064063519239426 0.5193798542022705
0.05426359176635742 -0.04840946942567825 0.5348837375640869
0.05426359176635742 -0.04738987982273102 0.5503876209259033
0.05426359176635742 -0.04893418401479721 0.5658915042877197
0.05426358804106712 -0.05240149423480034 0.5813953876495361
0.05426359176635742 0.06290449947118759 0.17829453945159912
0.05426359176635742 0.05711166188120842 0.19379842281341553
0.05426359176635742 0.05675410479307175 0.20930230617523193
0.05426359176635742 0.06001570448279381 0.22480618953704834
0.05426359176635742 0.06522496789693832 0.24031007289886475
0.05426359176635742 0.06848704814910889 0.25581395626068115
0.05426359176635742 0.06407144665718079 0.364341139793396
0.05426359176635742 0.06015094742178917 0.37984490394592285
0.05426359176635742 0.05813482403755188 0.39534878730773926
0.05426359176635742 0.057014916092157364 0.41085267066955566
0.05426359176635742 0.05619095265865326 0.42635655403137207
0.05426359176635742 0.05542147904634476 0.4418604373931885
0.05426359176635742 0.05541025847196579 0.4573642909526825
0.05426359176635742 0.0567137710750103 0.4728682041168213
0.05426359176635742 0.0589682012796402 0.4883720874786377
0.05426359176635742 0.05917634814977646 0.5038759708404541
0.05426358804106712 0.05718379467725754 0.5193798542022705
0.05426359176635742 0.055309832096099854 0.5348837375640869
0.05426359176635742 0.054371826350688934 0.5503876209259033
0.05426359176635742 0.05608943849802017 0.5658915042877197
0.05426359176635742 0.06262366473674774 0.5813953876495361
0.05426359176635742 0.0829574465751648 0.1472867727279663
0.05426359176635742 0.0718156024813652 0.16279065608978271
0.05426359176635742 0.07065396010875702 0.27131783962249756
0.05426359176635742 0.07232081890106201 0.28682172298431396
0.05426359176635742 0.07368741929531097 0.30232560634613037
0.05426359176635742 0.0738777220249176 0.3178294897079468
0.05426359176635742 0.07265264540910721 0.3333333730697632
0.05426359549164772 0.07015781849622726 0.348837286233902
0.05426359176635742 0.07054391503334045 0.5968992710113525
0.05426359176635742 0.07783789187669754 0.612403154373169
0.05426359176635742 0.09150336682796478 0.1317828893661499
0.05426359176635742 0.08567303419113159 0.6279069185256958
0.05426359176635742 0.09118669480085373 0.6434108018875122
0.05426359176635742 0.09564157575368881 0.6589146852493286
0.05426359176635742 0.09380273520946503 0.9069766998291016
0.05426359176635742 0.10983209311962128 0.10077524185180664
0.05426359176635742 0.10198529064655304 0.11627912521362305
0.05426359176635742 0.1023046225309372 0.674418568611145
0.05426359176635742 0.1074303388595581 0.6899224519729614
0.05426359176635742 0.11269781738519669 0.7054263353347778
0.05426359176635742 0.1240842267870903 -0.19379842281341553
0.05426359176635742 0.12946462631225586 0.05426359176635742
0.05426359176635742 0.12452846765518188 0.06976747512817383
0.05426358804106712 0.11816950142383575 0.08527135848999023
0.05426359176635742 0.1195913627743721 0.7209302186965942
0.05426359176635742 0.12560062110424042 0.7364341020584106
0.05426359176635742 0.13346540927886963 -0.1782945990562439
0.05426359176635742 0.13308964669704437 -0.1627907156944275
0.05426359176635742 0.1321350783109665 -0.14728683233261108
0.05426359176635742 0.13221555948257446 -0.13178294897079468
0.05426359176635742 0.1330849826335907 -0.11627907305955887
0.05426359176635742 0.13431653380393982 -0.10077518224716187
0.05426359176635742 0.13550832867622375 -0.08527129888534546
0.05426359176635742 0.1366979032754898 -0.06976741552352905
0.05426359176635742 0.1376638114452362 -0.05426359176635742
0.05426359176635742 0.13817891478538513 -0.038759708404541016
0.05426359176635742 0.13797517120838165 -0.02325582504272461
0.05426359549164772 0.13760200142860413 -0.007751941680908203
0.05426359176635742 0.13646958768367767 0.007751941680908203
0.05426359176635742 0.13437417149543762 0.02325582504272461
0.05426359176635742 0.13220855593681335 0.038759708404541016
0.05426358804106712 0.13195250928401947 0.7519379258155823
0.05426359176635742 0.13935375213623047 0.7674418687820435
0.05426359176635742 0.1458398848772049 0.7829457521438599
0.05426359176635742 0.13591690361499786 0.8914728164672852
0.05426359176635742 0.1540781557559967 0.7984496355056763
0.05426359549164772 0.16450075805187225 0.8139535784721375
0.05426359176635742 0.17503374814987183 0.8294574022293091
0.05426359176635742 0.16627752780914307 0.8759689331054688
0.05426359176635742 0.18171589076519012 0.8449612855911255
0.05426358804106712 0.18092402815818787 0.8604651093482971
0.06976747512817383 -0.1640501469373703 0.8294574022293091
0.06976747512817383 -0.16620773077011108 0.8449612855911255
0.06976747512817383 -0.16632840037345886 0.8604651689529419
0.06976747512817383 -0.1496191918849945 0.7829457521438599
0.06976747512817383 -0.1545858085155487 0.7984496355056763
0.06976747512817383 -0.1590936779975891 0.8139535188674927
0.06976747512817383 -0.16068577766418457 0.8759689331054688
0.06976747512817383 -0.13399502635002136 0.751937985420227
0.06976747512817383 -0.14297111332416534 0.7674418687820435
0.06976747512817383 -0.14452607929706573 0.8914728164672852
0.06976747512817383 -0.11765104532241821 -0.1782945990562439
0.06976747512817383 -0.11788973957300186 -0.1627907156944275
0.06976747512817383 -0.1180289089679718 -0.14728683233261108
0.06976747512817383 -0.11880247294902802 -0.13178294897079468
0.06976747512817383 -0.11968795955181122 -0.11627906560897827
0.06976747512817383 -0.12051726877689362 -0.10077518224716187
0.06976747512817383 -0.12085537612438202 -0.08527129888534546
0.06976747512817383 -0.12149356305599213 -0.06976741552352905
0.06976747512817383 -0.1226252019405365 -0.05426359176635742
0.06976747512817383 -0.12400613725185394 -0.038759708404541016
0.06976747512817383 -0.12529289722442627 -0.02325582504272461
0.06976747512817383 -0.1265268176794052 -0.007751941680908203
0.06976747512817383 -0.12699882686138153 0.007751941680908203
0.06976747512817383 -0.12685194611549377 0.02325582504272461
0.06976747512817383 -0.12633927166461945 0.038759708404541016
0.06976747512817383 -0.12487505376338959 0.05426359176635742
0.06976747512817383 -0.12235081940889359 0.06976747512817383
0.06976747512817383 -0.11673524975776672 0.08527135848999023
0.06976747512817383 -0.12372671812772751 0.7364341020584106
0.06976747512817383 -0.10523208230733871 -0.19379842281341553
0.06976747512817383 -0.10774741321802139 0.10077524185180664
0.06976747512817383 -0.10305988788604736 0.7054263353347778
0.06976747512817383 -0.1134810596704483 0.7209302186965942
0.06976747512817383 -0.09715922921895981 0.11627913266420364
0.06976747512817383 -0.0854344293475151 0.1317828893661499
0.06976747512817383 -0.09297814965248108 0.6899224519729614
0.06976747512817383 -0.07341503351926804 0.1472867727279663
0.06976747512817383 -0.07110773772001266 0.6434108018875122
0.06976747512817383 -0.07699362188577652 0.6589146852493286
0.06976747512817383 -0.08527078479528427 0.674418568611145
0.06976747512817383 -0.0824759230017662 0.9069767594337463
0.06976747512817383 -0.06303857266902924 0.16279065608978271
0.06976747512817383 -0.05477131903171539 0.17829453945159912
0.06976747512817383 -0.05477533116936684 0.22480618953704834
0.06976747512817383 -0.05665354058146477 0.24031007289886475
0.06976747512817383 -0.05852463096380234 0.25581395626068115
0.06976747512817383 -0.05952638015151024 0.27131783962249756
0.06976747512817383 -0.059539660811424255 0.28682172298431396
0.06976747512817383 -0.05893325060606003 0.30232560634613037
0.06976747512817383 -0.0577894002199173 0.3178294897079468
0.06976747512817383 -0.055652014911174774 0.3333333730697632
0.06976747512817383 -0.062111079692840576 0.6279069185256958
0.06976747512817383 -0.050433289259672165 0.19379842281341553
0.06976747512817383 -0.05204370617866516 0.20930230617523193
0.06976747512817383 -0.05095170438289642 0.3488372564315796
0.06976747512817383 -0.043405480682849884 0.364341139793396
0.06976747512817383 -0.03954305499792099 0.37984490394592285
0.06976747512817383 -0.03961527347564697 0.5968992710113525
0.06976747512817383 -0.0519363172352314 0.612403154373169
0.06976747512817383 -0.034149546176195145 0.39534878730773926
0.06976747512817383 -0.027813922613859177 0.41085267066955566
0.06976747512817383 -0.023430315777659416 0.42635655403137207
0.06976747512817383 -0.023576093837618828 0.5038759708404541
0.06976747512817383 -0.02729862742125988 0.5813953876495361
0.06976747512817383 -0.022316159680485725 -0.20930230617523193
0.06976747512817383 -0.013153528794646263 0.4418604373931885
0.06976747512817383 -0.007926862686872482 0.4573643207550049
0.06976747512817383 -0.011077411472797394 0.4728682041168213
0.06976747512817383 -0.019579971209168434 0.4883720874786377
0.06976747512817383 -0.021978171542286873 0.5193798542022705
0.06976747512817383 -0.012191698886454105 0.5348837375640869
0.06976747512817383 -0.008898267522454262 0.5503876209259033
0.06976747512817383 -0.015304721891880035 0.5658915042877197
0.06976747512817383 0.019538873806595802 0.5503876209259033
0.06976747512817383 0.03341853618621826 0.4418604373931885
0.06976747512817383 0.02889443188905716 0.4573643207550049
0.06976747512817383 0.0354134626686573 0.4728682041168213
0.06976747512817383 0.0345953106880188 0.5193798542022705
0.06976747512817383 0.02459832653403282 0.5348837375640869
0.06976747512817383 0.030255410820245743 0.5658915042877197
0.06976747512817383 0.045223161578178406 -0.20930230617523193
0.06976747512817383 0.05145583674311638 0.17829453945159912
0.06976747512817383 0.04405079782009125 0.19379842281341553
0.06976747512817383 0.04492855817079544 0.20930230617523193
0.06976747512817383 0.05146319791674614 0.22480618953704834
0.06976747512817383 0.053114742040634155 0.37984490394592285
0.06976747512817383 0.04769250750541687 0.39534878730773926
0.06976747512817383 0.04361863434314728 0.41085267066955566
0.06976747512817383 0.04007422924041748 0.42635655403137207
0.06976747512817383 0.04105488955974579 0.4883720874786377
0.06976747512817383 0.040854983031749725 0.5038759708404541
0.06976747512817383 0.044167838990688324 0.5813953876495361
0.06976747512817383 0.061148300766944885 0.16279065608978271
0.06976747512817383 0.05689525976777077 0.24031007289886475
0.06976747512817383 0.061400942504405975 0.25581395626068115
0.06976747512817383 0.06568934768438339 0.27131783962249756
0.06976747512817383 0.06892406940460205 0.28682172298431396
0.06976747512817383 0.06607495248317719 0.3488372564315796
0.06976747512817383 0.0572466179728508 0.364341139793396
0.06976748257875443 0.05582842975854874 0.5968992710113525
0.06976747512817383 0.06499525904655457 0.612403154373169
0.06976747512817383 0.08338524401187897 0.1317828893661499
0.06976747512817383 0.07195426523685455 0.1472867727279663
0.06976747512817383 0.07077957689762115 0.30232560634613037
0.06976747512817383 0.07147260755300522 0.3178294897079468
0.06976747512817383 0.07067383080720901 0.3333333730697632
0.06976747512817383 0.07366146147251129 0.6279069185256958
0.06976747512817383 0.0809774324297905 0.6434108018875122
0.06976747512817383 0.07534418255090714 0.9069766998291016
0.06976747512817383 0.0916299968957901 0.11627911776304245
0.06976747512817383 0.08866988122463226 0.6589146852493286
0.06976747512817383 0.09461984038352966 0.674418568611145
0.06976747512817383 0.1160997822880745 0.06976747512817383
0.06976747512817383 0.1083039864897728 0.08527135848999023
0.06976746767759323 0.10132864862680435 0.10077524185180664
0.06976747512817383 0.10165765881538391 0.6899224519729614
0.06976747512817383 0.10768064856529236 0.7054263353347778
0.06976747512817383 0.11295098066329956 0.7209302186965942
0.06976747512817383 0.1183733120560646 -0.19379842281341553
0.06976747512817383 0.1257382482290268 -0.1782945990562439
0.06976747512817383 0.12531010806560516 -0.1627907156944275
0.06976747512817383 0.12338663637638092 -0.14728683233261108
0.06976747512817383 0.12364259362220764 -0.13178294897079468
0.06976747512817383 0.125550776720047 -0.11627906560897827
0.06976747512817383 0.12754306197166443 -0.10077518224716187
0.06976747512817383 0.12935909628868103 -0.08527129888534546
0.06976747512817383 0.13132497668266296 -0.06976741552352905
0.06976747512817383 0.13091786205768585 -0.007751941680908203
0.06976747512817383 0.12935589253902435 0.007751941680908203
0.06976747512817383 0.1271260380744934 0.02325582504272461
0.06976747512817383 0.12386970967054367 0.038759708404541016
0.06976747512817383 0.11983013153076172 0.05426359176635742
0.06976747512817383 0.11969183385372162 0.7364341020584106
0.06976747512817383 0.12607866525650024 0.751937985420227
0.06976747512817383 0.12611183524131775 0.8914728164672852
0.06976746767759323 0.13200996816158295 -0.05426359176635742
0.06976747512817383 0.13208112120628357 -0.038759708404541016
0.06976747512817383 0.13179701566696167 -0.02325582504272461
0.06976747512817383 0.1328863799571991 0.7674418687820435
0.06976747512817383 0.14011074602603912 0.7829457521438599
0.06976747512817383 0.14791591465473175 0.7984496355056763
0.06976747512817383 0.15735271573066711 0.8139535188674927
0.06976747512817383 0.15791495144367218 0.8759689331054688
0.06976747512817383 0.1685531735420227 0.8294573426246643
0.06976747512817383 0.1767398715019226 0.8449612855911255
0.06976747512817383 0.17318707704544067 0.8604651689529419
0.08527135848999023 -0.16319377720355988 0.8449612855911255
0.08527135848999023 -0.16303138434886932 0.8604651689529419
0.08527135848999023 -0.14908844232559204 0.7984496355056763
0.08527135848999023 -0.15403786301612854 0.8139535188674927
0.08527135848999023 -0.15865978598594666 0.8294574022293091
0.08527135848999023 -0.1558399796485901 0.8759689331054688
0.08527135848999023 -0.13414306938648224 0.7674418687820435
0.08527135848999023 -0.14229100942611694 0.7829457521438599
0.08527135848999023 -0.13398516178131104 0.8914728164672852
0.08527135848999023 -0.11649561673402786 -0.02325582504272461
0.08527135848999023 -0.11719518899917603 -0.007751941680908203
0.08527135848999023 -0.11750533431768417 0.007751941680908203
0.08527135848999023 -0.11708801984786987 0.02325582504272461
0.08527135848999023 -0.12484890222549438 0.751937985420227
0.08527135848999023 -0.10118155181407928 -0.19379842281341553
0.08527135848999023 -0.10694138705730438 -0.1782945990562439
0.08527135848999023 -0.10731014609336853 -0.1627907156944275
0.08527135848999023 -0.10837048292160034 -0.14728683233261108
0.08527135848999023 -0.11037935316562653 -0.13178294897079468
0.08527135848999023 -0.11193419992923737 -0.11627906560897827
0.08527135848999023 -0.11251270771026611 -0.10077518969774246
0.08527135848999023 -0.11183486878871918 -0.08527129888534546
0.08527135848999023 -0.1120927706360817 -0.06976741552352905
0.08527136594057083 -0.11350584775209427 -0.05426359549164772
0.08527135848999023 -0.11544227600097656 -0.038759712129831314
0.08527135848999023 -0.11597508937120438 0.038759708404541016
0.08527135848999023 -0.11375363171100616 0.05426359176635742
0.08527135848999023 -0.11063101887702942 0.06976747512817383
0.08527135848999023 -0.10406943410634995 0.08527135848999023
0.08527135848999023 -0.10306298732757568 0.7209302186965942
0.08527135848999023 -0.11476027965545654 0.7364341020584106
0.08527135848999023 -0.09528671205043793 0.10077524185180664
0.08527135848999023 -0.08571232110261917 0.11627912521362305
0.08527135848999023 -0.0923212468624115 0.7054263353347778
0.08527135848999023 -0.07251784205436707 0.1317828893661499
0.08527135848999023 -0.07295690476894379 0.674418568611145
0.08527135848999023 -0.08279698342084885 0.6899224519729614
0.08527135848999023 -0.05820842832326889 0.1472867727279663
0.08527135848999023 -0.0543263740837574 0.6434108018875122
0.08527135848999023 -0.06385307013988495 0.6589146852493286
0.08527135848999023 -0.05695614963769913 0.9069766998291016
0.08527135848999023 -0.04747594892978668 -0.20930230617523193
0.08527135848999023 -0.040333036333322525 0.16279065608978271
0.08527135848999023 -0.04213566333055496 0.24031007289886475
0.08527135848999023 -0.047728657722473145 0.25581395626068115
0.08527135848999023 -0.05080379173159599 0.27131783962249756
0.08527136594057083 -0.052174944430589676 0.28682172298431396
0.08527135848999023 -0.05296263471245766 0.30232563614845276
0.08527135848999023 -0.053195662796497345 0.3178294897079468
0.08527135848999023 -0.04938729852437973 0.3333333730697632
0.08527135848999023 -0.041614335030317307 0.3488372564315796
0.08527135848999023 -0.035054560750722885 0.22480618953704834
0.08527135848999023 -0.03113574907183647 0.364341139793396
0.08527135848999023 -0.037722282111644745 0.6279069185256958
0.08527135848999023 -0.012491554021835327 -0.22480618953704834
0.08527135848999023 -0.010797649621963501 0.17829453945159912
0.08527135848999023 -0.020434454083442688 0.20930230617523193
0.08527135848999023 -0.02286323346197605 0.37984490394592285
0.08527135848999023 -0.008029275573790073 0.39534878730773926
0.08527135848999023 -0.017946021631360054 0.612403154373169
0.08527135848999023 -8.021295070648193e-05 0.17829453945159912
0.08527135848999023 0.009172361344099045 -0.22480618953704834
0.08527135848999023 0.012489487417042255 0.20930230617523193
0.08527135848999023 0.019530264660716057 0.39534878730773926
0.08527135848999023 0.03329391032457352 0.16279065608978271
0.08527135848999023 0.02910688892006874 0.22480618953704834
0.08527135848999023 0.034908030182123184 0.37984490394592285
0.08527135848999023 0.048046283423900604 -0.20930230617523193
0.08527135848999023 0.041507184505462646 0.24031007289886475
0.08527135848999023 0.050627704709768295 0.25581395626068115
0.08527135848999023 0.047137998044490814 0.364341139793396
0.08527136594057083 0.04093869775533676 0.612403154373169
0.08527135848999023 0.04771292954683304 0.9069766998291016
0.08527135848999023 0.06879107654094696 0.1317828893661499
0.08527135103940964 0.05475817620754242 0.1472867727279663
0.08527135848999023 0.05592965707182884 0.27131783962249756
0.08527135848999023 0.060149095952510834 0.28682172298431396
0.08527135848999023 0.06542273610830307 0.30232560634613037
0.08527135848999023 0.06901439279317856 0.3178294897079468
0.08527135848999023 0.06788578629493713 0.3333333730697632
0.08527135848999023 0.05975182354450226 0.3488372564315796
0.08527135848999023 0.05537176504731178 0.6279069185256958
0.08527135848999023 0.06706620007753372 0.6434108018875122
0.08527135848999023 0.07844454795122147 0.11627912521362305
0.08527135848999023 0.07755686342716217 0.6589146852493286
0.08527135848999023 0.09595390409231186 0.08527135848999023
0.08527136594057083 0.08740949630737305 0.10077524930238724
0.08527135848999023 0.08655615895986557 0.6744186282157898
0.08527135848999023 0.09355508536100388 0.6899224519729614
0.08527135848999023 0.1003386527299881 0.7054263353347778
0.08527135848999023 0.1077779233455658 -0.19379842281341553
0.08527135848999023 0.11599839478731155 -0.14728683233261108
0.08527135848999023 0.11588054895401001 -0.13178294897079468
0.08527135848999023 0.1162557303905487 0.02325582504272461
0.08527135848999023 0.11308721452951431 0.038759708404541016
0.08527135848999023 0.10855686664581299 0.05426359176635742
0.08527135848999023 0.10258637368679047 0.06976747512817383
0.08527135848999023 0.10625319182872772 0.7209302186965942
0.08527135848999023 0.11197444051504135 0.7364341020584106
0.08527135848999023 0.11218617856502533 0.8914728164672852
0.08527136594057083 0.11866375058889389 -0.1782945990562439
0.08527136594057083 0.11768068373203278 -0.1627907156944275
0.08527135848999023 0.11682464927434921 -0.11627906560897827
0.08527135848999023 0.11776311695575714 -0.10077518224716187
0.08527135848999023 0.11874741315841675 -0.08527129888534546
0.08527135848999023 0.12004055082798004 -0.06976741552352905
0.08527135848999023 0.12124936282634735 -0.05426359176635742
0.08527135848999023 0.12192294001579285 -0.038759708404541016
0.08527135848999023 0.12161757051944733 -0.02325582504272461
0.08527135848999023 0.1210082471370697 -0.007751941680908203
0.08527135848999023 0.11905588954687119 0.007751941680908203
0.08527135103940964 0.11860334128141403 0.7519379258155823
0.08527135848999023 0.1254379153251648 0.7674418687820435
0.08527135848999023 0.13237114250659943 0.7829458117485046
0.08527135848999023 0.14028328657150269 0.7984496355056763
0.08527135848999023 0.14985112845897675 0.8139535188674927
0.08527135848999023 0.16176028549671173 0.8294574022293091
0.08527135103940964 0.1475045084953308 0.8759689331054688
0.08527135848999023 0.16901946067810059 0.8449612855911255
0.08527135848999023 0.16658106446266174 0.8604651689529419
0.10077524185180664 -0.14744608104228973 0.8139535188674927
0.10077524185180664 -0.15216562151908875 0.8294574022293091
0.10077524185180664 -0.1559610664844513 0.8449612855911255
0.10077524185180664 -0.1553773730993271 0.8604651689529419
0.10077524185180664 -0.14890426397323608 0.8759689331054688
0.10077524185180664 -0.13207043707370758 0.7829457521438599
0.10077524185180664 -0.13944023847579956 0.7984496355056763
0.10077524185180664 -0.12295818328857422 0.7674418687820435
0.10077524185180664 -0.12132780253887177 0.8914728164672852
0.10077524185180664 -0.10225971043109894 -0.1782945990562439
0.10077524185180664 -0.10164084285497665 -0.1627907156944275
0.10077524185180664 -0.10149162262678146 -0.14728683233261108
0.10077524185180664 -0.101926788687706 -0.13178294897079468
0.10077524185180664 -0.10184883326292038 -0.11627906560897827
0.10077524185180664 -0.10127700865268707 -0.10077518224716187
0.10077524185180664 -0.10097793489694595 -0.05426359176635742
0.10077524185180664 -0.1024051159620285 -0.038759708404541016
0.10077524185180664 -0.10436755418777466 -0.02325582504272461
0.10077524185180664 -0.10622720420360565 -0.007751941680908203
0.10077524185180664 -0.10674327611923218 0.007751941680908203
0.10077524185180664 -0.10605905950069427 0.02325582504272461
0.10077524185180664 -0.10379387438297272 0.038759708404541016
0.10077524185180664 -0.10215912759304047 0.7364341020584106
0.10077524185180664 -0.113374724984169 0.751937985420227
0.10077524185180664 -0.09109798818826675 -0.19379842281341553
0.10077524185180664 -0.10006913542747498 -0.08527129888534546
0.10077524185180664 -0.0998367965221405 -0.06976741552352905
0.10077524185180664 -0.0999494418501854 0.05426359176635742
0.10077524185180664 -0.09534726291894913 0.06976747512817383
0.10077524185180664 -0.08813756704330444 0.08527135848999023
0.10077524185180664 -0.09010109305381775 0.7209302186965942
0.10077524185180664 -0.07716187834739685 0.10077524185180664
0.10077524185180664 -0.06979396939277649 0.6899224519729614
0.10077524185180664 -0.07951805740594864 0.7054263353347778
0.10077524185180664 -0.05444309487938881 -0.20930230617523193
0.10077524185180664 -0.06378684937953949 0.11627912521362305
0.10077524185180664 -0.05723929777741432 0.674418568611145
0.10077524185180664 -0.04053226858377457 -0.22480618953704834
0.10077524185180664 -0.0396428145468235 0.1317828893661499
0.10077524185180664 -0.039882440119981766 0.28682172298431396
0.10077524185180664 -0.043947525322437286 0.30232560634613037
0.10077524185180664 -0.04726190119981766 0.3178294897079468
0.10077524185180664 -0.0449850857257843 0.3333333730697632
0.10077524185180664 -0.04197569563984871 0.6589146852493286
0.10077524185180664 -0.026369832456111908 -0.39534884691238403
0.10077524185180664 -0.03075578808784485 -0.3798449635505676
0.10077524185180664 -0.034639425575733185 -0.3643410801887512
0.10077523440122604 -0.0369851291179657 -0.3488371968269348
0.10077524185180664 -0.037976671010255814 -0.3333333134651184
0.10077524185180664 -0.037116874009370804 -0.317829430103302
0.10077524185180664 -0.035143811255693436 -0.30232560634613037
0.10077524185180664 -0.03266597539186478 -0.28682172298431396
0.10077524185180664 -0.031138356775045395 -0.27131783962249756
0.10077524185180664 -0.031267281621694565 -0.25581395626068115
0.10077524930238724 -0.03387190029025078 -0.24031008780002594
0.10077524185180664 -0.023604953661561012 0.25581395626068115
0.10077523440122604 -0.03439641743898392 0.27131783962249756
0.10077524185180664 -0.03752713277935982 0.3488372564315796
0.10077524185180664 -0.018277375027537346 -0.41085273027420044
0.10077524185180664 -0.009987385012209415 0.364341139793396
0.10077524185180664 -0.01190800778567791 0.6434108018875122
0.10077523440122604 -0.0036144847981631756 -0.41085273027420044
0.10077524185180664 0.003502629464492202 -0.39534884691238403
0.10077524185180664 0.008948740549385548 -0.3798449635505676
0.10077524185180664 0.011554068885743618 -0.3643410801887512
0.10077524185180664 0.013921745121479034 -0.3488371968269348
0.10077524185180664 0.016457449644804 -0.3333333134651184
0.10077524185180664 0.019738083705306053 -0.317829430103302
0.10077524185180664 0.01644650474190712 0.1317828893661499
0.10077524185180664 0.020600171759724617 0.25581395626068115
0.10077524185180664 0.023752965033054352 -0.30232560634613037
0.10077524185180664 0.02603207342326641 -0.28682172298431396
