-0.14728683233261108 -0.1406172811985016 -0.13178294897079468
-0.14728683233261108 -0.13958021998405457 -0.11627906560897827
-0.14728683233261108 -0.13849283754825592 -0.10077518224716187
-0.14728683233261108 -0.13726776838302612 -0.08527129888534546
-0.14728683233261108 -0.13635069131851196 -0.06976741552352905
-0.14728683233261108 -0.1359516978263855 -0.05426359176635742
-0.14728683233261108 -0.13553227484226227 -0.038759708404541016
-0.14728683233261108 -0.1349307894706726 -0.02325582504272461
-0.14728683233261108 -0.1342000961303711 -0.007751941680908203
-0.14728683233261108 -0.13306522369384766 0.007751941680908203
-0.14728683233261108 -0.13190072774887085 0.02325582504272461
-0.14728683233261108 -0.13483411073684692 0.3178294897079468
-0.14728683233261108 -0.13212507963180542 0.7209302186965942
-0.14728683233261108 -0.13699960708618164 0.7364341020584106
-0.14728683233261108 -0.13464955985546112 0.751937985420227
-0.14728683233261108 -0.1421251893043518 0.7674418687820435
-0.14728683233261108 -0.13063938915729523 0.038759708404541016
-0.14728683233261108 -0.1290767341852188 0.05426359176635742
-0.14728683233261108 -0.1273491531610489 0.06976747512817383
-0.14728683233261108 -0.1253371238708496 0.08527135848999023
-0.14728683233261108 -0.12326914072036743 0.10077524185180664
-0.14728683233261108 -0.12160566449165344 0.11627912521362305
-0.14728683233261108 -0.11988295614719391 0.1317828893661499
-0.14728683233261108 -0.11838461458683014 0.1472867727279663
-0.14728683233261108 -0.1183599978685379 0.7054263353347778
-0.14728683233261108 -0.11286666244268417 0.16279065608978271
-0.14728683233261108 -0.11471682041883469 0.30232560634613037
-0.14728683233261108 -0.1065843477845192 0.6899224519729614
-0.14728683233261108 -0.08610257506370544 0.28682172298431396
-0.14728683233261108 -0.08685845136642456 0.6434108018875122
-0.14728683233261108 -0.09245435893535614 0.6589146852493286
-0.14728683233261108 -0.09779291599988937 0.6744185090065002
-0.14728683233261108 -0.0832178145647049 -0.9069767594337463
-0.14728683233261108 -0.07847864180803299 -0.8914728760719299
-0.14728683233261108 -0.07557304948568344 -0.8759689927101135
-0.14728683233261108 -0.0732378140091896 -0.8604651093482971
-0.14728683233261108 -0.07244210690259933 -0.8449612259864807
-0.14728683233261108 -0.07210754603147507 -0.8294572830200195
-0.14728683233261108 -0.0718211755156517 -0.8139535188674927
-0.14728683233261108 -0.07166308909654617 -0.7984496355056763
-0.14728683233261108 -0.07140269130468369 -0.7829457521438599
-0.14728683233261108 -0.07095524668693542 -0.7674418687820435
-0.14728683233261108 -0.070398710668087 -0.751937985420227
-0.14728683233261108 -0.06994124501943588 -0.7364341020584106
-0.14728683233261108 -0.07293988764286041 0.17829453945159912
-0.14728683233261108 -0.07080437988042831 0.5968992710113525
-0.14728683233261108 -0.07696033269166946 0.612403154373169
-0.14728683233261108 -0.08211001008749008 0.6279069185256958
-0.14728683233261108 -0.06908231973648071 -0.7209302186965942
-0.14728683233261108 -0.0677962526679039 -0.7054263353347778
-0.14728683233261108 -0.06672912836074829 -0.6899224519729614
-0.14728683233261108 -0.06585779786109924 -0.674418568611145
-0.14728683233261108 -0.06522123515605927 -0.6589146852493286
-0.14728683233261108 -0.06456856429576874 -0.643410861492157
-0.14728683233261108 -0.063579261302948 -0.6279069781303406
-0.14728683233261108 -0.06175743415951729 -0.6124030947685242
-0.14728683233261108 -0.05953329801559448 -0.5968992114067078
-0.14728683233261108 -0.057644814252853394 -0.5813953876495361
-0.14728683233261108 -0.05640879645943642 -0.5658915042877197
-0.14728683233261108 -0.05575867369771004 -0.5503876209259033
-0.14728683233261108 -0.05559924244880676 -0.5348837375640869
-0.14728683233261108 -0.05563433840870857 -0.5193798542022705
-0.14728683233261108 -0.055652547627687454 -0.5038759708404541
-0.14728683233261108 -0.05597805976867676 -0.4883720874786377
-0.14728683233261108 -0.05658585950732231 -0.4728682041168213
-0.14728683233261108 -0.05729307979345322 -0.4573643207550049
-0.14728683233261108 -0.05754932761192322 -0.4418604373931885
-0.14728683233261108 -0.05771941691637039 -0.42635661363601685
-0.14728683233261108 -0.05881618708372116 -0.41085273027420044
-0.14728683233261108 -0.056695498526096344 0.27131783962249756
-0.14728683233261108 -0.06351763755083084 0.5813953876495361
-0.14728683233261108 -0.05631805211305618 0.8294574022293091
-0.14728683233261108 -0.05199242755770683 -0.9379844665527344
-0.14728683233261108 -0.04872625321149826 0.5658915042877197
-0.14728683233261108 0.037252068519592285 -0.643410861492157
-0.14728683233261108 0.03598910570144653 -0.6279069781303406
-0.14728683233261108 0.03476855158805847 -0.6124030947685242
-0.14728683233261108 0.03383750841021538 -0.5968992114067078
-0.14728683233261108 0.03287258744239807 -0.5813953876495361
-0.14728683233261108 0.032224446535110474 -0.5658915042877197
-0.14728683233261108 0.03159196674823761 -0.5503876209259033
-0.14728683233261108 0.0311141274869442 -0.5348837375640869
-0.14728683233261108 0.031120700761675835 -0.5193798542022705
-0.14728683233261108 0.03151361271739006 -0.5038759708404541
-0.14728683233261108 0.03194258362054825 -0.4883720874786377
-0.14728683233261108 0.03241591900587082 -0.4728682041168213
-0.14728683233261108 0.033466022461652756 -0.4573643207550049
-0.14728683233261108 0.035278718918561935 -0.4418604373931885
-0.14728683233261108 0.035558585077524185 -0.42635661363601685
-0.14728683233261108 0.036322250962257385 -0.41085273027420044
-0.14728683233261108 0.034535251557826996 0.5658915042877197
-0.14728683233261108 0.04018858075141907 -0.9379844665527344
-0.14728683233261108 0.04093869775533676 -0.9224807024002075
-0.14728683233261108 0.03906763345003128 -0.9069768190383911
-0.14728683233261108 0.03962594270706177 -0.8914728760719299
-0.14728683233261108 0.03992626816034317 -0.8759689927101135
-0.14728683233261108 0.040382470935583115 -0.8604651093482971
-0.14728683233261108 0.04091772809624672 -0.8449612259864807
-0.14728683233261108 0.04132590442895889 -0.8294573426246643
-0.14728683233261108 0.04137580469250679 -0.8139535188674927
-0.14728683233261108 0.0411529578268528 -0.7984496355056763
-0.14728683233261108 0.040836550295352936 -0.7829457521438599
-0.14728683233261108 0.04078128933906555 -0.7674418091773987
-0.14728683233261108 0.04093232750892639 -0.751937985420227
-0.14728683233261108 0.04111325740814209 -0.7364341020584106
-0.14728683233261108 0.04114847630262375 -0.7209301590919495
-0.14728683233261108 0.04092012345790863 -0.7054262757301331
-0.14728683233261108 0.040360335260629654 -0.6899224519729614
-0.1472868174314499 0.039605915546417236 -0.674418568611145
-0.14728683233261108 0.03887178376317024 -0.6589146852493286
-0.14728683233261108 0.04669317603111267 -0.39534884691238403
-0.14728683233261108 0.045963212847709656 0.27131783962249756
-0.14728683233261108 0.04933502897620201 0.5813953876495361
-0.14728683233261108 0.04351568594574928 0.8294574022293091
-0.14728683233261108 0.054681286215782166 0.17829453945159912
-0.14728683233261108 0.05615256726741791 0.5968992710113525
-0.14728683233261108 0.060721904039382935 0.612403154373169
-0.14728683233261108 0.06334459036588669 0.6279069185256958
-0.14728683233261108 0.0659078061580658 0.6434108018875122
-0.14728683233261108 0.07033267617225647 0.6589146852493286
-0.14728683233261108 0.07865224033594131 0.674418568611145
-0.14728683233261108 0.07811678946018219 0.751937985420227
-0.14728683233261108 0.08600794523954391 0.6899224519729614
-0.14728683233261108 0.09376765787601471 0.7054263353347778
-0.14728683233261108 0.09583704173564911 0.7209302186965942
-0.14728683233261108 0.08779890090227127 0.7364341020584106
-0.14728683233261108 0.0962107926607132 0.7674418687820435
-0.14728683233261108 0.1140919178724289 0.11627912521362305
-0.14728683233261108 0.11206001043319702 0.1317828893661499
-0.14728683233261108 0.10910649597644806 0.1472867727279663
-0.14728683233261108 0.10280302166938782 0.16279065608978271
-0.14728683233261108 0.10085435956716537 0.28682172298431396
-0.14728683233261108 0.11626997590065002 0.30232560634613037
-0.14728683233261108 0.13172310590744019 -0.038759708404541016
-0.14728683233261108 0.12892872095108032 -0.02325582504272461
-0.14728683233261108 0.12715736031532288 -0.007751941680908203
-0.14728683233261108 0.1254217028617859 0.007751941680908203
-0.14728683233261108 0.12357667088508606 0.02325582504272461
-0.14728683233261108 0.12231481820344925 0.038759708404541016
-0.14728683233261108 0.1212034821510315 0.05426359176635742
-0.14728683233261108 0.11991395056247711 0.06976747512817383
-0.14728683233261108 0.11846108734607697 0.08527135848999023
-0.14728683233261108 0.11686068028211594 0.10077524185180664
-0.14728683233261108 0.12490719556808472 0.3178294897079468
-0.14728683233261108 0.1446342021226883 -0.19379842281341553
-0.14728683233261108 0.14250729978084564 -0.1782945990562439
-0.14728683233261108 0.14101622998714447 -0.1627907156944275
-0.14728683233261108 0.13989990949630737 -0.14728683233261108
-0.14728683233261108 0.13884419202804565 -0.13178294897079468
-0.14728683233261108 0.13787437975406647 -0.11627906560897827
-0.14728683233261108 0.13689382374286652 -0.10077518224716187
-0.14728683233261108 0.13581117987632751 -0.08527129888534546
-0.14728683233261108 0.13458652794361115 -0.06976741552352905
-0.14728683233261108 0.13328871130943298 -0.05426359176635742
-0.14728683233261108 0.1342926174402237 0.3333333730697632
-0.14728683233261108 0.14338430762290955 0.3488372564315796
-0.14728683233261108 0.14680053293704987 0.8139535188674927
-0.14728683233261108 0.15590067207813263 -0.3798449635505676
-0.14728683233261108 0.1566089391708374 -0.3643410801887512
-0.14728683233261108 0.15676414966583252 -0.3488371968269348
-0.14728683233261108 0.15525421500205994 -0.3333333134651184
-0.14728683233261108 0.15497387945652008 -0.317829430103302
-0.14728683233261108 0.15506669878959656 -0.30232560634613037
-0.14728683233261108 0.1543639600276947 -0.28682172298431396
-0.14728683233261108 0.15335479378700256 -0.27131783962249756
-0.14728683233261108 0.1521090567111969 -0.25581395626068115
-0.14728683233261108 0.15063036978244781 -0.24031007289886475
-0.14728683233261108 0.1489824503660202 -0.22480618953704834
-0.14728683233261108 0.14747458696365356 -0.20930230617523193
-0.14728683233261108 0.14990615844726562 0.364341139793396
-0.14728683233261108 0.15695835649967194 0.37984490394592285
-0.14728683233261108 0.16663631796836853 0.39534878730773926
-0.14728683233261108 0.19749727845191956 0.41085267066955566
-0.14728683233261108 0.20746833086013794 0.42635655403137207
-0.14728683233261108 0.21034814417362213 0.4418604373931885
-0.14728683233261108 0.21061812341213226 0.4573643207550049
-0.14728683233261108 0.21798181533813477 0.7829457521438599
-0.14728683233261108 0.22700129449367523 0.7984496355056763
-0.13178294897079468 -0.2508891820907593 0.7829457521438599
-0.13178294897079468 -0.2524435520172119 0.7984496355056763
-0.13178294897079468 -0.22564277052879333 0.42635655403137207
-0.13178294897079468 -0.22729916870594025 0.4418604373931885
-0.13178294897079468 -0.22925888001918793 0.4573643207550049
-0.13178294897079468 -0.2153180092573166 0.41085267066955566
-0.13178294897079468 -0.17875754833221436 -0.3798449635505676
-0.13178294897079468 -0.1800084412097931 0.37984490394592285
-0.13178294897079468 -0.19091688096523285 0.39534878730773926
-0.13178294897079468 -0.16487497091293335 -0.39534884691238403
-0.13178294897079468 -0.17294178903102875 -0.3643410801887512
-0.13178294897079468 -0.16940395534038544 -0.3488371968269348
-0.13178294897079468 -0.16718439757823944 -0.3333333134651184
-0.13178294897079468 -0.16580715775489807 -0.317829430103302
-0.13178294897079468 -0.16445109248161316 -0.30232560634613037
-0.13178294897079468 -0.16311517357826233 -0.28682172298431396
-0.13178294897079468 -0.1633853018283844 0.3488372564315796
-0.13178294897079468 -0.17044773697853088 0.364341139793396
-0.13178294897079468 -0.16374538838863373 0.7364341020584106
-0.13178294897079468 -0.16374491155147552 0.751937985420227
-0.13178294897079468 -0.17228379845619202 0.7674418687820435
-0.13178294897079468 -0.16347402334213257 0.8139535188674927
-0.13178294897079468 -0.16068974137306213 -0.27131783962249756
-0.13178294897079468 -0.15818330645561218 -0.25581395626068115
-0.13178294897079468 -0.15612982213497162 -0.24031007289886475
-0.13178294897079468 -0.1537451446056366 -0.22480618953704834
-0.13178294897079468 -0.1517055332660675 -0.20930230617523193
-0.13178294897079468 -0.14983299374580383 -0.19379842281341553
-0.13178294897079468 -0.1476694643497467 -0.1782945990562439
-0.13178294897079468 -0.15298835933208466 0.3333333730697632
-0.13178294897079468 -0.1491757333278656 0.7054263353347778
-0.13178294897079468 -0.1582360416650772 0.7209302186965942
-0.13178294897079468 -0.13325516879558563 -0.9224806427955627
-0.13178294897079468 -0.14446084201335907 -0.1627907156944275
-0.13178294897079468 -0.1422932744026184 -0.14728683233261108
-0.13178294897079468 -0.14119884371757507 -0.13178294897079468
-0.13178294897079468 -0.1403273344039917 -0.11627907305955887
-0.13178294897079468 -0.13935908675193787 -0.10077518224716187
-0.13178294897079468 -0.13813289999961853 -0.08527129888534546
-0.13178294897079468 -0.13721299171447754 -0.06976741552352905
-0.13178294897079468 -0.13687750697135925 -0.05426359176635742
-0.13178294897079468 -0.13653457164764404 -0.038759708404541016
-0.13178294897079468 -0.13604284822940826 -0.02325582504272461
-0.13178294897079468 -0.1354132741689682 -0.007751941680908203
-0.13178294897079468 -0.13431525230407715 0.007751941680908203
-0.13178294897079468 -0.13300122320652008 0.02325582504272461
-0.13178294897079468 -0.13230660557746887 0.038759708404541016
-0.13178294897079468 -0.13311153650283813 0.30232560634613037
-0.13178294897079468 -0.1438172608613968 0.3178294897079468
-0.13178294897079468 -0.13213209807872772 0.674418568611145
-0.13178294897079468 -0.13956306874752045 0.6899224519729614
-0.13178294897079468 -0.13105778396129608 0.05426359176635742
-0.13178294897079468 -0.12843863666057587 0.06976747512817383
-0.13178294897079468 -0.1258533000946045 0.08527135848999023
-0.13178294897079468 -0.12354399263858795 0.10077524185180664
-0.13178294897079468 -0.12177149951457977 0.11627912521362305
-0.13178294897079468 -0.12008145451545715 0.1317828893661499
-0.13178294897079468 -0.11901611089706421 0.1472867727279663
-0.13178294897079468 -0.11691293120384216 0.16279065608978271
-0.13178294897079468 -0.12135741114616394 0.6434108018875122
-0.13178294897079468 -0.12706896662712097 0.6589146852493286
-0.13178294897079468 -0.10146411508321762 0.17829453945159912
-0.13178294897079468 -0.11451496183872223 0.28682172298431396
-0.13178294897079468 -0.10687622427940369 0.612403154373169
-0.13178294897079468 -0.11414032429456711 0.6279069185256958
-0.13178294897079468 -0.09209954738616943 -0.9379844665527344
-0.13178294897079468 -0.08678100258111954 -0.9069767594337463
-0.13178294897079468 -0.08996883034706116 0.27131783962249756
-0.13178294897079468 -0.09258203208446503 0.5813953876495361
-0.13178294897079468 -0.09986227750778198 0.5968992710113525
-0.13178294897079468 -0.0823429673910141 -0.8914728760719299
-0.13178294897079468 -0.07813549786806107 -0.8759690523147583
-0.13178294897079468 -0.07468967139720917 -0.8604651093482971
-0.13178294897079468 -0.07336007058620453 -0.8449612259864807
-0.13178294897079468 -0.07280714064836502 -0.8294573426246643
-0.13178294897079468 -0.0723349079489708 -0.8139535188674927
-0.13178294897079468 -0.07204367965459824 -0.7984496355056763
-0.13178294897079468 -0.07168913632631302 -0.7829457521438599
-0.13178294897079468 -0.07118683308362961 -0.7674418687820435
-0.13178294897079468 -0.070585697889328 -0.751937985420227
-0.13178294897079468 -0.07006607204675674 -0.7364341020584106
-0.13178294897079468 -0.07114367187023163 0.25581395626068115
-0.13178294897079468 -0.08071430027484894 0.5658915042877197
-0.13178294897079468 -0.07622216641902924 0.8294574022293091
-0.13178294897079468 -0.06943938881158829 -0.7209302186965942
-0.13178294897079468 -0.06806297600269318 -0.7054263353347778
-0.13178294897079468 -0.06692496687173843 -0.6899224519729614
-0.13178294897079468 -0.06595011800527573 -0.674418568611145
-0.13178294897079468 -0.06527607142925262 -0.6589146852493286
-0.13178294897079468 -0.06461937725543976 -0.6434108018875122
-0.13178294897079468 -0.0637119859457016 -0.6279069781303406
-0.13178294897079468 -0.06200920045375824 -0.6124030947685242
-0.13178294897079468 -0.05986776947975159 -0.5968992114067078
-0.13178294897079468 -0.05810712277889252 -0.5813953876495361
-0.13178294897079468 -0.05683920532464981 -0.5658915042877197
-0.13178294897079468 -0.05604759603738785 -0.5503876209259033
-0.13178294897079468 -0.055742472410202026 -0.5348837375640869
-0.13178294897079468 -0.05578811094164848 -0.5193798542022705
-0.13178294897079468 -0.05597252398729324 -0.5038759708404541
-0.13178294897079468 -0.0563824325799942 -0.4883720874786377
-0.13178294897079468 -0.057013340294361115 -0.4728682041168213
-0.13178294897079468 -0.057761915028095245 -0.4573643207550049
-0.13178294897079468 -0.05825550854206085 -0.4418604373931885
-0.13178294897079468 -0.05917537212371826 -0.42635661363601685
-0.13178294897079468 -0.06203121691942215 -0.41085273027420044
-0.13178294897079468 -0.06160099804401398 0.5503876209259033
-0.13178294897079468 -0.04180453345179558 0.19379842281341553
-0.13178294897079468 -0.05030704662203789 0.24031007289886475
-0.13178294897079468 -0.02935829386115074 0.4728682041168213
-0.13178294897079468 -0.02003801241517067 0.19379842281341553
-0.13178294897079468 0.006978554651141167 0.4728682041168213
-0.13178294897079468 0.01682071015238762 0.24031007289886475
-0.13178294897079468 0.03731207177042961 -0.6124030947685242
-0.13178294897079468 0.03558334335684776 -0.5968992114067078
-0.13178294897079468 0.03443839028477669 -0.5813953876495361
-0.13178294897079468 0.03383997455239296 -0.5658915042877197
-0.13178294897079468 0.033372849225997925 -0.5503876209259033
-0.13178294897079468 0.03308169171214104 -0.5348837375640869
-0.13178294897079468 0.033215977251529694 -0.5193798542022705
-0.13178294897079468 0.033578697592020035 -0.5038759708404541
-0.13178294897079468 0.033948224037885666 -0.4883720874786377
-0.13178294897079468 0.03434696048498154 -0.4728682041168213
-0.13178294897079468 0.03529130667448044 -0.4573643207550049
-0.13178294897079468 0.03648129105567932 -0.4418604373931885
-0.13178294897079468 0.03719868138432503 -0.42635661363601685
-0.13178294897079468 0.03873438015580177 -0.41085273027420044
-0.13178294897079468 0.0410742312669754 -0.9379844665527344
-0.13178294897079468 0.041587796062231064 -0.9224806427955627
-0.13178294897079468 0.04019796475768089 -0.9069767594337463
-0.13178294897079468 0.040960103273391724 -0.8914728164672852
-0.13178294897079468 0.04132818058133125 -0.8759689331054688
-0.13178294897079468 0.04181169345974922 -0.8604651689529419
-0.13178294897079468 0.042395129799842834 -0.8449611663818359
-0.13178294897079468 0.04281684011220932 -0.8294573426246643
-0.13178294897079468 0.04292728006839752 -0.8139534592628479
-0.13178294897079468 0.042742516845464706 -0.7984496355056763
-0.13178294897079468 0.04243050515651703 -0.7829457521438599
-0.13178294897079468 0.04246573895215988 -0.7674418687820435
-0.13178294897079468 0.042632799595594406 -0.7519380450248718
-0.13178294897079468 0.04281013831496239 -0.7364341020584106
-0.13178294897079468 0.042864859104156494 -0.7209302186965942
-0.13178294897079468 0.042773205786943436 -0.7054263353347778
-0.13178294897079468 0.04241390526294708 -0.6899224519729614
-0.13178294897079468 0.04181444272398949 -0.674418568611145
-0.13178294897079468 0.04117342084646225 -0.6589146256446838
-0.13178294897079468 0.04025404527783394 -0.643410861492157
-0.13178294897079468 0.03936455398797989 -0.6279069781303406
-0.13178294897079468 0.051631588488817215 -0.39534884691238403
-0.13178294897079468 0.039696965366601944 0.5503876209259033
-0.13178294897079468 0.060592979192733765 0.25581395626068115
-0.13178294897079468 0.0614890530705452 0.5658915042877197
-0.13178294897079468 0.05950331315398216 0.8294574022293091
-0.13178294897079468 0.07381294667720795 0.5813953876495361
-0.13178294897079468 0.08115242421627045 0.5968992710113525
-0.13178294897079468 0.09020957350730896 0.17829453945159912
-0.13178294897079468 0.09822316467761993 0.27131783962249756
-0.13178294897079468 0.08561486750841141 0.612403154373169
-0.13178294897079468 0.08947688341140747 0.6279069185256958
-0.13178294897079468 0.09484611451625824 0.6434108018875122
-0.13178294897079468 0.11569850146770477 0.1317828893661499
-0.13178294897079468 0.11356792598962784 0.1472867727279663
-0.13178294897079468 0.10615508258342743 0.16279065608978271
-0.13178294897079468 0.11090154200792313 0.28682172298431396
-0.13178294897079468 0.10446213185787201 0.6589146852493286
-0.13178294897079468 0.12974128127098083 -0.007751941680908203
-0.13178294897079468 0.12755745649337769 0.007751941680908203
-0.13178294897079468 0.12574242055416107 0.02325582504272461
-0.13178294897079468 0.12413722276687622 0.038759708404541016
-0.13178294897079468 0.12267769128084183 0.05426359176635742
-0.13178294897079468 0.12123459577560425 0.06976747512817383
-0.13178294897079468 0.11974238604307175 0.08527135103940964
-0.13178294897079468 0.118027463555336 0.10077524185180664
-0.13178294897079468 0.11663864552974701 0.11627912521362305
-0.13178294897079468 0.12028806656599045 0.30232560634613037
-0.13178294897079468 0.13018898665905 0.3178294897079468
-0.13178294897079468 0.11653439700603485 0.674418568611145
-0.13178294897079468 0.1251533478498459 0.6899224519729614
-0.13178294897079468 0.13030888140201569 0.7054263353347778
-0.13178294897079468 0.12900514900684357 0.7364341020584106
-0.13178294897079468 0.12040448188781738 0.7519379258155823
-0.13178294897079468 0.12834632396697998 0.7674418687820435
-0.13178294897079468 0.14615817368030548 -0.19379842281341553
-0.13178294897079468 0.14369723200798035 -0.1782945990562439
-0.13178294897079468 0.14221534132957458 -0.1627907156944275
-0.13178294897079468 0.1413554549217224 -0.14728683233261108
-0.13178294897079468 0.1405387818813324 -0.13178294897079468
-0.13178294897079468 0.13967439532279968 -0.11627906560897827
-0.13178294897079468 0.1386157125234604 -0.10077518224716187
-0.13178294897079468 0.13750438392162323 -0.08527129888534546
-0.13178294897079468 0.13651420176029205 -0.06976741552352905
-0.13178294897079468 0.13552460074424744 -0.05426359176635742
-0.13178294897079468 0.13395926356315613 -0.038759712129831314
-0.13178294897079468 0.13217106461524963 -0.02325582504272461
-0.13178294897079468 0.13761404156684875 0.3333333730697632
-0.13178293406963348 0.13219377398490906 0.7209302186965942
-0.13178294897079468 0.15737387537956238 -0.3798449635505676
-0.13178294897079468 0.1584358513355255 -0.3643410801887512
-0.13178294897079468 0.1578955352306366 -0.3488371968269348
-0.13178294897079468 0.15604528784751892 -0.3333333134651184
-0.13178294897079468 0.1557622253894806 -0.317829430103302
-0.13178294897079468 0.15594467520713806 -0.30232560634613037
-0.13178294897079468 0.15537381172180176 -0.28682172298431396
-0.13178294897079468 0.15434902906417847 -0.27131783962249756
-0.13178294897079468 0.15302082896232605 -0.25581395626068115
-0.13178294897079468 0.15151692926883698 -0.24031007289886475
-0.13178294897079468 0.1498720943927765 -0.22480618953704834
-0.13178294897079468 0.14829260110855103 -0.20930230617523193
-0.13178294897079468 0.14744111895561218 0.348837286233902
-0.13178294897079468 0.15262947976589203 0.364341139793396
-0.13178294897079468 0.16203787922859192 0.37984490394592285
-0.13178294897079468 0.15800318121910095 0.8139535188674927
-0.13178294897079468 0.16917374730110168 0.39534878730773926
-0.13178294897079468 0.20441943407058716 0.41085267066955566
-0.13178294897079468 0.2162954956293106 0.42635655403137207
-0.13178294897079468 0.2187948077917099 0.4418604373931885
-0.13178294897079468 0.21779599785804749 0.4573643207550049
-0.13178294897079468 0.22782330214977264 0.7829456925392151
-0.13178294897079468 0.2353125810623169 0.7984496355056763
-0.11627906560897827 -0.2586057484149933 0.7829457521438599
-0.11627906560897827 -0.26120179891586304 0.7984496355056763
-0.11627906560897827 -0.2292894423007965 0.42635655403137207
-0.11627906560897827 -0.2314624786376953 0.4418604373931885
-0.11627906560897827 -0.23355510830879211 0.4573643207550049
-0.11627906560897827 -0.22210876643657684 0.41085267066955566
-0.11627906560897827 -0.19429181516170502 0.39534878730773926
-0.11627906560897827 -0.17933134734630585 -0.3798449635505676
-0.11627906560897827 -0.1825256496667862 0.37984490394592285
-0.11627906560897827 -0.17909151315689087 0.751937985420227
-0.11627906560897827 -0.18632188439369202 0.7674418687820435
-0.11627906560897827 -0.178695410490036 0.8139535188674927
-0.11627906560897827 -0.1641356348991394 -0.39534884691238403
-0.11627906560897827 -0.17487333714962006 -0.3643410801887512
-0.11627906560897827 -0.17063631117343903 -0.3488371968269348
-0.11627906560897827 -0.16828739643096924 -0.3333333134651184
-0.11627906560897827 -0.16705740988254547 -0.317829430103302
-0.11627906560897827 -0.16588148474693298 -0.30232560634613037
-0.11627906560897827 -0.16452431678771973 -0.28682172298431396
-0.11627906560897827 -0.16317175328731537 -0.27131783962249756
-0.11627906560897827 -0.16653355956077576 0.3488372564315796
-0.11627906560897827 -0.17559963464736938 0.364341139793396
-0.11627906560897827 -0.16483254730701447 0.7054263353347778
-0.11627906560897827 -0.17159998416900635 0.7209302186965942
-0.11627906560897827 -0.17788225412368774 0.7364341616630554
-0.11627906560897827 -0.1602766066789627 -0.25581395626068115
-0.11627906560897827 -0.15764053165912628 -0.24031005799770355
-0.11627906560897827 -0.1552477926015854 -0.22480618953704834
-0.11627906560897827 -0.15293613076210022 -0.20930230617523193
-0.11627906560897827 -0.1510172337293625 -0.19379842281341553
-0.11627906560897827 -0.14883354306221008 -0.1782945990562439
-0.11627906560897827 -0.1494387835264206 0.3178294897079468
-0.11627906560897827 -0.15750589966773987 0.3333333730697632
-0.11627906560897827 -0.15070977807044983 0.674418568611145
-0.11627906560897827 -0.15763485431671143 0.6899224519729614
-0.11627906560897827 -0.13307659327983856 -0.9224806427955627
-0.11627906560897827 -0.14639553427696228 -0.1627907156944275
-0.11627907305955887 -0.14354825019836426 -0.14728683233261108
-0.11627906560897827 -0.14213380217552185 -0.13178294897079468
-0.11627906560897827 -0.14116688072681427 -0.11627906560897827
-0.11627906560897827 -0.1402357965707779 -0.10077518224716187
-0.11627906560897827 -0.1390189230442047 -0.08527129888534546
-0.11627906560897827 -0.1380736380815506 -0.06976741552352905
-0.11627906560897827 -0.13773423433303833 -0.05426359176635742
-0.11627906560897827 -0.13738860189914703 -0.038759708404541016
-0.11627906560897827 -0.13687682151794434 -0.02325582504272461
-0.11627906560897827 -0.13620121777057648 -0.007751941680908203
-0.11627906560897827 -0.13496452569961548 0.007751941680908203
-0.11627906560897827 -0.13335460424423218 0.02325582504272461
-0.11627906560897827 -0.13242149353027344 0.038759708404541016
-0.11627906560897827 -0.14009666442871094 0.30232560634613037
-0.11627906560897827 -0.13482604920864105 0.6279069185256958
-0.11627906560897827 -0.14211398363113403 0.6434108018875122
-0.11627905815839767 -0.14714665710926056 0.6589146852493286
-0.11627906560897827 -0.1309199184179306 0.05426359176635742
-0.11627905815839767 -0.12840184569358826 0.06976747512817383
-0.11627906560897827 -0.12592215836048126 0.08527135848999023
-0.11627906560897827 -0.12348482012748718 0.10077524185180664
-0.11627906560897827 -0.1218806654214859 0.11627912521362305
-0.11627906560897827 -0.120602086186409 0.1317828893661499
-0.11627906560897827 -0.11961053311824799 0.1472867727279663
-0.11627906560897827 -0.11755119264125824 0.16279065608978271
-0.11627906560897827 -0.1310185045003891 0.28682172298431396
-0.11627906560897827 -0.12073037028312683 0.5968992710113525
-0.11627906560897827 -0.12803660333156586 0.612403154373169
-0.11627907305955887 -0.11564652621746063 -0.9379844665527344
-0.11627906560897827 -0.10303863883018494 0.17829453945159912
-0.11627906560897827 -0.1134766936302185 0.27131783962249756
-0.11627906560897827 -0.11300066858530045 0.5813953876495361
-0.11627906560897827 -0.0872921422123909 -0.9069767594337463
-0.11627906560897827 -0.09467065334320068 0.25581395626068115
-0.11627906560897827 -0.10029684752225876 0.5658915042877197
-0.11627906560897827 -0.09197288751602173 0.8294574022293091
-0.11627905815839767 -0.08125100284814835 -0.8914728760719299
-0.11627906560897827 -0.07659497112035751 -0.8759689927101135
-0.11627906560897827 -0.0735563188791275 -0.8604651093482971
-0.11627906560897827 -0.07223939150571823 -0.8449612855911255
-0.11627906560897827 -0.07155169546604156 -0.8294573426246643
-0.11627906560897827 -0.07099863141775131 -0.8139535188674927
-0.11627906560897827 -0.07058699429035187 -0.7984496355056763
-0.11627906560897827 -0.07015121728181839 -0.7829457521438599
-0.11627906560897827 -0.07325778901576996 0.19379842281341553
-0.11627906560897827 -0.07037170976400375 0.22480618953704834
-0.11627906560897827 -0.08106718957424164 0.24031007289886475
-0.11627906560897827 -0.08221986144781113 0.5503876209259033
-0.11627907305955887 -0.06924095749855042 -0.7674418687820435
-0.11627907305955887 -0.06721746921539307 -0.7519380450248718
-0.11627906560897827 -0.06555399298667908 -0.7364341020584106
-0.11627906560897827 -0.06449513137340546 -0.7209302186965942
-0.11627906560897827 -0.06363624334335327 -0.7054263353347778
-0.11627906560897827 -0.0628926008939743 -0.6899224519729614
-0.11627906560897827 -0.06206713616847992 -0.674418568611145
-0.11627906560897827 -0.06143047288060188 -0.6589146852493286
-0.11627906560897827 -0.060598574578762054 -0.643410861492157
-0.11627906560897827 -0.059537775814533234 -0.6279069781303406
-0.11627906560897827 -0.05801355838775635 -0.6124030947685242
-0.11627906560897827 -0.05657312273979187 -0.5968992114067078
-0.11627906560897827 -0.0554538257420063 -0.5813953876495361
-0.11627906560897827 -0.05461830273270607 -0.5658915042877197
-0.11627906560897827 -0.056642256677150726 -0.41085273027420044
-0.11627906560897827 -0.0634860023856163 0.20930230617523193
-0.11627906560897827 -0.06611274927854538 0.4728681743144989
-0.11627906560897827 -0.06006185710430145 0.5348837375640869
-0.11627906560897827 -0.053009454160928726 -0.5503876209259033
-0.11627906560897827 -0.05125061422586441 -0.5348837375640869
-0.11627906560897827 -0.05088050290942192 -0.5193798542022705
-0.11627906560897827 -0.05113121122121811 -0.5038759708404541
-0.11627906560897827 -0.05154089257121086 -0.4883720874786377
-0.11627906560897827 -0.05185620114207268 -0.4728682339191437
-0.11627906560897827 -0.05215372517704964 -0.4573643207550049
-0.11627906560897827 -0.05185648426413536 -0.4418604373931885
-0.11627906560897827 -0.05255740135908127 -0.42635661363601685
-0.11627906560897827 -0.04291340708732605 0.8449612855911255
-0.11627906560897827 -0.025290558114647865 0.5193798542022705
-0.11627906560897827 -0.008632049895823002 0.5193798542022705
-0.11627906560897827 0.03861619904637337 -0.6279069781303406
-0.11627906560897827 0.03586791083216667 -0.6124030947685242
-0.11627906560897827 0.034243084490299225 -0.5968992114067078
-0.11627906560897827 0.03316682577133179 -0.5813953876495361
-0.11627906560897827 0.0325196199119091 -0.5658915042877197
-0.11627906560897827 0.03196856379508972 -0.5503876209259033
-0.11627906560897827 0.031690407544374466 -0.5348837375640869
-0.11627906560897827 0.03197488933801651 -0.5193798542022705
-0.11627906560897827 0.03250076621770859 -0.5038759708404541
-0.11627906560897827 0.0329754501581192 -0.4883720874786377
-0.11627906560897827 0.03340904414653778 -0.4728682041168213
-0.11627906560897827 0.03432125970721245 -0.4573643207550049
-0.11627906560897827 0.035901330411434174 -0.4418604373931885
-0.11627906560897827 0.03690020740032196 -0.42635661363601685
-0.11627906560897827 0.03156755864620209 0.5348837375640869
-0.11627906560897827 0.03001220151782036 0.8449612855911255
-0.11627906560897827 0.04166886955499649 -0.9379844069480896
-0.11627906560897827 0.04168042540550232 -0.9224807024002075
-0.11627907305955887 0.04051143676042557 -0.9069767594337463
-0.11627906560897827 0.04118264466524124 -0.8914729356765747
-0.11627905815839767 0.04141128063201904 -0.8759689331054688
-0.11627906560897827 0.041775114834308624 -0.8604651093482971
-0.11627906560897827 0.04223291203379631 -0.8449611663818359
-0.11627906560897827 0.042532626539468765 -0.8294573426246643
-0.11627906560897827 0.04251956194639206 -0.8139535188674927
-0.11627906560897827 0.042266275733709335 -0.7984496355056763
-0.11627906560897827 0.041884638369083405 -0.7829457521438599
-0.11627906560897827 0.041830211877822876 -0.7674418687820435
-0.11627906560897827 0.041862886399030685 -0.751937985420227
-0.11627906560897827 0.04200632870197296 -0.7364341020584106
-0.11627906560897827 0.04206913709640503 -0.7209302186965942
-0.11627906560897827 0.042052365839481354 -0.7054263353347778
-0.11627906560897827 0.0417565293610096 -0.6899224519729614
-0.11627906560897827 0.041148800402879715 -0.6744186282157898
-0.11627906560897827 0.04053567722439766 -0.6589146852493286
-0.11627906560897827 0.03960476443171501 -0.643410861492157
-0.11627905815839767 0.0389624759554863 -0.41085270047187805
-0.11627906560897827 0.053059257566928864 -0.39534884691238403
-0.11627907305955887 0.039453379809856415 0.20930230617523193
-0.11627906560897827 0.0477079376578331 0.22480618953704834
-0.11627906560897827 0.039059944450855255 0.4728682041168213
-0.11627906560897827 0.056338123977184296 0.19379842281341553
-0.11627906560897827 0.05863921344280243 0.5503876209259033
-0.11627906560897827 0.06989859789609909 0.24031008780002594
-0.11627906560897827 0.07865610718727112 0.5658915042877197
-0.11627906560897827 0.07337808609008789 0.8294574022293091
-0.11627906560897827 0.09400366246700287 0.17829453945159912
-0.11627906560897827 0.09488502144813538 0.25581395626068115
-0.11627906560897827 0.09148631989955902 0.5813953876495361
-0.11627906560897827 0.09943777322769165 0.5968992710113525
-0.11627906560897827 0.11605360358953476 0.1472867727279663
-0.11627906560897827 0.10770700871944427 0.16279065608978271
-0.11627906560897827 0.10713508725166321 0.27131783962249756
-0.11627906560897827 0.10587940365076065 0.612403154373169
-0.11627906560897827 0.11192589998245239 0.6279069185256958
-0.11627906560897827 0.1295291930437088 0.007751941680908203
-0.11627906560897827 0.12733294069766998 0.02325582504272461
-0.11627906560897827 0.12586671113967896 0.038759708404541016
-0.11627906560897827 0.12434720993041992 0.05426359176635742
-0.11627906560897827 0.1226593479514122 0.06976747512817383
-0.11627906560897827 0.12104569375514984 0.08527135848999023
-0.11627907305955887 0.11902368068695068 0.10077524185180664
-0.11627906560897827 0.1174115389585495 0.11627912521362305
-0.11627906560897827 0.11692629754543304 0.1317829042673111
-0.11627906560897827 0.11704102903604507 0.28682172298431396
-0.11627906560897827 0.12454231083393097 0.30232560634613037
-0.11627906560897827 0.12149227410554886 0.6434108018875122
-0.11627906560897827 0.14567998051643372 -0.1782945990562439
-0.11627906560897827 0.14393623173236847 -0.1627907156944275
-0.11627906560897827 0.14300458133220673 -0.14728683233261108
-0.11627906560897827 0.1422194242477417 -0.13178294897079468
-0.11627906560897827 0.14146535098552704 -0.11627906560897827
-0.11627906560897827 0.14045631885528564 -0.10077518224716187
-0.11627906560897827 0.139138862490654 -0.08527129888534546
-0.11627906560897827 0.1379471868276596 -0.06976741552352905
-0.11627906560897827 0.13698288798332214 -0.05426359176635742
-0.11627906560897827 0.13551956415176392 -0.038759708404541016
-0.11627906560897827 0.1336643397808075 -0.02325582504272461
-0.11627907305955887 0.1321335881948471 -0.00775194214656949
-0.11627906560897827 0.13349799811840057 0.3178294897079468
-0.11627906560897827 0.14104558527469635 0.3333333730697632
-0.11627906560897827 0.13219620287418365 0.6589146852493286
-0.11627906560897827 0.14111077785491943 0.674418568611145
-0.11627906560897827 0.14629681408405304 0.6899224519729614
-0.11627906560897827 0.1471036970615387 0.751937985420227
-0.11627906560897827 0.14697036147117615 0.7674418687820435
-0.11627906560897827 0.15981626510620117 -0.3798449635505676
-0.11627906560897827 0.1609923392534256 -0.3643410801887512
-0.11627906560897827 0.159576877951622 -0.3488371968269348
-0.11627906560897827 0.15733355283737183 -0.3333333134651184
-0.11627906560897827 0.1569811850786209 -0.317829430103302
-0.11627906560897827 0.15717238187789917 -0.30232560634613037
-0.11627906560897827 0.15674148499965668 -0.28682172298431396
-0.11627906560897827 0.15580253303050995 -0.27131783962249756
-0.11627906560897827 0.1543588936328888 -0.25581395626068115
-0.11627906560897827 0.15256229043006897 -0.24031007289886475
-0.11627906560897827 0.15081630647182465 -0.22480618953704834
-0.11627905815839767 0.14932048320770264 -0.20930230617523193
-0.11627906560897827 0.1478431075811386 -0.19379842281341553
-0.11627907305955887 0.14908075332641602 0.3488372564315796
-0.11627906560897827 0.15600815415382385 0.364341139793396
-0.11627906560897827 0.1488286256790161 0.7054263353347778
-0.11627906560897827 0.1498134732246399 0.7209302186965942
-0.11627906560897827 0.14917626976966858 0.7364341020584106
-0.11627906560897827 0.16445471346378326 0.37984490394592285
-0.11627906560897827 0.1719639003276825 0.39534878730773926
-0.11627906560897827 0.1700323224067688 0.8139535188674927
-0.11627906560897827 0.21063056588172913 0.41085267066955566
-0.11627906560897827 0.22690144181251526 0.42635655403137207
-0.11627905815839767 0.2284950464963913 0.4418604373931885
-0.11627906560897827 0.2272411584854126 0.4573643207550049
-0.11627906560897827 0.23617534339427948 0.7829457521438599
-0.11627906560897827 0.2454858124256134 0.7984496355056763
-0.10077518224716187 -0.26211169362068176 0.7829457521438599
-0.10077518224716187 -0.2675465941429138 0.7984496355056763
-0.10077518224716187 -0.24031050503253937 0.4418604373931885
-0.10077518224716187 -0.24084556102752686 0.4573643207550049
-0.10077518224716187 -0.22688135504722595 0.41085267066955566
-0.10077518224716187 -0.23492446541786194 0.42635655403137207
-0.10077518224716187 -0.1969241350889206 0.39534878730773926
-0.10077518224716187 -0.1957392394542694 0.7674418687820435
-0.10077518224716187 -0.19413034617900848 0.8139535188674927
-0.10077518224716187 -0.18132564425468445 -0.3798449635505676
-0.10077518224716187 -0.1793963611125946 -0.3643410801887512
-0.10077518224716187 -0.17976556718349457 0.364341139793396
-0.10077518224716187 -0.18666580319404602 0.37984490394592285
-0.10077518224716187 -0.180571049451828 0.7209302186965942
-0.10077518224716187 -0.18392646312713623 0.7364341020584106
-0.10077518224716187 -0.18699532747268677 0.751937985420227
-0.10077518224716187 -0.16424807906150818 -0.39534884691238403
-0.10077518224716187 -0.17452698945999146 -0.3488371968269348
-0.10077518224716187 -0.17154324054718018 -0.3333333134651184
-0.10077518224716187 -0.17010214924812317 -0.317829430103302
-0.10077518224716187 -0.16873250901699066 -0.30232560634613037
-0.10077518224716187 -0.1674272119998932 -0.28682172298431396
-0.10077518224716187 -0.1661137342453003 -0.27131783962249756
-0.10077518224716187 -0.16441141068935394 -0.25581395626068115
-0.10077518224716187 -0.1632915586233139 0.3333333730697632
-0.10077518224716187 -0.1707722395658493 0.3488372564315796
-0.10077518224716187 -0.16283243894577026 0.674418568611145
-0.10077518224716187 -0.16685187816619873 0.6899224519729614
-0.10077518224716187 -0.17490622401237488 0.7054263353347778
-0.10077518224716187 -0.16202914714813232 -0.24031005799770355
-0.10077518224716187 -0.15822769701480865 -0.22480618953704834
-0.10077518224716187 -0.15576037764549255 -0.20930230617523193
-0.10077518224716187 -0.15336580574512482 -0.19379842281341553
-0.10077518224716187 -0.15133842825889587 -0.1782945990562439
-0.10077518224716187 -0.1493559181690216 -0.1627907156944275
-0.10077518224716187 -0.14745250344276428 -0.14728683233261108
-0.10077518224716187 -0.15376944839954376 0.3178294897079468
-0.10077518224716187 -0.1486755609512329 0.6279069185256958
-0.10077518224716187 -0.15364781022071838 0.6434108018875122
-0.10077518969774246 -0.158687561750412 0.6589146852493286
-0.10077518224716187 -0.14479748904705048 -0.13178294897079468
-0.10077518224716187 -0.142949640750885 -0.11627906560897827
-0.10077518224716187 -0.1416674256324768 -0.10077518224716187
-0.10077518224716187 -0.1404266208410263 -0.08527129888534546
-0.10077518224716187 -0.13927140831947327 -0.06976741552352905
-0.10077518224716187 -0.1388016641139984 -0.05426359176635742
-0.10077518224716187 -0.1383814513683319 -0.038759708404541016
-0.10077518224716187 -0.1378263235092163 -0.02325582504272461
-0.10077518224716187 -0.13716870546340942 -0.007751941680908203
-0.10077518224716187 -0.1359337866306305 0.007751941680908203
-0.10077518224716187 -0.1341308355331421 0.02325582504272461
-0.10077518224716187 -0.13297642767429352 0.038759708404541016
-0.10077518224716187 -0.13746687769889832 0.28682172298431396
-0.10077518224716187 -0.1468191295862198 0.30232560634613037
-0.10077518224716187 -0.13563738763332367 0.5968992710113525
-0.10077518224716187 -0.14297445118427277 0.612403154373169
-0.10077518224716187 -0.12936235964298248 -0.9224806427955627
-0.10077518224716187 -0.1204819530248642 -0.39534884691238403
-0.10077518224716187 -0.13174386322498322 0.05426359176635742
-0.10077518224716187 -0.12908394634723663 0.06976747512817383
-0.10077518224716187 -0.12663008272647858 0.08527135848999023
-0.10077518224716187 -0.12426933646202087 0.10077524185180664
-0.10077518224716187 -0.12274211645126343 0.11627912521362305
-0.10077518224716187 -0.12180981785058975 0.1317828893661499
-0.10077518224716187 -0.12068839371204376 0.1472867727279663
-0.10077518224716187 -0.11842382699251175 0.16279065608978271
-0.10077518969774246 -0.12715280055999756 0.27131783962249756
-0.10077518224716187 -0.11659396439790726 0.5658915042877197
-0.10077518224716187 -0.12836354970932007 0.5813953876495361
-0.10077518224716187 -0.11612792313098907 -0.9379844665527344
-0.10077518224716187 -0.10407543182373047 0.17829453945159912
-0.10077518224716187 -0.11245320737361908 0.25581395626068115
-0.10077518224716187 -0.10729248821735382 0.8294574022293091
-0.10077518224716187 -0.09047664701938629 -0.39534884691238403
-0.10077518224716187 -0.08533359318971634 0.19379842281341553
-0.10077518224716187 -0.08830774575471878 0.22480618953704834
-0.10077518224716187 -0.09960365295410156 0.24031007289886475
-0.10077518224716187 -0.08820037543773651 0.4728682041168213
-0.10077518224716187 -0.09856920689344406 0.5503876209259033
-0.10077518224716187 -0.07498810440301895 -0.9069766998291016
-0.10077518224716187 -0.07030686736106873 -0.8914728760719299
-0.10077518224716187 -0.0822150930762291 0.20930230617523193
-0.10077518224716187 -0.0783783569931984 0.5348837375640869
-0.10077518224716187 -0.06593162566423416 -0.8759689927101135
-0.10077518224716187 -0.06299074739217758 -0.8604651093482971
-0.10077518224716187 -0.06147360801696777 -0.8449612259864807
-0.10077518224716187 -0.06095278263092041 -0.8294573426246643
-0.10077518224716187 -0.0602615587413311 -0.8139535188674927
-0.10077518224716187 -0.05959422141313553 -0.7984496355056763
-0.10077518224716187 -0.0589129775762558 -0.7829457521438599
-0.10077518224716187 -0.05794372782111168 -0.7674418687820435
-0.10077518224716187 -0.056734997779130936 -0.751937985420227
-0.10077518224716187 -0.05593051016330719 -0.7364341020584106
-0.10077518224716187 -0.055583298206329346 -0.7209302186965942
-0.10077518224716187 -0.055407922714948654 -0.7054263353347778
-0.10077518224716187 -0.055232711136341095 -0.6899224519729614
-0.10077518224716187 -0.05492154508829117 -0.674418568611145
-0.10077518224716187 -0.05458614230155945 -0.6589146852493286
-0.10077518224716187 -0.0600130632519722 0.5193798542022705
-0.10077518969774246 -0.06865141540765762 0.8449613451957703
-0.10077518224716187 -0.05280414596199989 -0.643410861492157
-0.10077518224716187 -0.04977767914533615 -0.6279069781303406
-0.10077518224716187 -0.04628663882613182 -0.6124030947685242
-0.10077518224716187 -0.043098364025354385 -0.5968992114067078
-0.10077518224716187 -0.04038163274526596 -0.5813953876495361
-0.10077518224716187 -0.04014243185520172 -0.41085273027420044
-0.10077518224716187 -0.04754529893398285 0.4883720576763153
-0.10077518224716187 -0.03910312429070473 0.5038759708404541
-0.10077518224716187 -0.038047775626182556 -0.5658915042877197
-0.10077518224716187 -0.0350007526576519 -0.5503876209259033
-0.10077518224716187 -0.03321267291903496 -0.5348837375640869
-0.10077518224716187 -0.03319913148880005 -0.5193798542022705
-0.10077518224716187 -0.03378238156437874 -0.5038759708404541
-0.10077518224716187 -0.03364972770214081 -0.4883720874786377
-0.10077518224716187 -0.03308021277189255 -0.4728681743144989
-0.10077518224716187 -0.032718636095523834 -0.4573643207550049
-0.10077518224716187 -0.03260059282183647 -0.4418604373931885
-0.10077518224716187 -0.034229643642902374 -0.42635661363601685
-0.10077518224716187 -0.03744761273264885 0.8604651689529419
-0.10077518224716187 0.008027267642319202 0.5038759708404541
-0.10077518224716187 0.015791364014148712 0.8604651689529419
-0.10077518224716187 0.03428686037659645 -0.9069766998291016
-0.10077518224716187 0.03434816002845764 -0.8914728164672852
-0.10077518224716187 0.033699601888656616 -0.8759689331054688
-0.10077518224716187 0.03407881408929825 -0.8604651093482971
-0.10077518224716187 0.03465957194566727 -0.8449611663818359
-0.10077518224716187 0.03529056906700134 -0.8294573426246643
-0.10077518224716187 0.03585361689329147 -0.8139535188674927
-0.10077518224716187 0.036186713725328445 -0.7984496355056763
-0.10077518224716187 0.03578796237707138 -0.7829457521438599
-0.10077518224716187 0.03592972829937935 -0.7674418687820435
-0.10077518224716187 0.03623131290078163 -0.751937985420227
-0.10077518224716187 0.03656782954931259 -0.7364341020584106
-0.10077518224716187 0.03643631935119629 -0.7209302186965942
-0.10077518224716187 0.036244817078113556 -0.7054263353347778
-0.10077518224716187 0.03550295531749725 -0.6899224519729614
-0.10077518224716187 0.03438284620642662 -0.674418568611145
-0.10077518224716187 0.03352520614862442 -0.6589146852493286
-0.10077518224716187 0.03243459761142731 -0.643410861492157
-0.10077518224716187 0.03143167868256569 -0.6279069781303406
-0.10077518224716187 0.029434166848659515 -0.6124030947685242
-0.10077518224716187 0.02778485417366028 -0.5968992114067078
-0.10077518224716187 0.026494696736335754 -0.5813953876495361
-0.10077518224716187 0.025511138141155243 -0.5658915042877197
-0.10077518224716187 0.02475596033036709 -0.5503876209259033
-0.10077518224716187 0.02430693432688713 -0.5348837375640869
-0.10077518224716187 0.024470722302794456 -0.5193798542022705
-0.10077518224716187 0.02486870065331459 -0.5038759708404541
-0.10077518224716187 0.02543102577328682 -0.4883720874786377
-0.10077518224716187 0.025950469076633453 -0.4728682041168213
-0.10077518224716187 0.02680770866572857 -0.4573643207550049
-0.10077518224716187 0.029116470366716385 -0.4418604373931885
-0.10077518224716187 0.031712573021650314 -0.42635661363601685
-0.10077518224716187 0.03546224161982536 -0.41085273027420044
-0.10077518224716187 0.025137024000287056 0.4883720874786377
-0.10077518224716187 0.02796899527311325 0.5193798542022705
-0.10077518224716187 0.03977608680725098 -0.9379844665527344
-0.10077518224716187 0.039063286036252975 -0.9224807024002075
