0.17365285754203796 -0.038759708404541016 0.5038759708404541
0.16310977935791016 -0.038759708404541016 0.7829457521438599
0.16977819800376892 -0.038759708404541016 0.7984496355056763
0.17798496782779694 -0.038759708404541016 0.8139535188674927
0.17218202352523804 -0.02325582504272461 -0.9844961166381836
0.17219431698322296 -0.02325582504272461 -0.9689922332763672
0.17167794704437256 -0.02325582504272461 -0.9534883499145508
0.17009368538856506 -0.02325582504272461 -0.9379844665527344
0.1684097945690155 -0.02325582504272461 -0.9224806427955627
0.16767644882202148 -0.02325582504272461 -0.9069768190383911
0.1676941215991974 -0.02325582504272461 -0.8914729356765747
0.16785234212875366 -0.02325582504272461 -0.8759690523147583
0.16834765672683716 -0.02325582504272461 -0.8604650497436523
0.16876338422298431 -0.02325582504272461 -0.8449612259864807
0.16930870711803436 -0.02325582504272461 -0.8294574022293091
0.16987395286560059 -0.02325582504272461 -0.8139535188674927
0.17060674726963043 -0.02325582504272461 -0.7984496355056763
0.17132577300071716 -0.02325582504272461 -0.7829457521438599
0.17164427042007446 -0.02325582504272461 -0.7674418687820435
0.17200011014938354 -0.02325582504272461 -0.751937985420227
0.17215415835380554 -0.02325582504272461 -0.7364341020584106
0.1722419559955597 -0.02325582504272461 -0.7209302186965942
0.17241248488426208 -0.02325582504272461 -0.7054263353347778
0.1724175214767456 -0.02325582504272461 -0.6899224519729614
0.1725161373615265 -0.02325582504272461 -0.674418568611145
0.172512024641037 -0.02325582504272461 -0.6589146852493286
0.17267094552516937 -0.02325582504272461 -0.643410861492157
0.17241312563419342 -0.02325582504272461 -0.6279069781303406
0.17243891954421997 -0.02325582504272461 -0.6124030947685242
0.17224159836769104 -0.02325582504272461 -0.5968992114067078
0.1718681901693344 -0.02325582504272461 -0.5813953876495361
0.17138877511024475 -0.02325582504272461 -0.5658915042877197
0.17048272490501404 -0.02325582504272461 -0.5503876209259033
0.1697642058134079 -0.02325582504272461 -0.5348837375640869
0.1691221296787262 -0.02325582504272461 -0.5193798542022705
0.16901886463165283 -0.02325582504272461 -0.5038759708404541
0.1692892611026764 -0.02325582504272461 -0.4883720874786377
0.1705692708492279 -0.02325582504272461 -0.4728682041168213
0.17349156737327576 -0.02325582504272461 -0.4573643207550049
0.17763081192970276 -0.02325582504272461 -0.4418604373931885
0.1757683902978897 -0.02325582504272461 -0.14728683233261108
0.17045173048973083 -0.02325582504272461 -0.13178294897079468
0.16811545193195343 -0.02325582504272461 -0.11627906560897827
0.1670127660036087 -0.02325582504272461 -0.10077518224716187
0.16631987690925598 -0.02325582504272461 -0.08527129888534546
0.16569054126739502 -0.02325582504272461 -0.06976741552352905
0.16519391536712646 -0.02325582690536976 -0.05426359176635742
0.1643441617488861 -0.02325582318007946 -0.038759708404541016
0.1629362851381302 -0.02325582504272461 -0.02325582504272461
0.16448907554149628 -0.02325582504272461 0.302325576543808
0.1724744439125061 -0.02325582504272461 0.3178294897079468
0.16972090303897858 -0.02325582504272461 0.5193798542022705
0.16319741308689117 -0.02325582504272461 0.7674418687820435
0.17150279879570007 -0.02325582504272461 0.7829457521438599
0.17259842157363892 -0.007751941680908203 -0.9844961166381836
0.1727772355079651 -0.007751941680908203 -0.9689922332763672
0.1722598671913147 -0.007751941680908203 -0.9534883499145508
0.17099910974502563 -0.007751941680908203 -0.9379844665527344
0.16932815313339233 -0.007751941680908203 -0.9224806427955627
0.16844099760055542 -0.007751941680908203 -0.9069767594337463
0.16835184395313263 -0.007751941680908203 -0.8914728760719299
0.16840851306915283 -0.007751941680908203 -0.8759690523147583
0.16875901818275452 -0.007751941680908203 -0.8604651093482971
0.16911174356937408 -0.007751941680908203 -0.8449612855911255
0.16968029737472534 -0.007751941680908203 -0.8294572830200195
0.17027530074119568 -0.007751941680908203 -0.8139535188674927
0.17100000381469727 -0.007751941680908203 -0.7984496355056763
0.17162185907363892 -0.007751941680908203 -0.7829457521438599
0.1719350963830948 -0.007751941680908203 -0.7674418687820435
0.1724289059638977 -0.007751941680908203 -0.751937985420227
0.172677680850029 -0.007751941680908203 -0.7364341020584106
0.1728736013174057 -0.007751941680908203 -0.7209302186965942
0.17313481867313385 -0.007751941680908203 -0.7054263353347778
0.17314186692237854 -0.007751941680908203 -0.6899224519729614
0.17325584590435028 -0.007751941680908203 -0.674418568611145
0.17321830987930298 -0.007751941680908203 -0.6589146852493286
0.1732850968837738 -0.007751941680908203 -0.643410861492157
0.17268919944763184 -0.007751941680908203 -0.6279069781303406
0.17240746319293976 -0.007751941680908203 -0.6124030947685242
0.17198462784290314 -0.007751941680908203 -0.5968992114067078
0.1715882569551468 -0.007751941680908203 -0.5813953876495361
0.17114472389221191 -0.007751941680908203 -0.5658915042877197
0.17028295993804932 -0.007751941680908203 -0.5503876209259033
0.1695246547460556 -0.007751941680908203 -0.5348837375640869
0.16882850229740143 -0.007751941680908203 -0.5193798542022705
0.16867466270923615 -0.00775194214656949 -0.5038759708404541
0.16898730397224426 -0.007751941680908203 -0.4883721172809601
0.170344278216362 -0.007751941680908203 -0.4728682041168213
0.17313668131828308 -0.007751941680908203 -0.4573643207550049
0.17707419395446777 -0.007751941680908203 -0.4418604373931885
0.17585428059101105 -0.007751941680908203 -0.14728683233261108
0.1710050404071808 -0.007751941680908203 -0.13178294897079468
0.1691908836364746 -0.007751941680908203 -0.11627906560897827
0.168855220079422 -0.007751941680908203 -0.10077518224716187
0.16876229643821716 -0.007751941680908203 -0.08527129888534546
0.16845394670963287 -0.007751941680908203 -0.06976741552352905
0.1682192087173462 -0.007751941680908203 -0.05426359176635742
0.16772672533988953 -0.007751941680908203 -0.038759708404541016
0.16642388701438904 -0.007751941680908203 -0.02325582504272461
0.16445235908031464 -0.007751941680908203 -0.007751941680908203
0.16359350085258484 -0.007751941215246916 0.2868216931819916
0.16950532793998718 -0.007751941680908203 0.30232560634613037
0.17798355221748352 -0.007751941680908203 0.5193798542022705
0.1690206229686737 -0.007751941680908203 0.7674418687820435
0.17317765951156616 0.007751941680908203 -0.9844961166381836
0.1734386831521988 0.007751941680908203 -0.9689922332763672
0.17245660722255707 0.007751941680908203 -0.9534883499145508
0.1716693639755249 0.007751941680908203 -0.9379844665527344
0.17027878761291504 0.007751941680908203 -0.9224806427955627
0.16922661662101746 0.007751941680908203 -0.9069767594337463
0.16893692314624786 0.007751941680908203 -0.8914729356765747
0.16890949010849 0.007751941215246916 -0.8759689331054688
0.1692260503768921 0.007751941680908203 -0.8604650497436523
0.16958534717559814 0.007751941215246916 -0.8449611663818359
0.1702328771352768 0.007751941680908203 -0.8294574022293091
0.17095652222633362 0.007751941680908203 -0.8139535188674927
0.17168393731117249 0.007751941680908203 -0.7984496355056763
0.1722894310951233 0.007751941680908203 -0.7829457521438599
0.1730358898639679 0.007751941680908203 -0.7674418687820435
0.17418533563613892 0.007751941680908203 -0.751937985420227
0.17477712035179138 0.007751941680908203 -0.7364341020584106
0.17518900334835052 0.007751941680908203 -0.7209302186965942
0.17557844519615173 0.007751941680908203 -0.7054263353347778
0.17569546401500702 0.007751941680908203 -0.6899224519729614
0.1759461611509323 0.007751941680908203 -0.674418568611145
0.17590895295143127 0.007751941680908203 -0.6589146852493286
0.17578233778476715 0.007751941680908203 -0.643410861492157
0.17451515793800354 0.007751941680908203 -0.6279069781303406
0.173625648021698 0.007751941680908203 -0.6124030947685242
0.17275705933570862 0.007751941680908203 -0.5968992114067078
0.17225772142410278 0.007751941680908203 -0.5813953876495361
0.1718519628047943 0.007751941680908203 -0.5658915042877197
0.17103120684623718 0.007751941680908203 -0.5503876209259033
0.17029494047164917 0.007751941680908203 -0.5348837375640869
0.16944660246372223 0.00775194214656949 -0.5193798542022705
0.16907358169555664 0.007751941680908203 -0.5038759708404541
0.16918161511421204 0.007751941680908203 -0.4883720874786377
0.1703261137008667 0.007751941680908203 -0.4728682041168213
0.17290806770324707 0.007751941680908203 -0.4573643207550049
0.1763584166765213 0.007751941680908203 -0.4418604373931885
0.17527130246162415 0.007751941680908203 -0.14728683233261108
0.1710926741361618 0.007751941680908203 -0.13178294897079468
0.16984102129936218 0.007751941680908203 -0.11627906560897827
0.16975146532058716 0.007751941680908203 -0.10077518224716187
0.16953888535499573 0.007751941680908203 -0.08527129888534546
0.16912993788719177 0.007751941680908203 -0.06976741552352905
0.1688777357339859 0.007751941680908203 -0.05426359176635742
0.16845601797103882 0.007751941680908203 -0.038759708404541016
0.16749127209186554 0.007751941680908203 -0.02325582504272461
0.16588138043880463 0.007751941680908203 -0.007751941680908203
0.1640753298997879 0.007751941680908203 0.007751941680908203
0.16388653218746185 0.007751941680908203 0.27131783962249756
0.16950547695159912 0.007751941680908203 0.28682172298431396
0.1730126142501831 0.007751941680908203 0.7674418687820435
0.1737818568944931 0.02325582504272461 -0.9844961166381836
0.1737985610961914 0.02325582504272461 -0.9689922332763672
0.17201656103134155 0.02325582504272461 -0.9534883499145508
0.17154158651828766 0.02325582504272461 -0.9379844665527344
0.1707347333431244 0.02325582504272461 -0.9224806427955627
0.16979563236236572 0.02325582504272461 -0.9069767594337463
0.16938894987106323 0.02325582504272461 -0.8914729356765747
0.1693533957004547 0.02325582504272461 -0.8759689331054688
0.16984128952026367 0.02325582504272461 -0.8604650497436523
0.17044971883296967 0.02325582504272461 -0.8449611663818359
0.17149272561073303 0.02325582504272461 -0.8294573426246643
0.1724557876586914 0.02325582504272461 -0.8139535188674927
0.17300717532634735 0.02325582504272461 -0.7984496355056763
0.17434397339820862 0.02325582504272461 -0.7829457521438599
0.17616932094097137 0.02325582504272461 -0.7674418687820435
0.17811454832553864 0.02325582504272461 -0.751937985420227
0.17789675295352936 0.02325582504272461 -0.6279069781303406
0.17680469155311584 0.02325582504272461 -0.6124030947685242
0.1756337732076645 0.02325582504272461 -0.5968992114067078
0.17489998042583466 0.02325582504272461 -0.5813953876495361
0.17433714866638184 0.02325582504272461 -0.5658915042877197
0.17321135103702545 0.02325582504272461 -0.5503876209259033
0.1723324954509735 0.02325582504272461 -0.5348837375640869
0.171068012714386 0.02325582504272461 -0.5193798542022705
0.1702110767364502 0.02325582504272461 -0.5038759708404541
0.16982987523078918 0.02325582504272461 -0.4883720874786377
0.17087143659591675 0.02325582504272461 -0.4728682041168213
0.17374610900878906 0.02325582504272461 -0.4573643207550049
0.1768484115600586 0.02325582504272461 -0.4418604373931885
0.17379972338676453 0.02325582504272461 -0.14728683233261108
0.17006173729896545 0.02325582504272461 -0.13178294897079468
0.1691376268863678 0.02325582504272461 -0.11627907305955887
0.1692141741514206 0.02325582504272461 -0.10077518224716187
0.16908076405525208 0.02325582504272461 -0.08527129888534546
0.16860637068748474 0.02325582504272461 -0.06976741552352905
0.1682526171207428 0.02325582504272461 -0.05426359176635742
0.16773128509521484 0.02325582504272461 -0.038759708404541016
0.16680020093917847 0.02325582504272461 -0.02325582504272461
0.16542671620845795 0.02325582504272461 -0.007751941680908203
0.1637466847896576 0.02325582504272461 0.007751941680908203
0.16697557270526886 0.02325582504272461 0.27131783962249756
0.17643223702907562 0.02325582504272461 0.28682172298431396
0.17336085438728333 0.02325582504272461 0.7674418687820435
0.1740214228630066 0.038759708404541016 -0.9844961166381836
0.1734704077243805 0.038759708404541016 -0.9689922332763672
0.17087271809577942 0.038759708404541016 -0.9534883499145508
0.17085734009742737 0.038759708404541016 -0.9379844665527344
0.17018264532089233 0.038759708404541016 -0.9224807024002075
0.16942837834358215 0.038759708404541016 -0.9069767594337463
0.1691630780696869 0.038759708404541016 -0.8914729356765747
0.1692623496055603 0.038759708404541016 -0.8759689331054688
0.17005731165409088 0.038759708404541016 -0.8604651093482971
0.17129825055599213 0.038759708404541016 -0.8449612259864807
0.17351964116096497 0.038759708404541016 -0.8294572830200195
0.17483332753181458 0.038759708404541016 -0.8139535188674927
0.17558340728282928 0.038759708404541016 -0.7984496355056763
0.1688692569732666 0.038759708404541016 -0.5813953876495361
0.1754913628101349 0.038759708404541016 -0.4418604373931885
0.17131191492080688 0.038759708404541016 -0.14728683233261108
0.1681683510541916 0.038759708404541016 -0.13178294897079468
0.16735723614692688 0.038759708404541016 -0.11627906560897827
0.16747421026229858 0.038759708404541016 -0.10077518224716187
0.16745992004871368 0.038759708404541016 -0.08527129888534546
0.1668650209903717 0.038759708404541016 -0.06976741552352905
0.16624140739440918 0.038759708404541016 -0.05426359176635742
0.16558058559894562 0.038759708404541016 -0.038759708404541016
0.1647498458623886 0.038759708404541016 -0.02325582504272461
0.1634492576122284 0.038759708404541016 -0.007751941215246916
0.16940462589263916 0.038759708404541016 0.27131783962249756
0.1703883856534958 0.038759708404541016 0.7674418687820435
0.17329517006874084 0.05426359176635742 -0.9844961166381836
0.17309582233428955 0.05426359176635742 -0.9689922332763672
0.1711428463459015 0.05426359176635742 -0.9534883499145508
0.16944089531898499 0.05426359176635742 -0.9379844665527344
0.16679911315441132 0.05426358804106712 -0.922480583190918
0.1640194058418274 0.05426358804106712 -0.9069766998291016
0.1629050374031067 0.05426359176635742 -0.8139535188674927
0.16340862214565277 0.05426359176635742 -0.7984496355056763
0.16508491337299347 0.05426359176635742 -0.7829457521438599
0.16437889635562897 0.05426359176635742 -0.7674418687820435
0.16417253017425537 0.05426359176635742 -0.751937985420227
0.17740276455879211 0.05426359176635742 -0.1627907156944275
0.1691041886806488 0.05426359176635742 -0.14728683233261108
0.16630157828330994 0.05426359176635742 -0.13178294897079468
0.16544903814792633 0.05426359176635742 -0.11627906560897827
0.1654089242219925 0.05426359176635742 -0.10077518224716187
0.16526655852794647 0.05426359176635742 -0.08527130633592606
0.16457897424697876 0.05426359549164772 -0.06976741552352905
0.16377811133861542 0.05426359176635742 -0.05426359176635742
0.1629347801208496 0.05426359176635742 -0.038759708404541016
0.16303592920303345 0.05426359176635742 0.25581395626068115
0.1709185242652893 0.05426359176635742 0.27131783962249756
0.16621822118759155 0.05426359176635742 0.7674418687820435
0.1775403618812561 0.05426359176635742 0.7829457521438599
0.17538553476333618 0.06976747512817383 -0.1627907156944275
0.16736319661140442 0.06976747512817383 -0.14728683233261108
0.16480526328086853 0.06976747512817383 -0.13178294897079468
0.16398800909519196 0.06976747512817383 -0.11627906560897827
0.16375896334648132 0.06976747512817383 -0.10077518224716187
0.16331729292869568 0.06976747512817383 -0.08527129888534546
0.1675640046596527 0.06976747512817383 0.27131783962249756
0.17233186960220337 0.06976747512817383 0.5193798542022705
0.170771986246109 0.06976747512817383 0.7829457521438599
0.17402242124080658 0.08527135848999023 -0.1627907156944275
0.16600173711776733 0.08527135848999023 -0.14728683233261108
0.1631961315870285 0.08527135848999023 -0.13178294897079468
0.16786102950572968 0.08527135848999023 0.28682172298431396
0.1782071888446808 0.08527135848999023 0.30232560634613037
0.16771310567855835 0.08527135848999023 0.5193798542022705
0.1655939519405365 0.08527136594057083 0.7829457521438599
0.1729433834552765 0.08527135848999023 0.7984496355056763
0.17670424282550812 0.08527135848999023 0.8139535188674927
0.17726442217826843 0.08527135848999023 0.8449612855911255
0.1719140112400055 0.10077524185180664 -0.1627907156944275
0.1636311262845993 0.10077524185180664 -0.14728683233261108
0.16340769827365875 0.10077524185180664 0.30232560634613037
0.17030280828475952 0.10077524185180664 0.3178294897079468
0.16313083469867706 0.10077524185180664 0.5193798542022705
0.16729339957237244 0.10077523440122604 0.7984496355056763
0.16989725828170776 0.10077524185180664 0.8139535188674927
0.1756700575351715 0.10077524185180664 0.8449612855911255
0.1706351786851883 0.11627912521362305 -0.25581395626068115
0.1641780138015747 0.11627912521362305 -0.1627907156944275
0.16353410482406616 0.11627912521362305 0.3333333730697632
0.17300310730934143 0.11627912521362305 0.3488372564315796
0.1756209433078766 0.11627912521362305 0.5038759708404541
0.16441424190998077 0.11627913266420364 0.8139535188674927
0.17489656805992126 0.11627912521362305 0.8449612855911255
0.16538047790527344 0.1317828893661499 0.364341139793396
0.17560188472270966 0.1317828893661499 0.37984490394592285
0.16895842552185059 0.1317828893661499 0.5038759708404541
0.17414221167564392 0.1317828893661499 0.8449612855911255
0.1652383655309677 0.1472867727279663 0.39534878730773926
0.17176708579063416 0.1472867727279663 0.41085267066955566
0.17714431881904602 0.1472867727279663 0.42635655403137207
0.177025705575943 0.1472867727279663 0.4728682041168213
0.17021110653877258 0.1472867727279663 0.4883720874786377
0.1705189049243927 0.1472867727279663 0.8449612855911255
0.16304688155651093 0.16279065608978271 0.44186046719551086
0.16370002925395966 0.16279065608978271 0.4573642909526825
0.16425488889217377 0.16279065608978271 0.8449612855911255
0.1739528477191925 0.25581395626068115 0.8294574022293091
0.18121705949306488 -0.25581395626068115 0.8294574022293091
0.19280798733234406 -0.20930230617523193 0.4418604373931885
0.1820002794265747 -0.11627905815839767 -0.28682172298431396
0.19235311448574066 -0.11627906560897827 -0.27131783962249756
0.18368813395500183 -0.10077518224716187 -0.3333333134651184
0.17849862575531006 -0.10077518224716187 0.37984490394592285
0.18147633969783783 -0.10077518224716187 0.39534878730773926
0.18857669830322266 -0.10077518224716187 0.41085267066955566
0.17948374152183533 -0.10077518224716187 0.4573643207550049
0.17883029580116272 -0.08527129888534546 -0.42635661363601685
0.17967824637889862 -0.08527129888534546 -0.41085273027420044
0.1800696700811386 -0.08527129888534546 -0.39534884691238403
0.18042853474617004 -0.08527129888534546 -0.3798449635505676
0.1819022297859192 -0.08527129888534546 -0.3643410801887512
0.18505725264549255 -0.08527129888534546 -0.3488371968269348
0.19283956289291382 -0.08527129888534546 -0.3333333134651184
0.18146638572216034 -0.08527129888534546 -0.1782945990562439
0.17883306741714478 -0.08527129888534546 0.364341139793396
0.1854310780763626 -0.08527129888534546 0.37984490394592285
0.18875077366828918 -0.08527129888534546 0.39534878730773926
0.18626168370246887 -0.08527129888534546 0.4573643207550049
0.17836247384548187 -0.06976741552352905 -0.643410861492157
0.17843519151210785 -0.06976741552352905 -0.6279069781303406
0.1785881519317627 -0.06976741552352905 -0.6124030947685242
0.1786843240261078 -0.06976741552352905 -0.5968992114067078
0.17870140075683594 -0.06976740807294846 -0.5813953280448914
0.1786770075559616 -0.06976741552352905 -0.5658915042877197
0.1785283088684082 -0.06976741552352905 -0.5503876209259033
0.17846478521823883 -0.06976741552352905 -0.5348837375640869
0.17839516699314117 -0.06976741552352905 -0.5193798542022705
0.17860080301761627 -0.06976741552352905 -0.5038759708404541
0.17884142696857452 -0.06976741552352905 -0.4883720874786377
0.17918840050697327 -0.06976741552352905 -0.4728681743144989
0.17964263260364532 -0.06976741552352905 -0.4573643207550049
0.180316761136055 -0.06976741552352905 -0.4418604373931885
0.18099723756313324 -0.06976741552352905 -0.42635658383369446
0.1815023422241211 -0.06976741552352905 -0.41085273027420044
0.18189099431037903 -0.06976741552352905 -0.39534884691238403
0.18222978711128235 -0.06976741552352905 -0.3798449635505676
0.18317903578281403 -0.06976741552352905 -0.3643410801887512
0.1848990023136139 -0.06976741552352905 -0.3488371968269348
0.18956893682479858 -0.06976741552352905 -0.3333333134651184
0.1853155493736267 -0.06976741552352905 -0.1782945990562439
0.1786412000656128 -0.06976741552352905 -0.1627907156944275
0.18444031476974487 -0.06976741552352905 0.364341139793396
0.18973802030086517 -0.06976741552352905 0.37984490394592285
0.19241954386234283 -0.06976741552352905 0.39534878730773926
0.1914501190185547 -0.06976741552352905 0.4573643207550049
0.18083615601062775 -0.06976741552352905 0.4728682339191437
0.17829568684101105 -0.05426359176635742 -0.4728681743144989
0.17878730595111847 -0.05426359176635742 -0.45736435055732727
0.1795043647289276 -0.05426359549164772 -0.4418604373931885
0.18027043342590332 -0.05426359549164772 -0.42635661363601685
0.18088778853416443 -0.05426359176635742 -0.41085273027420044
0.18132658302783966 -0.05426359176635742 -0.39534884691238403
0.1816367208957672 -0.05426359176635742 -0.3798449635505676
0.18242043256759644 -0.05426359176635742 -0.3643410801887512
0.18361517786979675 -0.05426359176635742 -0.3488371968269348
0.18586203455924988 -0.05426359176635742 -0.3333333134651184
0.1914917677640915 -0.05426359176635742 -0.317829430103302
0.18609756231307983 -0.05426359176635742 -0.1782945990562439
0.18004363775253296 -0.05426359176635742 -0.1627907156944275
0.18214771151542664 -0.05426359176635742 0.3488372564315796
0.18801194429397583 -0.05426359176635742 0.364341139793396
0.19187282025814056 -0.05426359176635742 0.37984490394592285
0.1934240758419037 -0.05426359176635742 0.4573643207550049
0.18577653169631958 -0.05426359176635742 0.4728682041168213
0.17840419709682465 -0.05426359176635742 0.8449612855911255
0.17857500910758972 -0.038759708404541016 -0.4418604373931885
0.17951036989688873 -0.038759708404541016 -0.42635661363601685
0.18033845722675323 -0.038759708404541016 -0.4108527600765228
0.18088464438915253 -0.038759708404541016 -0.39534884691238403
0.18112096190452576 -0.038759708404541016 -0.3798449635505676
0.1815907210111618 -0.038759708404541016 -0.3643410801887512
0.18248510360717773 -0.038759708404541016 -0.3488371968269348
0.18389400839805603 -0.038759708404541016 -0.3333333134651184
0.1865658164024353 -0.038759708404541016 -0.317829430103302
0.19085446000099182 -0.038759708404541016 -0.30232560634613037
0.1859423816204071 -0.038759708404541016 -0.1782945990562439
0.18091532588005066 -0.038759708404541016 -0.1627907156944275
0.1784113198518753 -0.038759708404541016 0.3333333730697632
0.18499279022216797 -0.038759708404541016 0.3488372564315796
0.18979305028915405 -0.038759708404541016 0.364341139793396
0.1930854767560959 -0.038759708404541016 0.37984490394592285
0.18889695405960083 -0.038759708404541016 0.4728682041168213
0.18216612935066223 -0.038759708404541016 0.4883720874786377
0.1827363520860672 -0.038759708404541016 0.8449612855911255
0.17912620306015015 -0.02325582504272461 -0.42635661363601685
0.18002218008041382 -0.02325582504272461 -0.41085273027420044
0.18066757917404175 -0.02325582504272461 -0.3953488767147064
0.1810106784105301 -0.02325582504272461 -0.3798449635505676
0.18136151134967804 -0.02325582504272461 -0.3643410801887512
0.1819310486316681 -0.02325582504272461 -0.3488371968269348
0.1830388903617859 -0.02325582504272461 -0.3333333134651184
0.18461963534355164 -0.02325582504272461 -0.317829430103302
0.1870020627975464 -0.02325582504272461 -0.30232560634613037
0.19007408618927002 -0.02325582504272461 -0.28682172298431396
0.18599237501621246 -0.02325582504272461 -0.1782945990562439
0.18133296072483063 -0.02325582318007946 -0.1627907007932663
0.1810837984085083 -0.02325582504272461 0.33333340287208557
0.18696676194667816 -0.02325582504272461 0.3488372564315796
0.1910724937915802 -0.02325582504272461 0.364341139793396
0.192290261387825 -0.02325582504272461 0.4728682041168213
0.1869109869003296 -0.02325582504272461 0.4883720874786377
0.1805671900510788 -0.02325582504272461 0.5038759708404541
0.17990438640117645 -0.02325582504272461 0.7984496355056763
0.185879647731781 -0.02325582504272461 0.8139535188674927
0.18589213490486145 -0.02325582504272461 0.8449612855911255
0.17892232537269592 -0.007751941680908203 -0.42635661363601685
0.17968514561653137 -0.007751941680908203 -0.41085273027420044
0.18021321296691895 -0.007751941680908203 -0.3953488767147064
0.18064697086811066 -0.007751941680908203 -0.3798449635505676
0.1813306212425232 -0.007751941680908203 -0.3643410801887512
0.18217074871063232 -0.007751941680908203 -0.3488371968269348
0.18329882621765137 -0.007751941680908203 -0.3333333134651184
0.184723362326622 -0.007751941680908203 -0.317829430103302
0.18665030598640442 -0.007751941680908203 -0.30232560634613037
0.18921010196208954 -0.007751941680908203 -0.28682172298431396
0.19281405210494995 -0.007751941680908203 -0.27131783962249756
0.18625900149345398 -0.007751941680908203 -0.1782945990562439
0.1812523603439331 -0.007751941680908203 -0.1627907156944275
0.1784208118915558 -0.007751941680908203 0.3178294897079468
0.18512800335884094 -0.007751941680908203 0.3333333730697632
0.1903291493654251 -0.007751941680908203 0.3488372564315796
0.19354771077632904 -0.007751941680908203 0.4883720874786377
0.1867380142211914 -0.007751941680908203 0.5038759708404541
0.1790780872106552 -0.007751941215246916 0.7829457521438599
0.18505990505218506 -0.007751941680908203 0.7984496355056763
0.19197946786880493 -0.007751941680908203 0.8139535188674927
0.1885179877281189 -0.007751941680908203 0.8449612855911255
0.17866915464401245 0.007751941680908203 -0.42635661363601685
0.1793261468410492 0.007751941680908203 -0.41085273027420044
0.17984643578529358 0.007751941680908203 -0.39534884691238403
0.18045130372047424 0.007751941680908203 -0.3798449635505676
0.181508406996727 0.007751941680908203 -0.3643410801887512
0.18273253738880157 0.007751941680908203 -0.3488371968269348
0.18403509259223938 0.007751941680908203 -0.3333333134651184
0.18586722016334534 0.007751941680908203 -0.317829430103302
0.18812976777553558 0.007751941680908203 -0.30232560634613037
0.19057194888591766 0.007751941680908203 -0.28682172298431396
0.18589919805526733 0.007751941680908203 -0.1782945990562439
0.18072670698165894 0.007751941680908203 -0.1627907156944275
0.17833924293518066 0.007751941680908203 0.30232560634613037
0.18533572554588318 0.007751941680908203 0.3178294897079468
0.19209355115890503 0.007751941680908203 0.3333333730697632
0.19271565973758698 0.007751941680908203 0.5038759708404541
0.18275658786296844 0.007751941680908203 0.5193798542022705
0.1818678230047226 0.007751941680908203 0.7829457521438599
0.18938931822776794 0.007751941680908203 0.7984496355056763
0.18916632235050201 0.007751941680908203 0.8449612855911255
0.1784059852361679 0.02325582504272461 -0.7364341020584106
0.1784532368183136 0.02325582504272461 -0.7209302186965942
0.1785009801387787 0.02325582504272461 -0.7054263353347778
0.17850704491138458 0.02325582504272461 -0.6899224519729614
0.17855486273765564 0.02325582504272461 -0.6744185090065002
0.17853020131587982 0.02325582504272461 -0.6589147448539734
0.1784926950931549 0.02325582504272461 -0.643410861492157
0.17870545387268066 0.02325582504272461 -0.42635661363601685
0.17939339578151703 0.02325582504272461 -0.41085273027420044
0.18008044362068176 0.02325582504272461 -0.39534884691238403
0.18090441823005676 0.02325582504272461 -0.37984499335289
0.1820489764213562 0.02325582504272461 -0.3643410801887512
0.18314920365810394 0.02325582504272461 -0.3488371968269348
0.18545424938201904 0.02325582504272461 -0.3333333134651184
0.1881847381591797 0.02325582504272461 -0.317829430103302
0.19110889732837677 0.02325582504272461 -0.30232560634613037
0.19357074797153473 0.02325582504272461 -0.19379842281341553
0.18467970192432404 0.02325582504272461 -0.1782945990562439
0.17976486682891846 0.02325582690536976 -0.1627907156944275
0.18774065375328064 0.02325582504272461 0.30232560634613037
0.18424169719219208 0.02325582504272461 0.5193798542022705
0.18227431178092957 0.02325582504272461 0.7829457521438599
0.1897430121898651 0.02325582504272461 0.7984496355056763
0.18840496242046356 0.02325582504272461 0.8449612855911255
0.17834874987602234 0.038759712129831314 -0.7829457521438599
0.1787760853767395 0.038759708404541016 -0.7674418687820435
0.17908477783203125 0.038759708404541016 -0.7519379258155823
0.17916220426559448 0.038759708404541016 -0.7364340424537659
0.17918850481510162 0.038759708404541016 -0.7209302186965942
0.17922045290470123 0.038759712129831314 -0.7054263353347778
0.1792333722114563 0.03875970467925072 -0.6899224519729614
0.17929162085056305 0.038759708404541016 -0.6744185090065002
0.17926517128944397 0.038759708404541016 -0.6589146852493286
0.179249107837677 0.038759708404541016 -0.643410861492157
0.17904511094093323 0.03875970467925072 -0.6279069185256958
0.17881612479686737 0.038759708404541016 -0.6124030947685242
0.17843395471572876 0.038759708404541016 -0.596899151802063
0.17926308512687683 0.03875970467925072 -0.42635661363601685
0.18005859851837158 0.038759708404541016 -0.41085273027420044
0.1807340681552887 0.038759708404541016 -0.39534881711006165
0.18142271041870117 0.038759708404541016 -0.3798449635505676
0.18257544934749603 0.038759708404541016 -0.3643410801887512
0.1849389374256134 0.038759708404541016 -0.3488371968269348
0.18782629072666168 0.038759708404541016 -0.3333333134651184
0.1918032467365265 0.038759708404541016 -0.317829430103302
0.19238927960395813 0.038759708404541016 -0.19379842281341553
0.18343549966812134 0.038759708404541016 -0.1782945990562439
0.1787375509738922 0.038759708404541016 -0.1627907156944275
0.18391072750091553 0.038759708404541016 0.28682172298431396
0.182320237159729 0.038759708404541016 0.5193798542022705
0.18047301471233368 0.038759708404541016 0.7829457521438599
0.1869869828224182 0.038759708404541016 0.7984496355056763
0.19269800186157227 0.038759708404541016 0.8139535188674927
0.18563155829906464 0.038759708404541016 0.8449612855911255
0.18078726530075073 0.05426359176635742 -0.39534884691238403
0.18415257334709167 0.05426359176635742 -0.3798449635505676
0.18498145043849945 0.05426359176635742 -0.3643410801887512
0.18723508715629578 0.05426359176635742 -0.3488371968269348
0.18988002836704254 0.05426359176635742 -0.3333333134651184
0.19205427169799805 0.05426359176635742 -0.19379842281341553
0.18271449208259583 0.05426359176635742 -0.1782945990562439
0.18810974061489105 0.05426359176635742 0.28682172298431396
0.19345428049564362 0.05426359176635742 0.5038759708404541
0.1785871535539627 0.05426359176635742 0.5193798542022705
0.18293672800064087 0.05426359176635742 0.7984496355056763
0.1871356964111328 0.05426359176635742 0.8139535188674927
0.18290278315544128 0.05426359176635742 0.8449612855911255
0.1822510063648224 0.06976747512817383 -0.3643410801887512
0.1875002235174179 0.06976747512817383 -0.3488371968269348
0.19078512489795685 0.06976747512817383 -0.3333333134651184
0.19352152943611145 0.06976747512817383 -0.317829430103302
0.1928444504737854 0.06976747512817383 -0.19379842281341553
0.1824999302625656 0.06976747512817383 -0.1782945990562439
0.17960010468959808 0.06976748257875443 0.28682172298431396
0.18930059671401978 0.06976747512817383 0.5038759708404541
0.1791522204875946 0.06976747512817383 0.7984496355056763
0.1818462610244751 0.06976747512817383 0.8139535188674927
0.17960266768932343 0.06976747512817383 0.8449612855911255
0.1829306185245514 0.08527135848999023 -0.3333333134651184
0.18892690539360046 0.08527135848999023 -0.317829430103302
0.18306374549865723 0.08527135848999023 -0.1782945990562439
0.18987059593200684 0.08527135848999023 0.3178294897079468
0.18564468622207642 0.08527135848999023 0.5038759708404541
0.17937415838241577 0.10077524185180664 -0.30232560634613037
0.18653926253318787 0.10077524185180664 -0.28682172298431396
0.18400797247886658 0.10077524185180664 -0.1782945990562439
0.1785687357187271 0.10077524185180664 0.3333333730697632
0.18751826882362366 0.10077524185180664 0.3488372564315796
0.19301775097846985 0.10077524185180664 0.4883720874786377
0.18140259385108948 0.10077524185180664 0.5038759708404541
0.1800544261932373 0.11627912521362305 -0.24031005799770355
0.1856817603111267 0.11627912521362305 -0.22480618953704834
0.19169965386390686 0.11627912521362305 -0.19379842281341553
0.18075525760650635 0.11627912521362305 -0.1782945990562439
0.18303197622299194 0.11627912521362305 0.364341139793396
0.19143620133399963 0.11627912521362305 0.37984490394592285
0.18702754378318787 0.11627912521362305 0.4883720874786377
0.1821174919605255 0.1317828893661499 0.39534878730773926
0.18631818890571594 0.1317828893661499 0.41085267066955566
0.18943487107753754 0.1317828893661499 0.42635655403137207
0.19099955260753632 0.1317828893661499 0.4418604373931885
0.19026274979114532 0.1317828893661499 0.4573643207550049
0.1870211362838745 0.1317828893661499 0.4728682041168213
0.18089714646339417 0.1317828893661499 0.4883720874786377
0.1791006624698639 0.1472867876291275 0.4418604373931885
0.17921358346939087 0.1472867727279663 0.4573643207550049
0.1993982195854187 -0.24031007289886475 0.8294574022293091
0.20455099642276764 -0.19379842281341553 0.4418604373931885
0.201511412858963 -0.1782945990562439 0.42635655403137207
0.19593358039855957 -0.11627906560897827 -0.25581395626068115
0.19720247387886047 -0.11627906560897827 -0.24031007289886475
0.19470538198947906 -0.11627905815839767 -0.22480617463588715
0.19453293085098267 -0.10077518224716187 -0.317829430103302
0.19757714867591858 -0.10077518224716187 -0.30232560634613037
0.19917669892311096 -0.10077518224716187 -0.28682172298431396
0.200495645403862 -0.10077518224716187 -0.27131783962249756
0.2024841010570526 -0.10077518224716187 -0.25581395626068115
0.20750749111175537 -0.10077518224716187 -0.24031007289886475
0.19876575469970703 -0.10077518224716187 -0.20930230617523193
0.20915402472019196 -0.10077518224716187 0.4418604373931885
0.19686125218868256 -0.08527129888534546 -0.317829430103302
0.19886580109596252 -0.08527129888534546 -0.30232560634613037
0.20026257634162903 -0.08527129888534546 -0.28682172298431396
0.20136283338069916 -0.08527129888534546 -0.27131783962249756
0.20273275673389435 -0.08527129888534546 -0.25581395626068115
0.20697304606437683 -0.08527129888534546 -0.24031007289886475
0.20685987174510956 -0.08527129888534546 -0.20930230617523193
0.19391238689422607 -0.08527129888534546 -0.19379840791225433
0.1940494328737259 -0.08527129888534546 0.41085267066955566
0.20356279611587524 -0.08527129888534546 0.42635655403137207
0.20383751392364502 -0.08527129888534546 0.4418604373931885
0.19559212028980255 -0.06976741552352905 -0.317829430103302
0.1979115605354309 -0.06976741552352905 -0.30232560634613037
0.1992495059967041 -0.06976741552352905 -0.28682172298431396
0.20013763010501862 -0.06976741552352905 -0.27131783962249756
0.20090770721435547 -0.06976741552352905 -0.25581395626068115
0.20271465182304382 -0.06976741552352905 -0.24031007289886475
0.20911380648612976 -0.06976741552352905 -0.22480618953704834
0.20585300028324127 -0.06976741552352905 -0.20930230617523193
0.1962089240550995 -0.06976741552352905 -0.19379842281341553
0.19615058600902557 -0.06976741552352905 0.4108526408672333
0.20143768191337585 -0.06976741552352905 0.42635655403137207
0.2018231451511383 -0.06976741552352905 0.4418604373931885
0.19556856155395508 -0.05426359176635742 -0.30232560634613037
0.19723089039325714 -0.05426359176635742 -0.28682172298431396
0.19828684628009796 -0.05426359176635742 -0.27131783962249756
0.19903546571731567 -0.05426359176635742 -0.25581395626068115
0.19985410571098328 -0.05426359176635742 -0.24031008780002594
0.20188888907432556 -0.05426359176635742 -0.22480618953704834
0.2015274614095688 -0.05426359176635742 -0.20930230617523193
0.19598138332366943 -0.05426359176635742 -0.19379843771457672
0.19395549595355988 -0.05426359176635742 0.39534878730773926
0.1965189129114151 -0.05426359176635742 0.41085267066955566
0.19967809319496155 -0.05426359176635742 0.42635655403137207
0.19979222118854523 -0.05426359176635742 0.4418604373931885
0.19454337656497955 -0.03875970467925072 -0.28682172298431396
0.19614577293395996 -0.038759708404541016 -0.27131783962249756
0.19740287959575653 -0.038759708404541016 -0.25581395626068115
0.19855162501335144 -0.038759708404541016 -0.24031007289886475
0.1999167501926422 -0.038759708404541016 -0.22480618953704834
0.19953328371047974 -0.038759708404541016 -0.20930230617523193
0.19478394091129303 -0.038759708404541016 -0.19379842281341553
0.19478163123130798 -0.038759708404541016 0.39534878730773926
0.1964806616306305 -0.038759708404541016 0.41085267066955566
0.1985267996788025 -0.038759708404541016 0.42635655403137207
0.19866107404232025 -0.038759708404541016 0.4418604373931885
0.19489163160324097 -0.038759708404541016 0.4573643207550049
0.19414135813713074 -0.02325582504272461 -0.27131783962249756
0.19589583575725555 -0.02325582318007946 -0.25581395626068115
0.19800861179828644 -0.02325582504272461 -0.24031007289886475
0.19976653158664703 -0.02325582504272461 -0.22480618953704834
0.19899317622184753 -0.02325582504272461 -0.20930230617523193
0.1938231736421585 -0.02325582504272461 -0.19379842281341553
0.1941782683134079 -0.02325582504272461 0.37984490394592285
0.19557347893714905 -0.02325582318007946 0.39534878730773926
0.1968565583229065 -0.02325582504272461 0.41085267066955566
0.19839255511760712 -0.02325582504272461 0.42635655403137207
0.19878700375556946 -0.02325582504272461 0.4418604075908661
0.1969609260559082 -0.02325582690536976 0.4573643207550049
0.1951713263988495 -0.007751941680908203 -0.25581395626068115
0.19788923859596252 -0.007751941680908203 -0.24031007289886475
0.20033884048461914 -0.007751941680908203 -0.22480618953704834
0.1995736062526703 -0.007751941680908203 -0.20930230617523193
0.19411520659923553 -0.007751941680908203 -0.19379842281341553
0.19438807666301727 -0.007751941680908203 0.364341139793396
0.19738996028900146 -0.007751941680908203 0.37984490394592285
0.198332279920578 -0.007751941215246916 0.39534875750541687
0.19935882091522217 -0.007751941680908203 0.41085267066955566
0.20074498653411865 -0.007751941680908203 0.42635655403137207
0.20155659317970276 -0.007751941680908203 0.4418604373931885
0.2008950114250183 -0.007751941680908203 0.4573643207550049
0.1982264518737793 -0.007751941680908203 0.4728682041168213
0.19396018981933594 0.00775194214656949 -0.27131783962249756
0.19540412724018097 0.007751941680908203 -0.25581395626068115
0.19800688326358795 0.007751941680908203 -0.24031008780002594
0.20058047771453857 0.007751941680908203 -0.22480618953704834
0.19984093308448792 0.007751941680908203 -0.20930230617523193
0.19417650997638702 0.007751941680908203 -0.19379842281341553
0.19659382104873657 0.007751941680908203 0.3488372564315796
0.19987356662750244 0.007751941680908203 0.364341139793396
0.20192420482635498 0.007751941680908203 0.37984490394592285
0.20245671272277832 0.007751941680908203 0.39534878730773926
0.20330992341041565 0.007751941680908203 0.41085267066955566
0.2046547681093216 0.007751941680908203 0.42635655403137207
0.2061895728111267 0.007751941680908203 0.4418604373931885
0.20622618496418 0.007751941680908203 0.4573643207550049
0.20351731777191162 0.007751941680908203 0.4728682041168213
0.19916203618049622 0.007751941680908203 0.4883720874786377
0.19608938694000244 0.007751941680908203 0.8139535188674927
0.19420930743217468 0.02325582690536976 -0.28682172298431396
0.19560794532299042 0.02325582504272461 -0.27131783962249756
0.1969502568244934 0.02325582504272461 -0.25581395626068115
0.1991214156150818 0.02325582504272461 -0.24031005799770355
0.2010839581489563 0.02325582504272461 -0.22480618953704834
0.1997366100549698 0.02325582504272461 -0.20930230617523193
0.19845589995384216 0.02325582504272461 0.3178294897079468
0.20255672931671143 0.02325582504272461 0.3333333730697632
0.20284292101860046 0.02325582504272461 0.3488372564315796
0.20467254519462585 0.02325582504272461 0.364341139793396
0.2061188519001007 0.02325582504272461 0.37984490394592285
0.20627060532569885 0.02325582504272461 0.39534878730773926
0.20673474669456482 0.02325582504272461 0.41085267066955566
0.20830072462558746 0.02325582504272461 0.42635655403137207
0.20779992640018463 0.02325582504272461 0.4728682041168213
0.20234531164169312 0.02325582504272461 0.4883720874786377
0.19577907025814056 0.02325582504272461 0.5038759708404541
0.19579021632671356 0.02325582504272461 0.8139535188674927
0.19445496797561646 0.038759708404541016 -0.30232560634613037
0.19566132128238678 0.038759708404541016 -0.28682172298431396
0.19717231392860413 0.038759708404541016 -0.27131783962249756
0.19882500171661377 0.038759708404541016 -0.25581395626068115
0.20051826536655426 0.038759708404541016 -0.24031007289886475
0.20161759853363037 0.038759708404541016 -0.22480618953704834
0.1994827687740326 0.038759708404541016 -0.20930230617523193
0.2084181010723114 0.038759708404541016 0.364341139793396
0.2091207504272461 0.038759708404541016 0.37984490394592285
0.20889480412006378 0.038759708404541016 0.39534878730773926
0.20874720811843872 0.038759708404541016 0.41085267066955566
0.2090916931629181 0.038759708404541016 0.4728682041168213
0.20308804512023926 0.038759708404541016 0.4883720874786377
0.19558411836624146 0.038759708404541016 0.5038759708404541
0.19394154846668243 0.05426359176635742 -0.317829430103302
0.19516482949256897 0.05426359176635742 -0.30232560634613037
0.19663754105567932 0.05426359176635742 -0.28682172298431396
0.19854649901390076 0.05426359176635742 -0.27131783962249756
0.20026978850364685 0.05426359176635742 -0.25581395626068115
0.20142221450805664 0.05426359176635742 -0.24031007289886475
0.20163384079933167 0.05426359176635742 -0.22480618953704834
0.19905027747154236 0.05426359176635742 -0.20930230617523193
0.20240247249603271 0.05426359176635742 0.28682172298431396
0.20916198194026947 0.05426359176635742 0.41085267066955566
0.20791375637054443 0.05426359176635742 0.4728682041168213
0.20214778184890747 0.05426359176635742 0.4883720874786377
0.1950802505016327 0.06976747512817383 -0.30232560634613037
0.19714869558811188 0.06976747512817383 -0.28682172298431396
0.19944757223129272 0.06976747512817383 -0.27131783962249756
0.20087742805480957 0.06976747512817383 -0.25581395626068115
0.20149701833724976 0.06976747512817383 -0.24031007289886475
0.20091181993484497 0.06976747512817383 -0.22480618953704834
0.19848044216632843 0.06976747512817383 -0.20930230617523193
0.20829859375953674 0.06976747512817383 0.41085267066955566
0.20910683274269104 0.06976747512817383 0.42635655403137207
0.20875465869903564 0.06976747512817383 0.4573643207550049
0.20509780943393707 0.06976747512817383 0.4728682041168213
0.19991007447242737 0.06976747512817383 0.4883720874786377
0.19509553909301758 0.08527135848999023 -0.30232560634613037
0.1977836638689041 0.08527135848999023 -0.28682172298431396
0.19964292645454407 0.08527135848999023 -0.27131783962249756
0.2006516456604004 0.08527135848999023 -0.25581395626068115
0.20116528868675232 0.08527135848999023 -0.24031007289886475
0.2001277506351471 0.08527135848999023 -0.22480618953704834
0.198781818151474 0.08527135848999023 -0.20930230617523193
0.1947900503873825 0.08527135848999023 -0.19379842281341553
0.2074746936559677 0.08527135848999023 0.3178294897079468
0.20477041602134705 0.08527135848999023 0.3488372564315796
0.20827147364616394 0.08527135848999023 0.364341139793396
0.20800158381462097 0.08527135848999023 0.39534878730773926
0.20697864890098572 0.08527135848999023 0.41085267066955566
0.20770461857318878 0.08527135848999023 0.42635655403137207
0.2082943469285965 0.08527135848999023 0.4418604373931885
0.20608502626419067 0.08527135848999023 0.4573643207550049
0.2025742083787918 0.08527135848999023 0.4728682041168213
0.19697105884552002 0.08527135848999023 0.4883720874786377
0.19459916651248932 0.10077524185180664 -0.27131783962249756
0.19735731184482574 0.10077524185180664 -0.25581395626068115
0.19838228821754456 0.10077524930238724 -0.24031007289886475
0.19860509037971497 0.10077524185180664 -0.22480618953704834
0.19949446618556976 0.10077524185180664 -0.20930230617523193
0.19631478190422058 0.10077524185180664 -0.19379842281341553
0.19826063513755798 0.10077524185180664 0.364341139793396
0.20321452617645264 0.10077524185180664 0.37984490394592285
0.20389142632484436 0.10077524185180664 0.39534878730773926
0.20414067804813385 0.10077524185180664 0.41085267066955566
0.20539738237857819 0.10077524185180664 0.42635655403137207
0.20575939118862152 0.10077524185180664 0.4418604373931885
0.2035331428050995 0.10077524185180664 0.4573643207550049
0.1998763382434845 0.10077524185180664 0.4728682041168213
0.19464150071144104 0.11627911776304245 -0.20930230617523193
0.19573116302490234 0.11627912521362305 0.39534878730773926
0.19778886437416077 0.11627912521362305 0.41085267066955566
0.19960545003414154 0.11627912521362305 0.42635655403137207
0.20041534304618835 0.11627912521362305 0.44186046719551086
0.1992785632610321 0.11627912521362305 0.4573643207550049
0.19507800042629242 0.11627913266420364 0.4728682041168213
0.19519227743148804 0.24031007289886475 0.8294574022293091
0.21523159742355347 -0.22480618953704834 0.8294574022293091
0.21372398734092712 -0.1782945990562439 0.4418604373931885
0.21250267326831818 -0.1627907156944275 0.42635655403137207
0.21870997548103333 -0.1627907156944275 0.4418604373931885
0.2166968137025833 -0.14728683233261108 0.42635655403137207
0.22121956944465637 -0.14728683233261108 0.4418604373931885
0.21676915884017944 -0.13178294897079468 0.42635655403137207
0.21799640357494354 -0.13178294897079468 0.4418604373931885
0.21287384629249573 -0.11627906560897827 0.42635655403137207
0.21299977600574493 -0.11627907305955887 0.44186046719551086
0.21044953167438507 -0.10077518224716187 -0.22480618953704834
0.20940682291984558 -0.10077518969774246 0.42635655403137207
0.21163135766983032 -0.08527129888534546 -0.22480618953704834
0.2099246382713318 0.02325582504272461 0.4418604373931885
0.2099761813879013 0.02325582504272461 0.4573643207550049
0.21770048141479492 0.038759708404541016 0.28682172298431396
0.2110525667667389 0.038759708404541016 0.3488372564315796
0.209745392203331 0.038759708404541016 0.42635655403137207
0.21077179908752441 0.038759708404541016 0.4418604373931885
0.21063178777694702 0.038759708404541016 0.4573643207550049
0.22005540132522583 0.05426359176635742 0.27131783962249756
0.2231152504682541 0.05426359176635742 0.3488372564315796
0.21041852235794067 0.05426359176635742 0.364341139793396
0.21014708280563354 0.05426359176635742 0.37984490394592285
0.2096303403377533 0.05426358804106712 0.39534878730773926
0.2097606360912323 0.05426359176635742 0.42635655403137207
0.21053332090377808 0.05426359176635742 0.4418604373931885
0.21013708412647247 0.05426359176635742 0.4573643207550049
0.22020164132118225 0.06976747512817383 0.27131783962249756
0.2099815309047699 0.06976747512817383 0.28682172298431396
0.2106020599603653 0.06976747512817383 0.364341139793396
0.21022111177444458 0.06976747512817383 0.37984490394592285
0.20941036939620972 0.06976746767759323 0.39534875750541687
0.20969033241271973 0.06976747512817383 0.4418604373931885
0.2226133495569229 0.08527135848999023 0.28682172298431396
0.21473689377307892 0.08527135848999023 0.30232560634613037
0.20936903357505798 0.08527135848999023 0.37984490394592285
0.2146318107843399 0.22480618953704834 0.8294574022293091
0.22819122672080994 -0.20930229127407074 0.8294574022293091
0.23836641013622284 -0.19379842281341553 0.8294574022293091
0.2358453869819641 0.038759708404541016 0.25581395626068115
0.2301836907863617 0.038759708404541016 0.27131783962249756
0.23075151443481445 0.038759708404541016 0.3333333730697632
