-0.4224390983581543 0.9844961762428284 0.05426359176635742
-0.3922988474369049 -0.9844961166381836 -0.05426359176635742
-0.3915867209434509 -0.9844961166381836 -0.038759708404541016
-0.3916286528110504 -0.9844961166381836 -0.02325582690536976
-0.39288976788520813 -0.9844961166381836 -0.007751941680908203
-0.39346686005592346 -0.9844961166381836 0.007751941680908203
-0.3934786021709442 -0.9844961166381836 0.02325582504272461
-0.39467889070510864 -0.9844961166381836 0.038759712129831314
-0.38979536294937134 -0.9844961166381836 0.05426359176635742
-0.1028721034526825 -0.674418568611145 0.05426359176635742
-0.0482688806951046 -0.674418568611145 0.05426358804106712
0.3941364586353302 -0.9844961166381836 -0.05426359176635742
0.3926774263381958 -0.9844961166381836 -0.038759708404541016
0.3922678828239441 -0.9844961166381836 -0.02325582504272461
0.39312678575515747 -0.9844961166381836 -0.007751941680908203
0.3942401707172394 -0.9844961166381836 0.007751941680908203
0.39502090215682983 -0.9844961166381836 0.02325582504272461
0.39946600794792175 -0.9844961166381836 0.038759708404541016
0.39649254083633423 -0.9844961166381836 0.05426359176635742
0.42631059885025024 -0.9689922332763672 -0.038759708404541016
0.4251357614994049 -0.9689922332763672 -0.02325582504272461
0.42570897936820984 -0.9689922332763672 -0.007751941680908203
0.4263404607772827 -0.9689922332763672 0.007751941680908203
0.4149184823036194 0.9844961166381836 -0.05426359176635742
0.41559070348739624 0.9844961166381836 -0.038759708404541016
0.4155404567718506 0.9844961166381836 -0.02325582504272461
0.41661137342453003 0.9844961166381836 -0.007751941680908203
0.4173271059989929 0.9844961166381836 0.007751941680908203
0.41832947731018066 0.9844961166381836 0.02325582504272461
0.42035722732543945 0.9844961166381836 0.038759708404541016
0.41588300466537476 0.9844961166381836 0.05426359176635742
0.42893776297569275 -0.9689922332763672 -0.05426359176635742
0.4267857074737549 -0.9689922332763672 0.02325582504272461
0.42907267808914185 -0.9689922332763672 0.038759708404541016
0.43047598004341125 -0.968992292881012 0.05426359549164772
0.4402356743812561 0.9689922332763672 -0.038759708404541016
0.43915802240371704 0.9689922332763672 -0.02325582504272461
0.4400267004966736 0.9689922332763672 -0.007751941680908203
0.4408629238605499 0.9689922332763672 0.007751941680908203
0.4415106773376465 0.9689922332763672 0.02325582504272461
0.4476959705352783 -0.9534883499145508 -0.05426359176635742
0.44481298327445984 -0.9534883499145508 -0.038759708404541016
0.4441823959350586 -0.9534883499145508 -0.02325582504272461
0.4451930522918701 -0.9534883499145508 -0.007751941680908203
0.4461551904678345 -0.9534883499145508 0.00775194214656949
0.4466395080089569 -0.9534883499145508 0.02325582504272461
0.44913923740386963 -0.9534883499145508 0.038759708404541016
0.45059484243392944 -0.9534883499145508 0.05426359176635742
0.4566940665245056 0.9534883499145508 -0.02325582504272461
0.4573068916797638 0.9534883499145508 -0.007751941680908203
0.44308045506477356 0.968992292881012 -0.05426359549164772
0.443374365568161 0.968992292881012 0.038759712129831314
0.44458913803100586 0.9689922332763672 0.05426359176635742
0.46262431144714355 -0.9379844665527344 -0.05426359176635742
0.4602518379688263 -0.9379844665527344 -0.038759708404541016
0.45947787165641785 -0.9379844665527344 -0.02325582504272461
0.4602121114730835 -0.9379844665527344 -0.007751941680908203
0.46093273162841797 -0.9379844665527344 0.007751941680908203
0.46134820580482483 -0.9379844665527344 0.02325582504272461
0.46351584792137146 -0.9379844665527344 0.038759708404541016
0.46437177062034607 -0.9379844665527344 0.05426359176635742
0.4718822240829468 -0.9224806427955627 -0.02325582504272461
0.47243615984916687 -0.9224806427955627 -0.007751941680908203
0.4723275899887085 0.9379844665527344 -0.02325582504272461
0.46062156558036804 0.9534883499145508 -0.05426359176635742
0.4579057991504669 0.9534884095191956 -0.038759712129831314
0.457785964012146 0.9534884095191956 0.00775194214656949
0.4583631157875061 0.9534884095191956 0.02325582504272461
0.46078556776046753 0.9534883499145508 0.038759708404541016
0.4620567858219147 0.9534883499145508 0.05426359549164772
0.47587940096855164 -0.9224806427955627 -0.05426359176635742
0.4733904302120209 -0.9224806427955627 -0.038759708404541016
0.47301214933395386 -0.9224806427955627 0.007751941680908203
0.47319671511650085 -0.9224806427955627 0.02325582504272461
0.4752084016799927 -0.922480583190918 0.038759708404541016
0.4761081337928772 -0.9224806427955627 0.05426359176635742
0.4867241084575653 -0.9069767594337463 -0.05426359176635742
0.48295074701309204 -0.9069767594337463 -0.038759708404541016
0.4815027713775635 -0.9069767594337463 -0.02325582504272461
0.48224467039108276 -0.9069767594337463 -0.007751941680908203
0.48289209604263306 -0.9069767594337463 0.007751941680908203
0.48286181688308716 -0.9069766998291016 0.02325582504272461
0.4850483536720276 -0.9069766998291016 0.038759708404541016
0.48691797256469727 -0.9069767594337463 0.05426359176635742
0.4874190390110016 0.922480583190918 -0.05426359176635742
0.48459649085998535 0.922480583190918 -0.038759708404541016
0.48381268978118896 0.922480583190918 -0.02325582504272461
0.48428574204444885 0.922480583190918 -0.007751941680908203
0.4848438501358032 0.922480583190918 0.007751941680908203
0.484976202249527 0.922480583190918 0.02325582504272461
0.4864650368690491 0.922480583190918 0.038759708404541016
0.48776084184646606 0.922480583190918 0.05426359176635742
0.47613590955734253 0.9379844665527344 -0.05426359549164772
0.4735455811023712 0.9379844665527344 -0.038759708404541016
0.4729183316230774 0.9379844665527344 -0.007751941680908203
0.47339344024658203 0.9379844665527344 0.00775194214656949
0.47381120920181274 0.9379844665527344 0.02325582504272461
0.4758669137954712 0.9379844665527344 0.038759708404541016
0.47696220874786377 0.9379844665527344 0.05426359176635742
0.49313947558403015 -0.8914728760719299 -0.05426359176635742
0.49112626910209656 -0.8914728760719299 -0.038759708404541016
0.48980599641799927 -0.8914729356765747 -0.02325582504272461
0.4902222156524658 -0.8914728164672852 -0.007751941215246916
0.4906494617462158 -0.8914728164672852 0.007751941680908203
0.49055227637290955 -0.8914729356765747 0.02325582504272461
0.4924473762512207 -0.8914729356765747 0.038759708404541016
0.4935002326965332 -0.8914728760719299 0.05426359176635742
0.49778079986572266 -0.8759689927101135 -0.05426359176635742
0.49562007188796997 -0.8759689331054688 -0.038759708404541016
0.49455368518829346 -0.8759689331054688 -0.02325582504272461
0.49529725313186646 -0.8759689331054688 -0.007751941680908203
0.49593496322631836 -0.8759690523147583 0.007751941680908203
0.4953584671020508 -0.8759689927101135 0.02325582504272461
0.4968263506889343 -0.8759689927101135 0.038759708404541016
0.4986100196838379 -0.8759690523147583 0.05426359176635742
0.501728892326355 -0.8604651093482971 -0.05426359176635742
0.4989267587661743 -0.8604651689529419 -0.038759708404541016
0.49776095151901245 -0.8604650497436523 -0.02325582504272461
0.49862709641456604 -0.8604651093482971 -0.007751941680908203
0.4993537664413452 -0.8604651093482971 0.007751941680908203
0.4984123706817627 -0.8604651093482971 0.02325582504272461
0.49971744418144226 -0.8604651093482971 0.038759708404541016
0.49973735213279724 -0.8604651093482971 0.05426359176635742
0.503633439540863 -0.8449612259864807 -0.05426359176635742
0.5005034804344177 -0.8449612259864807 -0.038759708404541016
0.4992283284664154 -0.8449612855911255 -0.02325582504272461
0.5006164312362671 -0.8449612259864807 -0.007751941680908203
0.5016441345214844 -0.8449612259864807 0.007751941680908203
0.5000665187835693 -0.8449612259864807 0.02325582504272461
0.5014407634735107 -0.8449612259864807 0.038759708404541016
0.5014499425888062 -0.8449612259864807 0.05426359176635742
0.5010837316513062 -0.8294573426246643 -0.038759708404541016
0.4997609257698059 -0.8294574022293091 -0.02325582504272461
0.5015462636947632 -0.8294572830200195 -0.007751941680908203
0.5031296014785767 -0.8294573426246643 0.007751941680908203
0.5010079145431519 -0.8294573426246643 0.02325582504272461
0.5022403001785278 -0.8294573426246643 0.038759708404541016
0.5024634003639221 -0.8294573426246643 0.05426359176635742
0.5011546015739441 -0.8139535188674927 -0.038759708404541016
0.49980899691581726 -0.8139535188674927 -0.02325582504272461
0.501836895942688 -0.8139535188674927 -0.007751941680908203
0.503579318523407 -0.8139535188674927 0.007751941680908203
0.5015497803688049 -0.8139535188674927 0.02325582504272461
0.5027178525924683 -0.8139535188674927 0.038759708404541016
0.5026848316192627 -0.8139535188674927 0.05426359176635742
0.5011230707168579 -0.7984496355056763 -0.038759708404541016
0.4998753070831299 -0.7984496355056763 -0.02325582504272461
0.5020043849945068 -0.7984496355056763 -0.007751941680908203
0.5036087036132812 -0.7984496355056763 0.007751941680908203
0.5017921924591064 -0.7984496355056763 0.02325582504272461
0.5027830600738525 -0.7984496355056763 0.038759708404541016
0.502360463142395 -0.7984496355056763 0.05426359176635742
0.5010970234870911 -0.7829457521438599 -0.038759708404541016
0.5000066757202148 -0.7829457521438599 -0.02325582504272461
0.5022709369659424 -0.7829457521438599 -0.007751941680908203
0.5037878155708313 -0.7829457521438599 0.007751941680908203
0.5019345283508301 -0.7829457521438599 0.02325582504272461
0.5026329755783081 -0.7829457521438599 0.038759708404541016
0.5021601319313049 -0.7829457521438599 0.05426359176635742
0.501009464263916 -0.7674418687820435 -0.038759708404541016
0.5000537633895874 -0.7674418687820435 -0.02325582504272461
0.5022895932197571 -0.7674418687820435 -0.007751941680908203
0.5037692785263062 -0.7674418687820435 0.007751941680908203
0.5019527673721313 -0.7674418687820435 0.02325582504272461
0.5022764205932617 -0.7674418687820435 0.038759708404541016
0.5018277764320374 -0.7674418687820435 0.05426359176635742
0.5036598443984985 -0.751937985420227 -0.05426359176635742
0.5009068250656128 -0.751937985420227 -0.038759708404541016
0.5000203847885132 -0.751937985420227 -0.02325582504272461
0.5021764039993286 -0.751937985420227 -0.007751941680908203
0.5036687850952148 -0.751937985420227 0.007751941680908203
0.5019234418869019 -0.751937985420227 0.02325582504272461
0.5021325349807739 -0.751937985420227 0.038759708404541016
0.5015323758125305 -0.751937985420227 0.05426359176635742
0.5034263730049133 -0.7364341020584106 -0.05426359176635742
0.5008503198623657 -0.7364341020584106 -0.038759708404541016
0.5000370740890503 -0.7364341020584106 -0.02325582504272461
0.5021711587905884 -0.7364341020584106 -0.007751941680908203
0.5035837888717651 -0.7364341020584106 0.007751941680908203
0.5019658803939819 -0.7364341020584106 0.02325582504272461
0.5021568536758423 -0.7364341020584106 0.038759708404541016
0.501493513584137 -0.7364341020584106 0.05426359176635742
0.5031881332397461 -0.7209302186965942 -0.05426359176635742
0.5008015632629395 -0.7209302186965942 -0.038759708404541016
0.5000713467597961 -0.7209302186965942 -0.02325582504272461
0.5021398663520813 -0.7209302186965942 -0.007751941680908203
0.5033631324768066 -0.7209302186965942 0.007751941680908203
0.5020852088928223 -0.7209302186965942 0.02325582504272461
0.5024120211601257 -0.7209302186965942 0.038759708404541016
0.5016497373580933 -0.7209302186965942 0.05426359176635742
0.5030890703201294 -0.7054263353347778 -0.05426359176635742
0.5008063912391663 -0.7054263353347778 -0.038759708404541016
0.5001351833343506 -0.7054263353347778 -0.02325582504272461
0.5022016763687134 -0.7054263353347778 -0.007751941680908203
0.5033664703369141 -0.7054263353347778 0.007751941680908203
0.5019986629486084 -0.7054263353347778 0.02325582504272461
0.5022968053817749 -0.7054263353347778 0.038759708404541016
0.5015544295310974 -0.7054263353347778 0.05426359176635742
0.503138542175293 -0.6899224519729614 -0.05426359176635742
0.5008548498153687 -0.6899224519729614 -0.038759708404541016
0.5001829266548157 -0.6899224519729614 -0.02325582504272461
0.5023514032363892 -0.6899224519729614 -0.007751941680908203
0.5036671161651611 -0.6899224519729614 0.007751941680908203
0.5018265247344971 -0.6899224519729614 0.02325582504272461
0.5019148588180542 -0.6899224519729614 0.038759708404541016
0.5013444423675537 -0.6899224519729614 0.05426359176635742
0.5032002925872803 -0.674418568611145 -0.05426359176635742
0.5009135007858276 -0.674418568611145 -0.038759708404541016
0.5002682209014893 -0.674418568611145 -0.02325582504272461
0.5026265382766724 -0.674418568611145 -0.007751941680908203
0.5019533634185791 -0.674418568611145 0.02325582504272461
0.5018520355224609 -0.674418568611145 0.038759708404541016
0.50151526927948 -0.674418568611145 0.05426359176635742
0.5032671689987183 -0.6589146852493286 -0.05426359176635742
0.5009642839431763 -0.6589146852493286 -0.038759708404541016
0.5004262328147888 -0.6589146852493286 -0.02325582504272461
0.5029913783073425 -0.6589146852493286 -0.007751941680908203
0.5021780133247375 -0.6589146852493286 0.02325582504272461
0.5017775297164917 -0.6589146852493286 0.038759708404541016
0.5015935897827148 -0.6589146852493286 0.05426359176635742
0.5032855868339539 -0.643410861492157 -0.05426359176635742
0.5009807348251343 -0.643410861492157 -0.038759708404541016
0.5005223751068115 -0.643410861492157 -0.02325582504272461
0.5031587481498718 -0.643410861492157 -0.007751941680908203
0.5022362470626831 -0.643410861492157 0.02325582504272461
0.5015748739242554 -0.643410861492157 0.038759708404541016
0.5015320777893066 -0.643410861492157 0.05426359176635742
0.5032733678817749 -0.6279069781303406 -0.05426359176635742
0.5009533166885376 -0.6279069781303406 -0.038759708404541016
0.5005752444267273 -0.6279069781303406 -0.02325582504272461
0.5032417178153992 -0.6279069781303406 -0.007751941680908203
0.5024455785751343 -0.6279069781303406 0.02325582504272461
0.5014359354972839 -0.6279069781303406 0.038759708404541016
0.5013116002082825 -0.6279069781303406 0.05426359176635742
0.5031058192253113 -0.6124030947685242 -0.05426359176635742
0.500830352306366 -0.6124030947685242 -0.038759708404541016
0.5005940198898315 -0.6124030947685242 -0.02325582504272461
0.5032877922058105 -0.6124030947685242 -0.007751941680908203
0.5028687119483948 -0.6124030947685242 0.02325582504272461
0.5014152526855469 -0.6124030947685242 0.038759708404541016
0.5011074542999268 -0.6124030351638794 0.05426359176635742
0.5029849410057068 -0.5968992114067078 -0.05426359176635742
0.5007480382919312 -0.5968992114067078 -0.038759708404541016
0.5006742477416992 -0.5968992114067078 -0.02325582504272461
0.5034181475639343 -0.5968992114067078 -0.007751941680908203
0.5033286809921265 -0.5968992114067078 0.02325582504272461
0.5014743804931641 -0.5968992710113525 0.038759708404541016
0.5009380578994751 -0.5968992114067078 0.05426359176635742
0.5028830766677856 -0.5813953876495361 -0.05426359176635742
0.500691294670105 -0.5813953876495361 -0.038759708404541016
0.5007941722869873 -0.5813953876495361 -0.02325582504272461
0.5036365985870361 -0.5813953876495361 -0.007751941680908203
0.503848135471344 -0.5813953876495361 0.02325582504272461
0.5015717148780823 -0.5813953876495361 0.038759708404541016
0.5008459091186523 -0.5813953876495361 0.05426359176635742
0.5027940273284912 -0.5658915042877197 -0.05426359176635742
0.5006892085075378 -0.5658915042877197 -0.038759708404541016
0.5009415745735168 -0.5658915042877197 -0.02325582504272461
0.5037433505058289 -0.5658915042877197 -0.007751941680908203
0.5016379356384277 -0.5658915042877197 0.038759708404541016
0.5007266998291016 -0.5658915042877197 0.05426359176635742
0.5028045177459717 -0.5503876209259033 -0.05426359176635742
0.5007938742637634 -0.5503876209259033 -0.038759708404541016
0.5011910796165466 -0.5503876209259033 -0.02325582504272461
0.5017685890197754 -0.5503876209259033 0.038759708404541016
0.5007919073104858 -0.5503876209259033 0.05426359176635742
0.5029146671295166 -0.5348837375640869 -0.05426359176635742
0.5010009407997131 -0.5348837375640869 -0.038759708404541016
0.5014430284500122 -0.5348837375640869 -0.02325582504272461
0.5019494295120239 -0.5348837375640869 0.038759708404541016
0.5008810758590698 -0.5348837375640869 0.05426359176635742
0.5030630826950073 -0.5193798542022705 -0.05426359176635742
0.5012226700782776 -0.5193798542022705 -0.038759708404541016
0.5016608238220215 -0.5193798542022705 -0.02325582504272461
0.5021170377731323 -0.5193798542022705 0.038759708404541016
0.5010567903518677 -0.5193798542022705 0.05426359176635742
0.5030536651611328 -0.5038759708404541 -0.05426359176635742
0.5012425184249878 -0.5038759708404541 -0.038759708404541016
0.501638650894165 -0.5038759708404541 -0.02325582504272461
0.5020557641983032 -0.5038759708404541 0.038759708404541016
0.5011737942695618 -0.5038759708404541 0.05426359176635742
0.5030966997146606 -0.4883720874786377 -0.05426359176635742
0.5012009143829346 -0.4883720874786377 -0.038759708404541016
0.5015488862991333 -0.4883720874786377 -0.02325582504272461
0.5021159052848816 -0.4883720874786377 0.038759708404541016
0.5013124346733093 -0.4883720874786377 0.05426359176635742
0.5031044483184814 -0.4728682041168213 -0.05426359176635742
0.5010920763015747 -0.4728682041168213 -0.038759708404541016
0.5013465285301208 -0.4728682041168213 -0.02325582504272461
0.5038621425628662 -0.4728682041168213 -0.007751941680908203
0.5020633935928345 -0.4728682041168213 0.038759708404541016
0.5013664364814758 -0.4728682041168213 0.05426359176635742
0.5031340718269348 -0.4573643207550049 -0.05426359176635742
0.5009840726852417 -0.4573643207550049 -0.038759708404541016
0.5011638402938843 -0.4573643207550049 -0.02325582504272461
0.5036891102790833 -0.4573643207550049 -0.007751941680908203
0.5020159482955933 -0.4573643207550049 0.038759708404541016
0.5013812184333801 -0.4573643207550049 0.05426359176635742
0.5031747221946716 -0.4418604373931885 -0.05426359176635742
0.5008822679519653 -0.4418604373931885 -0.038759708404541016
0.5010443925857544 -0.4418604373931885 -0.02325582504272461
0.5035884976387024 -0.4418604373931885 -0.007751941680908203
0.5038173198699951 -0.4418604373931885 0.02325582504272461
0.5019696950912476 -0.4418604373931885 0.038759708404541016
0.5014421343803406 -0.4418604373931885 0.05426359176635742
0.5032539367675781 -0.42635661363601685 -0.05426359176635742
0.5008628368377686 -0.42635661363601685 -0.038759708404541016
0.50091552734375 -0.42635661363601685 -0.02325582504272461
0.5034121870994568 -0.42635661363601685 -0.007751941680908203
0.5035933256149292 -0.42635661363601685 0.02325582504272461
0.5019139051437378 -0.42635661363601685 0.038759708404541016
0.5013958811759949 -0.42635661363601685 0.05426359176635742
0.503287136554718 -0.41085273027420044 -0.05426359176635742
0.5008527040481567 -0.41085273027420044 -0.038759708404541016
0.5008251667022705 -0.41085273027420044 -0.02325582504272461
0.503207802772522 -0.41085273027420044 -0.007751941680908203
0.50335693359375 -0.41085273027420044 0.02325582504272461
0.5018378496170044 -0.41085273027420044 0.038759708404541016
0.5013552904129028 -0.41085273027420044 0.05426359176635742
0.5032038688659668 -0.39534884691238403 -0.05426359176635742
0.5008501410484314 -0.39534884691238403 -0.038759708404541016
0.5007421970367432 -0.39534884691238403 -0.02325582504272461
0.5029351711273193 -0.39534884691238403 -0.007751941680908203
0.503096342086792 -0.39534884691238403 0.02325582504272461
0.5017441511154175 -0.39534884691238403 0.038759708404541016
0.5012853145599365 -0.39534884691238403 0.05426359176635742
0.5031396150588989 -0.3798449635505676 -0.05426359176635742
0.5008957982063293 -0.3798449635505676 -0.038759708404541016
0.5006746053695679 -0.3798449635505676 -0.02325582504272461
0.5025594234466553 -0.3798449635505676 -0.007751941680908203
0.5027647614479065 -0.3798449635505676 0.02325582504272461
0.5016103982925415 -0.3798449635505676 0.038759708404541016
0.5012161135673523 -0.3798449635505676 0.05426359176635742
0.5030469298362732 -0.3643410801887512 -0.05426359176635742
0.500967264175415 -0.3643410801887512 -0.038759708404541016
0.500592052936554 -0.3643410801887512 -0.02325582504272461
0.5021202564239502 -0.3643410801887512 -0.007751941680908203
0.5033567547798157 -0.3643410801887512 0.007751941680908203
0.5023574829101562 -0.3643410801887512 0.02325582504272461
0.5014805793762207 -0.3643410801887512 0.038759708404541016
0.501065731048584 -0.3643410801887512 0.05426359176635742
0.5029984712600708 -0.3488371968269348 -0.05426359176635742
0.5010676383972168 -0.3488371968269348 -0.038759708404541016
0.5005642175674438 -0.3488371968269348 -0.02325582504272461
0.5018211603164673 -0.3488371968269348 -0.007751941680908203
0.5029922723770142 -0.3488371968269348 0.007751941680908203
0.5021299123764038 -0.3488371968269348 0.02325582504272461
0.5014865398406982 -0.3488371968269348 0.038759708404541016
0.5010489225387573 -0.3488371968269348 0.05426359176635742
0.5028936266899109 -0.3333333134651184 -0.05426359176635742
0.5010996460914612 -0.3333333134651184 -0.038759708404541016
0.5005350112915039 -0.3333333134651184 -0.02325582504272461
0.5015791058540344 -0.3333333134651184 -0.007751941680908203
0.5026599168777466 -0.3333333134651184 0.007751941680908203
0.5018962621688843 -0.3333333134651184 0.02325582504272461
0.5014547109603882 -0.3333333134651184 0.038759708404541016
0.5010284185409546 -0.3333333134651184 0.05426359176635742
0.5028090476989746 -0.317829430103302 -0.05426359176635742
0.5011248588562012 -0.317829430103302 -0.038759708404541016
0.5005260109901428 -0.317829430103302 -0.02325582504272461
0.5014383792877197 -0.317829430103302 -0.007751941680908203
0.502405047416687 -0.317829430103302 0.007751941680908203
0.5016964673995972 -0.317829430103302 0.02325582504272461
0.5015027523040771 -0.317829430103302 0.038759708404541016
0.5009874105453491 -0.317829430103302 0.05426359176635742
0.5027551651000977 -0.30232560634613037 -0.05426359176635742
0.5011221170425415 -0.30232560634613037 -0.038759708404541016
0.5004809498786926 -0.30232560634613037 -0.02325582504272461
0.5012879371643066 -0.30232560634613037 -0.007751941680908203
0.5021332502365112 -0.30232560634613037 0.007751941680908203
0.5014746785163879 -0.30232560634613037 0.02325582504272461
0.5015109777450562 -0.30232560634613037 0.038759708404541016
0.5009045600891113 -0.30232560634613037 0.05426359176635742
0.5026460289955139 -0.28682172298431396 -0.05426359176635742
0.5010464191436768 -0.28682172298431396 -0.038759708404541016
0.500374436378479 -0.28682172298431396 -0.02325582504272461
0.5011553764343262 -0.28682172298431396 -0.007751941680908203
0.501935601234436 -0.28682172298431396 0.007751941680908203
0.5012761950492859 -0.28682172298431396 0.02325582504272461
0.5014525055885315 -0.28682172298431396 0.038759708404541016
0.5008248090744019 -0.28682172298431396 0.05426359176635742
0.5026283264160156 -0.27131783962249756 -0.05426359176635742
0.501020073890686 -0.27131783962249756 -0.038759708404541016
0.5003378391265869 -0.27131783962249756 -0.02325582504272461
0.5010976791381836 -0.27131783962249756 -0.007751941680908203
0.501847505569458 -0.27131783962249756 0.007751941680908203
0.5011595487594604 -0.27131783962249756 0.02325582504272461
0.5014328360557556 -0.27131783962249756 0.038759708404541016
0.500700056552887 -0.27131783962249756 0.05426359176635742
0.5026444792747498 -0.25581395626068115 -0.05426359176635742
0.5010346174240112 -0.25581395626068115 -0.038759708404541016
0.500343918800354 -0.25581395626068115 -0.02325582504272461
0.5011422038078308 -0.25581395626068115 -0.007751941680908203
0.5018947124481201 -0.25581395626068115 0.007751941680908203
0.5011608600616455 -0.25581395626068115 0.02325582504272461
0.5014287233352661 -0.25581395626068115 0.038759708404541016
0.5006452798843384 -0.25581395626068115 0.05426359176635742
0.5026504993438721 -0.24031007289886475 -0.05426359176635742
0.5010262727737427 -0.24031007289886475 -0.038759708404541016
0.5003081560134888 -0.24031007289886475 -0.02325582504272461
0.5011204481124878 -0.24031007289886475 -0.007751941680908203
0.5018951296806335 -0.24031007289886475 0.007751941680908203
0.5011020302772522 -0.24031007289886475 0.02325582504272461
0.501360297203064 -0.24031007289886475 0.038759708404541016
0.5005926489830017 -0.24031007289886475 0.05426359176635742
0.5025995373725891 -0.22480618953704834 -0.05426359176635742
0.5009998679161072 -0.22480618953704834 -0.038759708404541016
0.5002845525741577 -0.22480618953704834 -0.02325582504272461
0.501120924949646 -0.22480618953704834 -0.007751941680908203
0.5019149780273438 -0.22480618953704834 0.007751941680908203
0.5010432004928589 -0.22480618953704834 0.02325582504272461
0.5013251304626465 -0.22480618953704834 0.038759708404541016
0.5005191564559937 -0.22480618953704834 0.05426359176635742
0.5025585889816284 -0.20930230617523193 -0.05426359176635742
0.5010075569152832 -0.20930230617523193 -0.038759708404541016
0.5003131628036499 -0.20930230617523193 -0.02325582504272461
0.5011726021766663 -0.20930230617523193 -0.007751941680908203
0.5019930005073547 -0.20930230617523193 0.007751941680908203
0.5010344982147217 -0.20930230617523193 0.02325582504272461
0.5013320446014404 -0.20930230617523193 0.038759708404541016
0.5004737973213196 -0.20930230617523193 0.05426359176635742
0.50255286693573 -0.19379842281341553 -0.05426359176635742
0.5010288953781128 -0.19379842281341553 -0.038759708404541016
0.5003687143325806 -0.19379842281341553 -0.02325582504272461
0.5012432932853699 -0.19379842281341553 -0.007751941680908203
0.5020712018013 -0.19379842281341553 0.007751941680908203
0.5010709762573242 -0.19379842281341553 0.02325582504272461
0.5013691186904907 -0.19379842281341553 0.038759708404541016
0.500470757484436 -0.19379842281341553 0.05426359176635742
0.5025197863578796 -0.1782945990562439 -0.05426359176635742
0.5010495185852051 -0.1782945990562439 -0.038759708404541016
0.5003914833068848 -0.1782945990562439 -0.02325582504272461
0.5011985301971436 -0.1782945990562439 -0.007751941680908203
0.502000093460083 -0.1782945990562439 0.007751941680908203
0.501035749912262 -0.1782945990562439 0.02325582504272461
0.501325786113739 -0.1782945990562439 0.038759708404541016
0.5004475116729736 -0.1782945990562439 0.05426359176635742
0.5025742053985596 -0.1627907156944275 -0.05426359176635742
0.501132607460022 -0.1627907156944275 -0.038759708404541016
0.5004643201828003 -0.1627907156944275 -0.02325582504272461
0.501177191734314 -0.1627907156944275 -0.007751941680908203
0.5019675493240356 -0.1627907156944275 0.007751941680908203
0.5010632276535034 -0.1627907156944275 0.02325582504272461
0.501367449760437 -0.1627907156944275 0.038759708404541016
0.5004701614379883 -0.1627907156944275 0.05426359176635742
0.5026211738586426 -0.14728683233261108 -0.05426359176635742
0.5012401938438416 -0.14728683233261108 -0.038759708404541016
0.5005714893341064 -0.14728683233261108 -0.02325582504272461
0.5012403726577759 -0.14728683233261108 -0.007751941680908203
0.5020169615745544 -0.14728683233261108 0.007751941680908203
0.5011444091796875 -0.14728683233261108 0.02325582504272461
0.5014967322349548 -0.14728683233261108 0.038759708404541016
0.5005731582641602 -0.14728683233261108 0.05426359176635742
0.5026901960372925 -0.13178294897079468 -0.05426359176635742
0.5013226270675659 -0.13178294897079468 -0.038759708404541016
0.5006225109100342 -0.13178294897079468 -0.02325582504272461
0.5013067126274109 -0.13178294897079468 -0.007751941680908203
0.502074122428894 -0.13178294897079468 0.007751941680908203
0.5011441707611084 -0.13178294897079468 0.02325582504272461
0.5015913248062134 -0.13178294897079468 0.038759708404541016
0.5006178021430969 -0.13178294897079468 0.05426359176635742
0.5027691125869751 -0.11627906560897827 -0.05426359176635742
0.5013739466667175 -0.11627906560897827 -0.038759708404541016
0.5006598234176636 -0.11627906560897827 -0.02325582504272461
0.5014119148254395 -0.11627906560897827 -0.007751941680908203
0.5021656155586243 -0.11627906560897827 0.007751941680908203
0.5011441111564636 -0.11627906560897827 0.02325582504272461
0.5016571283340454 -0.11627906560897827 0.038759708404541016
0.5007740259170532 -0.11627906560897827 0.05426359176635742
0.5028919577598572 -0.10077518224716187 -0.05426359176635742
0.5014574527740479 -0.10077518224716187 -0.038759708404541016
0.5007145404815674 -0.10077518224716187 -0.02325582504272461
0.5015237927436829 -0.10077518224716187 -0.007751941680908203
0.5022825002670288 -0.10077518224716187 0.007751941680908203
0.5011599063873291 -0.10077518224716187 0.02325582504272461
0.5017889738082886 -0.10077518224716187 0.038759708404541016
0.5009135007858276 -0.10077518224716187 0.05426359176635742
0.5030869245529175 -0.08527129888534546 -0.05426359176635742
0.5015427470207214 -0.08527129888534546 -0.038759708404541016
0.5007611513137817 -0.08527129888534546 -0.02325582504272461
0.5016635656356812 -0.08527129888534546 -0.007751941680908203
0.5024112462997437 -0.08527129888534546 0.007751941680908203
0.5012327432632446 -0.08527129888534546 0.02325582504272461
0.5018836259841919 -0.08527129888534546 0.038759708404541016
0.5010915994644165 -0.08527129888534546 0.05426359176635742
0.5031988620758057 -0.06976741552352905 -0.05426359176635742
0.5015251636505127 -0.06976741552352905 -0.038759708404541016
0.5006977915763855 -0.06976741552352905 -0.02325582504272461
0.5016692876815796 -0.06976741552352905 -0.007751941680908203
0.5024093389511108 -0.06976741552352905 0.007751941680908203
0.5011849999427795 -0.06976741552352905 0.02325582504272461
0.5017783045768738 -0.06976741552352905 0.038759708404541016
0.5011221766471863 -0.06976741552352905 0.05426359176635742
0.5034040808677673 -0.05426359176635742 -0.05426359176635742
0.5015559196472168 -0.05426359176635742 -0.038759708404541016
0.5006777048110962 -0.05426359176635742 -0.02325582504272461
0.5017690658569336 -0.05426359176635742 -0.007751941680908203
0.5025229454040527 -0.05426359176635742 0.007751941680908203
0.5012643933296204 -0.05426359176635742 0.02325582504272461
0.5018264055252075 -0.05426359176635742 0.038759708404541016
0.501261293888092 -0.05426359176635742 0.05426359176635742
0.5034835934638977 -0.038759708404541016 -0.05426359176635742
0.5015285015106201 -0.038759708404541016 -0.038759708404541016
0.5005978941917419 -0.038759708404541016 -0.02325582504272461
0.5017095804214478 -0.038759708404541016 -0.007751941680908203
0.5024901628494263 -0.038759708404541016 0.007751941680908203
0.5012171268463135 -0.038759708404541016 0.02325582504272461
0.5017259120941162 -0.038759708404541016 0.038759708404541016
0.5012385249137878 -0.038759708404541016 0.05426359176635742
0.5035749077796936 -0.02325582504272461 -0.05426359176635742
0.5015153884887695 -0.02325582504272461 -0.038759708404541016
0.5005810260772705 -0.02325582504272461 -0.02325582504272461
0.5017185211181641 -0.02325582504272461 -0.007751941680908203
0.502513587474823 -0.02325582504272461 0.007751941680908203
0.5012034177780151 -0.02325582504272461 0.02325582504272461
0.5016796588897705 -0.02325582504272461 0.038759708404541016
0.5012255907058716 -0.02325582504272461 0.05426359176635742
0.5034938454627991 -0.007751941680908203 -0.05426359176635742
0.501479983329773 -0.007751941680908203 -0.038759708404541016
0.5006013512611389 -0.007751941680908203 -0.02325582504272461
0.5016930103302002 -0.007751941680908203 -0.007751941680908203
0.5024971961975098 -0.007751941680908203 0.007751941680908203
0.5011662840843201 -0.007751941680908203 0.02325582504272461
0.501631498336792 -0.007751941680908203 0.038759708404541016
0.5011565685272217 -0.007751941680908203 0.05426359176635742
0.5034483671188354 0.007751941680908203 -0.05426359176635742
0.5015028119087219 0.007751941680908203 -0.038759708404541016
0.500668466091156 0.007751941680908203 -0.02325582504272461
0.501623272895813 0.007751941680908203 -0.007751941680908203
0.5024087429046631 0.007751941680908203 0.007751941680908203
0.5010969638824463 0.007751941680908203 0.02325582504272461
0.501537561416626 0.007751941680908203 0.038759708404541016
0.5010059475898743 0.007751941680908203 0.05426359176635742
0.5033801794052124 0.02325582504272461 -0.05426359176635742
0.5015827417373657 0.02325582504272461 -0.038759708404541016
0.5007802248001099 0.02325582504272461 -0.02325582504272461
0.5015736818313599 0.02325582504272461 -0.007751941680908203
0.502334475517273 0.02325582504272461 0.007751941680908203
0.5010518431663513 0.02325582504272461 0.02325582504272461
0.50148606300354 0.02325582504272461 0.038759708404541016
0.5008525252342224 0.02325582504272461 0.05426359176635742
0.5033102035522461 0.038759708404541016 -0.05426359176635742
0.5016626119613647 0.038759708404541016 -0.038759708404541016
0.500883936882019 0.038759708404541016 -0.02325582504272461
0.5015615224838257 0.038759708404541016 -0.007751941680908203
0.5023123025894165 0.038759708404541016 0.007751941680908203
0.5010565519332886 0.038759708404541016 0.02325582504272461
0.5015125274658203 0.038759708404541016 0.038759708404541016
0.500747561454773 0.038759708404541016 0.05426359176635742
0.50331711769104 0.05426359176635742 -0.05426359176635742
0.5017586946487427 0.05426359176635742 -0.038759708404541016
0.5010008811950684 0.05426359176635742 -0.02325582504272461
0.5016125440597534 0.05426359176635742 -0.007751941680908203
0.5023679137229919 0.05426359176635742 0.007751941680908203
0.5011097192764282 0.05426359176635742 0.02325582504272461
0.5015965700149536 0.05426359176635742 0.038759708404541016
0.5007756948471069 0.05426359176635742 0.05426359176635742
0.5032842755317688 0.06976747512817383 -0.05426359176635742
0.5018157362937927 0.06976747512817383 -0.038759708404541016
0.5010733604431152 0.06976747512817383 -0.02325582504272461
0.5016220808029175 0.06976747512817383 -0.007751941680908203
0.5023659467697144 0.06976747512817383 0.007751941680908203
0.5011006593704224 0.06976747512817383 0.02325582504272461
0.5016542673110962 0.06976747512817383 0.038759708404541016
0.5007428526878357 0.06976747512817383 0.05426359176635742
0.5033237934112549 0.08527135848999023 -0.05426359176635742
0.501910388469696 0.08527135848999023 -0.038759708404541016
0.5011680126190186 0.08527135848999023 -0.02325582504272461
0.5016886591911316 0.08527135848999023 -0.007751941680908203
0.5024354457855225 0.08527135848999023 0.007751941680908203
0.5011858344078064 0.08527135848999023 0.02325582504272461
0.501826286315918 0.08527135848999023 0.038759708404541016
0.5008499622344971 0.08527135848999023 0.05426359176635742
0.5033131241798401 0.10077524185180664 -0.05426359176635742
0.5019084215164185 0.10077524185180664 -0.038759708404541016
0.5011579990386963 0.10077524185180664 -0.02325582504272461
0.501699686050415 0.10077524185180664 -0.007751941680908203
0.5024317502975464 0.10077524185180664 0.007751941680908203
0.5011802315711975 0.10077524185180664 0.02325582504272461
0.5018061995506287 0.10077524185180664 0.038759708404541016
0.5008672475814819 0.10077524185180664 0.05426359176635742
0.50334233045578 0.11627912521362305 -0.05426359176635742
0.5019060373306274 0.11627912521362305 -0.038759708404541016
0.5011388063430786 0.11627912521362305 -0.02325582504272461
0.5017894506454468 0.11627912521362305 -0.007751941680908203
0.5025196075439453 0.11627912521362305 0.007751941680908203
0.5012274980545044 0.11627912521362305 0.02325582504272461
0.5018202066421509 0.11627912521362305 0.038759708404541016
0.5008325576782227 0.11627912521362305 0.05426359176635742
0.5033683776855469 0.1317828893661499 -0.05426359176635742
0.5019029378890991 0.1317828893661499 -0.038759708404541016
0.5011332035064697 0.1317828893661499 -0.02325582504272461
0.501910924911499 0.1317828893661499 -0.007751941680908203
0.5026283264160156 0.1317828893661499 0.007751941680908203
0.5013048648834229 0.1317828893661499 0.02325582504272461
0.5017827749252319 0.1317828893661499 0.038759708404541016
0.5008159875869751 0.1317828893661499 0.05426359176635742
0.5033385753631592 0.1472867727279663 -0.05426359176635742
0.5018644332885742 0.1472867727279663 -0.038759708404541016
0.5011096000671387 0.1472867727279663 -0.02325582504272461
0.501976728439331 0.1472867727279663 -0.007751941680908203
0.5026862621307373 0.1472867727279663 0.007751941680908203
0.5013400316238403 0.1472867727279663 0.02325582504272461
0.5016857385635376 0.1472867727279663 0.038759708404541016
0.5008387565612793 0.1472867727279663 0.05426359176635742
0.5032427906990051 0.16279065608978271 -0.05426359176635742
0.5017597675323486 0.16279065608978271 -0.038759708404541016
0.5010533332824707 0.16279065608978271 -0.02325582504272461
0.5019561052322388 0.16279065608978271 -0.007751941680908203
0.5026689767837524 0.16279065608978271 0.007751941680908203
0.5012871026992798 0.16279065608978271 0.02325582504272461
0.5015578269958496 0.16279065608978271 0.038759708404541016
0.5007154941558838 0.16279065608978271 0.05426359176635742
0.5031195878982544 0.17829453945159912 -0.05426359176635742
0.501717209815979 0.17829453945159912 -0.038759708404541016
0.5010780096054077 0.17829453945159912 -0.02325582504272461
0.5020073652267456 0.17829453945159912 -0.007751941680908203
0.5027227401733398 0.17829453945159912 0.007751941680908203
0.5013471841812134 0.17829453945159912 0.02325582504272461
0.5015503168106079 0.17829453945159912 0.038759708404541016
0.5006474852561951 0.17829453945159912 0.05426359176635742
0.5030207633972168 0.19379842281341553 -0.05426359176635742
0.5016720294952393 0.19379842281341553 -0.038759708404541016
0.5010986328125 0.19379842281341553 -0.02325582504272461
0.5020361542701721 0.19379842281341553 -0.007751941680908203
0.5027374029159546 0.19379842281341553 0.007751941680908203
0.5013976097106934 0.19379842281341553 0.02325582504272461
0.5015296339988708 0.19379842281341553 0.038759708404541016
0.5005971193313599 0.19379842281341553 0.05426359176635742
0.5029383301734924 0.20930230617523193 -0.05426359176635742
0.5016289949417114 0.20930230617523193 -0.038759708404541016
0.5011087656021118 0.20930230617523193 -0.02325582504272461
0.5020346641540527 0.20930230617523193 -0.007751941680908203
0.5026918649673462 0.20930230617523193 0.007751941680908203
0.5014188885688782 0.20930230617523193 0.02325582504272461
0.5014681220054626 0.20930230617523193 0.038759708404541016
0.5005664825439453 0.20930230617523193 0.05426359176635742
0.5029386281967163 0.22480618953704834 -0.05426359176635742
0.5016206502914429 0.22480618953704834 -0.038759708404541016
0.5010941624641418 0.22480618953704834 -0.02325582504272461
0.5020039677619934 0.22480618953704834 -0.007751941680908203
0.5026348829269409 0.22480618953704834 0.007751941680908203
0.5014127492904663 0.22480618953704834 0.02325582504272461
0.5014370679855347 0.22480618953704834 0.038759708404541016
0.50054931640625 0.22480618953704834 0.05426359176635742
0.50303715467453 0.24031007289886475 -0.05426359176635742
0.5016951560974121 0.24031007289886475 -0.038759708404541016
0.5011540651321411 0.24031007289886475 -0.02325582504272461
0.502103328704834 0.24031007289886475 -0.007751941680908203
0.5027132034301758 0.24031007289886475 0.007751941680908203
0.5014852285385132 0.24031007289886475 0.02325582504272461
0.5015287399291992 0.24031007289886475 0.038759708404541016
0.5006654262542725 0.24031007289886475 0.05426359176635742
0.5030866861343384 0.25581395626068115 -0.05426359176635742
0.5017319917678833 0.25581395626068115 -0.038759708404541016
0.5011495351791382 0.25581395626068115 -0.02325582504272461
0.5021037459373474 0.25581395626068115 -0.007751941680908203
0.5027228593826294 0.25581395626068115 0.007751941680908203
0.501410961151123 0.25581395626068115 0.02325582504272461
0.5015273094177246 0.25581395626068115 0.038759708404541016
0.5007221102714539 0.25581395626068115 0.05426359176635742
0.5031793117523193 0.27131783962249756 -0.05426359176635742
0.501693844795227 0.27131783962249756 -0.038759708404541016
0.5010620355606079 0.27131783962249756 -0.02325582504272461
0.5020739436149597 0.27131783962249756 -0.007751941680908203
0.5027115345001221 0.27131783962249756 0.007751941680908203
0.5012789368629456 0.27131783962249756 0.02325582504272461
0.5014755725860596 0.27131783962249756 0.038759708404541016
0.5008130073547363 0.27131783962249756 0.05426359176635742
0.5031781792640686 0.28682172298431396 -0.05426359176635742
0.5015734434127808 0.28682172298431396 -0.038759708404541016
0.5008569955825806 0.28682172298431396 -0.02325582504272461
0.5019797086715698 0.28682172298431396 -0.007751941680908203
0.5026575326919556 0.28682172298431396 0.007751941680908203
0.5011064410209656 0.28682172298431396 0.02325582504272461
0.5014098882675171 0.28682172298431396 0.038759708404541016
0.5008604526519775 0.28682172298431396 0.05426359176635742
0.5032919049263 0.30232560634613037 -0.05426359176635742
0.5015145540237427 0.30232560634613037 -0.038759708404541016
0.500710129737854 0.30232560634613037 -0.02325582504272461
0.501999020576477 0.30232560634613037 -0.007751941680908203
0.5027042031288147 0.30232560634613037 0.007751941680908203
0.5010498762130737 0.30232560634613037 0.02325582504272461
0.5014203786849976 0.30232560634613037 0.038759708404541016
0.5009653568267822 0.30232560634613037 0.05426359176635742
0.5032787919044495 0.3178294897079468 -0.05426359176635742
0.5013099908828735 0.3178294897079468 -0.038759708404541016
0.5004984140396118 0.3178294897079468 -0.02325582504272461
0.5020052194595337 0.3178294897079468 -0.007751941680908203
0.5027146339416504 0.3178294897079468 0.007751941680908203
0.5009474754333496 0.3178294897079468 0.02325582504272461
0.5012617707252502 0.3178294897079468 0.038759708404541016
0.501054584980011 0.3178294897079468 0.05426359176635742
0.503318190574646 0.3333333730697632 -0.05426359176635742
0.5011319518089294 0.3333333730697632 -0.038759708404541016
0.5003288984298706 0.3333333730697632 -0.02325582504272461
0.5021693706512451 0.3333333730697632 -0.007751941680908203
0.5029019117355347 0.3333333730697632 0.007751941680908203
0.5008895397186279 0.3333333730697632 0.02325582504272461
0.5011737942695618 0.3333333730697632 0.038759708404541016
0.5010805130004883 0.3333333730697632 0.05426359176635742
0.5032973289489746 0.3488372564315796 -0.05426359176635742
0.5009928941726685 0.3488372564315796 -0.038759708404541016
0.5002302527427673 0.3488372564315796 -0.02325582504272461
0.5023935437202454 0.3488372564315796 -0.007751941680908203
0.5031519532203674 0.3488372564315796 0.007751941680908203
0.500898540019989 0.3488372564315796 0.02325582504272461
0.5011336803436279 0.3488372564315796 0.038759708404541016
0.5011084079742432 0.3488372564315796 0.05426359176635742
0.5031964778900146 0.364341139793396 -0.05426359176635742
0.5008446574211121 0.364341139793396 -0.038759708404541016
0.5001815557479858 0.364341139793396 -0.02325582504272461
0.5025782585144043 0.364341139793396 -0.007751941680908203
0.5033789873123169 0.364341139793396 0.007751941680908203
0.5008771419525146 0.364341139793396 0.02325582504272461
0.5010873079299927 0.364341139793396 0.038759708404541016
0.5010384321212769 0.364341139793396 0.05426359176635742
0.5032022595405579 0.37984490394592285 -0.05426359176635742
0.5008012056350708 0.37984490394592285 -0.038759708404541016
0.5002623796463013 0.37984490394592285 -0.02325582504272461
0.5028942823410034 0.37984490394592285 -0.007751941680908203
0.5037471055984497 0.37984490394592285 0.007751941680908203
0.5009875893592834 0.37984490394592285 0.02325582504272461
0.5011656880378723 0.37984490394592285 0.038759708404541016
0.5010605454444885 0.37984490394592285 0.05426359176635742
0.5030871629714966 0.39534878730773926 -0.05426359176635742
0.5007580518722534 0.39534878730773926 -0.038759708404541016
0.5001951456069946 0.39534878730773926 -0.02325582504272461
0.502557098865509 0.39534878730773926 -0.007751941680908203
0.5035271644592285 0.39534878730773926 0.007751941680908203
0.5007544755935669 0.39534878730773926 0.02325582504272461
0.5010755062103271 0.39534878730773926 0.038759708404541016
0.5009092092514038 0.39534878730773926 0.05426359176635742
0.5031495690345764 0.41085267066955566 -0.05426359176635742
0.5008358955383301 0.41085267066955566 -0.038759708404541016
0.500177264213562 0.41085267066955566 -0.02325582504272461
0.5021423101425171 0.41085267066955566 -0.007751941680908203
0.503199577331543 0.41085267066955566 0.007751941680908203
0.5005475282669067 0.41085267066955566 0.02325582504272461
0.5010850429534912 0.41085267066955566 0.038759708404541016
0.500880777835846 0.41085267066955566 0.05426359176635742
0.5031197667121887 0.42635655403137207 -0.05426359176635742
0.50086510181427 0.42635655403137207 -0.038759708404541016
0.500146746635437 0.42635655403137207 -0.02325582504272461
0.5017092823982239 0.42635655403137207 -0.007751941680908203
0.5027896165847778 0.42635655403137207 0.007751941680908203
0.5003372430801392 0.42635655403137207 0.02325582504272461
0.5010486841201782 0.42635655403137207 0.038759708404541016
0.5008213520050049 0.42635655403137207 0.05426359176635742
0.5031992197036743 0.4418604373931885 -0.05426359176635742
0.5009244084358215 0.4418604373931885 -0.038759708404541016
0.5001555681228638 0.4418604373931885 -0.02325582504272461
0.5014644861221313 0.4418604373931885 -0.007751941680908203
0.5025135278701782 0.4418604373931885 0.007751941680908203
0.5001769661903381 0.4418604373931885 0.02325582504272461
0.5010353326797485 0.4418604373931885 0.038759708404541016
0.5008156895637512 0.4418604373931885 0.05426359176635742
0.5031996965408325 0.4573643207550049 -0.05426359176635742
0.5009753704071045 0.4573643207550049 -0.038759708404541016
0.5002124309539795 0.4573643207550049 -0.02325582504272461
0.5013319253921509 0.4573643207550049 -0.007751941680908203
0.5023028254508972 0.4573643207550049 0.007751941680908203
0.500062108039856 0.4573643207550049 0.02325582504272461
0.5010262727737427 0.4573643207550049 0.038759708404541016
0.5007383227348328 0.4573643207550049 0.05426359176635742
0.5032941102981567 0.4728682041168213 -0.05426359176635742
0.5010837912559509 0.4728682041168213 -0.038759708404541016
0.5003268122673035 0.4728682041168213 -0.02325582504272461
0.5013793706893921 0.4728682041168213 -0.007751941680908203
0.5023328065872192 0.4728682041168213 0.007751941680908203
0.5000888109207153 0.4728682041168213 0.02325582504272461
0.5011040568351746 0.4728682041168213 0.038759708404541016
0.500774621963501 0.4728682041168213 0.05426359176635742
0.503307044506073 0.4883720874786377 -0.05426359176635742
0.5010513663291931 0.4883720874786377 -0.038759708404541016
0.5002659559249878 0.4883720874786377 -0.02325582504272461
0.5012763738632202 0.4883720874786377 -0.007751941680908203
0.5022388696670532 0.4883720874786377 0.007751941680908203
0.5000331997871399 0.4883720874786377 0.02325582504272461
0.501047670841217 0.4883720874786377 0.038759708404541016
0.5008296966552734 0.4883720874786377 0.05426359176635742
0.5033124089241028 0.5038759708404541 -0.05426359176635742
0.5010186433792114 0.5038759708404541 -0.038759708404541016
0.5001963973045349 0.5038759708404541 -0.02325582504272461
0.5011826753616333 0.5038759708404541 -0.007751941680908203
0.5021974444389343 0.5038759708404541 0.007751941680908203
0.5000285506248474 0.5038759708404541 0.02325582504272461
0.5010460019111633 0.5038759708404541 0.038759708404541016
0.500795841217041 0.5038759708404541 0.05426359176635742
0.5032461881637573 0.5193798542022705 -0.05426359176635742
0.500913679599762 0.5193798542022705 -0.038759708404541016
0.5001447200775146 0.5193798542022705 -0.02325582504272461
0.5012319684028625 0.5193798542022705 -0.007751941680908203
0.50232994556427 0.5193798542022705 0.007751941680908203
0.4999959468841553 0.5193798542022705 0.02325582504272461
0.5009146928787231 0.5193798542022705 0.038759708404541016
0.5008093118667603 0.5193798542022705 0.05426359176635742
0.5030941963195801 0.5348837375640869 -0.05426359176635742
0.5007650256156921 0.5348837375640869 -0.038759708404541016
0.5001018047332764 0.5348837375640869 -0.02325582504272461
