-0.30232560634613037 -0.07002334296703339 0.7984496355056763
-0.30232560634613037 -0.06995630264282227 0.8139535188674927
-0.30232560634613037 -0.06983346492052078 0.8294574022293091
-0.30232560634613037 -0.07138168811798096 0.9844961166381836
-0.30232560634613037 -0.06946544349193573 -0.9689922332763672
-0.30232560634613037 -0.06494399905204773 -0.9534883499145508
-0.30232560634613037 -0.06435521692037582 -0.9379844665527344
-0.30232560634613037 -0.06439777463674545 -0.9224806427955627
-0.30232560634613037 -0.06464879214763641 -0.9069768190383911
-0.30232560634613037 -0.06504368782043457 -0.8914728760719299
-0.30232560634613037 -0.06546936929225922 -0.8759689331054688
-0.30232560634613037 -0.06572261452674866 -0.8604651689529419
-0.30232560634613037 -0.06556885689496994 -0.8449612259864807
-0.30232560634613037 -0.06525788456201553 -0.8294573426246643
-0.30232560634613037 -0.0650492012500763 -0.8139535188674927
-0.30232560634613037 -0.06514342874288559 -0.7984495759010315
-0.30232560634613037 -0.06609480082988739 -0.7829457521438599
-0.30232560634613037 -0.06672731041908264 -0.7674418687820435
-0.30232560634613037 -0.06746722012758255 -0.751937985420227
-0.30232560634613037 -0.06859404593706131 -0.7364341020584106
-0.30232563614845276 -0.06858475506305695 -0.7209302186965942
-0.30232560634613037 -0.0669541135430336 -0.7054263353347778
-0.30232560634613037 -0.06641849875450134 -0.6899224519729614
-0.30232560634613037 -0.0661977156996727 -0.674418568611145
-0.30232560634613037 -0.06656798720359802 -0.6589146852493286
-0.30232560634613037 -0.0670197531580925 -0.643410861492157
-0.30232560634613037 -0.06743068993091583 -0.6279070377349854
-0.30232563614845276 -0.06788250803947449 -0.6124030947685242
-0.30232560634613037 -0.06839270889759064 -0.5968992114067078
-0.30232560634613037 -0.06883789598941803 -0.5813953876495361
-0.30232563614845276 -0.06927549839019775 -0.5658915042877197
-0.30232560634613037 -0.06930059939622879 -0.5503876209259033
-0.30232560634613037 -0.06925617158412933 -0.5348837375640869
-0.30232560634613037 -0.06923771649599075 -0.5193798542022705
-0.30232560634613037 -0.06919927150011063 -0.5038759708404541
-0.30232560634613037 -0.0695846676826477 -0.4883720874786377
-0.302325576543808 -0.06962835788726807 0.8449612855911255
-0.302325576543808 -0.06950494647026062 0.8604651689529419
-0.30232560634613037 -0.0683043822646141 0.8759689331054688
-0.30232560634613037 -0.0665685161948204 0.8914728164672852
-0.30232560634613037 -0.06606293469667435 0.9069766998291016
-0.30232560634613037 -0.06643824279308319 0.922480583190918
-0.30232560634613037 -0.06410209834575653 0.9379844665527344
-0.30232560634613037 -0.06340036541223526 0.9534883499145508
-0.30232560634613037 -0.06861729174852371 0.9689922332763672
-0.30232560634613037 -0.041234999895095825 -0.7209302186965942
-0.30232560634613037 -0.023523379117250443 -0.9069767594337463
-0.30232560634613037 -0.02523750066757202 -0.8914728760719299
-0.30232560634613037 -0.025687936693429947 -0.8759689927101135
-0.30232560634613037 -0.026373229920864105 -0.8604651093482971
-0.30232560634613037 -0.028674401342868805 -0.8449612259864807
-0.30232560634613037 -0.03239579498767853 -0.8294572830200195
-0.30232560634613037 -0.0353156253695488 -0.8139535188674927
-0.30232560634613037 -0.03595317155122757 -0.7984496355056763
-0.30232560634613037 -0.0330461822450161 -0.7829457521438599
-0.30232560634613037 -0.027148207649588585 -0.7674418687820435
-0.30232560634613037 -0.027724508196115494 -0.7364341020584106
-0.30232560634613037 -0.030159052461385727 -0.7054263353347778
-0.30232560634613037 -0.024563036859035492 -0.4418604373931885
-0.30232560634613037 -0.025428367778658867 -0.42635661363601685
-0.30232560634613037 -0.026046905666589737 -0.41085273027420044
-0.30232560634613037 -0.024815598502755165 -0.39534884691238403
-0.30232560634613037 -0.023329807445406914 0.42635655403137207
-0.30232560634613037 -0.023609306663274765 0.4418604373931885
-0.30232560634613037 -0.023426728323101997 0.4573643207550049
-0.30232560634613037 -0.023553339764475822 0.5038759708404541
-0.30232560634613037 -0.023546312004327774 0.5193798542022705
-0.30232560634613037 -0.02351190708577633 0.5968992710113525
-0.30232560634613037 -0.024656277149915695 0.612403154373169
-0.30232560634613037 -0.024896953254938126 0.6279069185256958
-0.30232560634613037 -0.02529921755194664 0.6434108018875122
-0.30232560634613037 -0.024948205798864365 0.6589146852493286
-0.30232560634613037 -0.02456500194966793 0.674418568611145
-0.30232560634613037 -0.024512000381946564 0.6899224519729614
-0.30232560634613037 -0.02530810236930847 0.7054263353347778
-0.30232560634613037 -0.02578645385801792 0.7209302186965942
-0.30232560634613037 -0.02644328773021698 0.7364341020584106
-0.30232560634613037 -0.02743016928434372 0.751937985420227
-0.30232560634613037 -0.028213050216436386 0.7674418687820435
-0.30232560634613037 -0.029199419543147087 0.7829457521438599
-0.30232560634613037 -0.03048551455140114 0.7984496355056763
-0.30232560634613037 -0.030959032475948334 0.8139535188674927
-0.30232560634613037 -0.0312853679060936 0.8294574022293091
-0.30232560634613037 -0.03140602633357048 0.8449612855911255
-0.30232560634613037 -0.031674135476350784 0.8604651689529419
-0.30232560634613037 -0.031727761030197144 0.8759689331054688
-0.30232560634613037 -0.033181726932525635 0.8914728164672852
-0.30232560634613037 -0.037759263068437576 0.9069766998291016
-0.30232560634613037 -0.026921991258859634 0.922480583190918
-0.30232563614845276 -0.020645050331950188 -0.751937985420227
-0.302325576543808 -0.020962046459317207 -0.6899224519729614
-0.30232560634613037 -0.01621083915233612 -0.674418568611145
-0.30232560634613037 -0.0162526722997427 -0.6589146852493286
-0.30232560634613037 -0.01809341087937355 -0.643410861492157
-0.30232560634613037 -0.020004671066999435 -0.6279069781303406
-0.30232560634613037 -0.02163667418062687 -0.6124030947685242
-0.30232560634613037 -0.021969903260469437 -0.5968992114067078
-0.30232560634613037 -0.02050967700779438 -0.5813953876495361
-0.30232560634613037 -0.019207149744033813 -0.5658915042877197
-0.30232560634613037 -0.017770279198884964 -0.5503876209259033
-0.30232560634613037 -0.01626407541334629 -0.5348837375640869
-0.30232560634613037 -0.015808086842298508 -0.5193798542022705
-0.30232560634613037 -0.015961740165948868 -0.5038759708404541
-0.30232560634613037 -0.017297077924013138 -0.4883720874786377
-0.30232560634613037 -0.01948092319071293 -0.4728682041168213
-0.30232560634613037 -0.022631218656897545 -0.4573643207550049
-0.30232560634613037 -0.023110507056117058 -0.3798449635505676
-0.30232560634613037 -0.02242913469672203 -0.3643410801887512
-0.30232560634613037 -0.021102672442793846 -0.3488371968269348
-0.30232560634613037 -0.020184457302093506 -0.3333333134651184
-0.30232560634613037 -0.018427502363920212 -0.317829430103302
-0.30232560634613037 -0.016264453530311584 -0.30232560634613037
-0.30232560634613037 -0.015114882960915565 -0.28682172298431396
-0.30232560634613037 -0.01495405100286007 -0.27131783962249756
-0.30232560634613037 -0.014849605038762093 -0.25581395626068115
-0.30232560634613037 -0.015018537640571594 -0.24031007289886475
-0.30232560634613037 -0.01579183153808117 -0.22480618953704834
-0.30232560634613037 -0.0154104670509696 -0.20930230617523193
-0.30232560634613037 -0.014552013948559761 -0.19379842281341553
-0.30232560634613037 -0.01394277811050415 -0.1782945990562439
-0.30232560634613037 -0.013558885082602501 -0.1627907156944275
-0.30232560634613037 -0.013443931937217712 -0.14728683233261108
-0.30232560634613037 -0.013350697234272957 -0.13178294897079468
-0.30232560634613037 -0.01304476149380207 -0.11627906560897827
-0.30232560634613037 -0.012401383370161057 -0.10077518224716187
-0.30232560634613037 -0.012036822736263275 -0.08527129888534546
-0.30232560634613037 -0.012208698317408562 -0.06976741552352905
-0.30232560634613037 -0.012721496634185314 -0.05426359176635742
-0.30232560634613037 -0.013399997726082802 -0.038759708404541016
-0.30232560634613037 -0.014202523976564407 -0.02325582504272461
-0.30232560634613037 -0.014248659834265709 -0.007751941680908203
-0.30232560634613037 -0.014274127781391144 0.007751941680908203
-0.30232560634613037 -0.014937303029000759 0.02325582504272461
-0.30232560634613037 -0.01536564715206623 0.038759708404541016
-0.30232560634613037 -0.016532808542251587 0.05426359176635742
-0.30232560634613037 -0.0171157568693161 0.06976747512817383
-0.30232560634613037 -0.016711266711354256 0.08527135848999023
-0.30232560634613037 -0.016693349927663803 0.10077524185180664
-0.30232560634613037 -0.017165863886475563 0.11627913266420364
-0.30232560634613037 -0.016740400344133377 0.1317828893661499
-0.30232560634613037 -0.015651650726795197 0.1472867727279663
-0.30232560634613037 -0.0147330891340971 0.16279065608978271
-0.30232560634613037 -0.013842258602380753 0.17829453945159912
-0.30232560634613037 -0.014317579567432404 0.19379842281341553
-0.30232560634613037 -0.016776306554675102 0.20930230617523193
-0.30232560634613037 -0.019050458446145058 0.22480618953704834
-0.30232560634613037 -0.018842162564396858 0.24031007289886475
-0.30232560634613037 -0.01889650523662567 0.25581395626068115
-0.30232560634613037 -0.018579594790935516 0.27131783962249756
-0.30232560634613037 -0.018557220697402954 0.28682172298431396
-0.30232560634613037 -0.018404651433229446 0.30232560634613037
-0.30232560634613037 -0.018437584862113 0.3178294897079468
-0.30232560634613037 -0.018298720940947533 0.3333333730697632
-0.30232560634613037 -0.01818404346704483 0.3488372564315796
-0.30232560634613037 -0.01871485635638237 0.364341139793396
-0.30232560634613037 -0.0197626743465662 0.37984490394592285
-0.30232560634613037 -0.02100357413291931 0.39534878730773926
-0.30232560634613037 -0.022385163232684135 0.41085267066955566
-0.30232560634613037 -0.022891191765666008 0.4728682041168213
-0.30232560634613037 -0.022835195064544678 0.4883720874786377
-0.30232560634613037 -0.02268633060157299 0.5348837375640869
-0.302325576543808 -0.021680794656276703 0.5503876209259033
-0.30232560634613037 -0.02069350890815258 0.5658915042877197
-0.30232560634613037 -0.020980535075068474 0.5813953876495361
-0.30232560634613037 -0.015630824491381645 0.922480583190918
-0.30232560634613037 -0.0021392812486737967 -0.9069768190383911
-0.30232560634613037 0.017889101058244705 -0.9069768190383911
-0.30232560634613037 0.022875787690281868 0.7984496355056763
-0.30232560634613037 0.02210918441414833 0.8139535188674927
-0.30232560634613037 0.02104133926331997 0.8294574022293091
-0.30232560634613037 0.020007384940981865 0.8449612855911255
-0.30232560634613037 0.01824066787958145 0.8604651689529419
-0.30232560634613037 0.015735113993287086 0.8759689331054688
-0.30232560634613037 0.014360387809574604 0.8914727568626404
-0.30232560634613037 0.012885925360023975 0.9069766998291016
-0.30232560634613037 0.02735370770096779 -0.9069768190383911
-0.30232560634613037 0.03196663409471512 -0.8914728760719299
-0.30232560634613037 0.033093810081481934 -0.8759690523147583
-0.30232560634613037 0.03421720489859581 -0.8604651093482971
-0.30232560634613037 0.035188671201467514 -0.8449612259864807
-0.30232560634613037 0.03603079915046692 -0.8294573426246643
-0.30232560634613037 0.037084583193063736 -0.8139535188674927
-0.30232560634613037 0.03760987147688866 -0.7984496355056763
-0.30232560634613037 0.03655882179737091 -0.7829457521438599
-0.30232560634613037 0.03479272127151489 -0.7674418687820435
-0.30232560634613037 0.03318820521235466 -0.751937985420227
-0.30232560634613037 0.033938538283109665 -0.7364341020584106
-0.30232560634613037 0.03371626138687134 -0.7209302186965942
-0.30232560634613037 0.033532481640577316 -0.7054263353347778
-0.30232560634613037 0.03412682190537453 -0.6899224519729614
-0.30232560634613037 0.03366515785455704 -0.674418568611145
-0.30232560634613037 0.032622236758470535 -0.6589146852493286
-0.30232560634613037 0.03231402486562729 -0.643410861492157
-0.30232560634613037 0.03280101716518402 -0.6279069781303406
-0.30232560634613037 0.033416010439395905 -0.6124030947685242
-0.30232560634613037 0.03374679386615753 -0.5968992114067078
-0.30232560634613037 0.03374987840652466 -0.5813953876495361
-0.30232560634613037 0.03441843017935753 -0.5658915042877197
-0.30232560634613037 0.034555885940790176 -0.5503876209259033
-0.30232560634613037 0.03435143455862999 -0.5348837375640869
-0.30232560634613037 0.03398151695728302 -0.5193798542022705
-0.30232560634613037 0.03324289247393608 -0.5038759708404541
-0.30232560634613037 0.032545752823352814 -0.4883720874786377
-0.30232560634613037 0.03309522941708565 -0.4728682041168213
-0.30232560634613037 0.033681392669677734 -0.4573643207550049
-0.30232560634613037 0.034104086458683014 -0.4418604373931885
-0.30232560634613037 0.03467684984207153 -0.42635661363601685
-0.30232560634613037 0.03521387651562691 -0.41085273027420044
-0.30232560634613037 0.035656996071338654 -0.39534884691238403
-0.30232560634613037 0.03602480888366699 -0.3798449635505676
-0.30232560634613037 0.03670714423060417 -0.3643410801887512
-0.30232560634613037 0.036474838852882385 -0.3488371968269348
-0.30232560634613037 0.0357675775885582 -0.3333333134651184
-0.30232560634613037 0.034546829760074615 -0.317829430103302
-0.30232560634613037 0.03381092846393585 -0.30232560634613037
-0.30232560634613037 0.03322559595108032 -0.28682172298431396
-0.30232560634613037 0.033215977251529694 -0.27131783962249756
-0.30232560634613037 0.03392950817942619 -0.25581395626068115
-0.30232560634613037 0.03414095565676689 -0.24031007289886475
-0.30232560634613037 0.03464672714471817 -0.22480618953704834
-0.30232560634613037 0.034222401678562164 -0.20930230617523193
-0.30232560634613037 0.0336730033159256 -0.19379842281341553
-0.30232560634613037 0.03344125300645828 -0.1782945990562439
-0.30232560634613037 0.0330856628715992 -0.1627907156944275
-0.30232560634613037 0.03245997428894043 -0.14728683233261108
-0.30232560634613037 0.03156213462352753 -0.13178294897079468
-0.30232560634613037 0.03074726089835167 -0.11627906560897827
-0.30232560634613037 0.03025791421532631 -0.10077518224716187
-0.30232560634613037 0.03054758347570896 -0.08527129888534546
-0.30232560634613037 0.030929772183299065 -0.06976741552352905
-0.30232560634613037 0.030631091445684433 -0.05426359176635742
-0.30232560634613037 0.030958861112594604 -0.038759708404541016
-0.30232560634613037 0.030877891927957535 -0.02325582504272461
-0.30232560634613037 0.03130239248275757 -0.007751941680908203
-0.30232560634613037 0.03201436251401901 0.007751941680908203
-0.30232560634613037 0.03274303302168846 0.02325582504272461
-0.30232560634613037 0.03284745663404465 0.038759708404541016
-0.30232560634613037 0.032512594014406204 0.05426359176635742
-0.30232560634613037 0.032363411039114 0.06976747512817383
-0.30232560634613037 0.03188835456967354 0.08527135848999023
-0.30232560634613037 0.0314946249127388 0.10077524185180664
-0.30232560634613037 0.031224727630615234 0.11627912521362305
-0.30232560634613037 0.03138714283704758 0.1317828893661499
-0.30232560634613037 0.03098408505320549 0.1472867727279663
-0.30232560634613037 0.03033781610429287 0.16279065608978271
-0.30232560634613037 0.030496621504426003 0.17829453945159912
-0.30232560634613037 0.031320732086896896 0.19379842281341553
-0.30232560634613037 0.03317670896649361 0.20930230617523193
-0.30232560634613037 0.034428857266902924 0.22480618953704834
-0.30232560634613037 0.033943116664886475 0.24031007289886475
-0.30232560634613037 0.034693554043769836 0.25581395626068115
-0.30232560634613037 0.03576042130589485 0.27131783962249756
-0.30232560634613037 0.03657498210668564 0.28682172298431396
-0.30232560634613037 0.037567172199487686 0.30232560634613037
-0.30232560634613037 0.03839961811900139 0.3178294897079468
-0.30232560634613037 0.03853818029165268 0.3333333730697632
-0.30232560634613037 0.038243770599365234 0.5503876209259033
-0.30232560634613037 0.038098499178886414 0.5658915042877197
-0.30232560634613037 0.03739529848098755 0.5813953876495361
-0.30232560634613037 0.0372522808611393 0.5968992710113525
-0.30232560634613037 0.03705282881855965 0.612403154373169
-0.30232560634613037 0.036646004766225815 0.6279069185256958
-0.30232560634613037 0.0363694503903389 0.6434108018875122
-0.30232560634613037 0.035925883799791336 0.6589146852493286
-0.30232560634613037 0.03437318652868271 0.674418568611145
-0.30232560634613037 0.032804224640131 0.6899224519729614
-0.30232560634613037 0.031267788261175156 0.7054263353347778
-0.30232560634613037 0.03071555122733116 0.7209302186965942
-0.30232560634613037 0.03006681799888611 0.7364341020584106
-0.30232560634613037 0.028494546189904213 0.751937985420227
-0.30232560634613037 0.026139043271541595 0.7674418687820435
-0.30232560634613037 0.02441808208823204 0.7829457521438599
-0.30232560634613037 0.038769934326410294 0.3488372564315796
-0.30232560634613037 0.03901958838105202 0.364341139793396
-0.302325576543808 0.03945901617407799 0.37984490394592285
-0.30232560634613037 0.040586523711681366 0.39534878730773926
-0.30232560634613037 0.04123956337571144 0.41085267066955566
-0.30232560634613037 0.04168248549103737 0.42635655403137207
-0.30232560634613037 0.041897859424352646 0.4418604373931885
-0.30232560634613037 0.0422801747918129 0.4573643207550049
-0.30232560634613037 0.04217355325818062 0.4728682041168213
-0.30232560634613037 0.041642092168331146 0.4883721172809601
-0.30232563614845276 0.04094596579670906 0.5038759708404541
-0.30232560634613037 0.040157727897167206 0.5193798542022705
-0.30232560634613037 0.03920941799879074 0.5348837375640869
-0.30232560634613037 0.07630105316638947 -0.9844960570335388
-0.30232560634613037 0.07190144807100296 -0.9689922332763672
-0.30232560634613037 0.07102539390325546 -0.953488290309906
-0.30232560634613037 0.07107049226760864 -0.9379844665527344
-0.30232560634613037 0.07119514048099518 -0.9224806427955627
-0.30232560634613037 0.07144343107938766 -0.9069767594337463
-0.30232560634613037 0.07172921299934387 -0.8914728760719299
-0.30232560634613037 0.07197024673223495 -0.8759689331054688
-0.30232560634613037 0.07221953570842743 -0.8604651093482971
-0.30232560634613037 0.07245685160160065 -0.8449612259864807
-0.30232560634613037 0.072650246322155 -0.8294572830200195
-0.30232560634613037 0.0728808045387268 -0.8139535188674927
-0.30232560634613037 0.07312418520450592 -0.7984496355056763
-0.30232560634613037 0.07315261662006378 -0.7829457521438599
-0.30232560634613037 0.0730515867471695 -0.7674418687820435
-0.30232560634613037 0.07305864244699478 -0.751937985420227
-0.30232560634613037 0.07340671122074127 -0.7364341020584106
-0.30232560634613037 0.07348770648241043 -0.7209302186965942
-0.30232560634613037 0.07338842749595642 -0.7054263353347778
-0.30232560634613037 0.07333317399024963 -0.6899224519729614
-0.30232560634613037 0.0732983723282814 -0.674418568611145
-0.30232560634613037 0.07327768206596375 -0.6589146852493286
-0.30232560634613037 0.07324621081352234 -0.643410861492157
-0.30232560634613037 0.07325956970453262 -0.6279069781303406
-0.30232560634613037 0.07326538115739822 -0.6124030947685242
-0.30232560634613037 0.07328563183546066 -0.5968992114067078
-0.30232560634613037 0.07338348776102066 -0.5813953876495361
-0.30232560634613037 0.07351206988096237 -0.5658915042877197
-0.30232560634613037 0.0735488012433052 -0.5503876209259033
-0.30232560634613037 0.07366728037595749 -0.5348837375640869
-0.30232560634613037 0.07383891940116882 -0.5193798542022705
-0.30232560634613037 0.07390040904283524 -0.5038759708404541
-0.30232560634613037 0.07390458881855011 -0.4883720874786377
-0.30232560634613037 0.07390610873699188 -0.4728682041168213
-0.30232560634613037 0.07384276390075684 -0.45736435055732727
-0.30232560634613037 0.07374249398708344 -0.4418604373931885
-0.30232560634613037 0.07365454733371735 -0.42635661363601685
-0.30232560634613037 0.07363533228635788 -0.41085270047187805
-0.30232560634613037 0.07372938841581345 -0.39534884691238403
-0.30232560634613037 0.07379458844661713 -0.37984499335289
-0.30232560634613037 0.07389328628778458 -0.3643410801887512
-0.30232560634613037 0.07392287999391556 -0.3488371968269348
-0.30232560634613037 0.0739426538348198 -0.3333333134651184
-0.30232560634613037 0.07403682172298431 -0.317829430103302
-0.30232560634613037 0.0741955041885376 -0.30232560634613037
-0.30232560634613037 0.07428986579179764 -0.28682172298431396
-0.30232560634613037 0.0743015855550766 -0.27131783962249756
-0.30232560634613037 0.07434718310832977 -0.25581395626068115
-0.30232560634613037 0.07432756572961807 -0.24031007289886475
-0.30232560634613037 0.07431266456842422 -0.22480618953704834
-0.30232560634613037 0.07437248528003693 -0.20930230617523193
-0.30232560634613037 0.07450324296951294 -0.19379842281341553
-0.30232560634613037 0.07466840744018555 -0.1782945990562439
-0.30232560634613037 0.07470668852329254 -0.1627907156944275
-0.30232560634613037 0.07486258447170258 -0.14728683233261108
-0.30232560634613037 0.07497531920671463 -0.13178294897079468
-0.30232560634613037 0.07497359812259674 -0.11627906560897827
-0.30232560634613037 0.07501174509525299 -0.10077518224716187
-0.30232560634613037 0.07499918341636658 -0.08527129888534546
-0.30232560634613037 0.07494308054447174 -0.06976741552352905
-0.30232560634613037 0.07477672398090363 -0.05426359176635742
-0.30232560634613037 0.07473346590995789 -0.038759708404541016
-0.30232560634613037 0.07466676086187363 -0.02325582504272461
-0.30232560634613037 0.07475204020738602 -0.007751941680908203
-0.30232560634613037 0.07484777271747589 0.007751941680908203
-0.30232560634613037 0.07491153478622437 0.02325582504272461
-0.30232560634613037 0.0749177560210228 0.038759708404541016
-0.30232560634613037 0.07477275282144547 0.05426359176635742
-0.30232560634613037 0.07484423369169235 0.06976747512817383
-0.30232560634613037 0.07483033090829849 0.08527135848999023
-0.30232560634613037 0.07481051981449127 0.10077524185180664
-0.30232560634613037 0.07471200823783875 0.11627912521362305
-0.30232560634613037 0.07458474487066269 0.1317828893661499
-0.30232560634613037 0.0745646208524704 0.1472867727279663
-0.30232560634613037 0.07450945675373077 0.16279065608978271
-0.30232560634613037 0.07448047399520874 0.17829453945159912
-0.30232560634613037 0.07438044995069504 0.19379842281341553
-0.30232560634613037 0.0742611289024353 0.20930230617523193
-0.30232560634613037 0.07410645484924316 0.22480618953704834
-0.30232560634613037 0.07412819564342499 0.24031007289886475
-0.30232560634613037 0.07421880215406418 0.25581395626068115
-0.30232560634613037 0.07416968047618866 0.27131783962249756
-0.30232560634613037 0.07414199411869049 0.28682172298431396
-0.30232560634613037 0.07416610419750214 0.30232560634613037
-0.30232560634613037 0.07418753206729889 0.3178294897079468
-0.30232560634613037 0.07413062453269958 0.3333333730697632
-0.30232560634613037 0.07408659160137177 0.3488372564315796
-0.30232560634613037 0.07403945922851562 0.364341139793396
-0.30232560634613037 0.07391034811735153 0.37984490394592285
-0.30232560634613037 0.0738898515701294 0.39534878730773926
-0.30232560634613037 0.07377056777477264 0.41085267066955566
-0.30232560634613037 0.07369569689035416 0.42635658383369446
-0.30232560634613037 0.0734652578830719 0.4418604373931885
-0.30232560634613037 0.07339546829462051 0.4573643207550049
-0.30232560634613037 0.07332823425531387 0.4728682339191437
-0.30232560634613037 0.07323740422725677 0.4883720874786377
-0.30232560634613037 0.0732860341668129 0.5038759708404541
-0.30232560634613037 0.07328994572162628 0.5193798542022705
-0.30232560634613037 0.07335613667964935 0.5348837375640869
-0.30232560634613037 0.07335065305233002 0.5503876209259033
-0.30232560634613037 0.07338389754295349 0.5658915042877197
-0.30232560634613037 0.07336042821407318 0.5813953876495361
-0.30232560634613037 0.07336784899234772 0.5968992710113525
-0.30232560634613037 0.07339848577976227 0.612403154373169
-0.30232560634613037 0.0734516903758049 0.6279069185256958
-0.30232560634613037 0.07353193312883377 0.6434108018875122
-0.30232560634613037 0.07347448170185089 0.6589146852493286
-0.30232560634613037 0.07339887320995331 0.674418568611145
-0.30232560634613037 0.07338713109493256 0.6899224519729614
-0.30232560634613037 0.07328824698925018 0.7054263353347778
-0.30232560634613037 0.0732201486825943 0.7209302186965942
-0.30232560634613037 0.07312775403261185 0.7364341020584106
-0.30232560634613037 0.07307989150285721 0.7519379258155823
-0.30232560634613037 0.07307165116071701 0.7674418687820435
-0.30232560634613037 0.07307852804660797 0.7829457521438599
-0.30232560634613037 0.07303953170776367 0.798449695110321
-0.30232560634613037 0.07292797416448593 0.8139535188674927
-0.30232560634613037 0.07287758588790894 0.8294574022293091
-0.30232560634613037 0.07284945249557495 0.8449612855911255
-0.30232560634613037 0.07281909137964249 0.8604652285575867
-0.30232560634613037 0.07265207916498184 0.8759689331054688
-0.30232560634613037 0.07213015854358673 0.8914728164672852
-0.30232560634613037 0.07168765366077423 0.9069766998291016
-0.30232560634613037 0.07133600115776062 0.922480583190918
-0.30232560634613037 0.07101280987262726 0.9379845261573792
-0.30232560634613037 0.07090581208467484 0.9534883499145508
-0.30232560634613037 0.07194932550191879 0.968992292881012
-0.30232560634613037 0.0764901340007782 0.9844961166381836
-0.28682172298431396 -0.06992397457361221 -0.9844961166381836
-0.28682172298431396 -0.06982870399951935 -0.4883720874786377
-0.28682172298431396 -0.06996531784534454 -0.4728682041168213
-0.28682172298431396 -0.07008111476898193 -0.4573643207550049
-0.28682172298431396 -0.07016967236995697 -0.4418604373931885
-0.28682172298431396 -0.07023017108440399 -0.42635661363601685
-0.28682172298431396 -0.07026940584182739 -0.41085273027420044
-0.28682172298431396 -0.07037083059549332 -0.39534884691238403
-0.28682172298431396 -0.07045134902000427 -0.3798449635505676
-0.28682172298431396 -0.07051903009414673 -0.3643410801887512
-0.28682172298431396 -0.07053157687187195 -0.3488371968269348
-0.28682172298431396 -0.0704428181052208 -0.3333333134651184
-0.28682172298431396 -0.0703827366232872 -0.317829430103302
-0.28682172298431396 -0.07044342160224915 -0.30232560634613037
-0.28682172298431396 -0.07052281498908997 -0.28682172298431396
-0.28682172298431396 -0.07063588500022888 -0.27131783962249756
-0.28682172298431396 -0.07072265446186066 -0.25581395626068115
-0.28682172298431396 -0.07072999328374863 -0.24031007289886475
-0.28682172298431396 -0.07079809159040451 -0.22480618953704834
-0.28682172298431396 -0.07092739641666412 -0.20930230617523193
-0.28682172298431396 -0.07110214978456497 -0.19379842281341553
-0.28682172298431396 -0.07128549367189407 -0.1782945990562439
-0.28682172298431396 -0.07140151411294937 -0.1627907156944275
-0.28682172298431396 -0.07148847728967667 -0.14728683233261108
-0.28682172298431396 -0.07151225209236145 -0.13178294897079468
-0.28682172298431396 -0.0714397132396698 -0.11627906560897827
-0.28682172298431396 -0.0714414045214653 -0.10077518224716187
-0.28682172298431396 -0.07146509736776352 -0.08527129888534546
-0.28682172298431396 -0.07140853255987167 -0.06976741552352905
-0.28682172298431396 -0.07134948670864105 -0.05426359176635742
-0.28682172298431396 -0.07131976634263992 -0.038759708404541016
-0.28682172298431396 -0.07129383832216263 -0.02325582504272461
-0.28682172298431396 -0.0713559165596962 -0.007751941680908203
-0.28682172298431396 -0.07138292491436005 0.007751941680908203
-0.28682172298431396 -0.07134627550840378 0.02325582504272461
-0.28682172298431396 -0.07130946218967438 0.038759708404541016
-0.28682172298431396 -0.0711197704076767 0.05426359176635742
-0.28682172298431396 -0.07101504504680634 0.06976747512817383
-0.28682172298431396 -0.07101691514253616 0.08527135848999023
-0.28682172298431396 -0.07100962847471237 0.10077524185180664
-0.28682172298431396 -0.07084982097148895 0.11627912521362305
-0.28682172298431396 -0.07069900631904602 0.1317828893661499
-0.28682172298431396 -0.0708281397819519 0.1472867727279663
-0.28682172298431396 -0.07091830670833588 0.16279065608978271
-0.28682172298431396 -0.0708451047539711 0.17829453945159912
-0.28682172298431396 -0.0708690956234932 0.19379842281341553
-0.28682172298431396 -0.07090017944574356 0.20930230617523193
-0.28682172298431396 -0.07081471383571625 0.22480618953704834
-0.28682172298431396 -0.07075285166501999 0.24031007289886475
-0.28682172298431396 -0.07076649367809296 0.25581395626068115
-0.28682172298431396 -0.07077426463365555 0.27131783962249756
-0.28682172298431396 -0.07077696919441223 0.28682172298431396
-0.28682172298431396 -0.07089681923389435 0.30232560634613037
-0.28682172298431396 -0.07098112255334854 0.3178294897079468
-0.28682172298431396 -0.0710834264755249 0.3333333730697632
-0.28682172298431396 -0.07115107774734497 0.3488372564315796
-0.28682172298431396 -0.07109788060188293 0.364341139793396
-0.28682172298431396 -0.07103297859430313 0.37984490394592285
-0.28682172298431396 -0.07098068296909332 0.39534878730773926
-0.28682172298431396 -0.07083825767040253 0.41085267066955566
-0.28682172298431396 -0.07073494791984558 0.42635655403137207
-0.28682172298431396 -0.07057737559080124 0.4418604373931885
-0.28682172298431396 -0.07048308104276657 0.4573643207550049
-0.28682172298431396 -0.07048758119344711 0.4728682041168213
-0.28682172298431396 -0.07050707191228867 0.4883720874786377
-0.28682172298431396 -0.07042840123176575 0.5038759708404541
-0.28682172298431396 -0.07032426446676254 0.5193798542022705
-0.28682172298431396 -0.0704445019364357 0.5348837375640869
-0.28682172298431396 -0.0705287829041481 0.5503876209259033
-0.28682172298431396 -0.070478156208992 0.5658915042877197
-0.28682172298431396 -0.07044059038162231 0.5813953876495361
-0.28682172298431396 -0.07041109353303909 0.5968992710113525
-0.28682172298431396 -0.07037811726331711 0.612403154373169
-0.28682172298431396 -0.07033777981996536 0.6279069185256958
-0.28682172298431396 -0.07029981911182404 0.6434108018875122
-0.28682172298431396 -0.07028671354055405 0.6589146852493286
-0.28682172298431396 -0.07029560953378677 0.674418568611145
-0.28682172298431396 -0.07040604203939438 0.6899224519729614
-0.28682172298431396 -0.07033421099185944 0.7054263353347778
-0.28682172298431396 -0.07026104629039764 0.7209302186965942
-0.28682172298431396 -0.07026662677526474 0.7364341020584106
-0.28682172298431396 -0.07023691385984421 0.751937985420227
-0.28682172298431396 -0.07028510421514511 0.7674418687820435
-0.28682172298431396 -0.07032174617052078 0.7829457521438599
-0.28682172298431396 -0.07030177861452103 0.7984496355056763
-0.28682172298431396 -0.0701972246170044 0.8139535188674927
-0.28682172298431396 -0.07002972811460495 0.8294574022293091
-0.28682172298431396 -0.06989800930023193 0.8449612855911255
-0.28682172298431396 -0.06984365731477737 0.8604651689529419
-0.28682172298431396 -0.0713789239525795 0.9844961166381836
-0.28682172298431396 -0.06972922384738922 -0.968992292881012
-0.28682172298431396 -0.06516248732805252 -0.9534883499145508
-0.28682172298431396 -0.06454572081565857 -0.9379844665527344
-0.28682172298431396 -0.06456217169761658 -0.9224806427955627
-0.28682172298431396 -0.06478791683912277 -0.9069768190383911
-0.28682172298431396 -0.06515755504369736 -0.8914728164672852
-0.28682172298431396 -0.06555840373039246 -0.8759689927101135
-0.28682172298431396 -0.06580810993909836 -0.8604651689529419
-0.28682172298431396 -0.06566502898931503 -0.8449612259864807
-0.28682172298431396 -0.0653771311044693 -0.8294573426246643
-0.28682172298431396 -0.0652012974023819 -0.8139535188674927
-0.28682172298431396 -0.0653134286403656 -0.7984496355056763
-0.28682172298431396 -0.06624263525009155 -0.7829457521438599
-0.28682172298431396 -0.06687722355127335 -0.7674418687820435
-0.28682172298431396 -0.06761007010936737 -0.751937985420227
-0.28682172298431396 -0.06881195306777954 -0.7364341616630554
-0.28682172298431396 -0.06846955418586731 -0.7209302186965942
-0.28682172298431396 -0.06709664314985275 -0.7054263353347778
-0.28682172298431396 -0.06665637344121933 -0.6899224519729614
-0.28682172298431396 -0.06659020483493805 -0.674418568611145
-0.28682172298431396 -0.06697116792201996 -0.6589146852493286
-0.28682172298431396 -0.06734131276607513 -0.643410861492157
-0.28682172298431396 -0.06771616637706757 -0.6279069781303406
-0.28682172298431396 -0.06817496567964554 -0.6124030947685242
-0.28682172298431396 -0.06870974600315094 -0.5968992114067078
-0.28682175278663635 -0.0691724643111229 -0.5813953876495361
-0.28682172298431396 -0.06962842494249344 -0.5658915042877197
-0.28682172298431396 -0.06965868175029755 -0.5503876209259033
-0.28682172298431396 -0.0696251392364502 -0.5348837375640869
-0.28682172298431396 -0.06964338570833206 -0.5193797945976257
-0.2868216931819916 -0.06963416188955307 -0.5038759708404541
-0.28682172298431396 -0.06875628978013992 0.8759689331054688
-0.28682172298431396 -0.06687943637371063 0.8914728164672852
-0.28682172298431396 -0.0662597045302391 0.9069766998291016
-0.28682172298431396 -0.06662317365407944 0.9224805235862732
-0.28682172298431396 -0.06428597867488861 0.9379844069480896
-0.28682172298431396 -0.06355436146259308 0.9534883499145508
-0.28682172298431396 -0.06873729079961777 0.9689922332763672
-0.28682172298431396 -0.04128760099411011 -0.7209302186965942
-0.28682172298431396 -0.02504369243979454 -0.8914728760719299
-0.28682172298431396 -0.02563522197306156 -0.8759689927101135
-0.28682172298431396 -0.026391837745904922 -0.8604651093482971
-0.28682172298431396 -0.028737276792526245 -0.8449612855911255
-0.28682172298431396 -0.0323358029127121 -0.8294574022293091
-0.28682172298431396 -0.03529874607920647 -0.8139535784721375
-0.28682172298431396 -0.03614642843604088 -0.7984496355056763
-0.28682172298431396 -0.03358429670333862 -0.7829456925392151
-0.28682172298431396 -0.027763694524765015 -0.7674418687820435
-0.28682172298431396 -0.028774727135896683 -0.7364341020584106
-0.28682172298431396 -0.02907227724790573 -0.7054263353347778
-0.28682172298431396 -0.024053191766142845 -0.42635661363601685
-0.28682172298431396 -0.02464652620255947 -0.41085273027420044
-0.28682172298431396 -0.0233896654099226 -0.39534884691238403
-0.28682172298431396 -0.02408888190984726 0.612403154373169
-0.28682172298431396 -0.024282949045300484 0.6279069185256958
-0.28682172298431396 -0.02469038777053356 0.6434108018875122
-0.28682172298431396 -0.024360448122024536 0.6589146852493286
-0.28682172298431396 -0.024101924151182175 0.674418568611145
-0.28682172298431396 -0.02420947514474392 0.6899224519729614
-0.28682172298431396 -0.02512126788496971 0.7054263353347778
-0.28682172298431396 -0.025627924129366875 0.7209302186965942
-0.28682172298431396 -0.026213370263576508 0.7364341020584106
-0.28682172298431396 -0.027083300054073334 0.751937985420227
-0.28682172298431396 -0.027751749381422997 0.7674418687820435
-0.28682172298431396 -0.02858917787671089 0.7829457521438599
-0.28682172298431396 -0.029752712696790695 0.7984496355056763
-0.28682172298431396 -0.03025747276842594 0.8139535188674927
-0.28682172298431396 -0.030614037066698074 0.8294574022293091
-0.28682172298431396 -0.030724896118044853 0.8449612855911255
-0.28682172298431396 -0.03104405291378498 0.8604651689529419
-0.28682172298431396 -0.0311158187687397 0.8759689331054688
-0.28682172298431396 -0.03253830224275589 0.8914728164672852
-0.28682172298431396 -0.03620658814907074 0.9069766998291016
-0.28682172298431396 -0.026680968701839447 0.922480583190918
-0.28682172298431396 -0.01828179880976677 -0.9069766998291016
-0.28682175278663635 -0.022803546860814095 -0.751937985420227
-0.28682172298431396 -0.019489027559757233 -0.6899224519729614
-0.28682172298431396 -0.01487337239086628 -0.674418568611145
-0.28682172298431396 -0.01517154648900032 -0.6589146852493286
-0.28682172298431396 -0.0171565730124712 -0.643410861492157
-0.28682172298431396 -0.019110489636659622 -0.6279069185256958
-0.28682172298431396 -0.020627770572900772 -0.6124030947685242
-0.28682172298431396 -0.02084130235016346 -0.5968992114067078
-0.28682172298431396 -0.019413219764828682 -0.5813953876495361
-0.28682172298431396 -0.018137667328119278 -0.5658915042877197
-0.28682172298431396 -0.01672263629734516 -0.5503876209259033
-0.28682172298431396 -0.015353189781308174 -0.5348837375640869
-0.28682172298431396 -0.014912285842001438 -0.5193798542022705
-0.28682172298431396 -0.015075184404850006 -0.5038759708404541
-0.28682172298431396 -0.01637818105518818 -0.4883721172809601
-0.28682172298431396 -0.01844196580350399 -0.4728682041168213
-0.28682172298431396 -0.02122478187084198 -0.4573643207550049
-0.28682175278663635 -0.023215357214212418 -0.4418604373931885
-0.28682172298431396 -0.021444683894515038 -0.3798449635505676
-0.28682172298431396 -0.020782070234417915 -0.3643410801887512
-0.28682172298431396 -0.019884342327713966 -0.3488371968269348
-0.28682172298431396 -0.01924344152212143 -0.3333333134651184
-0.28682172298431396 -0.017686329782009125 -0.317829430103302
-0.28682172298431396 -0.01569892279803753 -0.30232560634613037
-0.28682172298431396 -0.014642223715782166 -0.28682172298431396
-0.28682172298431396 -0.014490820467472076 -0.27131783962249756
-0.28682172298431396 -0.014416331425309181 -0.25581395626068115
-0.28682172298431396 -0.014583168551325798 -0.24031007289886475
-0.28682172298431396 -0.015288114547729492 -0.22480618953704834
-0.28682172298431396 -0.014833556488156319 -0.20930230617523193
-0.28682172298431396 -0.013912418857216835 -0.19379842281341553
-0.28682172298431396 -0.013250842690467834 -0.1782945990562439
-0.28682172298431396 -0.012807013466954231 -0.1627907156944275
-0.28682172298431396 -0.012705519795417786 -0.14728683233261108
-0.28682172298431396 -0.01261728536337614 -0.13178294897079468
-0.28682172298431396 -0.01232304610311985 -0.11627906560897827
-0.28682172298431396 -0.011698223650455475 -0.10077518224716187
-0.28682172298431396 -0.011361263692378998 -0.08527129888534546
-0.28682172298431396 -0.01160371396690607 -0.06976741552352905
-0.28682172298431396 -0.012141389772295952 -0.05426359176635742
-0.28682172298431396 -0.012842388823628426 -0.038759708404541016
-0.28682172298431396 -0.013639207929372787 -0.02325582504272461
-0.28682172298431396 -0.013708289712667465 -0.007751941680908203
-0.28682172298431396 -0.013681458309292793 0.007751941680908203
-0.28682172298431396 -0.014269044622778893 0.02325582504272461
-0.28682172298431396 -0.014855483546853065 0.038759708404541016
-0.28682172298431396 -0.01603470742702484 0.05426359176635742
-0.28682172298431396 -0.01661207154393196 0.06976747512817383
-0.28682172298431396 -0.016233010217547417 0.08527135848999023
-0.28682172298431396 -0.016254134476184845 0.10077524185180664
-0.28682172298431396 -0.016667619347572327 0.11627912521362305
-0.28682172298431396 -0.01621525175869465 0.1317828893661499
-0.28682172298431396 -0.0151820732280612 0.1472867727279663
-0.28682172298431396 -0.014213396236300468 0.16279065608978271
-0.28682172298431396 -0.013274047523736954 0.17829453945159912
-0.28682172298431396 -0.013704267330467701 0.19379842281341553
-0.28682172298431396 -0.016047155484557152 0.20930230617523193
-0.28682172298431396 -0.01813189871609211 0.22480618953704834
-0.28682172298431396 -0.01789185032248497 0.24031005799770355
-0.28682172298431396 -0.01797597110271454 0.25581395626068115
-0.28682172298431396 -0.017725957557559013 0.27131783962249756
-0.28682172298431396 -0.01780257374048233 0.28682172298431396
-0.28682172298431396 -0.0177365243434906 0.30232560634613037
-0.28682172298431396 -0.017899036407470703 0.3178294897079468
-0.28682172298431396 -0.017837002873420715 0.3333333730697632
-0.28682172298431396 -0.017733262851834297 0.3488372564315796
-0.28682172298431396 -0.018183303996920586 0.364341139793396
-0.28682172298431396 -0.01911439746618271 0.37984493374824524
-0.28682172298431396 -0.020322052761912346 0.39534878730773926
-0.2868216931819916 -0.021616941317915916 0.41085267066955566
-0.2868216931819916 -0.022545909509062767 0.42635655403137207
-0.28682172298431396 -0.022864466533064842 0.4418604373931885
-0.28682172298431396 -0.02268281579017639 0.4573643207550049
-0.28682172298431396 -0.02217920683324337 0.4728682041168213
-0.28682172298431396 -0.02213616482913494 0.4883720874786377
-0.28682172298431396 -0.02291446551680565 0.5038759708404541
-0.28682172298431396 -0.022964343428611755 0.5193798542022705
-0.28682172298431396 -0.02219737134873867 0.5348837375640869
-0.28682172298431396 -0.021206382662057877 0.5503876209259033
-0.28682172298431396 -0.02025279775261879 0.5658915042877197
-0.28682172298431396 -0.020499901846051216 0.5813953876495361
-0.28682172298431396 -0.022933900356292725 0.5968993306159973
-0.28682172298431396 -0.016148891299962997 0.922480583190918
-0.28682172298431396 -0.007150627672672272 -0.9069767594337463
-0.28682172298431396 0.022558702155947685 0.8294574022293091
-0.28682172298431396 0.021760495379567146 0.8449612855911255
-0.28682172298431396 0.020200997591018677 0.8604651689529419
-0.28682172298431396 0.017735272645950317 0.8759689331054688
-0.28682172298431396 0.015567442402243614 0.8914728164672852
-0.28682172298431396 0.012978071346879005 0.9069766998291016
-0.28682172298431396 0.03010406717658043 -0.8914728760719299
-0.28682172298431396 0.031774409115314484 -0.8759689927101135
-0.28682172298431396 0.03302304446697235 -0.8604651093482971
-0.28682172298431396 0.03431433066725731 -0.8449611663818359
-0.28682172298431396 0.03541599586606026 -0.8294573426246643
-0.28682172298431396 0.03662122040987015 -0.8139535188674927
-0.28682172298431396 0.037237510085105896 -0.7984496355056763
-0.28682172298431396 0.03625621646642685 -0.7829457521438599
-0.28682172298431396 0.03463738411664963 -0.7674418687820435
-0.28682172298431396 0.03327250853180885 -0.751937985420227
-0.28682172298431396 0.03407071530818939 -0.7364341020584106
-0.28682172298431396 0.03392956033349037 -0.7209302186965942
-0.28682172298431396 0.03397281467914581 -0.7054263353347778
-0.28682172298431396 0.03461252525448799 -0.6899224519729614
-0.28682172298431396 0.03410198166966438 -0.674418568611145
-0.28682172298431396 0.033001434057950974 -0.6589146852493286
-0.28682172298431396 0.03259265422821045 -0.643410861492157
-0.28682172298431396 0.03301197290420532 -0.6279069781303406
-0.28682172298431396 0.03366844728589058 -0.6124030947685242
-0.28682172298431396 0.03404727205634117 -0.5968992114067078
-0.28682172298431396 0.03404000401496887 -0.5813953876495361
-0.28682172298431396 0.03473418205976486 -0.5658915042877197
-0.28682172298431396 0.034906089305877686 -0.5503876209259033
-0.28682172298431396 0.03473379835486412 -0.5348837375640869
-0.28682172298431396 0.034432701766490936 -0.5193798542022705
-0.28682172298431396 0.03376089036464691 -0.5038759708404541
-0.28682172298431396 0.033105283975601196 -0.4883720874786377
-0.28682172298431396 0.033582527190446854 -0.4728682041168213
-0.28682172298431396 0.03404836729168892 -0.4573643207550049
-0.28682172298431396 0.03438631445169449 -0.4418604373931885
-0.28682172298431396 0.03490206599235535 -0.42635661363601685
-0.28682172298431396 0.035438865423202515 -0.41085273027420044
-0.28682172298431396 0.03585356846451759 -0.39534884691238403
-0.28682172298431396 0.03622153773903847 -0.3798449635505676
-0.28682172298431396 0.03689567744731903 -0.3643410801887512
-0.28682172298431396 0.03666020929813385 -0.3488371968269348
-0.28682172298431396 0.03597688674926758 -0.3333333134651184
-0.28682172298431396 0.03482795134186745 -0.317829430103302
-0.28682172298431396 0.03410983458161354 -0.30232560634613037
-0.28682172298431396 0.033439382910728455 -0.28682172298431396
-0.28682172298431396 0.033350471407175064 -0.27131783962249756
-0.28682172298431396 0.03400646895170212 -0.25581395626068115
-0.28682172298431396 0.03420014679431915 -0.24031007289886475
-0.28682172298431396 0.0347793810069561 -0.22480618953704834
-0.28682172298431396 0.03429807350039482 -0.20930230617523193
-0.28682172298431396 0.03363969177007675 -0.19379842281341553
-0.28682172298431396 0.03337046504020691 -0.1782945990562439
-0.28682172298431396 0.03299049288034439 -0.1627907156944275
-0.28682172298431396 0.032337743788957596 -0.14728683233261108
-0.28682172298431396 0.031414762139320374 -0.13178294897079468
-0.28682172298431396 0.03059772029519081 -0.11627906560897827
-0.28682172298431396 0.030126504600048065 -0.10077518224716187
-0.28682172298431396 0.03041752055287361 -0.08527129888534546
-0.28682172298431396 0.030746866017580032 -0.06976741552352905
-0.28682172298431396 0.030386006459593773 -0.05426359176635742
-0.28682172298431396 0.030602890998125076 -0.038759708404541016
-0.28682172298431396 0.030472487211227417 -0.02325582504272461
-0.28682172298431396 0.03086080774664879 -0.007751941680908203
-0.28682172298431396 0.03156829997897148 0.007751941680908203
-0.28682172298431396 0.03230598568916321 0.02325582504272461
-0.28682172298431396 0.03240165486931801 0.038759708404541016
-0.28682172298431396 0.03210628777742386 0.05426359176635742
-0.28682172298431396 0.03201105445623398 0.06976747512817383
-0.28682172298431396 0.03158581256866455 0.08527135848999023
-0.28682172298431396 0.031196504831314087 0.10077524185180664
-0.28682172298431396 0.030887717381119728 0.11627912521362305
-0.28682172298431396 0.0309145450592041 0.1317828893661499
-0.28682172298431396 0.030436592176556587 0.1472867727279663
-0.28682172298431396 0.029745835810899734 0.16279065608978271
-0.28682172298431396 0.029824942350387573 0.17829453945159912
-0.28682172298431396 0.030637457966804504 0.19379842281341553
-0.28682172298431396 0.03253302723169327 0.20930230617523193
-0.28682172298431396 0.033753957599401474 0.22480618953704834
-0.28682172298431396 0.033119454979896545 0.24031007289886475
-0.28682172298431396 0.0338284932076931 0.25581395626068115
-0.28682172298431396 0.034912750124931335 0.27131783962249756
-0.28682172298431396 0.0357029102742672 0.28682172298431396
-0.28682172298431396 0.036695510149002075 0.30232560634613037
-0.28682172298431396 0.03753865510225296 0.3178294897079468
-0.28682172298431396 0.03763338923454285 0.3333333730697632
-0.28682172298431396 0.037818245589733124 0.3488372564315796
-0.28682172298431396 0.03813333809375763 0.364341139793396
-0.28682172298431396 0.038745056837797165 0.5348837375640869
-0.28682172298431396 0.0374690480530262 0.5503876209259033
-0.28682172298431396 0.0372895747423172 0.5658915042877197
-0.28682172298431396 0.03658052161335945 0.5813953876495361
-0.28682172298431396 0.036474309861660004 0.5968992710113525
-0.28682172298431396 0.03622489795088768 0.612403154373169
-0.28682172298431396 0.03579695522785187 0.6279069185256958
-0.28682172298431396 0.0356232151389122 0.6434108018875122
-0.28682172298431396 0.03531115874648094 0.6589146852493286
-0.28682172298431396 0.033908598124980927 0.674418568611145
-0.28682172298431396 0.03265048563480377 0.6899224519729614
-0.28682172298431396 0.03150741383433342 0.7054263353347778
-0.28682172298431396 0.03124331310391426 0.7209302186965942
-0.28682172298431396 0.03069535829126835 0.7364341020584106
-0.28682172298431396 0.029124528169631958 0.751937985420227
-0.28682172298431396 0.026910098269581795 0.7674418687820435
-0.28682172298431396 0.025523947551846504 0.7829457521438599
-0.28682172298431396 0.024217231199145317 0.7984496355056763
-0.28682172298431396 0.023510605096817017 0.8139535188674927
-0.28682172298431396 0.038801923394203186 0.37984490394592285
-0.28682172298431396 0.03995269164443016 0.39534878730773926
-0.28682172298431396 0.040624406188726425 0.41085267066955566
-0.28682172298431396 0.04106966778635979 0.42635655403137207
-0.28682172298431396 0.04130006954073906 0.4418604373931885
-0.28682172298431396 0.04169449210166931 0.4573643207550049
-0.28682172298431396 0.04161549732089043 0.4728682041168213
-0.28682172298431396 0.04113555699586868 0.4883720874786377
-0.28682172298431396 0.04048733040690422 0.5038759708404541
-0.28682172298431396 0.03971124812960625 0.5193798542022705
-0.28682172298431396 0.07624450325965881 -0.9844961166381836
