-0.49901676177978516 -0.06976741552352905 -0.05426359176635742
-0.4973238706588745 -0.06976741552352905 -0.038759708404541016
-0.49547797441482544 -0.06976741552352905 -0.02325582504272461
-0.4954985976219177 -0.06976741552352905 -0.007751941680908203
-0.4954076409339905 -0.06976741552352905 0.007751941680908203
-0.49569666385650635 -0.06976741552352905 0.02325582504272461
-0.4986361265182495 -0.06976741552352905 0.038759708404541016
-0.4990820288658142 -0.05426359176635742 -0.05426359176635742
-0.49734967947006226 -0.05426359176635742 -0.038759708404541016
-0.4955042004585266 -0.05426359176635742 -0.02325582504272461
-0.4955257773399353 -0.05426359176635742 -0.007751941680908203
-0.49542951583862305 -0.05426359176635742 0.007751941680908203
-0.4957171678543091 -0.05426359176635742 0.02325582504272461
-0.4986788034439087 -0.05426359176635742 0.038759708404541016
-0.4991208612918854 -0.038759708404541016 -0.05426359176635742
-0.49739766120910645 -0.038759708404541016 -0.038759708404541016
-0.4954954981803894 -0.038759708404541016 -0.02325582504272461
-0.4954696297645569 -0.038759708404541016 -0.007751941680908203
-0.49537378549575806 -0.038759708404541016 0.007751941680908203
-0.49571919441223145 -0.038759708404541016 0.02325582504272461
-0.49870750308036804 -0.038759708404541016 0.038759708404541016
-0.49920928478240967 -0.02325582504272461 -0.05426359176635742
-0.49743884801864624 -0.02325582504272461 -0.038759708404541016
-0.4954821467399597 -0.02325582504272461 -0.02325582504272461
-0.4953933358192444 -0.02325582504272461 -0.007751941680908203
-0.4953148663043976 -0.02325582504272461 0.007751941680908203
-0.49573445320129395 -0.02325582504272461 0.02325582504272461
-0.49876558780670166 -0.02325582504272461 0.038759708404541016
-0.4992606043815613 -0.007751941680908203 -0.05426359176635742
-0.49743756651878357 -0.007751941680908203 -0.038759708404541016
-0.4954683184623718 -0.007751941680908203 -0.02325582504272461
-0.4953038692474365 -0.007751941680908203 -0.007751941680908203
-0.49524861574172974 -0.007751941680908203 0.007751941680908203
-0.4957268238067627 -0.007751941680908203 0.02325582504272461
-0.49875593185424805 -0.00775194214656949 0.038759708404541016
-0.4992140829563141 0.007751941680908203 -0.05426359176635742
-0.49736177921295166 0.007751941680908203 -0.038759708404541016
-0.49538978934288025 0.007751941680908203 -0.02325582504272461
-0.4951702952384949 0.007751941680908203 -0.007751941680908203
-0.49512892961502075 0.007751941680908203 0.007751941680908203
-0.4956399202346802 0.007751941680908203 0.02325582504272461
-0.4986659288406372 0.007751941680908203 0.038759708404541016
-0.49920785427093506 0.02325582504272461 -0.05426359176635742
-0.4974018335342407 0.02325582504272461 -0.038759708404541016
-0.49543917179107666 0.02325582504272461 -0.02325582504272461
-0.49519139528274536 0.02325582504272461 -0.007751941680908203
-0.49515676498413086 0.02325582504272461 0.007751941680908203
-0.49566635489463806 0.02325582504272461 0.02325582504272461
-0.4986458122730255 0.02325582504272461 0.038759708404541016
-0.49904125928878784 0.038759708404541016 -0.05426359176635742
-0.49730294942855835 0.038759708404541016 -0.038759708404541016
-0.4953576922416687 0.038759708404541016 -0.02325582504272461
-0.49509844183921814 0.038759708404541016 -0.007751941680908203
-0.4950619339942932 0.038759708404541016 0.007751941680908203
-0.4955925941467285 0.038759708404541016 0.02325582504272461
-0.4985710382461548 0.038759708404541016 0.038759708404541016
-0.4990042746067047 0.05426359549164772 -0.05426359549164772
-0.49725866317749023 0.05426359176635742 -0.038759708404541016
-0.4953191876411438 0.05426359176635742 -0.02325582504272461
-0.4950524568557739 0.05426359176635742 -0.007751941680908203
-0.4950175881385803 0.05426359176635742 0.007751941680908203
-0.49557530879974365 0.05426359176635742 0.02325582504272461
-0.4985624849796295 0.05426359176635742 0.038759708404541016
-0.4989250898361206 0.06976747512817383 -0.05426359176635742
-0.49722105264663696 0.06976747512817383 -0.038759708404541016
-0.49525243043899536 0.06976747512817383 -0.02325582504272461
-0.4949791133403778 0.06976747512817383 -0.007751941680908203
-0.4949597716331482 0.06976747512817383 0.007751941680908203
-0.4955633282661438 0.06976747512817383 0.02325582504272461
-0.49858832359313965 0.06976747512817383 0.038759708404541016
-0.4988325834274292 0.08527135848999023 -0.05426359176635742
-0.497208833694458 0.08527135848999023 -0.038759708404541016
-0.49519187211990356 0.08527135848999023 -0.02325582504272461
-0.49490922689437866 0.08527135848999023 -0.007751941680908203
-0.4949076771736145 0.08527135848999023 0.007751941680908203
-0.4955507814884186 0.08527135848999023 0.02325582504272461
-0.49858808517456055 0.08527135848999023 0.038759708404541016
-0.4988570809364319 0.10077524185180664 -0.05426359176635742
-0.497227281332016 0.10077524185180664 -0.038759708404541016
-0.4951995611190796 0.10077524185180664 -0.02325582504272461
-0.49492067098617554 0.10077524185180664 -0.007751941680908203
-0.4949246644973755 0.10077524185180664 0.007751941680908203
-0.49557995796203613 0.10077524185180664 0.02325582504272461
-0.4986242651939392 0.10077524185180664 0.038759708404541016
-0.49884381890296936 0.11627912521362305 -0.05426359176635742
-0.49722516536712646 0.11627912521362305 -0.038759708404541016
-0.49520257115364075 0.11627912521362305 -0.02325582504272461
-0.4949614405632019 0.11627912521362305 -0.007751941680908203
-0.49496686458587646 0.11627912521362305 0.007751941680908203
-0.4956088960170746 0.11627912521362305 0.02325582504272461
-0.4986681640148163 0.11627912521362305 0.038759708404541016
-0.4988695979118347 0.1317828893661499 -0.05426359176635742
-0.49723494052886963 0.1317828893661499 -0.038759708404541016
-0.4952504634857178 0.1317828893661499 -0.02325582504272461
-0.4950839579105377 0.1317828893661499 -0.007751941680908203
-0.4950805604457855 0.1317828893661499 0.007751941680908203
-0.4956664443016052 0.1317828893661499 0.02325582504272461
-0.49871253967285156 0.1317828893661499 0.038759708404541016
-0.4989180862903595 0.1472867727279663 -0.05426359176635742
-0.4973008632659912 0.1472867727279663 -0.038759708404541016
-0.4953638017177582 0.1472867727279663 -0.02325582504272461
-0.49529552459716797 0.1472867727279663 -0.007751941680908203
-0.4952794313430786 0.1472867727279663 0.007751941680908203
-0.49577999114990234 0.1472867727279663 0.02325582504272461
-0.4988044500350952 0.1472867727279663 0.038759708404541016
-0.49902990460395813 0.16279065608978271 -0.05426359176635742
-0.4973411560058594 0.16279065608978271 -0.038759708404541016
-0.49550068378448486 0.16279065608978271 -0.02325582504272461
-0.4955413341522217 0.16279065608978271 -0.007751941680908203
-0.4955229163169861 0.16279065608978271 0.007751941680908203
-0.49592822790145874 0.16279065608978271 0.02325582504272461
-0.4989272356033325 0.16279065608978271 0.038759708404541016
-0.4991201162338257 0.17829453945159912 -0.05426359176635742
-0.497453510761261 0.17829453945159912 -0.038759708404541016
-0.49569249153137207 0.17829453945159912 -0.02325582504272461
-0.4958079159259796 0.17829453945159912 -0.007751941680908203
-0.49578243494033813 0.17829453945159912 0.007751941680908203
-0.4960976839065552 0.17829453945159912 0.02325582504272461
-0.49904119968414307 0.17829453945159912 0.038759708404541016
-0.4991788864135742 0.19379842281341553 -0.05426359176635742
-0.49746429920196533 0.19379842281341553 -0.038759708404541016
-0.49578148126602173 0.19379842281341553 -0.02325582504272461
-0.49595797061920166 0.19379842281341553 -0.007751941680908203
-0.4959205985069275 0.19379842281341553 0.007751941680908203
-0.4961492419242859 0.19379842281341553 0.02325582504272461
-0.4990723133087158 0.19379842281341553 0.038759708404541016
-0.49920904636383057 0.20930230617523193 -0.05426359176635742
-0.4974561035633087 0.20930230617523193 -0.038759708404541016
-0.4958556890487671 0.20930230617523193 -0.02325582504272461
-0.49608659744262695 0.20930230617523193 -0.007751941680908203
-0.4960310459136963 0.20930230617523193 0.007751941680908203
-0.4961751699447632 0.20930230617523193 0.02325582504272461
-0.4990769624710083 0.20930230617523193 0.038759708404541016
-0.4991631805896759 0.22480618953704834 -0.05426359176635742
-0.4974084496498108 0.22480618953704834 -0.038759708404541016
-0.49585962295532227 0.22480618953704834 -0.02325582504272461
-0.4961610734462738 0.22480618953704834 -0.007751941680908203
-0.4960797429084778 0.22480618953704834 0.007751941680908203
-0.4961300790309906 0.22480618953704834 0.02325582504272461
-0.49902474880218506 0.22480618953704834 0.038759708404541016
-0.49920034408569336 0.24031007289886475 -0.05426359176635742
-0.4974615275859833 0.24031007289886475 -0.038759708404541016
-0.4959719777107239 0.24031007289886475 -0.02325582504272461
-0.496384859085083 0.24031007289886475 -0.007751941680908203
-0.4962722957134247 0.24031007289886475 0.00775194214656949
-0.49617645144462585 0.24031007289886475 0.02325582504272461
-0.49902987480163574 0.24031007289886475 0.038759708404541016
-0.4991724491119385 0.25581395626068115 -0.05426359176635742
-0.497450590133667 0.25581395626068115 -0.038759708404541016
-0.49608731269836426 0.25581395626068115 -0.02325582504272461
-0.4966542422771454 0.25581395626068115 -0.007751941680908203
-0.49650633335113525 0.25581395626068115 0.007751941680908203
-0.4962116479873657 0.25581395626068115 0.02325582504272461
-0.4989612400531769 0.25581395626068115 0.038759708404541016
-0.4991801977157593 0.27131783962249756 -0.05426359176635742
-0.49742186069488525 0.27131783962249756 -0.038759708404541016
-0.49631690979003906 0.27131783962249756 -0.02325582504272461
-0.4971235394477844 0.27131783962249756 -0.007751941680908203
-0.49694013595581055 0.27131783962249756 0.007751941680908203
-0.4963395893573761 0.27131783962249756 0.02325582504272461
-0.4988822042942047 0.27131783962249756 0.038759708404541016
-0.499085009098053 0.28682172298431396 -0.05426359176635742
-0.49748465418815613 0.28682172298431396 -0.038759708404541016
-0.49674487113952637 0.28682172298431396 -0.02325582504272461
-0.49785539507865906 0.28682172298431396 -0.007751941680908203
-0.4976389408111572 0.28682172298431396 0.007751941680908203
-0.49662458896636963 0.28682172298431396 0.02325582504272461
-0.4988122582435608 0.28682172298431396 0.038759708404541016
-0.4991397261619568 0.30232560634613037 -0.05426359176635742
-0.49775493144989014 0.30232560634613037 -0.038759708404541016
-0.4974518120288849 0.30232560634613037 -0.02325582504272461
-0.49889999628067017 0.30232560634613037 -0.007751941680908203
-0.49868735671043396 0.30232560634613037 0.007751941680908203
-0.4972282350063324 0.30232560634613037 0.02325582504272461
-0.49894317984580994 0.30232560634613037 0.038759708404541016
-0.4992097318172455 0.3178294897079468 -0.05426359176635742
-0.4980756342411041 0.3178294897079468 -0.038759708404541016
-0.4982421398162842 0.3178294897079468 -0.02325582504272461
-0.4999516010284424 0.3178294897079468 -0.007751941680908203
-0.49973064661026 0.3178294897079468 0.007751941680908203
-0.4979459345340729 0.3178294897079468 0.02325582504272461
-0.4991162121295929 0.3178294897079468 0.038759708404541016
-0.499289870262146 0.3333333730697632 -0.05426359176635742
-0.49841147661209106 0.3333333730697632 -0.038759708404541016
-0.4989261031150818 0.3333333730697632 -0.02325582504272461
-0.5007745027542114 0.3333333730697632 -0.007751941680908203
-0.5004911422729492 0.3333333730697632 0.007751941680908203
-0.4986141324043274 0.3333333730697632 0.02325582504272461
-0.4993401765823364 0.3333333730697632 0.038759708404541016
-0.4994252622127533 0.3488372564315796 -0.05426359176635742
-0.4987971782684326 0.3488372564315796 -0.038759708404541016
-0.49943968653678894 0.3488372564315796 -0.02325582318007946
-0.5013234615325928 0.3488372266292572 -0.007751941680908203
-0.5009793043136597 0.3488372564315796 0.007751941215246916
-0.49914684891700745 0.3488372564315796 0.02325582504272461
-0.499613881111145 0.3488372564315796 0.038759708404541016
-0.4995129108428955 0.3643411099910736 -0.05426359176635742
-0.4989880919456482 0.364341139793396 -0.038759708404541016
-0.49965840578079224 0.364341139793396 -0.02325582318007946
-0.5015137195587158 0.364341139793396 -0.007751941680908203
-0.501164436340332 0.364341139793396 0.007751941680908203
-0.4993974566459656 0.364341139793396 0.02325582504272461
-0.4997997283935547 0.364341139793396 0.038759708404541016
-0.49963831901550293 0.37984490394592285 -0.05426359176635742
-0.49907779693603516 0.37984490394592285 -0.038759708404541016
-0.4996713697910309 0.37984493374824524 -0.02325582504272461
-0.5014339089393616 0.37984487414360046 -0.007751941680908203
-0.5011153221130371 0.37984490394592285 0.007751941680908203
-0.4994546175003052 0.37984490394592285 0.02325582318007946
-0.4999200105667114 0.37984490394592285 0.038759708404541016
-0.49963030219078064 0.39534878730773926 -0.05426359176635742
-0.49895569682121277 0.39534878730773926 -0.038759708404541016
-0.49942347407341003 0.39534881711006165 -0.02325582504272461
-0.501041054725647 0.39534878730773926 -0.007751941680908203
-0.5007663369178772 0.39534878730773926 0.007751941680908203
-0.49923965334892273 0.39534878730773926 0.02325582318007946
-0.49983739852905273 0.39534878730773926 0.038759708404541016
-0.4996775686740875 0.41085267066955566 -0.05426359176635742
-0.49893680214881897 0.41085267066955566 -0.038759708404541016
-0.49934136867523193 0.41085267066955566 -0.02325582504272461
-0.5008499622344971 0.41085267066955566 -0.007751941680908203
-0.5005982518196106 0.41085267066955566 0.007751941680908203
-0.4991558790206909 0.41085267066955566 0.02325582504272461
-0.49982523918151855 0.41085267066955566 0.038759708404541016
-0.4996102750301361 0.42635655403137207 -0.05426359176635742
-0.49888846278190613 0.42635655403137207 -0.038759708404541016
-0.4993314743041992 0.42635655403137207 -0.02325582504272461
-0.5007249116897583 0.42635655403137207 -0.007751941680908203
-0.5004541873931885 0.42635655403137207 0.007751941680908203
-0.4990769624710083 0.42635655403137207 0.02325582504272461
-0.4997267723083496 0.42635658383369446 0.038759708404541016
-0.4996013343334198 0.4418604373931885 -0.05426359176635742
-0.4989199638366699 0.4418604373931885 -0.038759708404541016
-0.49943339824676514 0.4418604373931885 -0.02325582504272461
-0.5007756948471069 0.4418604373931885 -0.007751941680908203
-0.5004494190216064 0.44186046719551086 0.007751941680908203
-0.49907344579696655 0.4418604373931885 0.02325582504272461
-0.4996583163738251 0.4418604373931885 0.038759708404541016
-0.4996732175350189 0.4573643207550049 -0.05426359549164772
-0.4992220997810364 0.45736435055732727 -0.038759708404541016
-0.4998074769973755 0.4573643207550049 -0.02325582504272461
-0.5011221170425415 0.4573642909526825 -0.007751941215246916
-0.5007382035255432 0.4573643207550049 0.007751941680908203
-0.49934303760528564 0.4573643207550049 0.02325582690536976
-0.4997602701187134 0.4573643207550049 0.038759708404541016
-0.49970707297325134 0.4728682041168213 -0.05426359176635742
-0.499564528465271 0.4728682339191437 -0.038759708404541016
-0.5002666711807251 0.4728682041168213 -0.02325582504272461
-0.5015532970428467 0.4728682041168213 -0.00775194214656949
-0.5011254549026489 0.4728682041168213 0.007751941680908203
-0.49967315793037415 0.4728682041168213 0.02325582504272461
-0.499847412109375 0.4728682041168213 0.038759708404541016
-0.4998325705528259 0.4883720874786377 -0.05426359176635742
-0.4999408721923828 0.4883720874786377 -0.038759708404541016
-0.500855565071106 0.4883720874786377 -0.02325582504272461
-0.5020214319229126 0.4883720874786377 -0.007751941680908203
-0.5015816688537598 0.4883720874786377 0.007751941680908203
-0.5000990033149719 0.4883720874786377 0.02325582504272461
-0.4999631941318512 0.4883720874786377 0.038759708404541016
-0.4999433159828186 0.5038759708404541 -0.05426359176635742
-0.500290036201477 0.5038759708404541 -0.038759708404541016
-0.5014233589172363 0.5038759708404541 -0.02325582504272461
-0.5023912191390991 0.5038759708404541 -0.007751941680908203
-0.5019599199295044 0.5038759708404541 0.007751941680908203
-0.5005235075950623 0.5038759708404541 0.02325582504272461
-0.500167965888977 0.5038759708404541 0.038759708404541016
-0.49995410442352295 0.5193798542022705 -0.05426359176635742
-0.5004154443740845 0.5193798542022705 -0.038759708404541016
-0.5017530918121338 0.5193798542022705 -0.02325582504272461
-0.5024992227554321 0.5193798542022705 -0.007751941215246916
-0.5020376443862915 0.5193798542022705 0.007751941680908203
-0.5007294416427612 0.5193798542022705 0.02325582504272461
-0.5002058744430542 0.5193798542022705 0.038759708404541016
-0.4999209940433502 0.5348837375640869 -0.05426359176635742
-0.5004633069038391 0.5348837375640869 -0.038759708404541016
-0.5019729137420654 0.5348837375640869 -0.02325582690536976
-0.5026334524154663 0.5348837375640869 -0.007751941680908203
-0.502109706401825 0.5348837375640869 0.007751941680908203
-0.5008733868598938 0.5348837375640869 0.02325582504272461
-0.5002187490463257 0.5348837375640869 0.038759708404541016
-0.49977418780326843 0.5503876209259033 -0.05426359176635742
-0.5003091096878052 0.5503876209259033 -0.038759708404541016
-0.5019654035568237 0.5503876209259033 -0.02325582690536976
-0.5027319192886353 0.5503875613212585 -0.007751941680908203
-0.5021409392356873 0.5503876209259033 0.007751941680908203
-0.5008552074432373 0.5503876209259033 0.02325582504272461
-0.5001004934310913 0.5503876209259033 0.038759708404541016
-0.4996774196624756 0.5658915042877197 -0.05426358804106712
-0.5000314116477966 0.5658915042877197 -0.038759708404541016
-0.5017641186714172 0.5658915042877197 -0.02325582504272461
-0.5026751756668091 0.565891444683075 -0.007751941215246916
-0.5020620822906494 0.5658915042877197 0.007751941680908203
-0.500657320022583 0.5658915042877197 0.02325582504272461
-0.4998765289783478 0.5658915042877197 0.038759708404541016
-0.49960148334503174 0.5813953876495361 -0.05426359176635742
-0.499658465385437 0.5813953876495361 -0.038759708404541016
-0.5014415979385376 0.5813953876495361 -0.02325582504272461
-0.5024547576904297 0.5813953876495361 -0.007751941680908203
-0.5018523931503296 0.5813953876495361 0.007751941680908203
-0.5003261566162109 0.5813953876495361 0.02325582504272461
-0.4995660185813904 0.5813953876495361 0.038759708404541016
-0.4996097683906555 0.5968992710113525 -0.05426359176635742
-0.4993719458580017 0.5968992710113525 -0.038759708404541016
-0.5012383460998535 0.5968992710113525 -0.02325582504272461
-0.5022636651992798 0.5968992710113525 -0.007751941680908203
-0.5016842484474182 0.5968992710113525 0.007751941680908203
-0.5000388622283936 0.5968992710113525 0.02325582504272461
-0.4993628263473511 0.5968992710113525 0.038759708404541016
-0.4995613992214203 0.612403154373169 -0.05426359176635742
-0.49907761812210083 0.612403154373169 -0.038759708404541016
-0.501081109046936 0.6124030947685242 -0.02325582504272461
-0.5021277070045471 0.612403154373169 -0.00775194214656949
-0.501545786857605 0.612403154373169 0.007751941215246916
-0.4996491074562073 0.612403154373169 0.02325582690536976
-0.4991329312324524 0.612403154373169 0.038759708404541016
-0.4997026324272156 0.6279069185256958 -0.05426359176635742
-0.49897295236587524 0.6279069185256958 -0.038759708404541016
-0.5009778738021851 0.6279069185256958 -0.02325582318007946
-0.5021544694900513 0.6279069185256958 -0.007751941680908203
-0.5015817880630493 0.6279069185256958 0.007751941680908203
-0.4993492066860199 0.6279069185256958 0.02325582504272461
-0.4990898370742798 0.6279069185256958 0.038759708404541016
-0.49983251094818115 0.6434108018875122 -0.05426359176635742
-0.4989144802093506 0.6434108018875122 -0.038759708404541016
-0.500808596611023 0.6434108018875122 -0.02325582318007946
-0.5021857619285583 0.6434108018875122 -0.00775194214656949
-0.5016036033630371 0.6434108018875122 0.007751941680908203
-0.4990943670272827 0.6434108018875122 0.02325582504272461
-0.4990968108177185 0.6434108018875122 0.038759708404541016
-0.48862025141716003 0.6434108018875122 0.05426359176635742
-0.4998486638069153 0.6589146852493286 -0.05426359176635742
-0.49872255325317383 0.6589146852493286 -0.038759708404541016
-0.5003967881202698 0.6589146852493286 -0.02325582504272461
-0.5020338892936707 0.6589146852493286 -0.00775194214656949
-0.5014486312866211 0.6589146852493286 0.007751941680908203
-0.49878931045532227 0.6589146852493286 0.02325582318007946
-0.4990435242652893 0.6589146852493286 0.038759708404541016
-0.48898324370384216 0.6589146852493286 0.05426359176635742
-0.4998926818370819 0.674418568611145 -0.05426359176635742
-0.4987071752548218 0.674418568611145 -0.038759708404541016
-0.5001071095466614 0.674418568611145 -0.02325582504272461
-0.5018789768218994 0.674418568611145 -0.007751941680908203
-0.5013210773468018 0.674418568611145 0.007751941680908203
-0.4987304210662842 0.674418568611145 0.02325582504272461
-0.499072402715683 0.674418568611145 0.038759708404541016
-0.48941805958747864 0.674418568611145 0.05426359176635742
-0.4998372197151184 0.6899224519729614 -0.05426359176635742
-0.4985920488834381 0.6899224519729614 -0.038759708404541016
-0.49983614683151245 0.6899224519729614 -0.02325582504272461
-0.5016137957572937 0.6899224519729614 -0.007751941680908203
-0.501114010810852 0.6899224519729614 0.00775194214656949
-0.49870389699935913 0.6899224519729614 0.02325582504272461
-0.4990772008895874 0.6899224519729614 0.038759708404541016
-0.4894453287124634 0.6899224519729614 0.05426359176635742
-0.49976715445518494 0.7054263353347778 -0.05426359176635742
-0.49845075607299805 0.7054263353347778 -0.038759708404541016
-0.4996347725391388 0.7054263353347778 -0.02325582504272461
-0.5013390779495239 0.7054263353347778 -0.007751941680908203
-0.5009361505508423 0.7054263949394226 0.007751941680908203
-0.4988175630569458 0.7054263353347778 0.02325582504272461
-0.49922120571136475 0.7054263353347778 0.038759708404541016
-0.4896489381790161 0.7054263353347778 0.05426359176635742
-0.4996170401573181 0.7209302186965942 -0.05426359176635742
-0.498221755027771 0.7209302186965942 -0.038759708404541016
-0.49931037425994873 0.7209302186965942 -0.02325582504272461
-0.5009428262710571 0.7209301590919495 -0.007751941680908203
-0.5006110072135925 0.7209302186965942 0.007751941680908203
-0.4986323118209839 0.7209302186965942 0.02325582504272461
-0.49922293424606323 0.7209302186965942 0.038759708404541016
-0.4898409843444824 0.7209302186965942 0.05426359176635742
-0.4995628297328949 0.7364341020584106 -0.05426359176635742
-0.4979812800884247 0.7364341020584106 -0.038759708404541016
-0.49885132908821106 0.7364341020584106 -0.02325582504272461
-0.5004643201828003 0.7364341020584106 -0.007751941680908203
-0.5001964569091797 0.7364341020584106 0.007751941680908203
-0.4982733726501465 0.7364341020584106 0.02325582504272461
-0.49911999702453613 0.7364341020584106 0.038759708404541016
-0.4898996353149414 0.7364341020584106 0.05426359176635742
-0.4996030330657959 0.751937985420227 -0.05426359176635742
-0.4977933168411255 0.751937985420227 -0.038759708404541016
-0.4982985258102417 0.751937985420227 -0.02325582504272461
-0.49997150897979736 0.7519379258155823 -0.007751941680908203
-0.4997522830963135 0.751937985420227 0.007751941680908203
-0.49789881706237793 0.751937985420227 0.02325582504272461
-0.4990576207637787 0.751937985420227 0.038759708404541016
-0.4898606538772583 0.751937985420227 0.05426359176635742
-0.49968385696411133 0.7674418687820435 -0.05426359176635742
-0.49759337306022644 0.7674418687820435 -0.038759708404541016
-0.4976406693458557 0.7674418687820435 -0.02325582504272461
-0.4993489980697632 0.7674418687820435 -0.007751941680908203
-0.4991339445114136 0.7674419283866882 0.007751941680908203
-0.4974767863750458 0.7674418687820435 0.02325582504272461
-0.49900251626968384 0.7674418687820435 0.038759708404541016
-0.4896835386753082 0.7674418687820435 0.05426359176635742
-0.49974703788757324 0.7829458117485046 -0.05426359176635742
-0.4974788427352905 0.7829457521438599 -0.038759708404541016
-0.4970581531524658 0.7829457521438599 -0.02325582504272461
-0.4986288547515869 0.7829457521438599 -0.007751941680908203
-0.49844345450401306 0.7829457521438599 0.007751941215246916
-0.49717283248901367 0.7829457521438599 0.02325582504272461
-0.4989528954029083 0.7829457521438599 0.038759708404541016
-0.4896259009838104 0.7829457521438599 0.05426359176635742
-0.4998500645160675 0.7984496355056763 -0.05426359176635742
-0.49746596813201904 0.7984496355056763 -0.038759708404541016
-0.49661216139793396 0.7984496355056763 -0.02325582504272461
-0.49790266156196594 0.7984496355056763 -0.007751941680908203
-0.49778854846954346 0.7984496355056763 0.007751941680908203
-0.49687659740448 0.7984496355056763 0.02325582504272461
-0.4989287853240967 0.7984496355056763 0.038759708404541016
-0.48952096700668335 0.7984496355056763 0.05426359176635742
-0.49991193413734436 0.8139535784721375 -0.05426359176635742
-0.4974367618560791 0.8139535188674927 -0.038759708404541016
-0.4962957501411438 0.8139535188674927 -0.02325582504272461
-0.4971151351928711 0.8139535188674927 -0.007751941680908203
-0.4970497488975525 0.8139535188674927 0.007751941680908203
-0.49654194712638855 0.8139535188674927 0.02325582504272461
-0.4988254904747009 0.8139535188674927 0.038759708404541016
-0.4899711310863495 0.8139535188674927 0.05426359176635742
-0.49986785650253296 0.8294574022293091 -0.05426359176635742
-0.4973006844520569 0.8294574022293091 -0.038759708404541016
-0.49594318866729736 0.8294574022293091 -0.02325582504272461
-0.49627089500427246 0.8294574022293091 -0.007751941680908203
-0.496177613735199 0.8294574022293091 0.007751941680908203
-0.4961279034614563 0.8294574022293091 0.02325582504272461
-0.4986375570297241 0.8294574022293091 0.038759708404541016
-0.4903152883052826 0.8294574022293091 0.05426359176635742
-0.49986743927001953 0.8449612855911255 -0.05426359176635742
-0.4972355365753174 0.8449612855911255 -0.038759708404541016
-0.4957345724105835 0.8449612855911255 -0.02325582504272461
-0.4958351254463196 0.8449612855911255 -0.007751941680908203
-0.4957241415977478 0.8449612855911255 0.007751941680908203
-0.4959110617637634 0.8449612855911255 0.02325582504272461
-0.4985055923461914 0.8449612855911255 0.038759708404541016
-0.49094122648239136 0.8449612855911255 0.05426359176635742
-0.4996238052845001 0.8604651689529419 -0.05426359176635742
-0.49690189957618713 0.8604651689529419 -0.038759708404541016
-0.4954361319541931 0.8604651689529419 -0.02325582504272461
-0.49550217390060425 0.8604651689529419 -0.007751941680908203
-0.4954114854335785 0.8604651689529419 0.007751941680908203
-0.4956810772418976 0.8604651689529419 0.02325582504272461
-0.49824222922325134 0.8604651689529419 0.038759708404541016
-0.4914534091949463 0.8604651689529419 0.05426359176635742
-0.4989967346191406 0.8759689331054688 -0.05426359549164772
-0.49626168608665466 0.8759689331054688 -0.038759708404541016
-0.4951523542404175 0.8759689331054688 -0.02325582504272461
-0.49534595012664795 0.8759689331054688 -0.007751941680908203
-0.49529510736465454 0.8759689331054688 0.007751941680908203
-0.49548250436782837 0.8759689331054688 0.02325582504272461
-0.4977019429206848 0.8759689331054688 0.038759708404541016
-0.4920217990875244 0.8759689331054688 0.05426359176635742
-0.49771690368652344 0.8914728760719299 -0.05426359176635742
-0.49483436346054077 0.8914728164672852 -0.038759708404541016
-0.49412450194358826 0.8914728164672852 -0.02325582504272461
-0.49437057971954346 0.8914728164672852 -0.007751941680908203
-0.4943557381629944 0.8914728164672852 0.007751941680908203
-0.4945148229598999 0.8914728164672852 0.02325582504272461
-0.4962395429611206 0.8914728164672852 0.038759708404541016
-0.49168112874031067 0.8914728164672852 0.05426359176635742
-0.49436116218566895 0.9069766998291016 -0.05426359176635742
-0.49195268750190735 0.9069766998291016 -0.038759708404541016
-0.4912576973438263 0.9069766998291016 -0.02325582504272461
-0.4914552569389343 0.9069766998291016 -0.007751941680908203
-0.49147629737854004 0.9069766998291016 0.007751941680908203
-0.49174782633781433 0.9069766998291016 0.02325582504272461
-0.493560791015625 0.9069766998291016 0.038759708404541016
-0.48980629444122314 0.9069766998291016 0.05426359176635742
-0.4900112450122833 0.922480583190918 -0.05426359176635742
-0.48972415924072266 0.922480583190918 0.038759708404541016
-0.47464805841445923 -0.9379844665527344 -0.05426359176635742
-0.47486305236816406 -0.9379844665527344 0.038759708404541016
-0.48587971925735474 -0.922480583190918 -0.05426359176635742
-0.4821767508983612 -0.9224807024002075 -0.038759708404541016
-0.4810885190963745 -0.922480583190918 -0.02325582504272461
-0.48138999938964844 -0.9224807024002075 -0.00775194214656949
-0.4817498028278351 -0.922480583190918 0.007751941680908203
-0.48246151208877563 -0.922480583190918 0.02325582504272461
-0.4852616786956787 -0.922480583190918 0.038759708404541016
-0.4792267084121704 -0.9224807024002075 0.05426359176635742
-0.4785569906234741 -0.8914728760719299 0.05426359176635742
-0.4816434979438782 -0.8759689331054688 0.05426359176635742
-0.4832519590854645 -0.8604651093482971 0.05426359176635742
-0.4837700128555298 -0.8449611663818359 0.05426359176635742
-0.48429468274116516 -0.8294574022293091 0.05426359176635742
-0.48522698879241943 -0.8139535188674927 0.05426359176635742
-0.4856971502304077 -0.7984496355056763 0.05426359176635742
-0.4854711890220642 -0.7829457521438599 0.05426359176635742
-0.4849918484687805 -0.7674418687820435 0.05426359176635742
-0.4852650761604309 -0.751937985420227 0.05426359176635742
-0.48570170998573303 -0.7364341020584106 0.05426359176635742
-0.48560428619384766 -0.7209302186965942 0.05426359176635742
-0.48545998334884644 -0.7054263353347778 0.05426359176635742
-0.48532286286354065 -0.6899224519729614 0.05426359176635742
-0.4851367771625519 -0.674418568611145 0.05426359176635742
-0.4853023886680603 -0.6589146852493286 0.05426359176635742
-0.4857025742530823 -0.643410861492157 0.05426359176635742
-0.4863152503967285 -0.6279069781303406 0.05426359176635742
-0.4866265058517456 -0.612403154373169 0.05426359176635742
-0.48740383982658386 -0.5968992114067078 0.05426359176635742
-0.4876040816307068 -0.5813953876495361 0.05426359176635742
-0.48822957277297974 -0.5658915042877197 0.05426359176635742
-0.4882186949253082 -0.5503876209259033 0.05426359176635742
-0.48835140466690063 -0.5348837375640869 0.05426359176635742
-0.4878743290901184 -0.5193798542022705 0.05426358804106712
-0.4871385395526886 -0.5038759708404541 0.05426359176635742
-0.4867011308670044 -0.4883720874786377 0.05426359176635742
-0.4862041473388672 -0.4728682041168213 0.05426359176635742
-0.48632341623306274 -0.4573643207550049 0.05426359176635742
-0.48635333776474 -0.4418604373931885 0.05426359549164772
-0.48729759454727173 -0.42635661363601685 0.05426359176635742
-0.48794063925743103 -0.41085273027420044 0.05426358804106712
-0.48785167932510376 0.6434108018875122 0.05426359176635742
-0.4871038496494293 0.6589146852493286 0.05426359176635742
-0.48624637722969055 0.674418568611145 0.05426359176635742
-0.4862489402294159 0.6899224519729614 0.05426359176635742
-0.48586058616638184 0.7054263353347778 0.05426359176635742
-0.485384076833725 0.7209302186965942 0.05426359176635742
-0.48526400327682495 0.7364341020584106 0.05426359176635742
-0.48540037870407104 0.751937985420227 0.05426359176635742
-0.4858666658401489 0.7674418687820435 0.05426359176635742
-0.48610880970954895 0.7829457521438599 0.05426359176635742
-0.48638367652893066 0.7984496355056763 0.05426359176635742
-0.48560062050819397 0.8139535188674927 0.05426359176635742
-0.4849734604358673 0.8294574618339539 0.05426359176635742
-0.4838390350341797 0.8449612855911255 0.05426359176635742
-0.48271188139915466 0.8604651689529419 0.05426359176635742
-0.48065412044525146 0.8759689331054688 0.05426359176635742
-0.4781849682331085 0.8914728164672852 0.05426359176635742
-0.4880392551422119 0.922480583190918 -0.038759712129831314
-0.48716625571250916 0.922480583190918 -0.02325582318007946
-0.48752206563949585 0.922480583190918 -0.007751941680908203
-0.4876199960708618 0.922480583190918 0.007751941680908203
-0.487857848405838 0.922480583190918 0.02325582318007946
-0.4804117679595947 0.922480583190918 0.05426359176635742
-0.4787318706512451 0.9379844665527344 -0.05426359176635742
-0.47662466764450073 0.9379844665527344 -0.038759708404541016
-0.4761408269405365 0.9379844665527344 -0.02325582504272461
-0.47660166025161743 0.9379844665527344 -0.007751941680908203
-0.47692883014678955 0.9379844665527344 0.007751941680908203
-0.4775131940841675 0.9379844665527344 0.02325582504272461
-0.4794935882091522 0.9379844665527344 0.038759708404541016
-0.4750886559486389 0.9379844665527344 0.05426359176635742
-0.4592472314834595 -0.9534883499145508 -0.05426359176635742
-0.4595695436000824 -0.9534883499145508 0.038759708404541016
-0.47267386317253113 -0.9379844665527344 -0.038759708404541016
-0.4705932140350342 -0.9379844665527344 -0.02325582504272461
-0.4708537757396698 -0.9379844665527344 -0.007751941680908203
-0.4712854027748108 -0.9379845261573792 0.007751941680908203
-0.4725085496902466 -0.9379844665527344 0.02325582504272461
-0.4666388928890228 -0.9379844665527344 0.05426359176635742
-0.45794257521629333 -0.9224807024002075 0.05426359176635742
-0.4672623574733734 -0.9069767594337463 0.05426359176635742
-0.47087863087654114 0.9069766998291016 0.05426359176635742
-0.4617958664894104 0.922480583190918 0.05426359176635742
-0.4642775356769562 0.9534883499145508 -0.05426359176635742
-0.4620051085948944 0.9534883499145508 -0.038759708404541016
-0.4614849090576172 0.9534883499145508 -0.02325582504272461
-0.4621420204639435 0.9534883499145508 -0.007751941680908203
-0.46271419525146484 0.9534883499145508 0.007751941680908203
-0.46356016397476196 0.9534883499145508 0.02325582504272461
-0.4657911956310272 0.9534883499145508 0.038759708404541016
-0.46073925495147705 0.9534883499145508 0.05426359176635742
-0.4572904407978058 -0.9534884095191956 -0.038759708404541016
-0.4549127519130707 -0.9534883499145508 -0.02325582504272461
-0.45517006516456604 -0.9534883499145508 -0.007751941680908203
-0.4556337594985962 -0.9534883499145508 0.007751941680908203
-0.45688000321388245 -0.953488290309906 0.02325582504272461
-0.45154064893722534 -0.9534883499145508 0.05426359176635742
-0.4486227333545685 0.9379844665527344 0.05426359176635742
-0.44708681106567383 0.9689922332763672 -0.05426359176635742
-0.4440954625606537 0.9689922332763672 -0.038759708404541016
-0.4431668817996979 0.9689922332763672 -0.02325582504272461
-0.443558931350708 0.9689922332763672 -0.007751941680908203
-0.4440518915653229 0.9689922332763672 0.007751941680908203
-0.4447875916957855 0.9689922332763672 0.02325582504272461
-0.44792747497558594 0.9689922332763672 0.038759708404541016
-0.44227999448776245 0.9689922332763672 0.05426359176635742
-0.4397992193698883 -0.9689922332763672 -0.05426359176635742
-0.4354351758956909 -0.9689922332763672 -0.038759708404541016
-0.433529794216156 -0.9689922332763672 -0.02325582504272461
-0.4338587522506714 -0.9689922332763672 -0.007751941680908203
-0.4342067837715149 -0.9689922332763672 0.007751941680908203
-0.43450456857681274 -0.9689922332763672 0.02325582504272461
-0.4379849433898926 -0.9689922332763672 0.038759708404541016
-0.4306272268295288 -0.9689922332763672 0.05426359176635742
-0.4391856789588928 -0.9379844665527344 0.05426359176635742
-0.4268709719181061 0.30232560634613037 0.05426359176635742
-0.4272351861000061 0.3178294897079468 0.05426359176635742
-0.42830953001976013 0.7364341020584106 0.05426359176635742
-0.4306669235229492 0.9534883499145508 0.05426359176635742
-0.4139109253883362 -0.9534883499145508 0.05426359176635742
-0.41095665097236633 -0.5968992114067078 0.05426359176635742
-0.4148871898651123 -0.5813953876495361 0.05426359176635742
-0.41522109508514404 -0.5658915042877197 0.05426359176635742
-0.41465407609939575 -0.5503876209259033 0.05426359176635742
-0.4128530025482178 -0.5348837375640869 0.05426359176635742
-0.4123760759830475 -0.5193798542022705 0.05426359176635742
-0.4119771122932434 -0.5038759708404541 0.05426359176635742
-0.41157570481300354 -0.4883720874786377 0.05426359176635742
-0.41318580508232117 -0.4728682041168213 0.05426359176635742
-0.41230493783950806 -0.4573643207550049 0.05426359176635742
-0.4122737646102905 -0.4418604373931885 0.05426359176635742
-0.4123975336551666 -0.42635661363601685 0.05426359176635742
-0.41232767701148987 -0.41085273027420044 0.05426359176635742
-0.4116668701171875 -0.11627906560897827 0.05426359176635742
-0.4139519929885864 -0.10077518224716187 0.05426359176635742
-0.4164316654205322 -0.08527129888534546 0.05426359176635742
-0.4161076545715332 -0.06976741552352905 0.05426359176635742
-0.4150654673576355 -0.05426359176635742 0.05426359176635742
-0.41447561979293823 -0.038759708404541016 0.05426359176635742
-0.4133569896221161 -0.02325582504272461 0.05426359176635742
-0.4119243323802948 -0.007751941680908203 0.05426359176635742
-0.411334365606308 0.16279065608978271 0.05426359176635742
-0.41266873478889465 0.17829453945159912 0.05426359176635742
-0.4139782190322876 0.19379842281341553 0.05426359176635742
-0.41492316126823425 0.20930230617523193 0.05426359176635742
-0.41498902440071106 0.22480618953704834 0.05426359176635742
-0.41650205850601196 0.24031007289886475 0.05426359176635742
-0.4182843565940857 0.25581395626068115 0.05426359176635742
-0.42158234119415283 0.27131783962249756 0.05426359176635742
-0.4249120056629181 0.28682175278663635 0.05426359176635742
-0.4245563745498657 0.3333333730697632 0.05426359176635742
-0.4250474274158478 0.3488372564315796 0.05426359176635742
-0.4250231087207794 0.364341139793396 0.05426359176635742
-0.42379534244537354 0.37984490394592285 0.05426359176635742
-0.41904792189598083 0.39534878730773926 0.05426359176635742
-0.41615837812423706 0.41085267066955566 0.05426359176635742
-0.41299474239349365 0.42635655403137207 0.05426359176635742
-0.41139987111091614 0.4418604373931885 0.05426359176635742
-0.41148969531059265 0.4573643207550049 0.05426359176635742
-0.4112902283668518 0.4728682041168213 0.05426359176635742
-0.4125930666923523 0.4883720874786377 0.05426359176635742
-0.41355040669441223 0.5038759708404541 0.05426359176635742
-0.41483569145202637 0.5193798542022705 0.05426359176635742
-0.41584473848342896 0.5348837375640869 0.05426359176635742
-0.417039692401886 0.5503876209259033 0.05426359176635742
-0.41801273822784424 0.5658915042877197 0.05426359176635742
-0.418489545583725 0.5813953876495361 0.05426359176635742
-0.418524831533432 0.5968992710113525 0.05426359176635742
-0.41771769523620605 0.612403154373169 0.05426359176635742
-0.41682761907577515 0.6279069185256958 0.05426359176635742
-0.41580629348754883 0.6434108018875122 0.05426359176635742
-0.4146602153778076 0.6589146852493286 0.05426359176635742
-0.41359564661979675 0.674418568611145 0.05426359176635742
-0.4124065041542053 0.7054263353347778 0.05426359176635742
-0.42054808139801025 0.7209302186965942 0.05426359176635742
-0.4210907816886902 0.751937985420227 0.05426359176635742
-0.41794636845588684 0.7674418687820435 0.05426359176635742
-0.4208182096481323 0.9844961166381836 -0.05426359176635742
-0.4231300950050354 0.9844961166381836 -0.038759708404541016
-0.42326033115386963 0.9844961166381836 -0.02325582504272461
-0.4242180585861206 0.9844961166381836 -0.007751941680908203
-0.425127774477005 0.9844961166381836 0.007751941680908203
-0.4259769916534424 0.9844961166381836 0.02325582504272461
-0.42550235986709595 0.9844961166381836 0.038759708404541016
-0.4040478467941284 -0.9844961166381836 -0.05426359176635742
-0.4033803939819336 -0.9844961166381836 -0.038759708404541016
-0.40198850631713867 -0.9844961166381836 -0.02325582504272461
-0.4025295376777649 -0.9844961166381836 -0.007751941680908203
-0.40268969535827637 -0.9844961166381836 0.007751941680908203
-0.40316078066825867 -0.9844961166381836 0.02325582504272461
-0.40544018149375916 -0.9844961166381836 0.038759708404541016
-0.4080493450164795 -0.39534884691238403 0.05426359176635742
-0.4048398733139038 -0.3798449635505676 0.05426359176635742
-0.40201234817504883 -0.3643410801887512 0.05426359176635742
-0.3984290063381195 -0.3488371968269348 0.05426359176635742
-0.3963947296142578 -0.3333333134651184 0.05426359176635742
-0.39593470096588135 -0.317829430103302 0.05426359176635742
-0.39649319648742676 -0.30232560634613037 0.05426359176635742
-0.3983660042285919 -0.28682172298431396 0.05426359176635742
-0.4000731408596039 -0.27131783962249756 0.05426359176635742
-0.4015131890773773 -0.25581395626068115 0.05426359176635742
-0.4024409055709839 -0.24031007289886475 0.05426359176635742
-0.40353208780288696 -0.22480618953704834 0.05426359176635742
-0.4046521484851837 -0.20930230617523193 0.05426359176635742
-0.4064556956291199 -0.19379840791225433 0.05426358804106712
-0.407512903213501 -0.1782945990562439 0.05426359176635742
-0.40681588649749756 -0.1627907156944275 0.05426359176635742
-0.4079323709011078 -0.14728683233261108 0.05426359176635742
-0.4084969460964203 -0.13178294897079468 0.05426359176635742
-0.4091739356517792 0.007751941680908203 0.05426359176635742
-0.4072592258453369 0.02325582504272461 0.05426359176635742
-0.404194176197052 0.038759708404541016 0.05426359176635742
-0.4037938117980957 0.05426359176635742 0.05426359176635742
-0.4041309356689453 0.06976747512817383 0.05426359176635742
-0.40450310707092285 0.08527135848999023 0.05426359549164772
-0.40556830167770386 0.10077524185180664 0.05426359176635742
-0.4066559374332428 0.11627912521362305 0.05426359176635742
-0.4074351191520691 0.1317828893661499 0.05426359549164772
-0.40921154618263245 0.1472867727279663 0.05426359176635742
-0.40438851714134216 0.7054263353347778 0.05426359549164772
-0.4038563370704651 0.9844961166381836 0.05426359176635742
-0.38137128949165344 -0.9844961166381836 0.05426359176635742
-0.3838581144809723 -0.6279069781303406 0.05426359176635742
-0.39353010058403015 -0.6124030947685242 0.05426359176635742
-0.38003817200660706 -0.5813953876495361 0.05426359176635742
-0.38779956102371216 -0.5658915042877197 0.05426359176635742
-0.3894285559654236 -0.5503876209259033 0.05426359176635742
-0.38791048526763916 -0.5348837375640869 0.05426359176635742
-0.38428637385368347 -0.5193798542022705 0.05426359176635742
-0.38111186027526855 -0.5038759708404541 0.05426359176635742
-0.384566992521286 -0.3643410801887512 0.05426359176635742
-0.3903471827507019 -0.3488371968269348 0.05426359176635742
-0.3937292993068695 -0.3333333134651184 0.05426359176635742
-0.39460164308547974 -0.317829430103302 0.05426359176635742
-0.39425915479660034 -0.30232560634613037 0.05426359176635742
-0.39285141229629517 -0.28682172298431396 0.05426359176635742
-0.3915785849094391 -0.27131783962249756 0.05426359176635742
-0.3898068070411682 -0.25581395626068115 0.05426359176635742
-0.38764488697052 -0.24031007289886475 0.05426359176635742
-0.38565850257873535 -0.22480618953704834 0.05426359176635742
-0.38406533002853394 -0.20930230617523193 0.05426359176635742
-0.38171839714050293 -0.19379842281341553 0.05426359176635742
-0.3803974688053131 0.08527135848999023 0.05426359176635742
-0.38178786635398865 0.10077524185180664 0.05426359176635742
-0.3827276825904846 0.11627912521362305 0.05426359176635742
-0.38304466009140015 0.1317828893661499 0.05426359176635742
-0.38130611181259155 0.1472867727279663 0.05426359176635742
-0.3810878098011017 0.16279065608978271 0.05426359176635742
-0.38130709528923035 0.17829453945159912 0.05426359176635742
-0.3809979557991028 0.19379842281341553 0.05426359176635742
-0.380967378616333 0.20930230617523193 0.05426359176635742
-0.38191482424736023 0.22480618953704834 0.05426359176635742
-0.38178300857543945 0.24031007289886475 0.05426359176635742
-0.3822164237499237 0.25581395626068115 0.05426359176635742
-0.38143283128738403 0.27131783962249756 0.05426359176635742
-0.38081493973731995 0.28682172298431396 0.05426359176635742
-0.3823793828487396 0.30232560634613037 0.05426359176635742
-0.38280537724494934 0.3178294897079468 0.05426359176635742
-0.3834679424762726 0.3333333730697632 0.05426359176635742
-0.3846001923084259 0.3488372564315796 0.05426359176635742
-0.3856858015060425 0.364341139793396 0.05426359176635742
-0.3853251039981842 0.37984490394592285 0.05426359176635742
-0.3861754834651947 0.39534878730773926 0.05426359176635742
-0.3863266110420227 0.41085267066955566 0.05426359176635742
-0.3870668411254883 0.42635655403137207 0.05426359176635742
-0.38745057582855225 0.4418604373931885 0.05426359176635742
-0.3876924216747284 0.4573643207550049 0.05426359176635742
-0.38811540603637695 0.4728682041168213 0.05426359176635742
-0.38730472326278687 0.4883720874786377 0.05426359176635742
-0.38862624764442444 0.5038759708404541 0.05426359176635742
-0.38822823762893677 0.5193798542022705 0.05426359176635742
-0.38583701848983765 0.5348837375640869 0.05426359176635742
-0.3826090693473816 0.5503876209259033 0.05426359176635742
-0.3801516592502594 0.5658915042877197 0.05426359176635742
-0.3829129636287689 0.6589146852493286 0.05426359176635742
-0.3949817419052124 0.674418568611145 0.05426359176635742
-0.3908558487892151 0.968992292881012 0.05426359549164772
-0.36860573291778564 -0.6589146852493286 0.05426359176635742
-0.3717719316482544 -0.643410861492157 0.05426359176635742
-0.3741246461868286 -0.6279069781303406 0.05426359176635742
-0.3724065124988556 -0.6124030947685242 0.05426359176635742
-0.37806421518325806 -0.5968992114067078 0.05426359176635742
-0.37725624442100525 -0.4883720874786377 0.05426359176635742
-0.37319791316986084 -0.4728682041168213 0.05426359176635742
-0.3716197907924652 -0.4573643207550049 0.05426359176635742
-0.37076112627983093 -0.4418604373931885 0.05426359176635742
-0.3717781901359558 -0.42635661363601685 0.05426359176635742
-0.37320539355278015 -0.41085273027420044 0.05426359176635742
-0.375465452671051 -0.39534881711006165 0.05426358804106712
-0.37830570340156555 -0.3798449635505676 0.05426359176635742
-0.3796450197696686 -0.1782945990562439 0.05426359176635742
-0.37919142842292786 -0.1627907156944275 0.05426359176635742
-0.37794938683509827 -0.14728683233261108 0.05426359176635742
-0.3770659565925598 -0.13178294897079468 0.05426359176635742
-0.3742918074131012 -0.11627906560897827 0.05426359176635742
-0.37215903401374817 -0.10077518224716187 0.05426359176635742
-0.3703373670578003 -0.08527129888534546 0.05426359176635742
-0.3709276616573334 -0.06976741552352905 0.05426359176635742
-0.37250998616218567 -0.05426359176635742 0.05426359176635742
-0.3760029971599579 -0.038759708404541016 0.05426359176635742
-0.3782758414745331 -0.02325582504272461 0.05426359176635742
-0.3789711594581604 -0.007751941215246916 0.05426359176635742
-0.37938010692596436 0.007751941680908203 0.05426359176635742
-0.37923258543014526 0.02325582504272461 0.05426359176635742
-0.3796752393245697 0.038759708404541016 0.05426359176635742
-0.3789745569229126 0.05426359549164772 0.05426359549164772
-0.37910497188568115 0.06976748257875443 0.05426359549164772
-0.37667742371559143 0.5813953876495361 0.05426359176635742
-0.37489819526672363 0.5968992710113525 0.05426359176635742
-0.37534210085868835 0.612403154373169 0.05426359176635742
-0.37667539715766907 0.6279069185256958 0.05426359176635742
-0.3782995641231537 0.6434108018875122 0.05426359176635742
-0.3763531744480133 0.7674418687820435 0.05426359176635742
-0.3534800112247467 -0.9689922332763672 0.05426359176635742
-0.3621917963027954 -0.7519380450248718 0.05426359549164772
-0.3531825542449951 -0.7364341020584106 0.05426359176635742
-0.35005825757980347 -0.7209302186965942 0.05426359176635742
-0.3557818531990051 -0.7054263353347778 0.05426359176635742
-0.35837695002555847 -0.6899224519729614 0.05426359549164772
-0.36183735728263855 -0.674418568611145 0.05426359176635742
-0.3587800860404968 -0.643410861492157 0.05426359176635742
