-0.038759708404541016 -0.7209302186965942 0.5248919129371643
-0.038759708404541016 -0.7209302186965942 0.6028879284858704
-0.038759708404541016 -0.7054263949394226 0.5196680426597595
-0.038759708404541016 -0.7054263353347778 0.6028730869293213
-0.038759708404541016 -0.6899224519729614 0.5067702531814575
-0.038759708404541016 -0.6899224519729614 0.6019806861877441
-0.038759708404541016 -0.674418568611145 0.4936569333076477
-0.038759708404541016 -0.674418568611145 0.6016554236412048
-0.038759708404541016 -0.6589146852493286 0.4833834767341614
-0.038759708404541016 -0.6589146852493286 0.6011601090431213
-0.038759708404541016 -0.643410861492157 0.4762931168079376
-0.038759708404541016 -0.643410861492157 0.5992639660835266
-0.038759708404541016 -0.6279069781303406 0.4705672860145569
-0.038759708404541016 -0.6279069781303406 0.5960638523101807
-0.038759708404541016 -0.6124030947685242 0.46635881066322327
-0.038759708404541016 -0.6124030947685242 0.5920114517211914
-0.038759708404541016 -0.5968992114067078 0.4634885787963867
-0.038759708404541016 -0.5968992114067078 0.587303876876831
-0.038759708404541016 -0.5813953876495361 -0.23916606605052948
-0.038759708404541016 -0.5813953876495361 -0.18663957715034485
-0.038759708404541016 -0.5813953876495361 0.4617692232131958
-0.038759708404541016 -0.5813953876495361 0.5816734433174133
-0.038759708404541016 -0.5658915042877197 -0.2667706310749054
-0.038759708404541016 -0.5658915042877197 -0.16447597742080688
-0.038759708404541016 -0.5658915042877197 0.46507972478866577
-0.038759708404541016 -0.5658915042877197 0.5736472010612488
-0.038759708404541016 -0.5503876209259033 -0.28332582116127014
-0.038759708404541016 -0.5503876209259033 -0.15196119248867035
-0.038759708404541016 -0.5503876209259033 0.48523104190826416
-0.038759708404541016 -0.5503876209259033 0.5603001117706299
-0.038759708404541016 -0.5348837375640869 -0.2963515520095825
-0.038759708404541016 -0.5348837375640869 -0.13611528277397156
-0.038759708404541016 -0.5193798542022705 -0.3073148727416992
-0.038759708404541016 -0.5193798542022705 -0.11726806312799454
-0.038759708404541016 -0.5038759708404541 -0.3178900182247162
-0.038759712129831314 -0.5038759708404541 -0.10075561702251434
-0.038759708404541016 -0.4883720874786377 -0.3291681110858917
-0.038759708404541016 -0.4883720874786377 -0.232981875538826
-0.038759708404541016 -0.4883720874786377 -0.1864396631717682
-0.038759708404541016 -0.4883720874786377 -0.08522018790245056
-0.038759708404541016 -0.4883720874786377 0.19254714250564575
-0.038759708404541016 -0.4883720874786377 0.2683510184288025
-0.038759708404541016 -0.4728682041168213 -0.3405487537384033
-0.038759708404541016 -0.4728682041168213 -0.25069189071655273
-0.038759708404541016 -0.4728682041168213 -0.16053275763988495
-0.038759708404541016 -0.4728681743144989 -0.0673779845237732
-0.038759708404541016 -0.4728682041168213 0.10336871445178986
-0.038759708404541016 -0.4728682041168213 0.2709713876247406
-0.038759708404541016 -0.4573643207550049 -0.35125938057899475
-0.038759708404541016 -0.4573643207550049 -0.26170456409454346
-0.038759708404541016 -0.4573643207550049 -0.144171342253685
-0.038759708404541016 -0.4573643207550049 0.2660936117172241
-0.038759708404541016 -0.4418604373931885 -0.3616955876350403
-0.038759708404541016 -0.4418604373931885 -0.27078866958618164
-0.038759708404541016 -0.4418604373931885 -0.1369970440864563
-0.038759708404541016 -0.4418604373931885 0.25722962617874146
-0.038759708404541016 -0.42635661363601685 -0.37324175238609314
-0.038759708404541016 -0.42635661363601685 -0.27798473834991455
-0.038759708404541016 -0.42635661363601685 -0.13486972451210022
-0.038759708404541016 -0.42635661363601685 0.245053231716156
-0.038759708404541016 -0.41085273027420044 -0.38413846492767334
-0.038759708404541016 -0.41085273027420044 -0.286876380443573
-0.038759708404541016 -0.41085270047187805 -0.13094604015350342
-0.038759708404541016 -0.41085273027420044 0.031290050595998764
-0.038759708404541016 -0.41085273027420044 0.09115582704544067
-0.038759708404541016 -0.41085273027420044 0.23132669925689697
-0.038759708404541016 -0.39534884691238403 -0.3939417600631714
-0.038759708404541016 -0.39534884691238403 -0.29857903718948364
-0.038759708404541016 -0.39534884691238403 -0.12562736868858337
-0.038759708404541016 -0.39534884691238403 0.0026756601873785257
-0.038759708404541016 -0.39534884691238403 0.09737066179513931
-0.038759708404541016 -0.39534884691238403 0.21745318174362183
-0.038759708404541016 -0.3798449635505676 -0.4046080708503723
-0.038759708404541016 -0.3798449635505676 -0.3149838149547577
-0.038759708404541016 -0.3798449635505676 -0.11864778399467468
-0.038759708404541016 -0.3798449635505676 -0.026800205931067467
-0.038759708404541016 -0.3798449635505676 0.09235066175460815
-0.038759708404541016 -0.3798449635505676 0.20425236225128174
-0.038759708404541016 -0.3643410801887512 -0.41417863965034485
-0.038759708404541016 -0.3643410801887512 -0.3358200490474701
-0.038759708404541016 -0.3643410801887512 -0.10953342914581299
-0.038759708404541016 -0.3643410801887512 -0.04285562038421631
-0.038759708404541016 -0.3643410801887512 0.08551613241434097
-0.038759708404541016 -0.3643410801887512 0.1923874169588089
-0.038759708404541016 -0.3488371968269348 -0.42299914360046387
-0.038759708404541016 -0.3488371968269348 -0.3510177731513977
-0.038759708404541016 -0.3488371968269348 -0.10080408304929733
-0.038759708404541016 -0.3488371968269348 -0.034995436668395996
-0.038759708404541016 -0.3488371968269348 0.07875113189220428
-0.038759708404541016 -0.3488371968269348 0.18189598619937897
-0.038759708404541016 -0.3333333134651184 -0.43200069665908813
-0.038759708404541016 -0.3333333134651184 -0.36575746536254883
-0.038759708404541016 -0.3333333134651184 -0.08728314936161041
-0.038759708404541016 -0.3333333134651184 -0.0054412116296589375
-0.038759708404541016 -0.3333333134651184 0.07439090311527252
-0.038759708404541016 -0.3333333134651184 0.1729339063167572
-0.038759708404541016 -0.317829430103302 -0.4398219585418701
-0.038759708404541016 -0.317829430103302 -0.38079285621643066
-0.038759708404541016 -0.317829430103302 -0.07656072080135345
-0.038759708404541016 -0.317829430103302 0.014543465338647366
-0.038759708404541016 -0.317829430103302 0.07318368554115295
-0.038759708404541016 -0.317829430103302 0.1641160547733307
-0.038759708404541016 -0.30232560634613037 -0.44826459884643555
-0.038759708404541016 -0.30232560634613037 -0.39339685440063477
-0.038759708404541016 -0.30232560634613037 -0.05556241050362587
-0.038759708404541016 -0.30232560634613037 -0.04585263133049011
-0.038759708404541016 -0.30232560634613037 -0.03601451963186264
-0.038759708404541016 -0.30232560634613037 0.021694160997867584
-0.038759708404541016 -0.30232560634613037 0.07326652109622955
-0.038759708404541016 -0.30232560634613037 0.15443018078804016
-0.038759708404541016 -0.28682172298431396 -0.45577701926231384
-0.038759708404541016 -0.28682172298431396 -0.40358132123947144
-0.038759708404541016 -0.28682172298431396 0.005422314628958702
-0.038759708404541016 -0.28682172298431396 0.015112478286027908
-0.038759708404541016 -0.28682172298431396 0.07313629984855652
-0.038759708404541016 -0.28682172298431396 0.14724013209342957
-0.038759708404541016 -0.27131783962249756 -0.46371960639953613
-0.038759708404541016 -0.27131783962249756 -0.41253069043159485
-0.038759708404541016 -0.27131783962249756 0.07091522216796875
-0.038759708404541016 -0.27131783962249756 0.13996507227420807
-0.03875970467925072 -0.25581395626068115 -0.47110646963119507
-0.038759708404541016 -0.25581395626068115 -0.42061007022857666
-0.038759708404541016 -0.25581395626068115 0.06525875627994537
-0.038759708404541016 -0.25581395626068115 0.13503512740135193
-0.038759708404541016 -0.24031007289886475 -0.47899681329727173
-0.038759708404541016 -0.24031007289886475 -0.42767804861068726
-0.038759708404541016 -0.24031007289886475 0.059829577803611755
-0.038759708404541016 -0.24031007289886475 0.13122090697288513
-0.038759708404541016 -0.22480618953704834 -0.4857844412326813
-0.038759708404541016 -0.22480618953704834 -0.43309351801872253
-0.038759708404541016 -0.22480618953704834 0.05434715002775192
-0.038759708404541016 -0.22480618953704834 0.12606805562973022
-0.038759708404541016 -0.20930230617523193 -0.49305105209350586
-0.038759708404541016 -0.20930230617523193 -0.43733230233192444
-0.038759708404541016 -0.20930230617523193 0.04324280470609665
-0.038759708404541016 -0.20930229127407074 0.12113703787326813
-0.038759708404541016 -0.19379842281341553 -0.4999803304672241
-0.038759708404541016 -0.19379842281341553 -0.4414910674095154
-0.038759708404541016 -0.19379842281341553 0.026940882205963135
-0.038759708404541016 -0.19379842281341553 0.1151759922504425
-0.038759708404541016 -0.1782945990562439 -0.5065758228302002
-0.038759708404541016 -0.1782945990562439 -0.4441884756088257
-0.038759708404541016 -0.1782945990562439 0.01287683192640543
-0.038759708404541016 -0.1782945990562439 0.10720159113407135
-0.038759708404541016 -0.1627907156944275 -0.5130487680435181
-0.038759708404541016 -0.1627907156944275 -0.44597285985946655
-0.038759708404541016 -0.1627907156944275 0.0038568417076021433
-0.038759708404541016 -0.1627907156944275 0.09935125708580017
-0.038759708404541016 -0.14728683233261108 -0.5197499394416809
-0.038759708404541016 -0.14728683233261108 -0.4472147822380066
-0.038759708404541016 -0.14728683233261108 -0.0015125246718525887
-0.038759708404541016 -0.14728683233261108 0.09004814922809601
-0.038759708404541016 -0.13178294897079468 -0.5259934663772583
-0.038759708404541016 -0.13178294897079468 -0.44829341769218445
-0.038759708404541016 -0.13178294897079468 -0.004253723192960024
-0.038759708404541016 -0.13178294897079468 0.08153704553842545
-0.038759708404541016 -0.11627906560897827 -0.5333196520805359
-0.038759708404541016 -0.11627906560897827 -0.44981592893600464
-0.038759708404541016 -0.11627906560897827 -0.00520868506282568
-0.038759708404541016 -0.11627906560897827 0.07420438528060913
-0.038759708404541016 -0.10077518224716187 -0.5404599905014038
-0.038759708404541016 -0.10077518224716187 -0.45214229822158813
-0.038759712129831314 -0.10077518224716187 -0.005552550777792931
-0.038759708404541016 -0.10077518224716187 0.06904558092355728
-0.038759708404541016 -0.08527129888534546 -0.547890841960907
-0.038759708404541016 -0.08527129888534546 -0.4559502601623535
-0.038759712129831314 -0.08527130633592606 -0.006405133754014969
-0.038759708404541016 -0.08527129888534546 0.0643051415681839
-0.038759708404541016 -0.06976741552352905 -0.5558276772499084
-0.038759708404541016 -0.06976741552352905 -0.46178746223449707
-0.038759708404541016 -0.06976741552352905 -0.00778829213231802
-0.038759708404541016 -0.06976741552352905 0.06092950329184532
-0.038759708404541016 -0.05426359176635742 -0.5634056329727173
-0.038759708404541016 -0.05426359176635742 -0.46765777468681335
-0.038759708404541016 -0.05426359176635742 -0.017214495688676834
-0.038759708404541016 -0.05426359176635742 0.058227598667144775
-0.038759708404541016 -0.038759708404541016 -0.570608377456665
-0.038759708404541016 -0.038759708404541016 -0.4733828008174896
-0.038759708404541016 -0.038759708404541016 -0.06099782884120941
-0.03875970467925072 -0.03875970467925072 0.05552689731121063
-0.038759708404541016 -0.02325582504272461 -0.5768674612045288
-0.038759708404541016 -0.02325582504272461 -0.48026031255722046
-0.038759708404541016 -0.02325582504272461 -0.07236279547214508
-0.038759708404541016 -0.02325582504272461 0.05124765262007713
-0.038759708404541016 -0.007751941680908203 -0.5823255181312561
-0.038759708404541016 -0.007751941680908203 -0.4880181550979614
-0.038759708404541016 -0.007751941680908203 -0.07668741047382355
-0.038759708404541016 -0.007751941680908203 0.04707400128245354
-0.038759708404541016 0.007751941680908203 -0.5870827436447144
-0.038759708404541016 0.007751941680908203 -0.49676671624183655
-0.038759708404541016 0.007751941680908203 -0.08004482090473175
-0.038759708404541016 0.007751941680908203 0.04370442032814026
-0.038759708404541016 0.02325582504272461 -0.5905214548110962
-0.038759708404541016 0.02325582504272461 -0.5071812868118286
-0.03875970467925072 0.02325582318007946 -0.08440946042537689
-0.038759708404541016 0.02325582504272461 0.039250392466783524
-0.038759708404541016 0.038759708404541016 -0.5922715663909912
-0.038759708404541016 0.038759708404541016 -0.51934415102005
-0.038759708404541016 0.038759708404541016 -0.08735205233097076
-0.038759708404541016 0.038759708404541016 0.0327264741063118
-0.038759708404541016 0.05426358804106712 -0.5939114093780518
-0.038759708404541016 0.05426359176635742 -0.5245077610015869
-0.038759708404541016 0.05426359176635742 -0.09009377658367157
-0.038759708404541016 0.05426359176635742 0.02861492708325386
-0.038759708404541016 0.06976747512817383 -0.596027135848999
-0.038759708404541016 0.06976747512817383 -0.5296810865402222
-0.038759708404541016 0.06976747512817383 -0.09350629150867462
-0.038759708404541016 0.06976747512817383 0.023573683574795723
-0.038759708404541016 0.08527135848999023 -0.5981370806694031
-0.038759708404541016 0.08527135848999023 -0.5326084494590759
-0.038759708404541016 0.08527135848999023 -0.096746064722538
-0.038759708404541016 0.08527135848999023 0.017303913831710815
-0.038759708404541016 0.10077524185180664 -0.600561797618866
-0.038759708404541016 0.10077524185180664 -0.534599781036377
-0.038759708404541016 0.10077524185180664 -0.09969675540924072
-0.038759708404541016 0.10077524185180664 0.013809259980916977
-0.038759708404541016 0.11627912521362305 -0.603126049041748
-0.038759708404541016 0.11627912521362305 -0.5355010628700256
-0.038759708404541016 0.11627912521362305 -0.10214531421661377
-0.038759708404541016 0.11627912521362305 0.010264895856380463
-0.038759708404541016 0.1317828893661499 -0.6052536368370056
-0.038759708404541016 0.1317828893661499 -0.5375418663024902
-0.038759708404541016 0.1317828893661499 -0.10226188600063324
-0.038759708404541016 0.1317828893661499 0.0053079454228281975
-0.038759708404541016 0.1472867727279663 -0.606862485408783
-0.038759708404541016 0.1472867727279663 -0.540530800819397
-0.038759708404541016 0.1472867727279663 -0.09967244416475296
-0.038759708404541016 0.1472867727279663 0.0010350726079195738
-0.038759708404541016 0.16279065608978271 -0.6078945398330688
-0.038759708404541016 0.16279065608978271 -0.5439832210540771
-0.038759708404541016 0.16279065608978271 -0.097313791513443
-0.038759708404541016 0.16279065608978271 -0.0025380970910191536
-0.038759708404541016 0.17829453945159912 -0.6088587045669556
-0.038759708404541016 0.17829453945159912 -0.5476512908935547
-0.038759708404541016 0.17829453945159912 -0.09443854540586472
-0.038759708404541016 0.17829453945159912 -0.007207517512142658
-0.038759708404541016 0.19379842281341553 -0.609977126121521
-0.038759708404541016 0.19379842281341553 -0.550833523273468
-0.038759708404541016 0.19379842281341553 -0.09064874798059464
-0.038759708404541016 0.19379842281341553 -0.014204719103872776
-0.038759708404541016 0.20930230617523193 -0.6106947064399719
-0.038759708404541016 0.20930230617523193 -0.5513695478439331
-0.038759708404541016 0.20930230617523193 -0.08817905932664871
-0.038759708404541016 0.20930230617523193 -0.019050393253564835
-0.038759708404541016 0.22480618953704834 -0.6109745502471924
-0.038759708404541016 0.22480618953704834 -0.5510213971138
-0.038759708404541016 0.22480618953704834 -0.08643212169408798
-0.038759708404541016 0.22480618953704834 -0.02503507025539875
-0.038759708404541016 0.24031007289886475 -0.6108818650245667
-0.038759708404541016 0.24031007289886475 -0.5500974059104919
-0.038759708404541016 0.24031007289886475 -0.08545327931642532
-0.038759708404541016 0.24031007289886475 -0.030743155628442764
-0.038759708404541016 0.25581395626068115 -0.6104083061218262
-0.038759708404541016 0.25581395626068115 -0.5459935069084167
-0.038759708404541016 0.25581395626068115 -0.08576186001300812
-0.038759708404541016 0.25581395626068115 -0.034710515290498734
-0.038759708404541016 0.27131783962249756 -0.6099938154220581
-0.038759708404541016 0.27131783962249756 -0.5417391657829285
-0.038759708404541016 0.27131783962249756 -0.08605127781629562
-0.038759708404541016 0.27131783962249756 -0.03868446126580238
-0.038759708404541016 0.28682172298431396 -0.6093930006027222
-0.038759708404541016 0.28682172298431396 -0.5376313924789429
-0.038759708404541016 0.28682172298431396 -0.08651359379291534
-0.038759708404541016 0.28682172298431396 -0.04376453161239624
-0.038759708404541016 0.30232560634613037 -0.6088185906410217
-0.038759708404541016 0.30232560634613037 -0.5320578217506409
-0.038759708404541016 0.30232560634613037 -0.08832892775535583
-0.038759708404541016 0.30232560634613037 -0.04705158621072769
-0.038759708404541016 0.3178294897079468 -0.6083052158355713
-0.038759708404541016 0.3178294897079468 -0.5252470970153809
-0.038759708404541016 0.3178294897079468 -0.08999675512313843
-0.038759708404541016 0.3178294897079468 -0.049998939037323
-0.038759708404541016 0.3333333730697632 -0.6073768138885498
-0.038759708404541016 0.3333333730697632 -0.5194501280784607
-0.038759708404541016 0.3333333730697632 -0.09221861511468887
-0.038759708404541016 0.3333333730697632 -0.05362348258495331
-0.038759708404541016 0.3488372564315796 -0.6058031320571899
-0.038759708404541016 0.3488372564315796 -0.5082331895828247
-0.038759708404541016 0.3488372564315796 -0.09528139233589172
-0.038759708404541016 0.3488372564315796 -0.05941350758075714
-0.038759708404541016 0.364341139793396 -0.6032242178916931
-0.038759708404541016 0.364341139793396 -0.5004214644432068
-0.038759708404541016 0.364341139793396 -0.0991952046751976
-0.038759708404541016 0.364341139793396 -0.06345368176698685
-0.038759708404541016 0.37984490394592285 -0.5998275279998779
-0.038759708404541016 0.37984490394592285 -0.494615375995636
-0.038759708404541016 0.37984490394592285 -0.10617755353450775
-0.038759708404541016 0.37984490394592285 -0.06827986240386963
-0.038759708404541016 0.39534878730773926 -0.5963594913482666
-0.038759708404541016 0.39534878730773926 -0.49291396141052246
-0.038759708404541016 0.39534878730773926 -0.11670145392417908
-0.038759708404541016 0.39534878730773926 -0.07671279460191727
-0.038759708404541016 0.41085267066955566 -0.5933214426040649
-0.038759708404541016 0.41085267066955566 -0.493105411529541
-0.038759712129831314 0.41085267066955566 -0.13088193535804749
-0.038759708404541016 0.41085267066955566 -0.08277577906847
-0.038759708404541016 0.42635655403137207 -0.5909902453422546
-0.038759708404541016 0.42635655403137207 -0.4935755133628845
-0.038759708404541016 0.4263565242290497 -0.14189332723617554
-0.038759708404541016 0.42635655403137207 -0.09171731770038605
-0.038759708404541016 0.4418604373931885 -0.585386335849762
-0.038759708404541016 0.4418604373931885 -0.4932110607624054
-0.038759708404541016 0.4418604373931885 -0.15048466622829437
-0.038759708404541016 0.4418604373931885 -0.0975102037191391
-0.038759708404541016 0.4573643207550049 -0.5786468386650085
-0.038759708404541016 0.4573643207550049 -0.49220287799835205
-0.038759708404541016 0.4573642909526825 -0.15770882368087769
-0.038759708404541016 0.4573643207550049 -0.10310567915439606
-0.038759708404541016 0.4728682041168213 -0.5746023654937744
-0.038759708404541016 0.4728682041168213 -0.48850882053375244
-0.038759708404541016 0.4728682041168213 -0.16457338631153107
-0.038759708404541016 0.4728682041168213 -0.10704491287469864
-0.038759708404541016 0.4883720874786377 -0.564636766910553
-0.038759708404541016 0.4883720874786377 -0.4817538261413574
-0.038759708404541016 0.4883720874786377 -0.17070195078849792
-0.038759708404541016 0.4883720874786377 -0.10908812284469604
-0.038759708404541016 0.5038759708404541 -0.5593547224998474
-0.038759708404541016 0.5038759708404541 -0.4731602072715759
-0.038759708404541016 0.5038759708404541 -0.17690370976924896
-0.038759708404541016 0.5038759708404541 -0.11044012010097504
-0.038759708404541016 0.5193798542022705 -0.5482451319694519
-0.038759708404541016 0.5193798542022705 -0.4611537456512451
-0.038759708404541016 0.5193798542022705 -0.18062591552734375
-0.038759708404541016 0.5193798542022705 -0.1112787127494812
-0.038759708404541016 0.5348837375640869 -0.5405395030975342
-0.038759708404541016 0.5348837375640869 -0.44532838463783264
-0.038759708404541016 0.5348837375640869 -0.18232867121696472
-0.038759708404541016 0.5348837375640869 -0.1118890717625618
-0.038759708404541016 0.5503876209259033 -0.5306663513183594
-0.038759708404541016 0.5503876209259033 -0.4249403476715088
-0.038759708404541016 0.5503876209259033 -0.35421961545944214
-0.038759708404541016 0.5503876209259033 -0.33849579095840454
-0.038759708404541016 0.5503876209259033 -0.18112510442733765
-0.038759708404541016 0.5503876209259033 -0.11262527108192444
-0.038759712129831314 0.5658915042877197 -0.5177205801010132
-0.038759708404541016 0.5658915042877197 -0.2867347300052643
-0.038759708404541016 0.5658915042877197 -0.18067023158073425
-0.038759708404541016 0.5658915042877197 -0.1136137917637825
-0.038759708404541016 0.5813953876495361 -0.5064236521720886
-0.038759708404541016 0.5813953876495361 -0.27082180976867676
-0.038759708404541016 0.5813953876495361 -0.1803731918334961
-0.038759708404541016 0.5813953876495361 -0.11420624703168869
-0.038759708404541016 0.5968992710113525 -0.49503856897354126
-0.038759708404541016 0.5968992710113525 -0.2600369453430176
-0.038759708404541016 0.5968992710113525 -0.1822865605354309
-0.038759708404541016 0.5968992710113525 -0.11444354057312012
-0.038759708404541016 0.612403154373169 -0.4832090139389038
-0.038759708404541016 0.612403154373169 -0.25188469886779785
-0.038759708404541016 0.612403154373169 -0.18473780155181885
-0.038759708404541016 0.612403154373169 -0.11407411098480225
-0.038759708404541016 0.6279069185256958 -0.4705810546875
-0.038759708404541016 0.6279069185256958 -0.24517962336540222
-0.038759708404541016 0.6279069185256958 -0.18741372227668762
-0.038759708404541016 0.6279069185256958 -0.11283096671104431
-0.038759708404541016 0.6434108018875122 -0.45794615149497986
-0.038759708404541016 0.6434108018875122 -0.24330726265907288
-0.038759708404541016 0.6434108018875122 -0.1878981590270996
-0.038759708404541016 0.6434108018875122 -0.11073469370603561
-0.038759708404541016 0.6589146852493286 -0.4497286379337311
-0.038759708404541016 0.6589146852493286 -0.25005555152893066
-0.038759708404541016 0.6589146852493286 -0.18345880508422852
-0.038759708404541016 0.6589146852493286 -0.1078292578458786
-0.038759708404541016 0.6744185090065002 -0.43810009956359863
-0.038759708404541016 0.674418568611145 -0.2632576823234558
-0.038759708404541016 0.674418568611145 -0.1776934266090393
-0.038759708404541016 0.674418568611145 -0.10468657314777374
-0.038759708404541016 0.6899225115776062 -0.4239756762981415
-0.038759708404541016 0.6899224519729614 -0.28068360686302185
-0.038759708404541016 0.6899224519729614 -0.16956576704978943
-0.038759708404541016 0.6899224519729614 -0.10099710524082184
-0.038759708404541016 0.7054263353347778 -0.4081542491912842
-0.038759708404541016 0.7054263353347778 -0.2910020053386688
-0.038759708404541016 0.7054263353347778 -0.1620052009820938
-0.038759708404541016 0.7054263353347778 -0.09830812364816666
-0.038759708404541016 0.7209302186965942 -0.3902532458305359
-0.038759708404541016 0.7209302186965942 -0.29377278685569763
-0.038759708404541016 0.7209302186965942 -0.15798653662204742
-0.038759708404541016 0.7209302186965942 -0.09485329687595367
-0.038759708404541016 0.7364341020584106 -0.372275173664093
-0.038759708404541016 0.7364341020584106 -0.28944137692451477
-0.038759708404541016 0.7364341020584106 -0.15712761878967285
-0.038759708404541016 0.7364341020584106 -0.08958204835653305
-0.038759708404541016 0.751937985420227 -0.3559778332710266
-0.038759708404541016 0.751937985420227 -0.2759201228618622
-0.038759708404541016 0.751937985420227 -0.16052693128585815
-0.038759708404541016 0.751937985420227 -0.08440431952476501
-0.038759708404541016 0.7674418687820435 -0.33810824155807495
-0.038759708404541016 0.7674418687820435 -0.24476271867752075
-0.038759708404541016 0.7674418687820435 -0.171850323677063
-0.038759708404541016 0.7674418687820435 -0.08297013491392136
-0.038759708404541016 0.7829457521438599 -0.3197413682937622
-0.038759708404541016 0.7829457521438599 -0.2118103802204132
-0.038759708404541016 0.7829457521438599 -0.1887330859899521
-0.038759708404541016 0.7829457521438599 -0.08202438056468964
-0.038759708404541016 0.7984496355056763 -0.3006401062011719
-0.038759708404541016 0.7984495759010315 -0.08157534897327423
-0.038759708404541016 0.8139535188674927 -0.27328017354011536
-0.038759708404541016 0.8139535188674927 -0.08148948848247528
-0.038759708404541016 0.8294574022293091 -0.2373562902212143
-0.038759708404541016 0.8294574022293091 -0.14691193401813507
-0.038759708404541016 0.8294574022293091 -0.12086315453052521
-0.038759708404541016 0.8294574022293091 -0.08148573338985443
-0.038759708404541016 0.8449612855911255 -0.2083684504032135
-0.038759708404541016 0.8449612855911255 -0.1667344719171524
-0.038759708404541016 0.8449612855911255 -0.10509830713272095
-0.038759708404541016 0.8449612855911255 -0.08129189908504486
-0.038759708404541016 0.8604651689529419 -0.10188382118940353
-0.038759708404541016 0.8604651689529419 -0.08049818128347397
-0.038759708404541016 0.8759689331054688 -0.0957966297864914
-0.038759708404541016 0.8759689331054688 -0.07882313430309296
-0.038759708404541016 0.8914728164672852 -0.09050478786230087
-0.038759708404541016 0.8914728164672852 -0.07510286569595337
-0.038759708404541016 0.9069766998291016 -0.08850293606519699
-0.038759708404541016 0.9069766998291016 -0.06943850219249725
-0.038759708404541016 0.922480583190918 -0.08777239173650742
-0.038759708404541016 0.9224805235862732 -0.06844516098499298
-0.038759708404541016 0.9379844665527344 -0.08733576536178589
-0.038759708404541016 0.9379844665527344 -0.06786290556192398
-0.038759708404541016 0.9534883499145508 -0.08671533316373825
-0.038759708404541016 0.9534883499145508 -0.06746827065944672
-0.038759708404541016 0.9689922332763672 -0.08586777001619339
-0.038759708404541016 0.9689922332763672 -0.06684350222349167
-0.038759708404541016 0.9844961166381836 -0.08536655455827713
-0.038759708404541016 0.9844961166381836 -0.06625458598136902
-0.02325582504272461 -0.922480583190918 0.4767652750015259
-0.02325582504272461 -0.922480583190918 0.504277229309082
-0.02325582504272461 -0.9069767594337463 0.47415071725845337
-0.02325582504272461 -0.9069767594337463 0.5178928971290588
-0.02325582504272461 -0.8914728760719299 0.4759279787540436
-0.02325582504272461 -0.8914728760719299 0.5287888050079346
-0.02325582504272461 -0.8759689927101135 0.4813840985298157
-0.02325582318007946 -0.8759689331054688 0.5378166437149048
-0.02325582504272461 -0.8604650497436523 0.4892524778842926
-0.02325582504272461 -0.8604651093482971 0.5492512583732605
-0.02325582504272461 -0.8449611663818359 0.49906125664711
-0.02325582504272461 -0.8449612259864807 0.5620109438896179
-0.02325582504272461 -0.8294573426246643 0.5033822655677795
-0.02325582504272461 -0.8294573426246643 0.575611412525177
-0.02325582504272461 -0.8139535188674927 0.4999459683895111
-0.02325582690536976 -0.8139535188674927 0.586173415184021
-0.02325582504272461 -0.7984496355056763 0.5017898678779602
-0.02325582504272461 -0.7984496355056763 0.5949196219444275
-0.02325582504272461 -0.7829457521438599 0.517153799533844
-0.02325582504272461 -0.7829457521438599 0.5996896028518677
-0.02325582504272461 -0.7674418687820435 0.5206419229507446
-0.02325582504272461 -0.7674418687820435 0.6048008799552917
-0.02325582504272461 -0.751937985420227 0.5193570852279663
-0.02325582504272461 -0.751937985420227 0.6079148650169373
-0.02325582504272461 -0.7364341020584106 0.5192763805389404
-0.02325582504272461 -0.7364341020584106 0.6097740530967712
-0.02325582504272461 -0.7209302186965942 0.5170320272445679
-0.02325582504272461 -0.7209302186965942 0.6111968755722046
-0.02325582504272461 -0.7054263353347778 0.5078045725822449
-0.02325582504272461 -0.7054263353347778 0.6121227145195007
-0.02325582504272461 -0.6899224519729614 0.49346572160720825
-0.02325582504272461 -0.6899224519729614 0.6128935813903809
-0.02325582504272461 -0.674418568611145 0.48152804374694824
-0.02325582504272461 -0.674418568611145 0.6134832501411438
-0.02325582504272461 -0.6589146852493286 0.47165751457214355
-0.02325582690536976 -0.6589146852493286 0.6133415102958679
-0.02325582504272461 -0.643410861492157 0.46575990319252014
-0.02325582504272461 -0.6434108018875122 0.6119067668914795
-0.02325582504272461 -0.6279069781303406 0.46053504943847656
-0.02325582504272461 -0.6279069781303406 0.6085124611854553
-0.02325582504272461 -0.6124030351638794 0.4547494053840637
-0.02325582504272461 -0.6124030947685242 0.6049401760101318
-0.02325582504272461 -0.5968992114067078 0.4419516623020172
-0.02325582504272461 -0.5968992114067078 0.6002622246742249
-0.02325582504272461 -0.5813953876495361 -0.2507057189941406
-0.02325582504272461 -0.5813953876495361 -0.1786966174840927
-0.02325582690536976 -0.5813954472541809 0.39551687240600586
-0.02325582504272461 -0.5813953876495361 0.5945310592651367
-0.02325582504272461 -0.5658915042877197 -0.27594393491744995
-0.02325582504272461 -0.5658915042877197 -0.16097573935985565
-0.02325582504272461 -0.5658915042877197 0.3625788986682892
-0.02325582504272461 -0.5658915042877197 0.5877336263656616
-0.02325582504272461 -0.5503876209259033 -0.29075127840042114
-0.02325582504272461 -0.5503876209259033 -0.14819571375846863
-0.02325582504272461 -0.5503876209259033 0.3376288115978241
-0.02325582504272461 -0.5503876209259033 0.5789639949798584
-0.02325582690536976 -0.5348837971687317 -0.30185025930404663
-0.02325582318007946 -0.5348837375640869 -0.13128907978534698
-0.02325582504272461 -0.5348837375640869 0.31507569551467896
-0.02325582504272461 -0.5348837375640869 0.5665165185928345
-0.02325582504272461 -0.5193798542022705 -0.3123682141304016
-0.02325582504272461 -0.5193798542022705 -0.11220027506351471
-0.02325582504272461 -0.5193798542022705 0.26584333181381226
-0.02325582504272461 -0.5193798542022705 0.4230191111564636
-0.02325582504272461 -0.5038759708404541 -0.32313960790634155
-0.02325582504272461 -0.5038759708404541 -0.09612037241458893
-0.02325582504272461 -0.5038759708404541 0.21789562702178955
-0.02325582504272461 -0.5038759708404541 0.32000651955604553
-0.02325582504272461 -0.4883720874786377 -0.3333696722984314
-0.02325582504272461 -0.4883720874786377 -0.2460910677909851
-0.02325582504272461 -0.4883720874786377 -0.1688874065876007
-0.02325582504272461 -0.4883720874786377 -0.08090698719024658
-0.02325582504272461 -0.4883720874786377 0.15513402223587036
-0.02325582504272461 -0.4883720874786377 0.3056512475013733
-0.02325582318007946 -0.4728682041168213 -0.34444868564605713
-0.02325582504272461 -0.4728682041168213 -0.25851622223854065
-0.02325582504272461 -0.4728682041168213 -0.14778156578540802
-0.02325582504272461 -0.4728682041168213 -0.06113947182893753
-0.02325582504272461 -0.4728682041168213 0.08139170706272125
-0.02325582504272461 -0.4728682041168213 0.29630282521247864
-0.02325582504272461 -0.4573643207550049 -0.3554101586341858
-0.02325582504272461 -0.4573643207550049 -0.26804280281066895
-0.02325582504272461 -0.4573643207550049 -0.1341525912284851
-0.02325582504272461 -0.4573643207550049 0.28550583124160767
-0.02325582504272461 -0.4418604373931885 -0.3658667504787445
-0.02325582504272461 -0.4418604373931885 -0.2759394943714142
-0.02325582504272461 -0.44186046719551086 -0.12741222977638245
-0.02325582504272461 -0.4418604373931885 0.2722625136375427
-0.02325582504272461 -0.42635658383369446 -0.376444548368454
-0.02325582504272461 -0.42635661363601685 -0.28352636098861694
-0.02325582504272461 -0.42635661363601685 -0.12471285462379456
-0.02325582504272461 -0.42635661363601685 0.25699830055236816
-0.02325582504272461 -0.41085273027420044 -0.3876882493495941
-0.02325582504272461 -0.41085273027420044 -0.2932402491569519
-0.02325582504272461 -0.41085273027420044 -0.11987905204296112
-0.02325582504272461 -0.41085273027420044 0.045645229518413544
-0.02325582504272461 -0.41085273027420044 0.08079317212104797
-0.02325582504272461 -0.41085273027420044 0.241220161318779
-0.02325582504272461 -0.39534884691238403 -0.3977777361869812
-0.02325582504272461 -0.39534884691238403 -0.3042455315589905
-0.02325582504272461 -0.39534884691238403 -0.11177004873752594
-0.02325582504272461 -0.39534884691238403 -0.06953355669975281
-0.02325582504272461 -0.39534884691238403 0.09414126724004745
-0.02325582504272461 -0.39534884691238403 0.22648118436336517
-0.02325582504272461 -0.3798449635505676 -0.40752917528152466
-0.02325582504272461 -0.3798449635505676 -0.3221011459827423
-0.02325582504272461 -0.3798449635505676 0.09313450753688812
-0.02325582504272461 -0.3798449635505676 0.21334673464298248
-0.02325582504272461 -0.3643410801887512 -0.4174874424934387
-0.02325582504272461 -0.3643410801887512 -0.34210821986198425
-0.02325582504272461 -0.3643410801887512 0.08749694377183914
-0.02325582504272461 -0.3643410801887512 0.2019284963607788
-0.02325582504272461 -0.3488371968269348 -0.42653927206993103
-0.02325582504272461 -0.3488371968269348 -0.35677289962768555
-0.02325582504272461 -0.3488371968269348 0.08107869327068329
-0.02325582504272461 -0.3488371968269348 0.1921006292104721
-0.02325582504272461 -0.3333333134651184 -0.4351264238357544
-0.02325582504272461 -0.3333333134651184 -0.3713276982307434
-0.02325582504272461 -0.3333333134651184 0.07690262794494629
-0.02325582504272461 -0.3333333134651184 0.18278531730175018
-0.02325582504272461 -0.317829430103302 -0.44320201873779297
-0.02325582504272461 -0.317829430103302 -0.3857925236225128
-0.02325582504272461 -0.317829430103302 0.07577323913574219
-0.02325582504272461 -0.317829430103302 0.17416955530643463
-0.02325582504272461 -0.30232560634613037 -0.4513166546821594
-0.02325582504272461 -0.30232560634613037 -0.39842718839645386
-0.02325582504272461 -0.30232560634613037 0.0762137919664383
-0.02325582504272461 -0.30232560634613037 0.16481252014636993
-0.02325582504272461 -0.28682172298431396 -0.45892333984375
-0.02325582504272461 -0.28682172298431396 -0.4084089696407318
-0.02325582504272461 -0.28682172298431396 0.07680629193782806
-0.02325582504272461 -0.28682172298431396 0.15585249662399292
-0.02325582504272461 -0.27131783962249756 -0.46664804220199585
-0.02325582504272461 -0.27131783962249756 -0.41637420654296875
-0.02325582504272461 -0.27131783962249756 0.07502903044223785
-0.02325582318007946 -0.27131783962249756 0.14890629053115845
-0.02325582504272461 -0.25581395626068115 -0.47417551279067993
-0.02325582504272461 -0.25581395626068115 -0.4247247874736786
-0.02325582504272461 -0.25581395626068115 0.07198229432106018
-0.02325582504272461 -0.25581395626068115 0.1421215832233429
-0.02325582504272461 -0.24031007289886475 -0.481845885515213
-0.02325582504272461 -0.24031007289886475 -0.4310242533683777
-0.02325582504272461 -0.24031007289886475 0.0667763203382492
-0.02325582504272461 -0.24031007289886475 0.1370103359222412
-0.02325582504272461 -0.22480618953704834 -0.48886263370513916
-0.02325582504272461 -0.22480618953704834 -0.4369920492172241
-0.02325582504272461 -0.22480618953704834 0.058101408183574677
-0.02325582504272461 -0.22480618953704834 0.13277040421962738
-0.02325582504272461 -0.20930230617523193 -0.4956854283809662
-0.02325582504272461 -0.20930230617523193 -0.4411909580230713
-0.02325582504272461 -0.20930230617523193 0.04871845245361328
-0.02325582504272461 -0.20930230617523193 0.1262868046760559
-0.02325582504272461 -0.19379842281341553 -0.5023858547210693
-0.02325582504272461 -0.19379842281341553 -0.44454318284988403
-0.02325582504272461 -0.19379842281341553 0.03498135879635811
-0.02325582504272461 -0.19379842281341553 0.11992219090461731
-0.02325582504272461 -0.1782945990562439 -0.5088213086128235
-0.02325582504272461 -0.1782945990562439 -0.44738465547561646
-0.02325582504272461 -0.1782945990562439 0.018743982538580894
-0.02325582504272461 -0.1782945990562439 0.11233820021152496
-0.02325582504272461 -0.1627907156944275 -0.5151181221008301
-0.02325582504272461 -0.1627907156944275 -0.44915610551834106
-0.02325582504272461 -0.16279073059558868 0.00843890756368637
-0.02325582318007946 -0.1627907156944275 0.10399770736694336
-0.02325582504272461 -0.14728683233261108 -0.5216745138168335
-0.02325582504272461 -0.14728683233261108 -0.4502817392349243
-0.02325582504272461 -0.14728683233261108 0.0023827331606298685
-0.02325582504272461 -0.14728683233261108 0.09482403844594955
-0.02325582504272461 -0.13178294897079468 -0.5280778408050537
-0.02325582504272461 -0.13178294897079468 -0.4513440728187561
-0.02325582504272461 -0.13178294897079468 -0.0006777772214263678
-0.02325582504272461 -0.13178294897079468 0.0864650309085846
-0.02325582504272461 -0.11627906560897827 -0.5354293584823608
-0.02325582504272461 -0.11627906560897827 -0.45293673872947693
-0.02325582504272461 -0.11627906560897827 -0.001734369434416294
-0.02325582504272461 -0.11627906560897827 0.07789637893438339
-0.02325582504272461 -0.10077518224716187 -0.5422511100769043
-0.02325582504272461 -0.10077518224716187 -0.45531272888183594
-0.02325582504272461 -0.10077518224716187 -0.0020258896984159946
-0.02325582504272461 -0.10077518224716187 0.07226548343896866
-0.02325582504272461 -0.08527129888534546 -0.5497288107872009
-0.02325582504272461 -0.08527129888534546 -0.45955032110214233
-0.02325582504272461 -0.08527129888534546 -0.0027385686989873648
-0.02325582504272461 -0.08527129888534546 0.06752969324588776
-0.02325582504272461 -0.06976741552352905 -0.5575028657913208
-0.02325582504272461 -0.06976741552352905 -0.46573877334594727
-0.02325582504272461 -0.06976741552352905 -0.0037759949918836355
-0.02325582504272461 -0.06976741552352905 0.0637163519859314
-0.02325582504272461 -0.05426359549164772 -0.5651930570602417
-0.02325582504272461 -0.05426359176635742 -0.4715152382850647
-0.02325582504272461 -0.05426359176635742 -0.006872111931443214
-0.02325582504272461 -0.05426359176635742 0.060915447771549225
-0.02325582504272461 -0.038759708404541016 -0.5723280906677246
-0.02325582504272461 -0.038759708404541016 -0.47803980112075806
-0.02325582504272461 -0.038759708404541016 -0.020471878349781036
-0.02325582504272461 -0.038759708404541016 0.058586135506629944
-0.02325582504272461 -0.02325582504272461 -0.5784777402877808
-0.02325582504272461 -0.02325582504272461 -0.4851062595844269
-0.02325582504272461 -0.02325582504272461 -0.06344878673553467
-0.02325582690536976 -0.02325582690536976 0.05532604828476906
-0.02325582504272461 -0.007751941680908203 -0.5843454003334045
-0.02325582504272461 -0.007751941680908203 -0.49323326349258423
-0.02325582504272461 -0.007751941680908203 -0.07095804810523987
-0.02325582504272461 -0.007751941680908203 0.050133250653743744
-0.02325582504272461 0.007751941680908203 -0.5891205072402954
-0.02325582504272461 0.007751941680908203 -0.502034068107605
-0.02325582504272461 0.007751941680908203 -0.07392425835132599
-0.02325582504272461 0.007751941680908203 0.04598924145102501
-0.02325582690536976 0.02325582690536976 -0.5920007824897766
-0.02325582504272461 0.02325582504272461 -0.5139869451522827
-0.02325582504272461 0.02325582504272461 -0.07814091444015503
-0.02325582504272461 0.02325582504272461 0.04185950383543968
-0.02325582504272461 0.038759708404541016 -0.5937312841415405
-0.02325582504272461 0.038759708404541016 -0.5225650072097778
-0.02325582504272461 0.038759708404541016 -0.08215714991092682
-0.02325582504272461 0.038759708404541016 0.03510361164808273
-0.02325582690536976 0.05426359176635742 -0.5963174104690552
-0.02325582504272461 0.05426359176635742 -0.5278329849243164
-0.02325582504272461 0.05426359176635742 -0.08612184226512909
-0.02325582504272461 0.05426359176635742 0.030125748366117477
-0.02325582504272461 0.06976747512817383 -0.5983867645263672
-0.02325582504272461 0.06976747512817383 -0.5331348776817322
-0.02325582504272461 0.06976747512817383 -0.08972533047199249
-0.02325582504272461 0.06976747512817383 0.025470303371548653
-0.02325582504272461 0.08527135848999023 -0.6006964445114136
-0.02325582504272461 0.08527135848999023 -0.5357326865196228
-0.02325582504272461 0.08527135848999023 -0.09303401410579681
-0.02325582504272461 0.08527135848999023 0.018957028165459633
-0.02325582504272461 0.10077524185180664 -0.6033353805541992
-0.02325582504272461 0.10077524185180664 -0.5372380018234253
-0.02325582504272461 0.10077524185180664 -0.0956975519657135
-0.02325582504272461 0.10077524185180664 0.014867624267935753
-0.02325582504272461 0.11627912521362305 -0.6055067777633667
-0.02325582504272461 0.11627912521362305 -0.5381024479866028
-0.02325582690536976 0.11627912521362305 -0.09721393883228302
-0.02325582504272461 0.11627912521362305 0.011522287502884865
-0.02325582504272461 0.1317828893661499 -0.6070041060447693
-0.02325582504272461 0.1317828893661499 -0.5402838587760925
-0.02325582504272461 0.1317828893661499 -0.09655565768480301
-0.02325582504272461 0.1317828893661499 0.007454764097929001
-0.02325582504272461 0.1472867727279663 -0.6079860329627991
-0.02325582504272461 0.1472867727279663 -0.5434386730194092
-0.02325582504272461 0.1472867727279663 -0.09349935501813889
-0.02325582504272461 0.1472867727279663 0.002218388020992279
-0.02325582504272461 0.16279065608978271 -0.6093323230743408
-0.02325582504272461 0.16279065608978271 -0.5471293926239014
-0.02325582504272461 0.16279065608978271 -0.09055823087692261
-0.02325582504272461 0.16279065608978271 -0.0014890814200043678
-0.02325582690536976 0.17829453945159912 -0.610885500907898
-0.02325582504272461 0.17829453945159912 -0.550706684589386
-0.02325582504272461 0.17829453945159912 -0.08712746202945709
-0.02325582504272461 0.17829453945159912 -0.0056572286412119865
-0.02325582504272461 0.19379842281341553 -0.6124175786972046
-0.02325582504272461 0.19379842281341553 -0.5524105429649353
-0.02325582504272461 0.19379842281341553 -0.08348971605300903
-0.02325582504272461 0.19379842281341553 -0.012583664618432522
-0.02325582504272461 0.20930230617523193 -0.6131302118301392
-0.02325582504272461 0.20930230617523193 -0.5529155731201172
-0.02325582504272461 0.20930230617523193 -0.0815238505601883
-0.02325582504272461 0.20930230617523193 -0.01761944219470024
-0.02325582504272461 0.22480618953704834 -0.613399863243103
-0.02325582504272461 0.22480618953704834 -0.5526032447814941
-0.02325582504272461 0.22480618953704834 -0.08023892343044281
-0.02325582690536976 0.22480620443820953 -0.022451387718319893
-0.02325582504272461 0.24031007289886475 -0.6132767200469971
-0.02325582504272461 0.24031007289886475 -0.5519088506698608
-0.02325582504272461 0.24031007289886475 -0.07964399456977844
-0.02325582504272461 0.24031007289886475 -0.028911389410495758
-0.02325582504272461 0.25581395626068115 -0.6127331852912903
-0.02325582504272461 0.25581395626068115 -0.5499987602233887
-0.02325582504272461 0.25581395626068115 -0.08032304048538208
-0.02325582504272461 0.25581395626068115 -0.03299476206302643
-0.02325582504272461 0.27131783962249756 -0.6122152805328369
-0.02325582318007946 0.27131783962249756 -0.5455999374389648
-0.02325582504272461 0.27131783962249756 -0.08112853020429611
-0.02325582504272461 0.27131783962249756 -0.036692313849925995
-0.02325582504272461 0.28682172298431396 -0.6114064455032349
-0.02325582504272461 0.28682172298431396 -0.5410635471343994
-0.02325582504272461 0.28682172298431396 -0.08204491436481476
-0.02325582504272461 0.28682172298431396 -0.04161705821752548
-0.02325582504272461 0.30232560634613037 -0.6104536056518555
-0.02325582504272461 0.30232560634613037 -0.5362522602081299
-0.02325582504272461 0.30232560634613037 -0.08369296789169312
-0.02325582504272461 0.30232560634613037 -0.045538224279880524
-0.02325582504272461 0.3178294897079468 -0.6094709634780884
-0.02325582504272461 0.3178294897079468 -0.529944121837616
-0.02325582504272461 0.31782951951026917 -0.08510703593492508
-0.02325582504272461 0.3178294897079468 -0.048379674553871155
-0.02325582504272461 0.3333333730697632 -0.6087623834609985
-0.02325582504272461 0.3333333730697632 -0.5234644412994385
-0.02325582504272461 0.3333333730697632 -0.08773352205753326
-0.02325582504272461 0.3333333730697632 -0.05157264322042465
-0.02325582690536976 0.3488372564315796 -0.6079438924789429
-0.02325582504272461 0.3488372564315796 -0.5171409249305725
-0.02325582504272461 0.3488372564315796 -0.09124623239040375
-0.02325582504272461 0.3488372564315796 -0.05708777904510498
-0.02325582504272461 0.364341139793396 -0.6063211560249329
-0.02325582504272461 0.364341139793396 -0.5086411237716675
-0.02325582504272461 0.364341139793396 -0.09562948346138
-0.02325582504272461 0.364341139793396 -0.062140852212905884
-0.02325582504272461 0.37984490394592285 -0.6035321950912476
-0.02325582318007946 0.37984487414360046 -0.5021647214889526
-0.02325582504272461 0.37984490394592285 -0.10166627913713455
-0.02325582318007946 0.37984490394592285 -0.0665559321641922
-0.02325582504272461 0.39534878730773926 -0.5996163487434387
-0.02325582504272461 0.39534878730773926 -0.49943816661834717
-0.02325582504272461 0.39534878730773926 -0.11266867071390152
-0.02325582504272461 0.39534878730773926 -0.07529642432928085
-0.02325582504272461 0.41085270047187805 -0.5953715443611145
-0.02325582504272461 0.41085267066955566 -0.4986116886138916
-0.02325582504272461 0.41085267066955566 -0.12711383402347565
-0.02325582504272461 0.41085267066955566 -0.08118800073862076
-0.02325582504272461 0.42635655403137207 -0.5927237868309021
-0.02325582504272461 0.42635655403137207 -0.498677134513855
-0.02325582504272461 0.42635655403137207 -0.13956910371780396
-0.02325582504272461 0.42635655403137207 -0.09024929255247116
-0.02325582504272461 0.4418604373931885 -0.5890127420425415
-0.02325582504272461 0.4418604373931885 -0.49815309047698975
-0.02325582504272461 0.4418604373931885 -0.14900363981723785
-0.02325582504272461 0.4418604373931885 -0.0961170345544815
-0.02325582504272461 0.4573643207550049 -0.580845832824707
-0.02325582504272461 0.4573643207550049 -0.49686822295188904
-0.02325582504272461 0.4573643207550049 -0.15647703409194946
-0.02325582504272461 0.4573643207550049 -0.10093151032924652
-0.02325582504272461 0.4728682041168213 -0.5766422748565674
-0.02325582504272461 0.4728682041168213 -0.4924430251121521
-0.02325582504272461 0.4728682041168213 -0.16332250833511353
-0.02325582504272461 0.4728682041168213 -0.10574832558631897
-0.02325582504272461 0.4883720874786377 -0.5677741169929504
-0.02325582504272461 0.4883720874786377 -0.48761361837387085
-0.02325582504272461 0.4883720874786377 -0.16936016082763672
-0.02325582504272461 0.4883720874786377 -0.108085498213768
-0.02325582504272461 0.5038759708404541 -0.5614670515060425
-0.02325582504272461 0.5038759708404541 -0.4778021574020386
-0.02325582504272461 0.5038759708404541 -0.17550307512283325
-0.02325582504272461 0.5038759708404541 -0.10958796739578247
-0.02325582504272461 0.5193798542022705 -0.5504360795021057
-0.02325582504272461 0.5193798542022705 -0.46659374237060547
-0.02325582504272461 0.5193798542022705 -0.17982351779937744
-0.02325582504272461 0.5193798542022705 -0.11057548224925995
-0.02325582504272461 0.5348837375640869 -0.5437619090080261
-0.02325582504272461 0.5348837375640869 -0.45178723335266113
-0.02325582504272461 0.5348837375640869 -0.1819586157798767
-0.02325582504272461 0.5348837375640869 -0.1113114207983017
-0.02325582504272461 0.5503876209259033 -0.5322849750518799
-0.02325582504272461 0.5503876209259033 -0.4343246817588806
-0.02325582504272461 0.5503876209259033 -0.1809930056333542
-0.02325582504272461 0.5503876209259033 -0.11212831735610962
-0.02325582504272461 0.5658915042877197 -0.5207718014717102
-0.02325582504272461 0.5658915042877197 -0.2886350154876709
-0.02325582504272461 0.5658915042877197 -0.18025149405002594
-0.02325582318007946 0.5658915042877197 -0.11315122246742249
