0.1472867727279663 0.8294574022293091 -0.2866484224796295
0.16279065608978271 -0.41085273027420044 -0.12774495780467987
0.16279065608978271 -0.41085273027420044 0.04428962245583534
0.16279065608978271 -0.39534884691238403 -0.17190900444984436
0.16279065608978271 -0.39534884691238403 0.06806528568267822
0.16279065608978271 -0.3798449635505676 -0.19889754056930542
0.16279065608978271 -0.3798449635505676 0.07168818265199661
0.16279065608978271 -0.3643410801887512 -0.21958741545677185
0.16279065608978271 -0.3643410801887512 0.07156459242105484
0.16279065608978271 -0.3488371968269348 -0.2358185350894928
0.16279065608978271 -0.3488371968269348 0.0702902302145958
0.16279065608978271 -0.3333333134651184 -0.2510948181152344
0.16279065608978271 -0.3333333134651184 0.06654111295938492
0.16279065608978271 -0.317829430103302 -0.26699015498161316
0.16279065608978271 -0.317829430103302 0.06105266511440277
0.16279065608978271 -0.30232560634613037 -0.28343743085861206
0.16279065608978271 -0.30232560634613037 0.05607957765460014
0.16279065608978271 -0.28682172298431396 -0.2988540530204773
0.16279065608978271 -0.28682172298431396 0.049998294562101364
0.16279065608978271 -0.27131783962249756 -0.31173163652420044
0.16279065608978271 -0.27131783962249756 0.04403720051050186
0.16279065608978271 -0.25581395626068115 -0.32424473762512207
0.16279064118862152 -0.25581395626068115 0.04059023782610893
0.16279065608978271 -0.24031007289886475 -0.3353947401046753
0.16279065608978271 -0.24031007289886475 0.0371171310544014
0.16279065608978271 -0.22480618953704834 -0.3457769751548767
0.16279065608978271 -0.22480618953704834 0.03232257440686226
0.16279065608978271 -0.20930230617523193 -0.3575597405433655
0.16279065608978271 -0.20930230617523193 0.02809986285865307
0.16279065608978271 -0.19379842281341553 -0.36996692419052124
0.16279065608978271 -0.19379842281341553 0.023821311071515083
0.16279065608978271 -0.1782945990562439 -0.3813045024871826
0.16279065608978271 -0.1782945990562439 0.016691196709871292
0.16279065608978271 -0.1627907156944275 -0.3917090892791748
0.16279065608978271 -0.1627907156944275 0.010956212878227234
0.16279065608978271 -0.14728683233261108 -0.4010689854621887
0.16279065608978271 -0.14728683233261108 0.003781477687880397
0.16279065608978271 -0.13178294897079468 -0.4075336158275604
0.16279065608978271 -0.13178294897079468 -0.003481273539364338
0.16279065608978271 -0.11627906560897827 -0.41286444664001465
0.16279065608978271 -0.11627906560897827 -0.011675382032990456
0.16279065608978271 -0.10077518224716187 -0.4173556864261627
0.16279065608978271 -0.10077518224716187 -0.019467134028673172
0.16279065608978271 -0.08527129888534546 -0.42066144943237305
0.16279065608978271 -0.08527129888534546 -0.028467988595366478
0.16279065608978271 -0.06976741552352905 -0.9230421185493469
0.1627906709909439 -0.06976741552352905 -0.9221046566963196
0.16279065608978271 -0.06976741552352905 -0.42324498295783997
0.16279065608978271 -0.06976741552352905 -0.037808872759342194
0.16279065608978271 -0.05426359176635742 -0.9235555529594421
0.16279065608978271 -0.05426358804106712 -0.9214717149734497
0.16279065608978271 -0.05426359176635742 -0.42679935693740845
0.16279065608978271 -0.05426359176635742 -0.048756495118141174
0.16279065608978271 -0.038759708404541016 -0.9234129786491394
0.16279065608978271 -0.038759708404541016 -0.920693039894104
0.16279065608978271 -0.038759708404541016 -0.4282419681549072
0.16279065608978271 -0.038759708404541016 -0.05968537926673889
0.16279065608978271 -0.02325582504272461 -0.9229795336723328
0.16279065608978271 -0.02325582504272461 -0.9202326536178589
0.16279065608978271 -0.02325582504272461 -0.42958864569664
0.16279065608978271 -0.02325582504272461 -0.0706784576177597
0.16279065608978271 -0.007751941680908203 -0.4307508170604706
0.16279065608978271 -0.007751941680908203 -0.08215650916099548
0.16279065608978271 0.007751941680908203 -0.43200933933258057
0.16279065608978271 0.007751941680908203 -0.09298713505268097
0.16279065608978271 0.02325582504272461 -0.4341290593147278
0.16279065608978271 0.02325582504272461 -0.10252371430397034
0.16279065608978271 0.038759708404541016 -0.4363941550254822
0.16279065608978271 0.038759708404541016 -0.11044993251562119
0.16279065608978271 0.05426359176635742 -0.4396454393863678
0.16279065608978271 0.05426359176635742 -0.11712897568941116
0.16279065608978271 0.06976747512817383 -0.4443501830101013
0.16279065608978271 0.06976747512817383 -0.12470446527004242
0.16279065608978271 0.08527135848999023 -0.4441346824169159
0.16279065608978271 0.08527135848999023 -0.1297518014907837
0.16279065608978271 0.10077524185180664 -0.43248677253723145
0.16279065608978271 0.10077524185180664 -0.13582772016525269
0.16279065608978271 0.11627912521362305 -0.41954997181892395
0.16279065608978271 0.11627912521362305 -0.14054815471172333
0.16279065608978271 0.1317828893661499 -0.4126339554786682
0.16279065608978271 0.1317828893661499 -0.14467617869377136
0.1627906709909439 0.1472867876291275 -0.40856507420539856
0.16279065608978271 0.1472867727279663 -0.15001538395881653
0.16279065608978271 0.16279065608978271 -0.4033433198928833
0.16279065608978271 0.16279065608978271 -0.15558433532714844
0.16279065608978271 0.17829453945159912 -0.3974292278289795
0.16279065608978271 0.17829453945159912 -0.15927401185035706
0.16279065608978271 0.19379842281341553 -0.3910852372646332
0.16279065608978271 0.19379842281341553 -0.16370661556720734
0.16279065608978271 0.20930230617523193 -0.3846262991428375
0.16279065608978271 0.20930230617523193 -0.17074543237686157
0.16279065608978271 0.22480618953704834 -0.37855789065361023
0.16279065608978271 0.22480618953704834 -0.17472314834594727
0.16279065608978271 0.24031007289886475 -0.372056782245636
0.16279065608978271 0.24031007289886475 -0.17813144624233246
0.16279065608978271 0.25581395626068115 -0.36566662788391113
0.16279065608978271 0.25581395626068115 -0.18542785942554474
0.16279065608978271 0.27131783962249756 -0.35788342356681824
0.16279065608978271 0.27131783962249756 -0.1896112859249115
0.16279065608978271 0.28682172298431396 -0.35155320167541504
0.16279065608978271 0.28682172298431396 -0.19268210232257843
0.16279065608978271 0.30232560634613037 -0.3430953621864319
0.16279065608978271 0.30232560634613037 -0.19858649373054504
0.16279065608978271 0.3178294897079468 -0.3379141092300415
0.16279065608978271 0.3178294897079468 -0.20365655422210693
0.16279065608978271 0.3333333730697632 -0.3299146890640259
0.16279065608978271 0.3333333730697632 -0.20692212879657745
0.16279065608978271 0.3488372564315796 -0.3253960609436035
0.16279065608978271 0.3488372564315796 -0.20984013378620148
0.16279065608978271 0.364341139793396 -0.3194100856781006
0.16279065608978271 0.364341139793396 -0.21585476398468018
0.16279065608978271 0.37984490394592285 -0.3133839964866638
0.16279065608978271 0.37984490394592285 -0.22014333307743073
0.16279065608978271 0.39534878730773926 -0.31007200479507446
0.16279065608978271 0.39534878730773926 -0.22297370433807373
0.16279065608978271 0.41085267066955566 -0.3055837154388428
0.16279065608978271 0.41085267066955566 -0.22476744651794434
0.16279065608978271 0.42635655403137207 -0.3024812340736389
0.16279065608978271 0.42635655403137207 -0.23135703802108765
0.16279065608978271 0.4418604373931885 -0.29861927032470703
0.16279065608978271 0.4418604373931885 -0.23552265763282776
0.16279065608978271 0.4573643207550049 -0.29632094502449036
0.16279065608978271 0.4573643207550049 -0.23778587579727173
0.16279065608978271 0.4728682041168213 -0.29493021965026855
0.16279064118862152 0.4728682041168213 -0.23908206820487976
0.16279065608978271 0.4883720874786377 -0.29377317428588867
0.16279064118862152 0.4883720874786377 -0.24010583758354187
0.16279065608978271 0.5038759708404541 -0.2931097149848938
0.16279065608978271 0.5038759708404541 -0.24357205629348755
0.16279065608978271 0.5193798542022705 -0.292667031288147
0.16279065608978271 0.5193798542022705 -0.24751019477844238
0.16279065608978271 0.5348837375640869 -0.292181134223938
0.16279065608978271 0.5348837375640869 -0.2501915395259857
0.16279065608978271 0.5503876209259033 -0.2915949821472168
0.16279065608978271 0.5503876209259033 -0.25191637873649597
0.16279065608978271 0.5658915042877197 -0.2906481623649597
0.16279065608978271 0.5658915042877197 -0.25303512811660767
0.16279065608978271 0.5813953876495361 -0.2895585596561432
0.16279065608978271 0.5813953876495361 -0.2539416551589966
0.16279065608978271 0.5968992710113525 -0.28841984272003174
0.16279065608978271 0.5968992710113525 -0.2545320391654968
0.16279065608978271 0.612403154373169 -0.2875479757785797
0.16279065608978271 0.612403154373169 -0.25487950444221497
0.16279065608978271 0.6279069185256958 -0.2868973910808563
0.16279065608978271 0.6279069185256958 -0.2551981210708618
0.16279065608978271 0.6434108018875122 -0.28480082750320435
0.16279064118862152 0.6434108018875122 -0.25562170147895813
0.16279065608978271 0.6589146852493286 -0.28389501571655273
0.16279065608978271 0.6589146852493286 -0.2593708634376526
0.16279065608978271 0.674418568611145 -0.2848515212535858
0.16279065608978271 0.674418568611145 -0.2635309100151062
0.16279065608978271 0.6899224519729614 -0.2869205176830292
0.16279065608978271 0.6899224519729614 -0.26593267917633057
0.16279065608978271 0.7054263353347778 -0.28727400302886963
0.16279065608978271 0.7054263353347778 -0.26760125160217285
0.16279065608978271 0.7209302186965942 -0.2874055802822113
0.16279064118862152 0.7209301590919495 -0.2686406970024109
0.16279065608978271 0.7364341020584106 -0.28719452023506165
0.16279065608978271 0.7364341020584106 -0.2693397104740143
0.16279065608978271 0.751937985420227 -0.2853162884712219
0.16279065608978271 0.751937985420227 -0.2701326906681061
0.17829453945159912 -0.39534884691238403 -0.1273476928472519
0.17829453945159912 -0.39534884691238403 0.00781153654679656
0.17829453945159912 -0.3798449635505676 -0.17480236291885376
0.17829453945159912 -0.3798449635505676 0.0368349552154541
0.17829453945159912 -0.3643410801887512 -0.19983455538749695
0.17829453945159912 -0.3643410801887512 0.04753006249666214
0.17829453945159912 -0.3488371968269348 -0.21922114491462708
0.17829453945159912 -0.3488371968269348 0.050940439105033875
0.17829453945159912 -0.3333333134651184 -0.23598837852478027
0.17829453945159912 -0.3333333134651184 0.04975476861000061
0.17829453945159912 -0.317829430103302 -0.25232261419296265
0.17829453945159912 -0.317829430103302 0.04616127908229828
0.17829453945159912 -0.30232560634613037 -0.2702047526836395
0.17829453945159912 -0.30232560634613037 0.04185714200139046
0.17829453945159912 -0.28682172298431396 -0.28763967752456665
0.17829453945159912 -0.28682172298431396 0.038274358958005905
0.17829453945159912 -0.27131783962249756 -0.3024161756038666
0.17829453945159912 -0.27131783962249756 0.03347590193152428
0.17829453945159912 -0.25581395626068115 -0.3143075704574585
0.17829453945159912 -0.25581395626068115 0.030223554000258446
0.17829453945159912 -0.24031007289886475 -0.3256944715976715
0.17829453945159912 -0.24031007289886475 0.02798929065465927
0.17829453945159912 -0.22480618953704834 -0.336395800113678
0.17829453945159912 -0.22480618953704834 0.025637425482273102
0.17829453945159912 -0.20930230617523193 -0.3468758463859558
0.17829453945159912 -0.20930230617523193 0.021664761006832123
0.17829453945159912 -0.19379842281341553 -0.35863471031188965
0.17829453945159912 -0.19379842281341553 0.015267531387507915
0.17829453945159912 -0.1782945990562439 -0.3707112669944763
0.17829453945159912 -0.1782945990562439 0.010386496782302856
0.17829453945159912 -0.1627907156944275 -0.38162025809288025
0.17829453945159912 -0.1627907156944275 0.003198859980329871
0.17829453945159912 -0.14728683233261108 -0.3911779522895813
0.17829455435276031 -0.14728683233261108 -0.0036034821532666683
0.17829453945159912 -0.13178294897079468 -0.39934152364730835
0.17829453945159912 -0.13178294897079468 -0.011525865644216537
0.17829453945159912 -0.11627906560897827 -0.40577250719070435
0.17829453945159912 -0.11627906560897827 -0.01953352428972721
0.17829455435276031 -0.10077518224716187 -0.41016143560409546
0.17829453945159912 -0.10077518224716187 -0.02787751704454422
0.17829453945159912 -0.08527129888534546 -0.4134790599346161
0.17829453945159912 -0.08527129888534546 -0.035910435020923615
0.17829453945159912 -0.06976741552352905 -0.41727596521377563
0.17829453945159912 -0.06976741552352905 -0.04569254070520401
0.17829453945159912 -0.05426359176635742 -0.9242017269134521
0.17829453945159912 -0.05426359549164772 -0.9204360842704773
0.17829453945159912 -0.05426359176635742 -0.4204133450984955
0.17829453945159912 -0.05426359176635742 -0.05434850975871086
0.17829453945159912 -0.038759708404541016 -0.9233221411705017
0.17829453945159912 -0.038759708404541016 -0.9189757108688354
0.17829453945159912 -0.038759708404541016 -0.42239031195640564
0.17829453945159912 -0.038759708404541016 -0.06446640938520432
0.17829453945159912 -0.02325582504272461 -0.9224866032600403
0.17829453945159912 -0.02325582504272461 -0.9217686653137207
0.17829453945159912 -0.02325582504272461 -0.42405396699905396
0.17829453945159912 -0.02325582504272461 -0.07472186535596848
0.17829453945159912 -0.00775194214656949 -0.9154664278030396
0.17829453945159912 -0.007751941680908203 -0.9065970778465271
0.17829452455043793 -0.007751941680908203 -0.42512768507003784
0.17829453945159912 -0.007751941680908203 -0.08438251912593842
0.17829453945159912 0.007751941680908203 -0.9124913215637207
0.17829453945159912 0.007751941680908203 -0.9066210389137268
0.17829453945159912 0.007751941680908203 -0.4246365427970886
0.17829453945159912 0.007751941680908203 -0.0943504199385643
0.17829453945159912 0.02325582504272461 -0.4232310950756073
0.17829453945159912 0.02325582504272461 -0.10360299050807953
0.17829453945159912 0.038759708404541016 -0.4213571846485138
0.17829453945159912 0.038759708404541016 -0.11108966916799545
0.17829453945159912 0.05426359176635742 -0.41964221000671387
0.17829453945159912 0.05426359176635742 -0.11767170578241348
0.17829453945159912 0.06976747512817383 -0.41752123832702637
0.17829453945159912 0.06976747512817383 -0.12511244416236877
0.17829453945159912 0.08527135848999023 -0.414629727602005
0.17829453945159912 0.08527135848999023 -0.13006240129470825
0.17829453945159912 0.10077524185180664 -0.4117753505706787
0.17829453945159912 0.10077524185180664 -0.136369526386261
0.17829453945159912 0.11627912521362305 -0.4077666103839874
0.17829453945159912 0.11627912521362305 -0.1410163789987564
0.17829453945159912 0.1317828893661499 -0.4039199948310852
0.17829453945159912 0.1317828893661499 -0.1450744867324829
0.17829453945159912 0.1472867727279663 -0.399544358253479
0.17829453945159912 0.1472867727279663 -0.15077093243598938
0.17829453945159912 0.16279065608978271 -0.3952663242816925
0.17829453945159912 0.16279065608978271 -0.15614455938339233
0.17829453945159912 0.17829453945159912 -0.38801419734954834
0.17829453945159912 0.17829453945159912 -0.15978491306304932
0.17829455435276031 0.19379842281341553 -0.37976551055908203
0.17829453945159912 0.19379842281341553 -0.16486889123916626
0.17829453945159912 0.20930230617523193 -0.37252169847488403
0.17829453945159912 0.20930230617523193 -0.17141255736351013
0.17829453945159912 0.22480618953704834 -0.36550742387771606
0.17829453945159912 0.22480618953704834 -0.1752139925956726
0.17829453945159912 0.24031007289886475 -0.3578394055366516
0.17829453945159912 0.24031007289886475 -0.17877696454524994
0.17829453945159912 0.25581395626068115 -0.3507364094257355
0.17829453945159912 0.25581395626068115 -0.1859106719493866
0.17829453945159912 0.27131783962249756 -0.3419972062110901
0.17829455435276031 0.27131783962249756 -0.1898445039987564
0.17829453945159912 0.28682172298431396 -0.3352435231208801
0.17829453945159912 0.28682172298431396 -0.19273364543914795
0.17829453945159912 0.30232560634613037 -0.3277813196182251
0.17829453945159912 0.30232560634613037 -0.1985645592212677
0.17829453945159912 0.3178294897079468 -0.3238670229911804
0.17829453945159912 0.3178294897079468 -0.2035689800977707
0.17829453945159912 0.3333333730697632 -0.3166576027870178
0.17829453945159912 0.3333333730697632 -0.20663516223430634
0.17829453945159912 0.3488372564315796 -0.31227388978004456
0.17829453945159912 0.3488372564315796 -0.20897357165813446
0.17829453945159912 0.364341139793396 -0.30893850326538086
0.17829453945159912 0.364341139793396 -0.21470651030540466
0.17829453945159912 0.37984490394592285 -0.3039739727973938
0.17829453945159912 0.37984490394592285 -0.21949632465839386
0.17829453945159912 0.39534878730773926 -0.2992668151855469
0.17829453945159912 0.39534875750541687 -0.2225882112979889
0.17829453945159912 0.41085267066955566 -0.2965530753135681
0.17829453945159912 0.41085267066955566 -0.22450198233127594
0.17829453945159912 0.42635655403137207 -0.29404565691947937
0.17829453945159912 0.42635655403137207 -0.2304200828075409
0.17829453945159912 0.4418604373931885 -0.29146048426628113
0.17829453945159912 0.4418604373931885 -0.23529666662216187
0.17829453945159912 0.4573643207550049 -0.28920552134513855
0.17829453945159912 0.4573643207550049 -0.2377653867006302
0.17829453945159912 0.4728682041168213 -0.2877237796783447
0.17829453945159912 0.4728682041168213 -0.23899047076702118
0.17829453945159912 0.4883720874786377 -0.2859979569911957
0.17829453945159912 0.4883720874786377 -0.23990225791931152
0.17829453945159912 0.5038759708404541 -0.28365784883499146
0.17829453945159912 0.5038759708404541 -0.24243298172950745
0.17829453945159912 0.5193798542022705 -0.2822152078151703
0.17829453945159912 0.5193798542022705 -0.2466985285282135
0.17829453945159912 0.5348837375640869 -0.28116387128829956
0.17829453945159912 0.5348837375640869 -0.24972715973854065
0.17829453945159912 0.5503876209259033 -0.27989235520362854
0.17829453945159912 0.5503876209259033 -0.25174015760421753
0.17829453945159912 0.5658915042877197 -0.27804693579673767
0.17829453945159912 0.5658915042877197 -0.2530747354030609
0.17829453945159912 0.5813953876495361 -0.27577024698257446
0.17829453945159912 0.5813953876495361 -0.2541098892688751
0.17829453945159912 0.5968992710113525 -0.2729071080684662
0.17829453945159912 0.5968992710113525 -0.25510287284851074
0.19379842281341553 -0.3643410801887512 -0.16542693972587585
0.19379842281341553 -0.3643410801887512 -0.002237229607999325
0.19379843771457672 -0.3488371968269348 -0.19342152774333954
0.19379842281341553 -0.3488371968269348 0.014571195468306541
0.19379842281341553 -0.3333333134651184 -0.21292534470558167
0.19379842281341553 -0.3333333134651184 0.021534455940127373
0.19379842281341553 -0.317829430103302 -0.2304113358259201
0.19379842281341553 -0.317829430103302 0.023365458473563194
0.19379842281341553 -0.30232560634613037 -0.2486889362335205
0.19379842281341553 -0.30232560634613037 0.022598857060074806
0.19379842281341553 -0.28682172298431396 -0.2686007618904114
0.19379842281341553 -0.28682172298431396 0.021484583616256714
0.19379842281341553 -0.27131783962249756 -0.2860780656337738
0.19379842281341553 -0.27131783962249756 0.020240267738699913
0.19379842281341553 -0.25581395626068115 -0.3007594048976898
0.19379842281341553 -0.25581395626068115 0.018976885825395584
0.19379842281341553 -0.24031007289886475 -0.3124050199985504
0.19379842281341553 -0.24031007289886475 0.01740485057234764
0.19379842281341553 -0.22480618953704834 -0.32367807626724243
0.19379842281341553 -0.22480618953704834 0.015175631269812584
0.19379842281341553 -0.20930230617523193 -0.33403870463371277
0.19379842281341553 -0.20930229127407074 0.012022502720355988
0.19379842281341553 -0.19379842281341553 -0.3450741469860077
0.19379842281341553 -0.19379842281341553 0.008057089522480965
0.19379842281341553 -0.1782945990562439 -0.35676002502441406
0.19379842281341553 -0.1782945990562439 0.000710904598236084
0.19379842281341553 -0.1627907156944275 -0.36849191784858704
0.19379842281341553 -0.1627907007932663 -0.005304320715367794
0.19379842281341553 -0.14728683233261108 -0.37868502736091614
0.19379842281341553 -0.14728683233261108 -0.013245772570371628
0.19379842281341553 -0.13178294897079468 -0.388139009475708
0.19379842281341553 -0.13178294897079468 -0.02052026055753231
0.19379842281341553 -0.11627906560897827 -0.39464902877807617
0.19379842281341553 -0.11627906560897827 -0.02947687730193138
0.19379842281341553 -0.10077518224716187 -0.40078961849212646
0.19379842281341553 -0.10077518969774246 -0.036476098001003265
0.19379842281341553 -0.08527129888534546 -0.4053424298763275
0.19379842281341553 -0.08527129888534546 -0.0451122522354126
0.19379842281341553 -0.06976741552352905 -0.40860581398010254
0.19379842281341553 -0.06976741552352905 -0.05248429253697395
0.19379842281341553 -0.05426359176635742 -0.9236035346984863
0.19379842281341553 -0.05426359549164772 -0.9212118983268738
0.19379842281341553 -0.05426359176635742 -0.4117621183395386
0.19379842281341553 -0.05426359176635742 -0.06174545735120773
0.19379842281341553 -0.038759708404541016 -0.9233928322792053
0.19379840791225433 -0.038759708404541016 -0.9185285568237305
0.19379842281341553 -0.038759708404541016 -0.41345226764678955
0.19379842281341553 -0.038759708404541016 -0.06899689882993698
0.19379842281341553 -0.02325582504272461 -0.9224976897239685
0.19379842281341553 -0.02325582504272461 -0.9069383144378662
0.19379842281341553 -0.02325582504272461 -0.4144590497016907
0.19379842281341553 -0.02325582504272461 -0.07842264324426651
0.19379842281341553 -0.007751941680908203 -0.9151489734649658
0.19379842281341553 -0.007751941680908203 -0.9065029621124268
0.19379842281341553 -0.007751941680908203 -0.41466784477233887
0.19379842281341553 -0.007751941680908203 -0.08726928383111954
0.19379842281341553 0.007751941680908203 -0.9112945795059204
0.19379842281341553 0.007751941680908203 -0.9065973162651062
0.19379842281341553 0.007751941680908203 -0.4138353168964386
0.19379842281341553 0.007751941680908203 -0.09608429670333862
0.19379842281341553 0.02325582504272461 -0.4127271771430969
0.19379842281341553 0.02325582504272461 -0.10505156964063644
0.19379842281341553 0.038759708404541016 -0.4111437201499939
0.19379842281341553 0.038759708404541016 -0.11200501024723053
0.19379842281341553 0.05426359176635742 -0.4082050621509552
0.19379842281341553 0.05426359176635742 -0.11849622428417206
0.19379842281341553 0.06976747512817383 -0.4055907130241394
0.19379842281341553 0.06976747512817383 -0.1256316751241684
0.19379842281341553 0.08527135848999023 -0.4034826159477234
0.19379842281341553 0.08527136594057083 -0.1304631233215332
0.19379842281341553 0.10077524185180664 -0.4007989764213562
0.19379842281341553 0.10077524185180664 -0.13704811036586761
0.19379842281341553 0.11627912521362305 -0.3973095417022705
0.19379842281341553 0.11627912521362305 -0.14167562127113342
0.19379842281341553 0.1317828893661499 -0.3927953541278839
0.19379840791225433 0.1317828893661499 -0.1456923484802246
0.19379842281341553 0.1472867727279663 -0.38865405321121216
0.19379842281341553 0.1472867727279663 -0.15185022354125977
0.19379842281341553 0.16279065608978271 -0.3816826045513153
0.19379842281341553 0.16279065608978271 -0.15692776441574097
0.19379842281341553 0.17829453945159912 -0.3740350008010864
0.19379842281341553 0.17829453945159912 -0.16061833500862122
0.19379842281341553 0.19379842281341553 -0.3656737208366394
0.19379842281341553 0.19379842281341553 -0.16670829057693481
0.19379842281341553 0.20930230617523193 -0.35798466205596924
0.19379842281341553 0.20930232107639313 -0.17251035571098328
0.19379842281341553 0.22480618953704834 -0.35061606764793396
0.19379842281341553 0.22480618953704834 -0.17621806263923645
0.19379842281341553 0.24031007289886475 -0.34220004081726074
0.19379842281341553 0.24031007289886475 -0.181379497051239
0.19379842281341553 0.25581395626068115 -0.33397218585014343
0.19379842281341553 0.25581395626068115 -0.1873530149459839
0.19379842281341553 0.27131783962249756 -0.326374351978302
0.19379842281341553 0.27131783962249756 -0.1909722089767456
0.19379842281341553 0.28682172298431396 -0.3202688694000244
0.19379842281341553 0.28682172298431396 -0.1936110109090805
0.19379842281341553 0.30232560634613037 -0.31327390670776367
0.19379842281341553 0.30232560634613037 -0.2005593180656433
0.19379842281341553 0.3178294897079468 -0.3104385733604431
0.19379842281341553 0.3178294897079468 -0.20478415489196777
0.19379842281341553 0.3333333730697632 -0.30600500106811523
0.19379842281341553 0.3333333730697632 -0.20745979249477386
0.19379842281341553 0.3488372564315796 -0.299343079328537
0.19379842281341553 0.3488372564315796 -0.21004603803157806
0.19379842281341553 0.364341139793396 -0.2962319552898407
0.19379842281341553 0.364341139793396 -0.21617195010185242
0.19379842281341553 0.37984490394592285 -0.2932412624359131
0.19379842281341553 0.37984490394592285 -0.22058787941932678
0.19379842281341553 0.39534878730773926 -0.28961730003356934
0.19379842281341553 0.39534878730773926 -0.22330889105796814
0.19379842281341553 0.41085267066955566 -0.2870820164680481
0.19379842281341553 0.41085267066955566 -0.22479791939258575
0.19379840791225433 0.42635655403137207 -0.28253981471061707
0.19379842281341553 0.42635655403137207 -0.23136946558952332
0.19379842281341553 0.4418604373931885 -0.2794378995895386
0.19379842281341553 0.4418604373931885 -0.2362370640039444
0.19379842281341553 0.4573643207550049 -0.27575594186782837
0.19379842281341553 0.4573642909526825 -0.23847532272338867
0.19379842281341553 0.4728682041168213 -0.27154988050460815
0.19379842281341553 0.4728682041168213 -0.239915668964386
0.19379842281341553 0.4883720874786377 -0.2605278491973877
0.19379842281341553 0.4883720874786377 -0.2516314387321472
0.20930230617523193 -0.3488371968269348 -0.12986056506633759
0.20930230617523193 -0.3488371968269348 -0.052707504481077194
0.20930230617523193 -0.333333283662796 -0.17503979802131653
0.20930230617523193 -0.3333333134651184 -0.019157201051712036
0.20930230617523193 -0.317829430103302 -0.19844096899032593
0.20930230617523193 -0.317829430103302 -0.005759306252002716
0.20930230617523193 -0.30232560634613037 -0.21965491771697998
0.20930230617523193 -0.30232560634613037 0.0001681323628872633
0.20930230617523193 -0.28682172298431396 -0.2408243715763092
0.20930230617523193 -0.28682172298431396 0.0038446178659796715
0.20930230617523193 -0.27131783962249756 -0.25998619198799133
0.20930230617523193 -0.27131783962249756 0.006240499205887318
0.20930230617523193 -0.25581395626068115 -0.2780790328979492
0.20930230617523193 -0.25581395626068115 0.007755753118544817
0.20930230617523193 -0.24031007289886475 -0.2934342324733734
0.20930230617523193 -0.24031007289886475 0.007965062744915485
0.20930230617523193 -0.22480618953704834 -0.3066823482513428
0.20930230617523193 -0.22480618953704834 0.006688505411148071
0.20930230617523193 -0.20930230617523193 -0.31807631254196167
0.20930230617523193 -0.20930230617523193 0.0027404548600316048
0.20930230617523193 -0.19379840791225433 -0.3290245831012726
0.20930230617523193 -0.19379842281341553 -0.002056913450360298
0.20930230617523193 -0.1782945990562439 -0.3400617837905884
0.20930230617523193 -0.1782945990562439 -0.0068868789821863174
0.20930230617523193 -0.1627907156944275 -0.35144805908203125
0.20930230617523193 -0.1627907156944275 -0.015178635716438293
0.20930232107639313 -0.14728683233261108 -0.3625175356864929
0.20930230617523193 -0.14728683233261108 -0.02154264785349369
0.20930230617523193 -0.13178294897079468 -0.37249431014060974
0.20930230617523193 -0.13178294897079468 -0.030490553006529808
0.20930230617523193 -0.11627906560897827 -0.3803962469100952
0.20930229127407074 -0.11627906560897827 -0.03728753700852394
0.20930230617523193 -0.10077518224716187 -0.38782259821891785
0.20930230617523193 -0.10077518224716187 -0.04567714035511017
0.20930230617523193 -0.08527129143476486 -0.3924367427825928
0.20930230617523193 -0.08527129888534546 -0.05173547938466072
0.20930230617523193 -0.06976741552352905 -0.39716023206710815
0.20930230617523193 -0.06976741552352905 -0.05992499738931656
0.20930230617523193 -0.05426359176635742 -0.40151700377464294
0.20930230617523193 -0.05426359549164772 -0.06640592962503433
0.20930230617523193 -0.038759708404541016 -0.4040520191192627
0.20930230617523193 -0.038759708404541016 -0.07419885694980621
0.20930230617523193 -0.02325582504272461 -0.40486520528793335
0.20930230617523193 -0.02325582504272461 -0.08124116063117981
0.20930230617523193 -0.007751941680908203 -0.40483713150024414
0.20930230617523193 -0.007751941680908203 -0.08999043703079224
0.20930230617523193 0.007751941680908203 -0.40363311767578125
0.20930230617523193 0.007751941680908203 -0.09758667647838593
0.20930230617523193 0.02325582504272461 -0.40154924988746643
0.20930230617523193 0.02325582504272461 -0.1063070148229599
0.20930230617523193 0.038759708404541016 -0.3986198902130127
0.20930230617523193 0.038759708404541016 -0.11282229423522949
0.20930230617523193 0.05426359176635742 -0.39600348472595215
0.20930230617523193 0.05426359176635742 -0.11912236362695694
0.20930230617523193 0.06976747512817383 -0.3927094042301178
0.20930230617523193 0.06976747512817383 -0.12612831592559814
0.20930230617523193 0.08527135848999023 -0.3903830349445343
0.20930230617523193 0.08527135848999023 -0.13074229657649994
0.20930230617523193 0.10077524185180664 -0.38840726017951965
0.20930230617523193 0.10077524185180664 -0.13747107982635498
0.20930230617523193 0.11627912521362305 -0.3842669427394867
0.20930230617523193 0.11627912521362305 -0.14226801693439484
0.20930230617523193 0.1317828893661499 -0.37765803933143616
0.20930230617523193 0.1317828893661499 -0.146380215883255
0.20930230617523193 0.1472867727279663 -0.3735966086387634
0.20930230617523193 0.1472867727279663 -0.15330848097801208
0.20930230617523193 0.16279065608978271 -0.36603814363479614
0.20930230617523193 0.16279065608978271 -0.1582317054271698
0.20930230617523193 0.17829453945159912 -0.35891246795654297
0.20930230617523193 0.17829452455043793 -0.16178908944129944
0.20930230617523193 0.19379842281341553 -0.3517681956291199
0.20930230617523193 0.19379842281341553 -0.16872331500053406
0.20930230617523193 0.20930230617523193 -0.34315648674964905
0.20930230617523193 0.20930230617523193 -0.17407195270061493
0.20930230617523193 0.22480618953704834 -0.33651572465896606
0.20930230617523193 0.22480617463588715 -0.17772676050662994
0.20930230617523193 0.24031007289886475 -0.32717329263687134
0.20930230617523193 0.24031007289886475 -0.18491296470165253
0.20930230617523193 0.25581395626068115 -0.31970781087875366
0.20930229127407074 0.25581395626068115 -0.18973013758659363
0.20930230617523193 0.27131783962249756 -0.3116528391838074
0.20930230617523193 0.27131783962249756 -0.19290032982826233
0.20930230617523193 0.28682172298431396 -0.3065507411956787
0.20930230617523193 0.28682172298431396 -0.19856369495391846
0.20930230617523193 0.30232560634613037 -0.2985570430755615
0.20930230617523193 0.30232560634613037 -0.20347729325294495
0.20930230617523193 0.3178294897079468 -0.2946375012397766
0.20930230617523193 0.3178294599056244 -0.20683526992797852
0.20930230617523193 0.3333333730697632 -0.2905161678791046
0.20930230617523193 0.3333333730697632 -0.20876069366931915
0.20930232107639313 0.348837286233902 -0.28425371646881104
0.20930230617523193 0.3488372564315796 -0.21366292238235474
0.20930230617523193 0.364341139793396 -0.2796342968940735
0.20930230617523193 0.364341139793396 -0.21838058531284332
0.20930230617523193 0.37984490394592285 -0.27621424198150635
0.20930230617523193 0.37984490394592285 -0.2220282256603241
0.20930230617523193 0.39534878730773926 -0.2716035544872284
0.20930230617523193 0.39534878730773926 -0.22430464625358582
0.20930230617523193 0.41085267066955566 -0.260712206363678
0.20930230617523193 0.4108526408672333 -0.23543691635131836
0.22480618953704834 -0.317829430103302 -0.13941341638565063
0.22480618953704834 -0.317829430103302 -0.046930424869060516
0.22480618953704834 -0.30232560634613037 -0.17724066972732544
0.22480618953704834 -0.30232560634613037 -0.026356063783168793
0.22480618953704834 -0.28682172298431396 -0.2027803659439087
0.22480618953704834 -0.28682172298431396 -0.016033576801419258
0.22480618953704834 -0.27131783962249756 -0.22571171820163727
0.22480618953704834 -0.27131783962249756 -0.008906470611691475
0.22480618953704834 -0.25581395626068115 -0.24720355868339539
0.22480618953704834 -0.25581395626068115 -0.005049968138337135
0.22480618953704834 -0.24031007289886475 -0.2671336829662323
0.22480618953704834 -0.24031007289886475 -0.003189105773344636
0.22480618953704834 -0.22480618953704834 -0.283544659614563
0.22480618953704834 -0.22480618953704834 -0.0031497320160269737
0.22480618953704834 -0.20930230617523193 -0.2975044250488281
0.22480618953704834 -0.20930230617523193 -0.005133035592734814
0.22480618953704834 -0.19379842281341553 -0.3097688555717468
0.22480618953704834 -0.19379842281341553 -0.009100989438593388
0.22480618953704834 -0.1782945990562439 -0.32108426094055176
0.22480618953704834 -0.1782945990562439 -0.016043948009610176
0.22480618953704834 -0.1627907156944275 -0.3321327567100525
0.22480618953704834 -0.1627907156944275 -0.021837366744875908
0.22480620443820953 -0.14728683233261108 -0.3428041934967041
0.22480618953704834 -0.14728683233261108 -0.030635762959718704
0.22480618953704834 -0.13178294897079468 -0.3533915877342224
0.22480618953704834 -0.13178294897079468 -0.037108853459358215
0.22480618953704834 -0.11627906560897827 -0.36230945587158203
0.22480618953704834 -0.11627906560897827 -0.04582236707210541
0.22480618953704834 -0.10077518224716187 -0.3704812526702881
0.22480618953704834 -0.10077518224716187 -0.05133872851729393
0.22480618953704834 -0.08527129888534546 -0.37633517384529114
0.22480618953704834 -0.08527129888534546 -0.057775817811489105
0.22480618953704834 -0.06976741552352905 -0.3823591470718384
0.22480618953704834 -0.06976741552352905 -0.0642000213265419
0.22480618953704834 -0.05426359176635742 -0.3877331614494324
0.22480618953704834 -0.05426359176635742 -0.0690772756934166
0.22480618953704834 -0.038759708404541016 -0.3902261257171631
0.22480618953704834 -0.038759708404541016 -0.07698468118906021
0.22480618953704834 -0.02325582504272461 -0.39140403270721436
0.22480618953704834 -0.02325582504272461 -0.08259816467761993
0.22480618953704834 -0.007751941680908203 -0.39150217175483704
0.22480618953704834 -0.007751941680908203 -0.09127648174762726
0.22480618953704834 0.007751941680908203 -0.3902052044868469
0.22480618953704834 0.007751941680908203 -0.09822006523609161
0.22480618953704834 0.02325582504272461 -0.3883953094482422
0.22480618953704834 0.02325582504272461 -0.10694825649261475
0.22480618953704834 0.038759708404541016 -0.3855593204498291
0.22480618953704834 0.038759708404541016 -0.11324957013130188
0.22480618953704834 0.05426359176635742 -0.38200369477272034
0.22480618953704834 0.05426359176635742 -0.11940670758485794
0.22480618953704834 0.06976747512817383 -0.37771809101104736
0.22480617463588715 0.06976747512817383 -0.12650957703590393
0.22480618953704834 0.08527135848999023 -0.3751898407936096
0.22480617463588715 0.08527135848999023 -0.13091576099395752
0.22480618953704834 0.10077524185180664 -0.37297582626342773
0.22480618953704834 0.10077524185180664 -0.1379700005054474
0.22480618953704834 0.11627912521362305 -0.3677067458629608
0.22480618953704834 0.11627912521362305 -0.14300976693630219
0.22480617463588715 0.1317828893661499 -0.36097827553749084
0.22480617463588715 0.1317828893661499 -0.1471039056777954
0.22480618953704834 0.1472867727279663 -0.35731834173202515
0.22480618953704834 0.1472867727279663 -0.1551666110754013
0.22480618953704834 0.16279065608978271 -0.3484053313732147
0.22480618953704834 0.16279065608978271 -0.16004467010498047
0.22480618953704834 0.17829453945159912 -0.34287190437316895
0.22480618953704834 0.17829453945159912 -0.16435694694519043
0.22480618953704834 0.19379842281341553 -0.33554431796073914
0.22480618953704834 0.19379842281341553 -0.17155593633651733
0.22480617463588715 0.20930230617523193 -0.327042818069458
0.22480617463588715 0.20930229127407074 -0.17644166946411133
0.22480618953704834 0.22480618953704834 -0.31873467564582825
0.22480618953704834 0.22480618953704834 -0.18235163390636444
0.22480618953704834 0.24031007289886475 -0.31041666865348816
0.22480618953704834 0.24031007289886475 -0.18861445784568787
0.22480618953704834 0.25581395626068115 -0.301209956407547
0.22480618953704834 0.25581395626068115 -0.19248394668102264
0.22480618953704834 0.27131783962249756 -0.29280969500541687
0.22480618953704834 0.27131783962249756 -0.1972082406282425
0.22480618953704834 0.28682172298431396 -0.2838246524333954
0.22480618953704834 0.28682172298431396 -0.20298872888088226
0.22480618953704834 0.30232560634613037 -0.27647554874420166
0.22480618953704834 0.30232560634613037 -0.20659157633781433
0.22480618953704834 0.3178294897079468 -0.26891136169433594
0.22480618953704834 0.31782951951026917 -0.20885954797267914
0.22480618953704834 0.3333333730697632 -0.259807288646698
0.22480618953704834 0.3333333730697632 -0.21706511080265045
0.22480618953704834 0.3488372564315796 -0.24756914377212524
0.22480618953704834 0.348837286233902 -0.22346967458724976
0.24031007289886475 -0.28682172298431396 -0.14025087654590607
0.24031007289886475 -0.28682172298431396 -0.04650569707155228
0.24031007289886475 -0.27131783962249756 -0.17672109603881836
0.24031007289886475 -0.27131783962249756 -0.03055274486541748
0.24031007289886475 -0.25581395626068115 -0.20551002025604248
0.24031008780002594 -0.25581395626068115 -0.021566998213529587
0.24031007289886475 -0.24031007289886475 -0.22909274697303772
0.24031007289886475 -0.24031007289886475 -0.01699495129287243
0.24031007289886475 -0.22480618953704834 -0.2507227063179016
0.24031007289886475 -0.22480618953704834 -0.014934862032532692
0.24031007289886475 -0.20930230617523193 -0.2688123881816864
0.24031007289886475 -0.20930230617523193 -0.015647470951080322
0.24031007289886475 -0.19379842281341553 -0.2850102484226227
0.24031007289886475 -0.19379842281341553 -0.018475091084837914
0.24031007289886475 -0.1782945990562439 -0.29869213700294495
0.24031007289886475 -0.1782945990562439 -0.02283382974565029
0.24031007289886475 -0.1627907156944275 -0.30992549657821655
0.24031007289886475 -0.1627907156944275 -0.031343962997198105
0.24031007289886475 -0.14728683233261108 -0.3205193281173706
0.24031007289886475 -0.14728683233261108 -0.037305865436792374
0.24031007289886475 -0.13178294897079468 -0.3310438096523285
0.24031007289886475 -0.13178294897079468 -0.04617902636528015
0.24031007289886475 -0.11627906560897827 -0.3401937484741211
0.24031007289886475 -0.11627906560897827 -0.05165631324052811
0.24031007289886475 -0.10077518224716187 -0.34789955615997314
0.24031007289886475 -0.10077518224716187 -0.05740730091929436
0.24031007289886475 -0.08527129888534546 -0.355542927980423
0.24031007289886475 -0.08527129888534546 -0.06308577954769135
0.24031007289886475 -0.06976741552352905 -0.36099082231521606
0.24031007289886475 -0.06976741552352905 -0.06700636446475983
0.24031007289886475 -0.05426359176635742 -0.36667364835739136
0.24031007289886475 -0.05426359176635742 -0.07251335680484772
0.24031007289886475 -0.038759708404541016 -0.3712618350982666
0.24031007289886475 -0.038759708404541016 -0.07876864820718765
0.24031007289886475 -0.02325582504272461 -0.3733316659927368
0.24031007289886475 -0.02325582504272461 -0.08349437266588211
0.24031007289886475 -0.00775194214656949 -0.3738437592983246
0.24031007289886475 -0.007751941680908203 -0.09220823645591736
0.24031007289886475 0.007751941680908203 -0.373270183801651
0.24031007289886475 0.007751941680908203 -0.0985604003071785
0.24031007289886475 0.02325582504272461 -0.37127360701560974
0.24031007289886475 0.02325582504272461 -0.10745078325271606
0.24031007289886475 0.038759708404541016 -0.3676052987575531
0.24031005799770355 0.038759708404541016 -0.11366181820631027
0.24031007289886475 0.05426359176635742 -0.3631170094013214
0.24031007289886475 0.05426359176635742 -0.12026653438806534
0.24031007289886475 0.06976747512817383 -0.36017686128616333
0.24031007289886475 0.06976747512817383 -0.12731707096099854
0.24031007289886475 0.08527135848999023 -0.35799640417099
0.24031005799770355 0.08527135848999023 -0.13138416409492493
0.24031007289886475 0.10077524185180664 -0.35328516364097595
0.24031007289886475 0.10077524185180664 -0.13942107558250427
0.24031007289886475 0.11627912521362305 -0.346148282289505
0.24031007289886475 0.11627912521362305 -0.14433252811431885
0.24031005799770355 0.1317828893661499 -0.3421049118041992
0.24031007289886475 0.1317828893661499 -0.14996874332427979
0.24031007289886475 0.1472867727279663 -0.33489811420440674
0.24031007289886475 0.1472867727279663 -0.15744394063949585
0.24031007289886475 0.16279065608978271 -0.32712018489837646
0.24031007289886475 0.16279065608978271 -0.16208714246749878
0.24031007289886475 0.17829453945159912 -0.3193138837814331
0.24031007289886475 0.17829453945159912 -0.1695437729358673
0.24031007289886475 0.19379842281341553 -0.3103487193584442
0.24031005799770355 0.19379842281341553 -0.1749977320432663
0.24031007289886475 0.20930230617523193 -0.3008701801300049
0.24031007289886475 0.20930230617523193 -0.1794728934764862
0.24031007289886475 0.22480618953704834 -0.289634108543396
0.24031007289886475 0.22480618953704834 -0.18739308416843414
0.24031007289886475 0.24031007289886475 -0.2777581810951233
0.24031007289886475 0.24031007289886475 -0.1920628696680069
0.24031007289886475 0.25581395626068115 -0.2654125392436981
0.24031007289886475 0.25581395626068115 -0.1983434557914734
0.24031007289886475 0.27131783962249756 -0.25205597281455994
0.24031007289886475 0.27131783962249756 -0.20669595897197723
0.24031007289886475 0.28682172298431396 -0.23178637027740479
0.24031007289886475 0.28682172298431396 -0.22110913693904877
0.25581395626068115 -0.25581395626068115 -0.13632287085056305
0.25581395626068115 -0.25581395626068115 -0.04915287345647812
0.25581395626068115 -0.24031007289886475 -0.17464283108711243
0.25581395626068115 -0.24031007289886475 -0.03592913970351219
0.25581395626068115 -0.22480618953704834 -0.2049441635608673
0.25581395626068115 -0.22480618953704834 -0.03054528497159481
0.25581395626068115 -0.20930230617523193 -0.22871996462345123
0.25581395626068115 -0.20930230617523193 -0.028149206191301346
0.25581395626068115 -0.19379842281341553 -0.25058555603027344
0.25581395626068115 -0.19379842281341553 -0.02912762016057968
0.25581395626068115 -0.1782945990562439 -0.2682288885116577
0.25581395626068115 -0.1782945990562439 -0.032796215265989304
0.25581395626068115 -0.1627907156944275 -0.2826572060585022
0.25581395626068115 -0.1627907156944275 -0.0377202145755291
0.25581395626068115 -0.14728683233261108 -0.29421108961105347
0.25581395626068115 -0.14728683233261108 -0.046292759478092194
0.25581395626068115 -0.13178294897079468 -0.3050052523612976
0.25581395626068115 -0.13178294897079468 -0.05156075209379196
0.25581395626068115 -0.11627906560897827 -0.31485435366630554
0.25581395626068115 -0.11627906560897827 -0.05720977857708931
0.25581395626068115 -0.10077518224716187 -0.3229219615459442
0.25581395626068115 -0.10077518224716187 -0.06261991709470749
0.25581395626068115 -0.08527129888534546 -0.3301679491996765
0.25581395626068115 -0.08527129143476486 -0.06584928184747696
0.25581395626068115 -0.06976741552352905 -0.33671849966049194
0.25581395626068115 -0.06976741552352905 -0.06900353729724884
0.25581395626068115 -0.05426359176635742 -0.3421434760093689
0.25581395626068115 -0.05426359176635742 -0.07569138705730438
0.25581395626068115 -0.038759708404541016 -0.3454113006591797
0.25581395626068115 -0.038759708404541016 -0.08036373555660248
0.25581395626068115 -0.02325582504272461 -0.3477807641029358
0.25581395626068115 -0.02325582504272461 -0.08444462716579437
0.25581395626068115 -0.007751941680908203 -0.3490368723869324
0.25581395626068115 -0.007751941680908203 -0.09355191886425018
0.25581395626068115 0.007751941680908203 -0.3492351472377777
0.25581395626068115 0.007751941680908203 -0.09930402785539627
0.25581395626068115 0.02325582504272461 -0.9225546717643738
0.25581395626068115 0.02325582504272461 -0.9221108555793762
0.25581395626068115 0.02325582504272461 -0.3474215269088745
0.25581395626068115 0.02325582504272461 -0.1088847666978836
0.25581395626068115 0.038759708404541016 -0.9229591488838196
0.25581395626068115 0.038759708404541016 -0.9192867279052734
0.25581395626068115 0.038759708404541016 -0.34535202383995056
0.25581395626068115 0.038759708404541016 -0.11471486836671829
0.25581395626068115 0.05426359176635742 -0.3434138894081116
0.25581395626068115 0.05426359176635742 -0.12319885939359665
0.25581395626068115 0.06976747512817383 -0.34050849080085754
0.25581395626068115 0.06976747512817383 -0.1292497217655182
0.25581395626068115 0.08527135848999023 -0.3345854580402374
0.25581395626068115 0.08527135848999023 -0.13555258512496948
0.25581395626068115 0.10077524185180664 -0.3287515342235565
0.25581395626068115 0.10077524185180664 -0.14261449873447418
0.25581395626068115 0.11627912521362305 -0.3224221169948578
0.25581395626068115 0.11627912521362305 -0.1469513326883316
0.25581395626068115 0.1317828893661499 -0.3138657808303833
0.25581395626068115 0.1317828893661499 -0.1556178331375122
0.25581395626068115 0.1472867727279663 -0.3052292466163635
0.25581395626068115 0.1472867727279663 -0.16093723475933075
0.25581395626068115 0.16279065608978271 -0.29423701763153076
0.25581395626068115 0.16279065608978271 -0.1687706559896469
0.25581395626068115 0.17829453945159912 -0.2831844687461853
0.25581395626068115 0.17829453945159912 -0.174783393740654
0.25581395626068115 0.19379842281341553 -0.2703303098678589
0.25581395626068115 0.19379842281341553 -0.17974895238876343
0.25581395626068115 0.20930230617523193 -0.2539680302143097
0.25581395626068115 0.20930230617523193 -0.19037626683712006
0.25581395626068115 0.22480618953704834 -0.23353028297424316
0.25581395626068115 0.22480618953704834 -0.20283760130405426
0.27131783962249756 -0.22480618953704834 -0.12872186303138733
0.27131783962249756 -0.22480618953704834 -0.05824942886829376
0.27131783962249756 -0.20930230617523193 -0.164586141705513
0.27131783962249756 -0.20930230617523193 -0.048653922975063324
0.27131783962249756 -0.19379842281341553 -0.1974772810935974
0.27131783962249756 -0.19379842281341553 -0.044474467635154724
0.27131783962249756 -0.1782945990562439 -0.22449883818626404
0.27131783962249756 -0.1782945990562439 -0.045034367591142654
0.27131783962249756 -0.1627907156944275 -0.24408575892448425
0.27131783962249756 -0.1627907156944275 -0.04860994964838028
0.27131783962249756 -0.14728683233261108 -0.25991085171699524
0.27131783962249756 -0.14728683233261108 -0.05243566632270813
0.27131783962249756 -0.13178294897079468 -0.27337121963500977
0.27131783962249756 -0.13178294897079468 -0.057612236589193344
0.27131783962249756 -0.11627906560897827 -0.2850039601325989
0.27131783962249756 -0.11627906560897827 -0.06271649152040482
0.27131783962249756 -0.10077518224716187 -0.294289767742157
0.27131783962249756 -0.10077518224716187 -0.06581752747297287
0.27131783962249756 -0.08527129888534546 -0.3025018274784088
0.27131783962249756 -0.08527129143476486 -0.06845299154520035
0.27131783962249756 -0.06976741552352905 -0.31036168336868286
0.27131783962249756 -0.06976741552352905 -0.07384540885686874
0.27131783962249756 -0.05426359176635742 -0.3160519599914551
0.27131783962249756 -0.05426359176635742 -0.07900364696979523
0.27131783962249756 -0.038759708404541016 -0.3199509084224701
0.27131783962249756 -0.038759708404541016 -0.08258017897605896
0.27131783962249756 -0.02325582504272461 -0.32375937700271606
0.27131783962249756 -0.02325582504272461 -0.08777175843715668
0.27131783962249756 -0.007751941680908203 -0.922755777835846
0.27131783962249756 -0.00775194214656949 -0.9221002459526062
0.27131783962249756 -0.007751941680908203 -0.3253357410430908
0.27131783962249756 -0.007751941680908203 -0.09577618539333344
0.27131783962249756 0.007751941680908203 -0.9247497916221619
