0.2985358238220215 -0.27131783962249756 -0.11627906560897827
0.2916678488254547 -0.25581395626068115 -0.3798449635505676
0.29799824953079224 -0.24031007289886475 -0.39534884691238403
0.3006128966808319 -0.24031007289886475 -0.08527129888534546
0.3010663688182831 -0.22480618953704834 -0.41085273027420044
0.29004693031311035 -0.22480618953704834 -0.06976741552352905
0.2995888888835907 -0.20930230617523193 -0.42635661363601685
0.2923949658870697 -0.19379842281341553 -0.4418604373931885
0.2874009311199188 -0.14728683233261108 -0.4728682041168213
0.2969716489315033 -0.11627906560897827 -0.4883720874786377
0.28936946392059326 -0.10077518224716187 -0.5038759708404541
0.2940826416015625 -0.05426359176635742 -0.5348837375640869
0.292246013879776 -0.05426359176635742 0.007751941680908203
0.29395925998687744 -0.038759708404541016 0.038759708404541016
0.29974833130836487 -0.038759708404541016 0.05426359176635742
0.29553812742233276 -0.02325582504272461 -0.5503876209259033
0.2935298681259155 -0.02325582504272461 0.06976747512817383
0.2992871403694153 -0.02325582504272461 0.08527135848999023
0.28715264797210693 -0.00775194214656949 0.06976747512817383
0.2944866418838501 -0.007751941680908203 0.08527135848999023
0.29935017228126526 -0.007751941680908203 0.10077524185180664
0.2891475260257721 0.007751941680908203 0.06976747512817383
0.29601433873176575 0.007751941680908203 0.08527135848999023
0.300841748714447 0.007751941680908203 0.10077524185180664
0.2934700846672058 0.02325582504272461 -0.5503876209259033
0.29154345393180847 0.02325582504272461 0.05426359176635742
0.29874691367149353 0.02325582504272461 0.06976747512817383
0.2903878092765808 0.038759708404541016 0.02325582504272461
0.2997469902038574 0.038759708404541016 0.038759708404541016
0.29183530807495117 0.05426359176635742 0.00775194214656949
0.29434722661972046 0.06976747512817383 -0.5193798542022705
0.30000150203704834 0.08527135848999023 -0.007751941680908203
0.2878502905368805 0.11627911776304245 -0.4883720576763153
0.2939201891422272 0.1317828893661499 -0.4728681743144989
0.28840529918670654 0.1472867727279663 -0.9689922332763672
0.2912251055240631 0.17829453945159912 -0.4418604373931885
0.30107951164245605 0.19379842281341553 -0.42635661363601685
0.29643523693084717 0.22480618953704834 -0.06976741552352905
0.29633304476737976 0.24031007289886475 -0.3798449635505676
0.2914049029350281 0.27131783962249756 -0.3333333134651184
0.3012903928756714 0.27131783962249756 -0.11627906560897827
0.30207785964012146 0.28682172298431396 -0.28682172298431396
0.28847000002861023 0.28682175278663635 -0.13178294897079468
0.2967570722103119 0.30232560634613037 -0.24031007289886475
0.2925049662590027 0.30232560634613037 -0.1627907156944275
0.30391135811805725 -0.30232560634613037 -0.24031007289886475
0.30940166115760803 -0.30232560634613037 -0.22480618953704834
0.312025249004364 -0.30232560634613037 -0.20930230617523193
0.3098757863044739 -0.30232560634613037 -0.19379842281341553
0.30333220958709717 -0.28682172298431396 -0.317829430103302
0.31724464893341064 -0.28682172298431396 -0.14728683233261108
0.3083091080188751 -0.27131783962249756 -0.3488371968269348
0.30238422751426697 -0.25581398606300354 -0.10077518224716187
0.3047358989715576 -0.1627907156944275 -0.4573643207550049
0.3177635073661804 -0.14728683233261108 -0.9689922332763672
0.30761104822158813 -0.13178294897079468 -0.4728682339191437
0.31435221433639526 -0.13178294897079468 -0.038759708404541016
0.3076857030391693 -0.10077518224716187 -0.02325582504272461
0.3134675621986389 -0.08527129888534546 -0.5038759708404541
0.30656591057777405 -0.06976741552352905 -0.5193798542022705
0.30517759919166565 -0.05426359176635742 0.02325582504272461
0.3148863613605499 -0.05426359176635742 0.038759708404541016
0.31574612855911255 -0.038759708404541016 -0.5348837375640869
0.30513179302215576 -0.038759708404541016 0.06976747512817383
0.312663733959198 -0.038759708404541016 0.08527135848999023
0.3048272132873535 -0.02325582504272461 0.10077524185180664
0.3109346330165863 -0.02325582504272461 0.11627912521362305
0.31725752353668213 -0.02325582504272461 0.1317828893661499
0.304595023393631 -0.007751941680908203 -0.5503876209259033
0.3054671585559845 -0.007751941680908203 0.11627912521362305
0.31192779541015625 -0.007751941680908203 0.1317828893661499
0.3177834749221802 -0.007751941680908203 0.1472867727279663
0.3029313087463379 0.00775194214656949 -0.5503876209259033
0.3075428605079651 0.007751941680908203 0.11627912521362305
0.313755601644516 0.007751941680908203 0.1317828893661499
0.3051339089870453 0.02325582504272461 0.08527135848999023
0.3114210367202759 0.02325582504272461 0.10077524185180664
0.317405104637146 0.02325582504272461 0.11627912521362305
0.3077056407928467 0.038759708404541016 -0.5348837375640869
0.3088471293449402 0.038759708404541016 0.05426359176635742
0.3173447847366333 0.038759708404541016 0.06976747512817383
0.31352293491363525 0.05426359176635742 0.02325582504272461
0.30475378036499023 0.08527135848999023 -0.5038759708404541
0.31167691946029663 0.10077524185180664 -0.4883720874786377
0.30856168270111084 0.1472867727279663 -0.4573643207550049
0.30628037452697754 0.20930230617523193 -0.41085273027420044
0.3040352165699005 0.22480618953704834 -0.39534884691238403
0.30314162373542786 0.24031007289886475 -0.08527129888534546
0.31324201822280884 0.25581395626068115 -0.3488371968269348
0.3056302070617676 0.25581395626068115 -0.10077518224716187
0.31323960423469543 0.27131783962249756 -0.317829430103302
0.3065141439437866 0.30232560634613037 -0.22480617463588715
0.3126087188720703 0.30232560634613037 -0.20930230617523193
0.31341904401779175 0.30232560634613037 -0.19379842281341553
0.30765795707702637 0.30232560634613037 -0.1782945990562439
0.31862354278564453 -0.2868216931819916 -0.302325576543808
0.3319108784198761 -0.28682172298431396 -0.28682172298431396
0.33291390538215637 -0.27131783962249756 -0.3333333134651184
0.32222017645835876 -0.25581395626068115 -0.36434105038642883
0.33223605155944824 -0.24031007289886475 -0.3798449635505676
0.3312055766582489 -0.19379842281341553 -0.42635661363601685
0.31947168707847595 -0.19379842281341553 -0.05426359176635742
0.32031360268592834 -0.1782945841550827 -0.4418604075908661
0.32427918910980225 -0.14728683233261108 -0.4573643207550049
0.3263813257217407 -0.11627906560897827 -0.4728682041168213
0.320182740688324 -0.10077518224716187 -0.4883720874786377
0.32413315773010254 -0.06976741552352905 0.007751941680908203
0.3268779516220093 -0.05426359176635742 -0.5193798542022705
0.3253035843372345 -0.05426359176635742 0.05426359176635742
0.31827718019485474 -0.038759708404541016 0.10077523440122604
0.3257458508014679 -0.038759708404541016 0.11627912521362305
0.3293570578098297 -0.02325582504272461 -0.5348837375640869
0.32485663890838623 -0.02325582504272461 0.1472867727279663
0.3313320279121399 -0.02325582504272461 0.16279065608978271
0.3328878879547119 -0.02325582504272461 0.6279069185256958
0.33216747641563416 -0.02325582504272461 0.6434108018875122
0.33161067962646484 -0.02325582504272461 0.6589146852493286
0.33107322454452515 -0.02325582504272461 0.674418568611145
0.33042970299720764 -0.02325582504272461 0.6899224519729614
0.32995766401290894 -0.02325582504272461 0.7054263353347778
0.32985711097717285 -0.02325582504272461 0.7209302186965942
0.3298448920249939 -0.02325582504272461 0.7364341020584106
0.3306390643119812 -0.02325582504272461 0.751937985420227
0.3330448269844055 -0.02325582504272461 0.7674418687820435
0.3251262903213501 -0.007751941680908203 0.16279065608978271
0.3320187032222748 -0.007751941680908203 0.17829453945159912
0.33219775557518005 -0.007751941680908203 0.5658915042877197
0.3309836685657501 -0.007751941680908203 0.5813953876495361
0.32988083362579346 -0.007751941680908203 0.5968992710113525
0.3291202783584595 -0.007751941680908203 0.612403154373169
0.3284910321235657 -0.007751941680908203 0.6279069185256958
0.32816967368125916 -0.007751941680908203 0.6434108018875122
0.3278682231903076 -0.007751941680908203 0.6589146852493286
0.327445924282074 -0.007751941680908203 0.674418568611145
0.32680201530456543 -0.007751941680908203 0.6899224519729614
0.3260590136051178 -0.007751941680908203 0.7054263353347778
0.3255615234375 -0.007751941680908203 0.7209302186965942
0.3252764940261841 -0.007751941680908203 0.7364341020584106
0.32586485147476196 -0.007751941680908203 0.751937985420227
0.3278602957725525 -0.007751941680908203 0.7674418687820435
0.3319014608860016 -0.007751941680908203 0.7829457521438599
0.32082828879356384 0.007751941680908203 0.1472867727279663
0.32740867137908936 0.007751941680908203 0.16279065608978271
0.33195045590400696 0.007751941680908203 0.5658915042877197
0.3309003710746765 0.007751941680908203 0.5813953876495361
0.330005943775177 0.007751941680908203 0.5968992710113525
0.32943224906921387 0.007751941680908203 0.612403154373169
0.3289267420768738 0.007751941680908203 0.6279069185256958
0.32861337065696716 0.007751941680908203 0.6434108018875122
0.3282649517059326 0.007751941680908203 0.6589146852493286
0.3276781737804413 0.007751941680908203 0.674418568611145
0.3267858624458313 0.007751941680908203 0.6899224519729614
0.3257097899913788 0.007751941680908203 0.7054263353347778
0.3250058591365814 0.007751941680908203 0.7209302186965942
0.3247043490409851 0.007751941680908203 0.7364341020584106
0.32550933957099915 0.007751941680908203 0.751937985420227
0.32763490080833435 0.007751941680908203 0.7674418687820435
0.3320391774177551 0.007751941680908203 0.7829457521438599
0.3247011601924896 0.02325582504272461 -0.5348837375640869
0.3258258104324341 0.02325582504272461 0.1317828893661499
0.3329465985298157 0.02325582504272461 0.6279069185256958
0.3324097990989685 0.02325582504272461 0.6434108018875122
0.33185651898384094 0.02325582504272461 0.6589146852493286
0.331101655960083 0.02325582504272461 0.674418568611145
0.33014726638793945 0.02325582504272461 0.6899224519729614
0.329073429107666 0.02325582504272461 0.7054263353347778
0.3284953832626343 0.02325582504272461 0.7209302186965942
0.3285186290740967 0.02325582504272461 0.7364341020584106
0.3300516605377197 0.02325582504272461 0.751937985420227
0.3332820534706116 0.02325582504272461 0.7674418687820435
0.327271431684494 0.038759708404541016 0.08527135848999023
0.31945210695266724 0.05426359176635742 -0.5193798542022705
0.32864874601364136 0.05426359176635742 0.038759708404541016
0.325853556394577 0.06976747512817383 -0.5038759708404541
0.3246563673019409 0.06976747512817383 0.007751941680908203
0.3328969478607178 0.08527135848999023 -0.4883720874786377
0.319543719291687 0.11627912521362305 -0.4728682041168213
0.33089423179626465 0.1317828893661499 -0.4573643207550049
0.3251744508743286 0.1472867727279663 -0.9689922332763672
0.32506245374679565 0.16279065608978271 -0.4418604373931885
0.3315359950065613 0.19379842281341553 -0.05426359176635742
0.32963353395462036 0.24031007289886475 -0.3643410801887512
0.3312980532646179 0.27131783962249756 -0.30232560634613037
0.31787481904029846 0.28682175278663635 -0.27131783962249756
0.3313435912132263 0.28682172298431396 -0.25581395626068115
0.3187377452850342 0.28682172298431396 -0.14728683233261108
0.3436475992202759 -0.28682172298431396 -0.27131783962249756
0.33930036425590515 -0.28682172298431396 -0.1627907156944275
0.33629491925239563 -0.27131783962249756 -0.13178294897079468
0.34701308608055115 -0.25581395626068115 -0.11627906560897827
0.33645835518836975 -0.22480618953704834 -0.39534884691238403
0.3364144265651703 -0.20930232107639313 -0.41085273027420044
0.3474990427494049 -0.20930230617523193 -0.06976741552352905
0.3355391323566437 -0.1627907156944275 -0.9844961166381836
0.3419695794582367 -0.1627907156944275 -0.4418604373931885
0.3410921096801758 -0.13178294897079468 -0.4573643207550049
0.3449021279811859 -0.13178294897079468 -0.038759708404541016
0.34407293796539307 -0.10077518224716187 -0.4728682041168213
0.33991527557373047 -0.08527129888534546 -0.4883720874786377
0.34764358401298523 -0.08527129888534546 -0.007751941680908203
0.3361852169036865 -0.06976741552352905 -0.5038759708404541
0.3350396156311035 -0.05426359176635742 0.06976747512817383
0.3468273878097534 -0.05426359176635742 0.08527135848999023
0.3446347713470459 -0.038759708404541016 -0.5193798542022705
0.3334740698337555 -0.038759708404541016 0.1317828744649887
0.3412989377975464 -0.038759708404541016 0.1472867727279663
0.3479010760784149 -0.038759708404541016 0.16279065608978271
0.34699442982673645 -0.038759708404541016 0.5968992710113525
0.34515199065208435 -0.038759708404541016 0.612403154373169
0.34373509883880615 -0.038759708404541016 0.6279069185256958
0.3428288698196411 -0.038759708404541016 0.6434108018875122
0.34208792448043823 -0.038759708404541016 0.6589146852493286
0.34142833948135376 -0.038759708404541016 0.674418568611145
0.34061574935913086 -0.038759708404541016 0.6899224519729614
0.3400852084159851 -0.038759708404541016 0.7054263353347778
0.3400561213493347 -0.038759708404541016 0.7209302186965942
0.34043705463409424 -0.038759708404541016 0.7364341020584106
0.34226667881011963 -0.038759708404541016 0.751937985420227
0.345458447933197 -0.038759708404541016 0.7674418687820435
0.3393007814884186 -0.02325582504272461 0.17829453945159912
0.3464779257774353 -0.02325582504272461 0.19379842281341553
0.3479197323322296 -0.02325582504272461 0.5038759708404541
0.3456496596336365 -0.02325582504272461 0.5193798542022705
0.34331077337265015 -0.02325582504272461 0.5348837375640869
0.34103983640670776 -0.02325582504272461 0.5503876209259033
0.33932608366012573 -0.02325582504272461 0.5658915042877197
0.33804407715797424 -0.02325582504272461 0.5813953876495361
0.33657702803611755 -0.02325582504272461 0.5968992710113525
0.33476221561431885 -0.02325582504272461 0.612403154373169
0.33804816007614136 -0.02325582504272461 0.7829458117485046
0.34381675720214844 -0.02325582504272461 0.7984496355056763
0.3371973931789398 -0.007751941680908203 -0.5348837375640869
0.34026002883911133 -0.007751941215246916 0.19379842281341553
0.3459310531616211 -0.007751941680908203 0.20930230617523193
0.3484806418418884 -0.007751941680908203 0.28682172298431396
0.3471408784389496 -0.007751941680908203 0.30232560634613037
0.3465433716773987 -0.007751941680908203 0.3178294897079468
0.3463333547115326 -0.007751941680908203 0.3333333730697632
0.3466026484966278 -0.007751941680908203 0.3488372564315796
0.34722232818603516 -0.007751941680908203 0.364341139793396
0.34812799096107483 -0.007751941680908203 0.37984490394592285
0.348688006401062 -0.007751941680908203 0.42635655403137207
0.34797725081443787 -0.007751941680908203 0.4418604373931885
0.34663325548171997 -0.007751941680908203 0.4573643207550049
0.3449639678001404 -0.007751941680908203 0.4728682041168213
0.34295952320098877 -0.007751941680908203 0.4883720874786377
0.3408830761909485 -0.007751941680908203 0.5038759708404541
0.3388330042362213 -0.007751941680908203 0.5193798542022705
0.3367346525192261 -0.007751941680908203 0.5348837375640869
0.3340723216533661 -0.007751941680908203 0.5503876209259033
0.33805468678474426 -0.007751941680908203 0.7984496355056763
0.3438876271247864 -0.007751941680908203 0.8139535188674927
0.33480358123779297 0.007751941680908203 -0.5348837375640869
0.3351238965988159 0.007751941680908203 0.17829453945159912
0.3429722189903259 0.007751941680908203 0.19379842281341553
0.34865328669548035 0.007751941680908203 0.20930230617523193
0.3485572934150696 0.007751941680908203 0.30232560634613037
0.3479001820087433 0.007751941680908203 0.3178294897079468
0.34769102931022644 0.007751941680908203 0.3333333730697632
0.348015695810318 0.007751941680908203 0.3488372564315796
0.3486286699771881 0.007751941680908203 0.364341139793396
0.34740981459617615 0.007751941680908203 0.4573643207550049
0.34554266929626465 0.007751941680908203 0.4728682041168213
0.3432759940624237 0.007751941680908203 0.4883720874786377
0.34087586402893066 0.007751941680908203 0.5038759708404541
0.33857858180999756 0.007751941680908203 0.5193798542022705
0.3362869620323181 0.007751941680908203 0.5348837375640869
0.3333642780780792 0.007751941680908203 0.5503876209259033
0.3381718099117279 0.007751941680908203 0.7984496355056763
0.34370699524879456 0.007751941680908203 0.8139535188674927
0.33371931314468384 0.02325582504272461 0.1472867727279663
0.3413572311401367 0.02325582504272461 0.16279065608978271
0.3472066819667816 0.02325582504272461 0.5038759708404541
0.34472277760505676 0.02325582504272461 0.5193798542022705
0.3422733545303345 0.02325582504272461 0.5348837375640869
0.33996841311454773 0.02325582504272461 0.5503876209259033
0.33821436762809753 0.02325582504272461 0.5658915042877197
0.33684998750686646 0.02325582504272461 0.5813953876495361
0.33539074659347534 0.02325582504272461 0.5968992710113525
0.3340141177177429 0.02325582504272461 0.612403154373169
0.3383854031562805 0.02325582504272461 0.7829457521438599
0.34326791763305664 0.02325582504272461 0.7984496355056763
0.33787745237350464 0.038759708404541016 -0.5193798542022705
0.3347224295139313 0.038759708404541016 0.10077524185180664
0.34310412406921387 0.038759708404541016 0.11627912521362305
0.3474615514278412 0.038759708404541016 0.5813953876495361
0.34573763608932495 0.038759708404541016 0.5968992710113525
0.34442535042762756 0.038759708404541016 0.612403154373169
0.3432126045227051 0.038759708404541016 0.6279069185256958
0.34231945872306824 0.038759708404541016 0.6434108018875122
0.34154993295669556 0.038759708404541016 0.6589146852493286
0.34076905250549316 0.038759708404541016 0.674418568611145
0.339908242225647 0.038759708404541016 0.6899224519729614
0.33904844522476196 0.038759708404541016 0.7054263353347778
0.33886003494262695 0.038759708404541016 0.7209302186965942
0.33946478366851807 0.038759708404541016 0.7364341020584106
0.3412554860115051 0.038759708404541016 0.751937985420227
0.3439425528049469 0.038759708404541016 0.7674418687820435
0.3455313742160797 0.05426359176635742 -0.5038759708404541
0.3451037108898163 0.05426359176635742 0.05426359176635742
0.3392243981361389 0.10077524185180664 -0.4728681743144989
0.3452361226081848 0.1472867727279663 -0.9689922332763672
0.34091055393218994 0.16279065608978271 -0.038759708404541016
0.34009554982185364 0.17829453945159912 -0.42635661363601685
0.3487069308757782 0.19379842281341553 -0.41085273027420044
0.34825190901756287 0.20930230617523193 -0.39534884691238403
0.34610891342163086 0.20930230617523193 -0.06976741552352905
0.34127140045166016 0.22480618953704834 -0.3798449635505676
0.3352028727531433 0.25581395626068115 -0.3333333134651184
0.34680286049842834 0.27131783962249756 -0.28682172298431396
0.3377705216407776 0.27131783962249756 -0.13178294897079468
0.34284138679504395 0.28682172298431396 -0.24031007289886475
0.3413040041923523 0.28682172298431396 -0.1627907156944275
0.3529462218284607 -0.28682172298431396 -0.25581395626068115
0.3610662817955017 -0.28682172298431396 -0.24031007289886475
0.36242130398750305 -0.28682172298431396 -0.19379842281341553
0.35388994216918945 -0.28682172298431396 -0.1782945990562439
0.35215964913368225 -0.27131783962249756 -0.317829430103302
0.35035350918769836 -0.25581395626068115 -0.3488371968269348
0.3627411127090454 -0.24031007289886475 -0.3643410801887512
0.35197198390960693 -0.24031007289886475 -0.10077518224716187
0.35148191452026367 -0.22480618953704834 -0.08527129888534546
0.3570559322834015 -0.1782945990562439 -0.42635661363601685
0.36198776960372925 -0.1627907156944275 -0.9689922332763672
0.361842542886734 -0.14728683233261108 -0.4418604373931885
0.35733890533447266 -0.11627906560897827 -0.4573643207550049
0.3622806668281555 -0.08527129888534546 -0.4728682041168213
0.35852235555648804 -0.06976741552352905 -0.4883720874786377
0.36145395040512085 -0.06976741552352905 0.02325582504272461
0.3540486693382263 -0.05426359176635742 -0.5038759708404541
0.35683387517929077 -0.05426359176635742 0.10077524185180664
0.36289194226264954 -0.05426359176635742 0.6279069185256958
0.3612048625946045 -0.05426359176635742 0.6434108018875122
0.3602481186389923 -0.05426359176635742 0.6589146852493286
0.3595923185348511 -0.05426359176635742 0.674418568611145
0.3588728904724121 -0.05426359176635742 0.6899224519729614
0.3588375151157379 -0.05426359176635742 0.7054263353347778
0.3595126271247864 -0.05426359176635742 0.7209302186965942
0.3610321283340454 -0.05426359176635742 0.7364341020584106
0.3637937605381012 -0.05426359176635742 0.751937985420227
0.35552310943603516 -0.038759708404541016 0.17829453945159912
0.36215800046920776 -0.038759708404541016 0.19379842281341553
0.36178267002105713 -0.038759708404541016 0.5193798542022705
0.35800719261169434 -0.038759708404541016 0.5348837375640869
0.35461169481277466 -0.038759708404541016 0.5503876209259033
0.3521116077899933 -0.038759708404541016 0.5658915042877197
0.3495291471481323 -0.038759708404541016 0.5813953876495361
0.3500526249408722 -0.038759708404541016 0.7829457521438599
0.35803255438804626 -0.038759708404541016 0.7984496355056763
0.357440322637558 -0.02325582504272461 -0.5193798542022705
0.3523608446121216 -0.02325582504272461 0.20930230617523193
0.35605573654174805 -0.02325582504272461 0.22480618953704834
0.3573395013809204 -0.02325582504272461 0.24031007289886475
0.35737770795822144 -0.02325582504272461 0.25581395626068115
0.3565255105495453 -0.02325582504272461 0.27131783962249756
0.35567814111709595 -0.02325582504272461 0.28682172298431396
0.3551630973815918 -0.02325582504272461 0.30232560634613037
0.35519930720329285 -0.02325582504272461 0.3178294897079468
0.35549286007881165 -0.02325582504272461 0.3333333730697632
0.3561466932296753 -0.02325582504272461 0.3488372564315796
0.3570137917995453 -0.02325582504272461 0.364341139793396
0.35809606313705444 -0.02325582504272461 0.37984490394592285
0.35884806513786316 -0.02325582504272461 0.39534878730773926
0.3588327169418335 -0.02325582504272461 0.41085267066955566
0.3583429753780365 -0.02325582504272461 0.42635655403137207
0.357292115688324 -0.02325582504272461 0.4418604373931885
0.35550397634506226 -0.02325582504272461 0.45736435055732727
0.35336834192276 -0.02325582504272461 0.4728682041168213
0.35069411993026733 -0.02325582504272461 0.4883720576763153
0.3508602976799011 -0.02325582504272461 0.8139535188674927
0.36009109020233154 -0.02325582504272461 0.8294574022293091
0.36323675513267517 -0.007751941680908203 -0.5193798542022705
0.35028740763664246 -0.00775194214656949 0.22480618953704834
0.35183849930763245 -0.007751941680908203 0.24031007289886475
0.3517324924468994 -0.007751941680908203 0.25581395626068115
0.3502173125743866 -0.007751941680908203 0.27131783962249756
0.3488765358924866 -0.007751941680908203 0.39534878730773926
0.3488525450229645 -0.007751941215246916 0.41085267066955566
0.3533412516117096 -0.007751941680908203 0.8294574022293091
0.36284103989601135 -0.007751941680908203 0.8449612855911255
0.3606477677822113 0.007751941680908203 -0.5193798542022705
0.35285887122154236 0.007751941680908203 0.22480618953704834
0.3539947271347046 0.007751941680908203 0.24031007289886475
0.3536972999572754 0.007751941680908203 0.25581395626068115
0.35208261013031006 0.007751941215246916 0.27131783962249756
0.3502476215362549 0.007751941680908203 0.28682172298431396
0.3497692346572876 0.00775194214656949 0.37984490394592285
0.35075774788856506 0.007751941680908203 0.39534878730773926
0.3506842255592346 0.007751941680908203 0.41085267066955566
0.3503425717353821 0.00775194214656949 0.42635655403137207
0.3489697575569153 0.007751941215246916 0.4418604373931885
0.3528890013694763 0.007751941680908203 0.8294574022293091
0.3614985942840576 0.007751941680908203 0.8449612855911255
0.3529890179634094 0.02325582504272461 -0.5193798542022705
0.3494856357574463 0.02325582504272461 0.17829453945159912
0.3569161295890808 0.02325582504272461 0.19379842281341553
0.36117735505104065 0.02325582504272461 0.20930230617523193
0.3634692430496216 0.02325582504272461 0.22480618953704834
0.36364030838012695 0.02325582504272461 0.24031007289886475
0.362806111574173 0.02325582504272461 0.25581395626068115
0.36111027002334595 0.02325582504272461 0.27131783962249756
0.3596802055835724 0.02325582504272461 0.28682172298431396
0.35888007283210754 0.02325582504272461 0.30232560634613037
0.3588753640651703 0.02325582504272461 0.3178294897079468
0.3592686057090759 0.02325582504272461 0.3333333730697632
0.36015185713768005 0.02325582504272461 0.3488372564315796
0.36104124784469604 0.02325582504272461 0.364341139793396
0.3619827628135681 0.02325582504272461 0.37984490394592285
0.36244288086891174 0.02325582504272461 0.39534878730773926
0.3619564175605774 0.02325582504272461 0.41085267066955566
0.3609952926635742 0.02325582504272461 0.42635655403137207
0.3593417704105377 0.02325582504272461 0.4418604373931885
0.35683149099349976 0.02325582504272461 0.4573643207550049
0.3538575768470764 0.02325582504272461 0.4728682041168213
0.35021644830703735 0.02325582504272461 0.4883720874786377
0.35026270151138306 0.02325582504272461 0.8139535784721375
0.3583144545555115 0.02325582504272461 0.8294574022293091
0.3622027337551117 0.038759708404541016 -0.5038759708404541
0.352660596370697 0.038759708404541016 0.1317828893661499
0.36128345131874084 0.038759708404541016 0.1472867727279663
0.36212119460105896 0.038759708404541016 0.5038759708404541
0.3586885929107666 0.038759708404541016 0.5193798542022705
0.35512930154800415 0.038759708404541016 0.5348837375640869
0.35206493735313416 0.038759708404541016 0.5503876209259033
0.349331796169281 0.038759708404541016 0.5658915042877197
0.3489176034927368 0.038759708404541016 0.7829457521438599
0.35587191581726074 0.038759708404541016 0.7984496355056763
0.3628009557723999 0.038759708404541016 0.8139535188674927
0.3592942953109741 0.05426359176635742 0.06976747512817383
0.36384838819503784 0.05426359176635742 0.5968992710113525
0.3615725040435791 0.05426359176635742 0.612403154373169
0.35949429869651794 0.05426359176635742 0.6279069185256958
0.35808247327804565 0.05426359176635742 0.6434108018875122
0.3571622967720032 0.05426359176635742 0.6589146852493286
0.3565194010734558 0.05426359176635742 0.674418568611145
0.3556872606277466 0.05426359176635742 0.6899224519729614
0.3550289273262024 0.05426359176635742 0.7054263353347778
0.3551710546016693 0.05426359176635742 0.7209302186965942
0.3561975955963135 0.05426359176635742 0.7364341020584106
0.35854029655456543 0.05426359176635742 0.751937985420227
0.36207473278045654 0.05426359176635742 0.7674418687820435
0.3522326946258545 0.06976747512817383 -0.4883720874786377
0.35660287737846375 0.08527135848999023 -0.4728682041168213
0.35058847069740295 0.11627912521362305 -0.4573643207550049
0.3500358462333679 0.1472867727279663 -0.4418604075908661
0.3507920801639557 0.22480618953704834 -0.08527129888534546
0.3534131348133087 0.24031007289886475 -0.3488371968269348
0.35245490074157715 0.24031007289886475 -0.10077518224716187
0.3543880879878998 0.25581395626068115 -0.317829430103302
0.3495461940765381 0.25581395626068115 -0.11627907305955887
0.36174556612968445 0.27131783962249756 -0.27131783962249756
0.35209667682647705 0.28682172298431396 -0.22480618953704834
0.35822728276252747 0.28682172298431396 -0.20930230617523193
0.35945865511894226 0.28682172298431396 -0.19379842281341553
0.3546255826950073 0.28682172298431396 -0.1782945990562439
0.3650181293487549 -0.28682172298431396 -0.22480618953704834
0.36600813269615173 -0.28682172298431396 -0.20930230617523193
0.36936625838279724 -0.27131783962249756 -0.30232560634613037
0.36662930250167847 -0.27131783962249756 -0.14728683233261108
0.3754004240036011 -0.25581395626068115 -0.3333333134651184
0.3705083131790161 -0.22480618953704834 -0.3798449635505676
0.37309959530830383 -0.20930230617523193 -0.39534884691238403
0.3686639666557312 -0.19379842281341553 -0.41085270047187805
0.3650881052017212 -0.1782945990562439 -0.05426359176635742
0.36510169506073 -0.1627907156944275 -0.9689922332763672
0.3754025101661682 -0.14728683233261108 -0.9689922332763672
0.3735269606113434 -0.10077518224716187 -0.4573643207550049
0.3776499927043915 -0.05426359176635742 -0.4883720874786377
0.36601966619491577 -0.05426359176635742 0.11627912521362305
0.3773709237575531 -0.05426359176635742 0.1317828893661499
0.3788752555847168 -0.05426359176635742 0.5658915042877197
0.37406057119369507 -0.05426359176635742 0.5813953876495361
0.3695325553417206 -0.05426359176635742 0.5968992710113525
0.36566150188446045 -0.05426358804106712 0.612403154373169
0.36893409490585327 -0.05426359176635742 0.7674418687820435
0.37682342529296875 -0.05426359176635742 0.7829457521438599
0.37053197622299194 -0.038759708404541016 -0.5038759708404541
0.36658912897109985 -0.038759708404541016 0.20930230617523193
0.36992311477661133 -0.038759708404541016 0.22480618953704834
0.3713122308254242 -0.038759708404541016 0.24031007289886475
0.3715241551399231 -0.038759708404541016 0.25581395626068115
0.37120872735977173 -0.038759708404541016 0.27131783962249756
0.3710164725780487 -0.038759708404541016 0.28682172298431396
0.3715185523033142 -0.038759708404541016 0.30232560634613037
0.3725106418132782 -0.038759708404541016 0.3178294897079468
0.3737607002258301 -0.038759708404541016 0.3333333730697632
0.3753916919231415 -0.038759708404541016 0.3488372564315796
0.3770137429237366 -0.038759708404541016 0.364341139793396
0.3787653148174286 -0.038759708404541016 0.37984490394592285
0.3796437978744507 -0.038759708404541016 0.4418604373931885
0.37761086225509644 -0.038759708404541016 0.4573643207550049
0.37447983026504517 -0.038759708404541016 0.4728682041168213
0.37023812532424927 -0.038759708404541016 0.4883720874786377
0.3654450476169586 -0.038759708404541016 0.5038759708404541
0.3657557964324951 -0.038759708404541016 0.8139535188674927
0.3766799867153168 -0.038759708404541016 0.8294574022293091
0.37145841121673584 -0.02325582504272461 0.8449612855911255
0.37374573945999146 -0.007751941680908203 0.8604651689529419
0.37214890122413635 0.007751941680908203 0.8604651689529419
0.3771466314792633 0.02325582504272461 -0.5038759708404541
0.36864209175109863 0.02325582504272461 0.8449612855911255
0.3794105350971222 0.02325582504272461 0.8604651689529419
0.3685172498226166 0.038759708404541016 0.16279065608978271
0.3758111596107483 0.038759708404541016 0.17829453945159912
0.37962013483047485 0.038759708404541016 0.25581395626068115
0.37763267755508423 0.038759708404541016 0.27131783962249756
0.37624219059944153 0.038759708404541016 0.28682172298431396
0.37599655985832214 0.038759708404541016 0.30232560634613037
0.3765795826911926 0.038759708404541016 0.3178294897079468
0.37755927443504333 0.038759708404541016 0.3333333730697632
0.37894266843795776 0.038759708404541016 0.3488372564315796
0.378250390291214 0.038759708404541016 0.4418604373931885
0.37496474385261536 0.038759708404541016 0.4573643207550049
0.37079453468322754 0.038759708404541016 0.4728682041168213
0.3659817576408386 0.038759708404541016 0.4883720874786377
0.3727884590625763 0.038759708404541016 0.8294574022293091
0.3700682520866394 0.05426359176635742 -0.4883720874786377
0.3731958270072937 0.05426359176635742 0.08527135848999023
0.375142365694046 0.05426359176635742 0.5503876209259033
0.37078166007995605 0.05426359176635742 0.5658915042877197
0.3673330843448639 0.05426359176635742 0.5813953876495361
0.36867690086364746 0.05426359176635742 0.7829457521438599
0.37677839398384094 0.05426359176635742 0.7984496355056763
0.3757544755935669 0.06976747512817383 -0.4728682041168213
0.36756595969200134 0.06976747512817383 0.02325582504272461
0.36914318799972534 0.10077524185180664 -0.4573643207550049
0.369075745344162 0.1317828893661499 -0.4418604075908661
0.3661172389984131 0.1472867727279663 -0.9844961166381836
0.3688109517097473 0.16279065608978271 -0.42635661363601685
0.3796403706073761 0.17829453945159912 -0.05426359176635742
0.3788323998451233 0.20930230617523193 -0.3798449635505676
0.3680053949356079 0.22480618953704834 -0.3643410801887512
0.3748708665370941 0.24031007289886475 -0.3333333134651184
0.3715417981147766 0.25581395626068115 -0.30232560634613037
0.3740098476409912 0.27131783962249756 -0.25581395626068115
0.36506620049476624 0.27131783962249756 -0.14728684723377228
0.38379544019699097 -0.27131783962249756 -0.28682172298431396
0.3884197473526001 -0.27131783962249756 -0.1627907156944275
0.38340139389038086 -0.25581395626068115 -0.13178294897079468
0.3910823166370392 -0.24031007289886475 -0.3488371968269348
0.3935076594352722 -0.24031007289886475 -0.11627906560897827
0.39503535628318787 -0.20930230617523193 -0.08527129888534546
0.38889387249946594 -0.19379842281341553 -0.06976741552352905
0.3844422698020935 -0.1627907156944275 -0.9844961762428284
0.38533034920692444 -0.1627907156944275 -0.42635661363601685
0.3829193115234375 -0.14728683233261108 -0.9844961166381836
0.38189932703971863 -0.13178294897079468 -0.4418604373931885
0.39240264892578125 -0.08527129888534546 -0.4573643207550049
0.3829611539840698 -0.06976741552352905 -0.4728682041168213
0.3852028548717499 -0.05426359176635742 0.1472867727279663
0.3905279338359833 -0.05426359176635742 0.16279065608978271
0.3931002616882324 -0.05426359176635742 0.5348837375640869
0.3853343725204468 -0.05426359176635742 0.5503876209259033
0.38595354557037354 -0.05426359176635742 0.7984496355056763
0.37992748618125916 -0.038759708404541016 0.39534875750541687
0.3806350827217102 -0.038759708404541016 0.41085267066955566
0.38038763403892517 -0.038759708404541016 0.42635655403137207
0.3886129856109619 -0.038759708404541016 0.8449612855911255
0.3840571343898773 -0.02325582504272461 -0.5038759708404541
0.38442879915237427 -0.02325582504272461 0.8604651689529419
0.3895561099052429 -0.007751941680908203 -0.5038759708404541
0.3869525194168091 -0.007751941680908203 0.8759689331054688
0.3873971104621887 0.007751941680908203 -0.5038759708404541
0.3850492238998413 0.007751941680908203 0.8759689331054688
0.39314916729927063 0.02325582504272461 0.8759689331054688
0.3887585401535034 0.038759708404541016 -0.4883720874786377
0.3807886838912964 0.038759708404541016 0.19379842281341553
0.3826534152030945 0.038759708404541016 0.20930230617523193
0.3829665780067444 0.038759708404541016 0.22480618953704834
0.3816234767436981 0.038759708404541016 0.24031007289886475
0.38020098209381104 0.038759708404541016 0.3643411695957184
0.38171783089637756 0.038759708404541016 0.37984490394592285
0.3823726177215576 0.038759708404541016 0.39534878730773926
0.38183894753456116 0.038759708404541016 0.41085267066955566
0.38028794527053833 0.038759708404541016 0.42635655403137207
0.3840039372444153 0.038759708404541016 0.8449612855911255
0.38124457001686096 0.05426358804106712 0.10077524185180664
0.3888722062110901 0.05426359176635742 0.11627912521362305
0.39514556527137756 0.05426359176635742 0.1317828893661499
0.3914414644241333 0.05426359176635742 0.5038759708404541
0.38595688343048096 0.05426359176635742 0.5193798542022705
0.38013386726379395 0.05426359176635742 0.5348837375640869
0.3865835666656494 0.05426359176635742 0.8139535188674927
0.3920764923095703 0.06976747512817383 0.7054263353347778
0.3909066617488861 0.06976747512817383 0.7209302186965942
0.3911765515804291 0.06976747512817383 0.7364341020584106
0.3942393660545349 0.06976747512817383 0.751937985420227
0.38900959491729736 0.08527135848999023 -0.4573643207550049
0.3905666470527649 0.11627912521362305 -0.4418604373931885
0.3931697607040405 0.1472867727279663 -0.038759708404541016
0.3825165629386902 0.17829453945159912 -0.41085273027420044
0.38490742444992065 0.19379842281341553 -0.39534884691238403
0.38969582319259644 0.19379842281341553 -0.06976741552352905
0.3917585015296936 0.20930230617523193 -0.08527129888534546
0.3927956819534302 0.22480618953704834 -0.3488371968269348
0.39287814497947693 0.22480618953704834 -0.10077518224716187
0.3946886956691742 0.24031007289886475 -0.317829430103302
0.3916127681732178 0.24031007289886475 -0.11627906560897827
0.3871361017227173 0.25581395626068115 -0.28682172298431396
0.3822380304336548 0.25581395626068115 -0.13178294897079468
0.3846788704395294 0.27131783962249756 -0.24031005799770355
0.39428773522377014 0.27131783962249756 -0.22480618953704834
0.38500645756721497 0.27131783962249756 -0.1627907156944275
0.3965393602848053 -0.27131783962249756 -0.27131783962249756
0.40720096230506897 -0.27131783962249756 -0.25581395626068115
0.4026692509651184 -0.27131783962249756 -0.1782945990562439
0.3967086970806122 -0.25581395626068115 -0.317829430103302
0.403432160615921 -0.22480618953704834 -0.3643410801887512
0.39684227108955383 -0.22480618953704834 -0.10077518224716187
0.4024289846420288 -0.1782945990562439 -0.41085273027420044
0.3962591588497162 -0.1627907156944275 -0.05426359176635742
0.40080004930496216 -0.11627906560897827 -0.4418604373931885
0.40567323565483093 -0.06976741552352905 0.038759708404541016
0.4049755930900574 -0.05426359176635742 -0.4728682041168213
0.39538297057151794 -0.05426359549164772 0.17829453945159912
0.40055423974990845 -0.05426359176635742 0.19379843771457672
0.4032233953475952 -0.05426359176635742 0.20930230617523193
0.40540146827697754 -0.05426359176635742 0.22480618953704834
0.4065239727497101 -0.05426359176635742 0.24031007289886475
0.40638667345046997 -0.05426359176635742 0.25581395626068115
0.4064270555973053 -0.05426359176635742 0.27131783962249756
0.4065382778644562 -0.05426359176635742 0.28682172298431396
0.4074958562850952 -0.05426359176635742 0.30232560634613037
0.40844982862472534 -0.05426359176635742 0.3178294897079468
0.4097817838191986 -0.05426359176635742 0.3333333730697632
0.40753716230392456 -0.05426359176635742 0.5038759708404541
0.4007531404495239 -0.05426359176635742 0.5193798542022705
0.39642128348350525 -0.05426359176635742 0.8139535188674927
0.40822833776474 -0.05426359176635742 0.8294574022293091
0.3980327546596527 -0.038759708404541016 -0.4883720874786377
0.4025152027606964 -0.038759708404541016 0.8604651689529419
0.3990459740161896 -0.02325582504272461 0.8759689331054688
0.40289008617401123 -0.007751941680908203 0.8914728164672852
0.4007074534893036 0.007751941680908203 0.8914728164672852
0.40677881240844727 0.02325582504272461 -0.4883720874786377
0.39716634154319763 0.038759708404541016 0.8604651689529419
0.3988572955131531 0.05426359176635742 -0.4728682041168213
0.4013522267341614 0.05426359176635742 0.1472867727279663
0.4055008292198181 0.05426359176635742 0.16279065608978271
0.4095955491065979 0.05426359176635742 0.17829453945159912
0.4097243547439575 0.05426359176635742 0.24031007289886475
0.4070107638835907 0.05426359176635742 0.25581395626068115
0.4040934443473816 0.05426359176635742 0.27131783962249756
0.4022243618965149 0.05426359176635742 0.28682172298431396
0.40205439925193787 0.05426359176635742 0.30232560634613037
0.4025380313396454 0.05426359176635742 0.3178294897079468
0.4035530090332031 0.05426359176635742 0.3333333730697632
0.405168354511261 0.05426359176635742 0.3488372564315796
0.40665823221206665 0.05426359176635742 0.364341139793396
0.408416211605072 0.05426359176635742 0.37984490394592285
0.40922659635543823 0.05426359176635742 0.39534878730773926
0.4088715612888336 0.05426359176635742 0.41085267066955566
0.40751945972442627 0.05426359176635742 0.42635655403137207
0.4057382345199585 0.05426359176635742 0.4418604373931885
0.40285414457321167 0.05426359176635742 0.4573643207550049
0.3997093141078949 0.05426359176635742 0.4728682041168213
0.39609065651893616 0.05426359549164772 0.4883721172809601
0.39741402864456177 0.05426358804106712 0.8294574022293091
0.40989094972610474 0.05426359176635742 0.8449612855911255
0.4023582935333252 0.06976747512817383 0.038759708404541016
0.4106406271457672 0.06976747512817383 0.612403154373169
0.4081507623195648 0.06976747512817383 0.6279069185256958
0.4059178829193115 0.06976747512817383 0.6434108018875122
0.4034581184387207 0.06976747512817383 0.6589146852493286
0.40121954679489136 0.06976747512817383 0.674418568611145
0.39538049697875977 0.06976747512817383 0.6899224519729614
0.40009739995002747 0.06976747512817383 0.7674418687820435
0.40852057933807373 0.06976747512817383 0.7829457521438599
0.4029848575592041 0.08527135848999023 0.007751941680908203
0.3957899510860443 0.1472867727279663 -0.42635661363601685
0.4087221920490265 0.20930230617523193 -0.3643410801887512
0.40323373675346375 0.25581395626068115 -0.27131783962249756
0.40784165263175964 0.25581395626068115 -0.14728683233261108
0.4001186490058899 0.27131783962249756 -0.20930230617523193
0.40175575017929077 0.27131783962249756 -0.19379842281341553
0.3968946933746338 0.27131783962249756 -0.1782945990562439
0.4135087728500366 -0.27131783962249756 -0.24031007289886475
0.4173821210861206 -0.27131783962249756 -0.22480620443820953
0.41711732745170593 -0.27131783962249756 -0.20930230617523193
0.4116922914981842 -0.27131783962249756 -0.19379843771457672
0.41485536098480225 -0.25581395626068115 -0.30232560634613037
0.4117901921272278 -0.25581395626068115 -0.14728683233261108
0.41679418087005615 -0.24031007289886475 -0.3333333134651184
0.41257691383361816 -0.20930230617523193 -0.3798449635505676
0.4130096733570099 -0.19379842281341553 -0.39534884691238403
0.421295166015625 -0.1782945990562439 -0.06976741552352905
0.4124009609222412 -0.14728683233261108 -0.42635661363601685
0.4243098497390747 -0.14728683233261108 -0.05426359176635742
0.4179266095161438 -0.10077518224716187 -0.4418604373931885
0.41124385595321655 -0.10077518224716187 -0.02325582504272461
0.42412686347961426 -0.08527129888534546 -0.007751941680908203
0.4154941439628601 -0.06976741552352905 -0.4573643207550049
0.4114739000797272 -0.05426359176635742 0.3488372266292572
0.41385242342948914 -0.05426359176635742 0.364341139793396
0.41716766357421875 -0.05426359176635742 0.37984490394592285
0.4192149043083191 -0.05426359176635742 0.39534878730773926
0.42078763246536255 -0.05426359176635742 0.41085267066955566
0.42075610160827637 -0.05426359176635742 0.42635655403137207
0.4207541346549988 -0.05426359176635742 0.4418604373931885
0.4192673861980438 -0.05426359176635742 0.4573643207550049
0.4170074462890625 -0.05426359176635742 0.4728682041168213
0.41328442096710205 -0.05426359176635742 0.4883720874786377
0.42207109928131104 -0.05426359176635742 0.8449612855911255
0.41894567012786865 -0.038759708404541016 0.8759689331054688
0.41323530673980713 -0.02325582504272461 -0.4883720874786377
0.41637519001960754 -0.02325582504272461 0.8914728164672852
0.4198359251022339 -0.007751941680908203 -0.4883720874786377
0.4261898100376129 -0.007751941680908203 0.9069766998291016
0.4178374111652374 0.00775194214656949 -0.4883721172809601
0.42305171489715576 0.007751941680908203 0.9069766998291016
0.41192319989204407 0.02325582504272461 0.8914728164672852
0.42155128717422485 0.038759708404541016 -0.4728682041168213
0.4139378070831299 0.038759708404541016 0.8759689331054688
0.4133368134498596 0.05426359176635742 0.19379842281341553
0.4137404263019562 0.05426359176635742 0.20930229127407074
0.4123794138431549 0.05426359176635742 0.22480618953704834
0.41420623660087585 0.06976747512817383 -0.4573643207550049
0.4217040240764618 0.06976747512817383 0.5813953876495361
0.41576671600341797 0.06976747512817383 0.5968992710113525
0.4188063442707062 0.06976747512817383 0.7984496355056763
0.4170726537704468 0.10077524185180664 -0.4418604373931885
0.42025530338287354 0.11627912521362305 -0.02325582504272461
0.42325854301452637 0.1317828893661499 -0.42635661363601685
0.4168083071708679 0.16279065608978271 -0.41085273027420044
0.416434109210968 0.16279065608978271 -0.05426359176635742
0.4247565269470215 0.17829453945159912 -0.39534884691238403
0.4255298674106598 0.17829453945159912 -0.06976741552352905
0.420818567276001 0.19379842281341553 -0.3798449635505676
0.41758161783218384 0.22480618953704834 -0.3333333134651184
0.41359516978263855 0.24031005799770355 -0.30232560634613037
0.42266470193862915 0.24031007289886475 -0.13178294897079468
0.41611701250076294 0.25581395626068115 -0.25581395626068115
0.42600369453430176 0.25581395626068115 -0.1627907156944275
0.43103110790252686 -0.25581395626068115 -0.28682172298431396
0.434365838766098 -0.25581395626068115 -0.1627907156944275
0.4415077567100525 -0.24031007289886475 -0.317829430103302
0.4296271800994873 -0.24031007289886475 -0.13178294897079468
0.4338653087615967 -0.22480618953704834 -0.3488371968269348
0.4395667016506195 -0.22480618953704834 -0.11627906560897827
0.44011735916137695 -0.20930230617523193 -0.10077518224716187
0.43380993604660034 -0.19379842281341553 -0.08527129888534546
0.4365057349205017 -0.1627907156944275 -0.41085273027420044
0.43446123600006104 -0.13178294897079468 -0.42635661363601685
0.4308704137802124 -0.11627906560897827 -0.038759708404541016
0.4358972907066345 -0.08527129888534546 -0.4418604373931885
0.4339035153388977 -0.06976741552352905 0.038759708404541016
0.43910810351371765 -0.05426359176635742 -0.4573643207550049
0.4418574869632721 -0.05426359176635742 0.8604651689529419
0.42788392305374146 -0.03875970467925072 -0.4728682041168213
0.4417617619037628 -0.038759708404541016 0.8914728164672852
0.43906253576278687 0.02325582504272461 -0.4728682041168213
0.43750831484794617 0.02325582504272461 0.9069766998291016
0.4364909529685974 0.038759708404541016 0.8914728164672852
0.4388667941093445 0.05426359176635742 -0.4573643207550049
0.4263705611228943 0.05426358804106712 0.8604651689529419
0.4392021894454956 0.06976747512817383 0.5503876209259033
0.4270346760749817 0.06976747512817383 0.5658915042877197
0.4299702048301697 0.06976747512817383 0.8139535188674927
0.44186002016067505 0.08527135848999023 -0.4418604373931885
0.4329947829246521 0.1317828893661499 -0.038759708404541016
0.42933303117752075 0.19379842281341553 -0.08527129888534546
0.43860897421836853 0.20930230617523193 -0.3488371968269348
0.429233580827713 0.20930229127407074 -0.10077517479658127
0.42826247215270996 0.22480618953704834 -0.11627906560897827
0.43123915791511536 0.24031007289886475 -0.28682172298431396
0.4277816414833069 0.25581395626068115 -0.24031007289886475
0.43805795907974243 0.25581395626068115 -0.22480618953704834
0.4386398494243622 0.25581395626068115 -0.1782945990562439
0.4451753795146942 -0.25581395626068115 -0.27131783962249756
0.4571450650691986 -0.25581395626068115 -0.25581395626068115
0.4496365189552307 -0.25581395626068115 -0.1782945990562439
0.44684037566185 -0.20930230617523193 -0.3643410801887512
0.45265209674835205 -0.19379842281341553 -0.3798449635505676
0.44925159215927124 -0.1782945990562439 -0.39534884691238403
0.4455675482749939 -0.1627907156944275 -0.06976741552352905
0.44860002398490906 -0.13178294897079468 -0.05426359176635742
0.4528169631958008 -0.11627906560897827 -0.42635661363601685
0.4544053077697754 -0.06976741552352905 -0.4418604373931885
0.45321422815322876 -0.06976741552352905 0.02325582504272461
0.4437498152256012 -0.02325582504272461 -0.4728681743144989
0.4419917166233063 -0.02325582504272461 0.9069766998291016
0.45092928409576416 -0.007751941680908203 -0.4728682041168213
0.4553148150444031 -0.007751941680908203 0.922480583190918
0.44928956031799316 0.007751941680908203 -0.4728682041168213
0.4538605809211731 0.007751941680908203 0.922480583190918
0.4510279893875122 0.05426359176635742 0.8759689331054688
0.4473544955253601 0.06976747512817383 0.5503876209259033
0.44537264108657837 0.06976747512817383 0.8294574022293091
0.4540390372276306 0.08527135848999023 0.007751941680908203
0.449769526720047 0.11627912521362305 -0.42635661363601685
0.44875580072402954 0.1472867727279663 -0.41085273027420044
0.44267281889915466 0.1472867727279663 -0.05426359176635742
0.4515613317489624 0.16279065608978271 -0.06976741552352905
0.4537116289138794 0.19379842281341553 -0.3643410801887512
0.44204407930374146 0.22480618953704834 -0.3178294599056244
0.45665550231933594 0.22480618953704834 -0.13178294897079468
0.4483422040939331 0.24031005799770355 -0.27131783962249756
0.44477322697639465 0.24031007289886475 -0.14728683233261108
0.44212502241134644 0.25581392645835876 -0.20930230617523193
0.4426325559616089 0.25581395626068115 -0.19379842281341553
0.4651049077510834 -0.25581395626068115 -0.24031007289886475
