0.2669042944908142 0.24031007289886475 -0.28682172298431396
0.2566743791103363 0.25581395626068115 -0.30232560634613037
0.26671889424324036 0.25581395626068115 -0.28682172298431396
0.2634403705596924 0.25581395626068115 0.08527135848999023
0.2564724385738373 0.27131783962249756 -0.30232563614845276
0.26657113432884216 0.27131783962249756 -0.28682172298431396
0.25604158639907837 0.28682172298431396 -0.30232563614845276
0.26625633239746094 0.28682172298431396 -0.28682172298431396
0.2659543752670288 0.30232560634613037 -0.28682172298431396
0.26562294363975525 0.3178294897079468 -0.28682172298431396
0.2652752101421356 0.3333333730697632 -0.28682172298431396
0.2646026909351349 0.3488372564315796 -0.28682172298431396
0.2571201026439667 0.3488372564315796 0.11627912521362305
0.2639738917350769 0.364341139793396 -0.28682172298431396
0.2635505795478821 0.37984490394592285 -0.28682172298431396
0.26287785172462463 0.39534878730773926 -0.28682172298431396
0.2620713710784912 0.41085267066955566 -0.28682172298431396
0.27084267139434814 0.41085267066955566 0.10077524185180664
0.2618013918399811 0.42635655403137207 -0.28682172298431396
0.27128398418426514 0.42635655403137207 -0.27131783962249756
0.26182445883750916 0.4418604373931885 -0.28682172298431396
0.27120763063430786 0.4418604373931885 -0.27131783962249756
0.2615075707435608 0.4573643207550049 -0.28682172298431396
0.2707758843898773 0.4573643207550049 -0.27131783962249756
0.26216086745262146 0.4573643207550049 0.08527135848999023
0.2615770399570465 0.4728682041168213 -0.28682172298431396
0.2707429826259613 0.4728682041168213 -0.27131783962249756
0.26204442977905273 0.4883720576763153 -0.28682172298431396
0.2710971534252167 0.4883720874786377 -0.27131783962249756
0.2619094252586365 0.5038759708404541 -0.28682172298431396
0.27096039056777954 0.5038759708404541 -0.27131783962249756
0.26132017374038696 0.5193798542022705 -0.28682172298431396
0.2704075574874878 0.5193798542022705 -0.27131783962249756
0.2605975866317749 0.5348837375640869 -0.28682172298431396
0.26978373527526855 0.5348837375640869 -0.27131783962249756
0.2588728964328766 0.5503876209259033 -0.28682172298431396
0.26845434308052063 0.5503876209259033 -0.27131783962249756
0.2563753128051758 0.5658915042877197 -0.28682172298431396
0.2669049799442291 0.5658915042877197 -0.27131783962249756
0.26540663838386536 0.5813953876495361 -0.27131783962249756
0.2629207968711853 0.5968992710113525 -0.27131783962249756
0.27095311880111694 0.5968992710113525 0.05426359176635742
0.25873664021492004 0.612403154373169 -0.27131783962249756
0.2681364417076111 0.612403154373169 -0.25581395626068115
0.26572155952453613 0.6279069185256958 -0.25581395626068115
0.2708790898323059 0.6279069185256958 0.038759708404541016
0.2629094123840332 0.6434108018875122 -0.25581395626068115
0.2619599401950836 0.6434108018875122 0.038759708404541016
0.25864896178245544 0.6589146852493286 -0.25581395626068115
0.26814568042755127 0.6589146852493286 -0.24031007289886475
0.2655608654022217 0.674418568611145 -0.24031007289886475
0.26863449811935425 0.674418568611145 0.02325582504272461
0.26238715648651123 0.6899224519729614 -0.24031007289886475
0.2707752287387848 0.6899224519729614 -0.22480618953704834
0.2581978440284729 0.7054262757301331 -0.24031007289886475
0.26729708909988403 0.7054263353347778 -0.22480618953704834
0.2644999623298645 0.7209302186965942 -0.22480618953704834
0.2612481713294983 0.7209302186965942 0.00775194214656949
0.26074713468551636 0.7364341020584106 -0.22480618953704834
0.2681862413883209 0.7364341020584106 -0.20930230617523193
0.2566196322441101 0.7519379258155823 -0.22480618953704834
0.26530441641807556 0.751937985420227 -0.20930230617523193
0.26696592569351196 0.751937985420227 -0.007751941680908203
0.2613288164138794 0.7674418687820435 -0.20930232107639313
0.26767340302467346 0.7674418687820435 -0.19379842281341553
0.2640397846698761 0.7829457521438599 -0.19379842281341553
0.2694700360298157 0.7829457521438599 -0.1782945990562439
0.260423481464386 0.7829457521438599 -0.02325582504272461
0.25625938177108765 0.7984496355056763 -0.19379842281341553
0.2645273506641388 0.7984496355056763 -0.1782945990562439
0.2695716619491577 0.7984496355056763 -0.1627907156944275
0.2680239677429199 0.7984496355056763 -0.05426359176635742
0.2599064111709595 0.7984496355056763 -0.038759708404541016
0.2562260925769806 0.8139535188674927 -0.1782945990562439
0.26377180218696594 0.8139535188674927 -0.1627907156944275
0.26658883690834045 0.8139535188674927 -0.14728683233261108
0.2678442597389221 0.8139535188674927 -0.13178294897079468
0.2682504951953888 0.8139535188674927 -0.11627906560897827
0.26782143115997314 0.8139535188674927 -0.10077518224716187
0.265973836183548 0.8139535188674927 -0.08527129888534546
0.2623448371887207 0.8139535188674927 -0.06976741552352905
0.2580004930496216 0.8294574022293091 -0.14728683233261108
0.25911960005760193 0.8294574022293091 -0.13178294897079468
0.2587343454360962 0.8294574022293091 -0.11627906560897827
0.2567780315876007 0.8294574022293091 -0.10077518969774246
0.2734600603580475 -0.19379842281341553 -0.14728683233261108
0.27409303188323975 -0.19379842281341553 -0.13178294897079468
0.2720240652561188 -0.19379842281341553 -0.11627906560897827
0.27637940645217896 -0.1782945990562439 -0.1627907156944275
0.280013769865036 -0.1782945990562439 -0.14728683233261108
0.2804296016693115 -0.1782945990562439 -0.13178294897079468
0.27841246128082275 -0.1782945990562439 -0.11627906560897827
0.27477240562438965 -0.1782945841550827 -0.10077518224716187
0.2761839032173157 -0.1627907156944275 -0.1782945990562439
0.28155893087387085 -0.1627907156944275 -0.1627907156944275
0.2844751477241516 -0.1627907156944275 -0.14728683233261108
0.28559520840644836 -0.1627907156944275 -0.13178294897079468
0.2843340039253235 -0.1627907156944275 -0.11627906560897827
0.2813508212566376 -0.1627907156944275 -0.10077518224716187
0.2766050696372986 -0.1627907156944275 -0.08527129888534546
0.27290084958076477 -0.14728683233261108 -0.19379842281341553
0.2810882031917572 -0.14728683233261108 -0.1782945990562439
0.28555381298065186 -0.14728683233261108 -0.1627907156944275
0.2837514579296112 -0.14728683233261108 -0.08527129888534546
0.2780553102493286 -0.14728683233261108 -0.06976741552352905
0.27864575386047363 -0.13178294897079468 -0.19379842281341553
0.284758597612381 -0.13178294897079468 -0.1782945990562439
0.285265177488327 -0.13178294897079468 -0.06976741552352905
0.278722882270813 -0.13178294897079468 -0.05426359176635742
0.27160754799842834 -0.13178294897079468 -0.038759708404541016
0.27261966466903687 -0.11627906560897827 -0.20930230617523193
0.28197941184043884 -0.11627906560897827 -0.19379842281341553
0.2868017554283142 -0.11627906560897827 -0.05426359176635742
0.2799713909626007 -0.11627906560897827 -0.038759708404541016
0.27217981219291687 -0.11627905815839767 -0.02325582504272461
0.2776292562484741 -0.10077518224716187 -0.20930230617523193
0.2851496636867523 -0.10077518224716187 -0.19379842281341553
0.2819873094558716 -0.10077518224716187 -0.02325582504272461
0.27189403772354126 -0.10077518224716187 -0.007751941215246916
0.2811577320098877 -0.08527129888534546 -0.20930230617523193
0.28256291151046753 -0.08527129888534546 -0.007751941680908203
0.275216668844223 -0.06976741552352905 -0.22480618953704834
0.2839142382144928 -0.06976741552352905 -0.20930230617523193
0.27896732091903687 -0.06976741552352905 0.007751941680908203
0.2796728014945984 -0.05426359176635742 -0.22480618953704834
0.2868177890777588 -0.05426359176635742 -0.20930230617523193
0.272804856300354 -0.038759708404541016 -0.24031007289886475
0.28187307715415955 -0.038759708404541016 -0.22480618953704834
0.2782704830169678 -0.038759708404541016 0.02325582504272461
0.2763151228427887 -0.02325582504272461 -0.24031007289886475
0.28380486369132996 -0.02325582504272461 -0.22480618953704834
0.27884936332702637 -0.007751941680908203 -0.24031007289886475
0.285278856754303 -0.007751941680908203 -0.22480618953704834
0.2713332772254944 0.007751941680908203 -0.25581395626068115
0.28024154901504517 0.007751941680908203 -0.24031007289886475
0.286288321018219 0.007751941680908203 -0.22480618953704834
0.27199575304985046 0.02325582504272461 -0.25581395626068115
0.28072938323020935 0.02325582504272461 -0.24031007289886475
0.28663602471351624 0.02325582504272461 -0.22480618953704834
0.2716880738735199 0.02325582504272461 0.038759708404541016
0.2723337411880493 0.038759708404541016 -0.25581395626068115
0.2809075713157654 0.038759708404541016 -0.24031007289886475
0.28655287623405457 0.038759708404541016 -0.22480618953704834
0.27394843101501465 0.038759708404541016 0.038759708404541016
0.2728414535522461 0.05426359549164772 -0.25581395626068115
0.28117668628692627 0.05426359176635742 -0.24031007289886475
0.28680890798568726 0.05426359176635742 -0.22480618953704834
0.2767941653728485 0.05426359176635742 0.038759708404541016
0.2731921672821045 0.06976747512817383 -0.25581395626068115
0.2813975214958191 0.06976747512817383 -0.24031007289886475
0.2805522084236145 0.06976747512817383 0.038759708404541016
0.27399230003356934 0.08527135848999023 -0.25581395626068115
0.28183281421661377 0.08527135848999023 -0.24031007289886475
0.28579145669937134 0.08527135848999023 0.038759708404541016
0.27562910318374634 0.10077523440122604 -0.25581395626068115
0.28266602754592896 0.10077524185180664 -0.24031007289886475
0.2775253653526306 0.11627912521362305 -0.25581395626068115
0.2839573621749878 0.11627912521362305 -0.24031007289886475
0.27926889061927795 0.1317828893661499 -0.25581395626068115
0.2855825126171112 0.1317828893661499 -0.24031007289886475
0.27179867029190063 0.1317828893661499 0.05426359176635742
0.27157896757125854 0.1472867727279663 -0.27131783962249756
0.28073734045028687 0.1472867727279663 -0.25581395626068115
0.28088265657424927 0.1472867727279663 0.05426359176635742
0.2732369005680084 0.16279065608978271 -0.27131783962249756
0.28176790475845337 0.16279065608978271 -0.25581395626068115
0.2745968997478485 0.17829452455043793 -0.27131783962249756
0.2827048897743225 0.17829453945159912 -0.25581395626068115
0.2754611074924469 0.19379842281341553 -0.27131783962249756
0.2834024131298065 0.19379842281341553 -0.25581395626068115
0.2760656177997589 0.20930230617523193 -0.27131783962249756
0.2839078903198242 0.20930230617523193 -0.25581395626068115
0.2743324041366577 0.20930232107639313 0.06976747512817383
0.27650073170661926 0.22480620443820953 -0.27131783962249756
0.2842555642127991 0.22480618953704834 -0.25581395626068115
0.27879685163497925 0.22480618953704834 0.06976747512817383
0.27666527032852173 0.24031005799770355 -0.27131783962249756
0.28443336486816406 0.24031007289886475 -0.25581395626068115
0.2848658561706543 0.24031007289886475 0.06976747512817383
0.27659329771995544 0.25581395626068115 -0.27131783962249756
0.28451934456825256 0.25581395626068115 -0.25581395626068115
0.2765916585922241 0.27131783962249756 -0.27131783962249756
0.2846979796886444 0.27131783962249756 -0.25581395626068115
0.27642822265625 0.28682172298431396 -0.27131783962249756
0.28471750020980835 0.28682172298431396 -0.25581395626068115
0.2768763303756714 0.28682172298431396 0.11627912521362305
0.27629703283309937 0.30232560634613037 -0.27131783962249756
0.284751832485199 0.30232560634613037 -0.25581395626068115
0.2760712802410126 0.3178294897079468 -0.27131783962249756
0.28468647599220276 0.3178294897079468 -0.25581395626068115
0.27568650245666504 0.3333333730697632 -0.27131783962249756
0.28446632623672485 0.3333333730697632 -0.25581395626068115
0.27473771572113037 0.3488372564315796 -0.27131783962249756
0.28379666805267334 0.3488372564315796 -0.25581395626068115
0.27384334802627563 0.364341139793396 -0.27131783962249756
0.28316694498062134 0.364341139793396 -0.25581395626068115
0.2741936445236206 0.364341139793396 0.11627912521362305
0.2732618451118469 0.37984490394592285 -0.27131783962249756
0.2827755808830261 0.37984490394592285 -0.25581395626068115
0.27245745062828064 0.39534878730773926 -0.27131783962249756
0.2822608947753906 0.39534878730773926 -0.25581395626068115
0.27161726355552673 0.4108526408672333 -0.27131783962249756
0.281704306602478 0.41085267066955566 -0.25581395626068115
0.28146082162857056 0.42635655403137207 -0.25581395626068115
0.2836453914642334 0.42635655403137207 0.038759708404541016
0.2845757007598877 0.42635655403137207 0.05426359176635742
0.28161731362342834 0.42635655403137207 0.10077524185180664
0.281425416469574 0.4418604373931885 -0.25581395626068115
0.28312355279922485 0.4418604373931885 0.038759708404541016
0.2831950783729553 0.4418604373931885 0.05426359176635742
0.2812362611293793 0.4573643207550049 -0.25581395626068115
0.28488296270370483 0.4573643207550049 0.038759708404541016
0.2848203778266907 0.4573643207550049 0.05426359176635742
0.2812447249889374 0.4728682041168213 -0.25581395626068115
0.27254465222358704 0.4728682041168213 0.08527135848999023
0.2814885973930359 0.4883720874786377 -0.25581395626068115
0.275973916053772 0.4883720874786377 0.08527135848999023
0.28144392371177673 0.5038759708404541 -0.25581395626068115
0.2801135778427124 0.5038759708404541 0.08527135848999023
0.28121891617774963 0.5193798542022705 -0.25581395626068115
0.28465089201927185 0.5193798542022705 0.08527135848999023
0.2808951437473297 0.5348837375640869 -0.25581395626068115
0.2800227403640747 0.5503876209259033 -0.25581395626068115
0.27806398272514343 0.5658915042877197 -0.25581395626068115
0.2861212193965912 0.5658915042877197 -0.24031007289886475
0.27362048625946045 0.5658915042877197 0.06976747512817383
0.27505576610565186 0.5813953876495361 -0.25581395626068115
0.28380993008613586 0.5813953876495361 -0.24031007289886475
0.2842232286930084 0.5813953876495361 0.038759708404541016
0.2831060290336609 0.5813953876495361 0.05426359176635742
0.27163851261138916 0.5968992710113525 -0.25581395626068115
0.2816694676876068 0.5968992710113525 -0.24031007289886475
0.2802426218986511 0.5968992710113525 0.038759708404541016
0.27928227186203003 0.612403154373169 -0.24031007289886475
0.28526532649993896 0.612403154373169 0.02325582504272461
0.27512019872665405 0.612403154373169 0.038759708404541016
0.2752988934516907 0.6279069185256958 -0.24031007289886475
0.28414326906204224 0.6279069185256958 -0.22480618953704834
0.28274601697921753 0.6279069185256958 0.02325582504272461
0.27166375517845154 0.6434108018875122 -0.24031007289886475
0.28147903084754944 0.6434108018875122 -0.22480618953704834
0.2806547284126282 0.6434108018875122 0.02325582504272461
0.2788606882095337 0.6589146852493286 -0.22480618953704834
0.28612229228019714 0.6589146852493286 -0.20930230617523193
0.2769584059715271 0.6589146852493286 0.02325582504272461
0.27469170093536377 0.674418568611145 -0.22480617463588715
0.28254181146621704 0.674418568611145 -0.20930230617523193
0.27970877289772034 0.6899224519729614 -0.20930230617523193
0.2862890958786011 0.6899224519729614 -0.19379842281341553
0.28036102652549744 0.6899224519729614 0.007751941680908203
0.2760516107082367 0.7054263353347778 -0.20930230617523193
0.28250381350517273 0.7054263353347778 -0.19379842281341553
0.2722718119621277 0.7054263353347778 0.007751941680908203
0.2720896303653717 0.7209302186965942 -0.20930230617523193
0.27973806858062744 0.7209302186965942 -0.19379842281341553
0.2859880030155182 0.7209302186965942 -0.1782945990562439
0.2826188802719116 0.7209302186965942 -0.007751941680908203
0.27635103464126587 0.7364341020584106 -0.19379842281341553
0.2820380926132202 0.7364341020584106 -0.1782945990562439
0.2762815058231354 0.7364341020584106 -0.007751941680908203
0.27248403429985046 0.751937985420227 -0.19379842281341553
0.2793682813644409 0.751937985420227 -0.1782945990562439
0.2846250832080841 0.751937985420227 -0.1627907156944275
0.2815932333469391 0.751937985420227 -0.02325582504272461
0.2753136456012726 0.7674418687820435 -0.1782945990562439
0.28066286444664 0.7674418687820435 -0.1627907156944275
0.2844011187553406 0.7674418687820435 -0.14728683233261108
0.2852848172187805 0.7674418687820435 -0.05426359176635742
0.2816479802131653 0.7674418687820435 -0.038759708404541016
0.2731494903564453 0.7674419283866882 -0.02325582504272461
0.2764648497104645 0.7829457521438599 -0.1627907156944275
0.280170738697052 0.7829457521438599 -0.14728683233261108
0.2820715308189392 0.7829457521438599 -0.13178294897079468
0.28322750329971313 0.7829457521438599 -0.11627906560897827
0.28355640172958374 0.7829457521438599 -0.10077518224716187
0.2830409109592438 0.7829457521438599 -0.08527129888534546
0.2817891538143158 0.7829457521438599 -0.06976741552352905
0.27853885293006897 0.7829457521438599 -0.05426359176635742
0.2722809612751007 0.7829457521438599 -0.03875970467925072
0.27358147501945496 0.7984496355056763 -0.14728683233261108
0.27586016058921814 0.7984496355056763 -0.13178294897079468
0.27686557173728943 0.7984496355056763 -0.11627906560897827
0.2765747308731079 0.7984496355056763 -0.10077518224716187
0.27471667528152466 0.798449695110321 -0.08527129888534546
0.271973192691803 0.7984496355056763 -0.06976741552352905
0.2892689108848572 -0.14728683233261108 -0.14728683233261108
0.2913908064365387 -0.14728683233261108 -0.13178294897079468
0.2903265058994293 -0.14728683233261108 -0.11627906560897827
0.28776776790618896 -0.14728683233261108 -0.10077518224716187
0.29035237431526184 -0.13178294897079468 -0.1627907156944275
0.2952633500099182 -0.13178294897079468 -0.14728683233261108
0.29695606231689453 -0.13178294897079468 -0.13178294897079468
0.29648372530937195 -0.13178294897079468 -0.11627906560897827
0.29458606243133545 -0.13178294897079468 -0.10077518224716187
0.29073047637939453 -0.13178294897079468 -0.08527129888534546
0.28871697187423706 -0.11627907305955887 -0.1782945990562439
0.2956254184246063 -0.11627906560897827 -0.1627907156944275
0.29944828152656555 -0.11627906560897827 -0.14728683233261108
0.30164605379104614 -0.11627906560897827 -0.13178294897079468
0.3018793761730194 -0.11627906560897827 -0.11627906560897827
0.30072206258773804 -0.11627906560897827 -0.10077518224716187
0.29788142442703247 -0.11627906560897827 -0.08527129888534546
0.2930641770362854 -0.11627906560897827 -0.06976741552352905
0.29396194219589233 -0.10077518224716187 -0.1782945990562439
0.2991776764392853 -0.10077518224716187 -0.1627907156944275
0.3006974756717682 -0.10077518224716187 -0.06976741552352905
0.2951391637325287 -0.10077518224716187 -0.05426359176635742
0.2888794541358948 -0.10077518224716187 -0.038759708404541016
0.2888038456439972 -0.08527129888534546 -0.19379842281341553
0.297315776348114 -0.08527129888534546 -0.1782945990562439
0.2983701527118683 -0.08527129888534546 -0.038759708404541016
0.2911090850830078 -0.08527129888534546 -0.02325582504272461
0.29374271631240845 -0.06976741552352905 -0.19379842281341553
0.3006194829940796 -0.06976741552352905 -0.1782945990562439
0.3019254207611084 -0.06976741552352905 -0.02325582504272461
0.2921205461025238 -0.06976741552352905 -0.007751941680908203
0.29676657915115356 -0.05426359176635742 -0.19379842281341553
0.2893414795398712 -0.05426359176635742 0.007751941680908203
0.2904830276966095 -0.038759708404541016 -0.20930230617523193
0.29927587509155273 -0.038759708404541016 -0.19379842281341553
0.30033764243125916 -0.038759708404541016 0.007751941680908203
0.29409241676330566 -0.02325582504272461 -0.20930230617523193
0.30171313881874084 -0.02325582504272461 -0.19379842281341553
0.28699159622192383 -0.02325582504272461 0.02325582504272461
0.29576754570007324 -0.007751941680908203 -0.20930230617523193
0.2944750189781189 -0.007751941680908203 0.02325582504272461
0.2965252697467804 0.007751941680908203 -0.20930230617523193
0.30198606848716736 0.007751941680908203 0.02325582504272461
0.29664814472198486 0.02325582504272461 -0.20930230617523193
0.29631343483924866 0.038759708404541016 -0.20930230617523193
0.296080082654953 0.05426359176635742 -0.20930230617523193
0.2871866226196289 0.06976747512817383 -0.22480617463588715
0.29609549045562744 0.06976747512817383 -0.20930230617523193
0.28802207112312317 0.08527136594057083 -0.22480620443820953
0.2965274155139923 0.08527135848999023 -0.20930230617523193
0.28979143500328064 0.10077524185180664 -0.22480618953704834
0.2973998785018921 0.10077524185180664 -0.20930230617523193
0.2928473651409149 0.10077524185180664 0.038759708404541016
0.2921871542930603 0.11627912521362305 -0.22480618953704834
0.2986164093017578 0.11627912521362305 -0.20930230617523193
0.30178144574165344 0.11627912521362305 0.038759708404541016
0.2944239377975464 0.1317828893661499 -0.22480618953704834
0.3003474771976471 0.1317828893661499 -0.20930230617523193
0.2875840365886688 0.1472867727279663 -0.24031007289886475
0.2962767779827118 0.1472867727279663 -0.22480618953704834
0.2897138297557831 0.16279065608978271 -0.24031007289886475
0.29754772782325745 0.16279065608978271 -0.22480618953704834
0.2900641858577728 0.16279065608978271 0.05426359176635742
0.29151952266693115 0.17829453945159912 -0.24031007289886475
0.29882335662841797 0.17829453945159912 -0.22480618953704834
0.2972264885902405 0.17829453945159912 0.05426359176635742
0.29267656803131104 0.19379842281341553 -0.24031007289886475
0.2999591827392578 0.19379842281341553 -0.22480618953704834
0.2933352589607239 0.20930230617523193 -0.24031007289886475
0.3007908761501312 0.20930230617523193 -0.22480618953704834
0.29358160495758057 0.22480618953704834 -0.24031007289886475
0.30114394426345825 0.22480618953704834 -0.22480618953704834
0.2936819791793823 0.24031007289886475 -0.24031007289886475
0.3013300895690918 0.24031007289886475 -0.22480618953704834
0.30128830671310425 0.24031007289886475 0.05426359176635742
0.2937701940536499 0.25581395626068115 -0.24031007289886475
0.30156800150871277 0.25581395626068115 -0.22480618953704834
0.3002970814704895 0.25581395626068115 0.05426359176635742
0.2938213348388672 0.25581395626068115 0.06976747512817383
0.2940002381801605 0.27131783962249756 -0.24031007289886475
0.3019135594367981 0.27131783962249756 -0.22480618953704834
0.2941288352012634 0.28682172298431396 -0.24031007289886475
0.3021164536476135 0.28682172298431396 -0.22480618953704834
0.2942749857902527 0.30232560634613037 -0.24031007289886475
0.30231720209121704 0.30232560634613037 -0.22480618953704834
0.30186378955841064 0.30232560634613037 0.1317828893661499
0.2944164574146271 0.3178294897079468 -0.24031007289886475
0.2949424982070923 0.3178294897079468 0.1317828893661499
0.2944145202636719 0.3333333730697632 -0.24031007289886475
0.30137380957603455 0.3333333730697632 0.1317828893661499
0.2940276861190796 0.3488372564315796 -0.24031007289886475
0.30206581950187683 0.3488372564315796 -0.22480618953704834
0.2935461401939392 0.364341139793396 -0.24031005799770355
0.30162546038627625 0.364341139793396 -0.22480618953704834
0.2932093143463135 0.37984490394592285 -0.24031007289886475
0.30131834745407104 0.37984490394592285 -0.22480618953704834
0.29783788323402405 0.37984490394592285 0.038759708404541016
0.2870807945728302 0.37984490394592285 0.11627912521362305
0.2925911247730255 0.39534878730773926 -0.24031007289886475
0.30073705315589905 0.39534878730773926 -0.22480618953704834
0.2990369200706482 0.39534878730773926 0.02325582504272461
0.2912839949131012 0.39534878730773926 0.038759708404541016
0.29605787992477417 0.39534878730773926 0.05426359176635742
0.2989460229873657 0.39534878730773926 0.11627912521362305
0.29163724184036255 0.41085267066955566 -0.24031007289886475
0.2998971939086914 0.41085267066955566 -0.22480618953704834
0.29396554827690125 0.41085267066955566 0.02325582504272461
0.2869628369808197 0.41085267066955566 0.038759708404541016
0.2888423204421997 0.41085267066955566 0.05426359176635742
0.2910763919353485 0.42635655403137207 -0.24031007289886475
0.29937925934791565 0.42635655403137207 -0.22480618953704834
0.2910153865814209 0.42635655403137207 0.02325582504272461
0.29087406396865845 0.4418604075908661 -0.24031007289886475
0.29914942383766174 0.4418604373931885 -0.22480618953704834
0.2901364266872406 0.4418604075908661 0.02325582504272461
0.29109400510787964 0.4418604373931885 0.10077524185180664
0.2903917133808136 0.4573643207550049 -0.24031007289886475
0.2987455725669861 0.4573643207550049 -0.22480618953704834
0.2909286618232727 0.4573643207550049 0.02325582504272461
0.29756230115890503 0.4573643207550049 0.10077524185180664
0.2902331054210663 0.4728682041168213 -0.24031008780002594
0.2985534071922302 0.4728682041168213 -0.22480618953704834
0.2925029993057251 0.4728682041168213 0.02325582504272461
0.28715193271636963 0.4728682041168213 0.038759708404541016
0.2872171103954315 0.4728681743144989 0.05426359176635742
0.29048335552215576 0.4883720874786377 -0.24031007289886475
0.2986563742160797 0.4883720874786377 -0.22480618953704834
0.2941740155220032 0.4883720576763153 0.02325582504272461
0.28867387771606445 0.4883720874786377 0.038759708404541016
0.2890758812427521 0.4883720874786377 0.05426359176635742
0.2902757525444031 0.5038759708404541 -0.24031007289886475
0.29846128821372986 0.5038759708404541 -0.22480618953704834
0.2950957715511322 0.5038759708404541 0.02325582504272461
0.28960922360420227 0.5038759708404541 0.038759708404541016
0.29033422470092773 0.5038759708404541 0.05426359176635742
0.28978419303894043 0.5193798542022705 -0.24031007289886475
0.2981257140636444 0.5193798542022705 -0.22480618953704834
0.29494255781173706 0.5193798542022705 0.02325582504272461
0.2895994782447815 0.5193798542022705 0.038759708404541016
0.290942907333374 0.5193798542022705 0.05426359176635742
0.28925108909606934 0.5348837375640869 -0.24031007289886475
0.2977660000324249 0.5348837375640869 -0.22480618953704834
0.29434630274772644 0.5348837375640869 0.02325582504272461
0.289215624332428 0.5348837375640869 0.038759708404541016
0.2915072441101074 0.5348837375640869 0.05426359176635742
0.2893948256969452 0.5348837375640869 0.08527136594057083
0.2880691587924957 0.5503876209259033 -0.24031007289886475
0.2970617413520813 0.5503876209259033 -0.22480618953704834
0.2932776212692261 0.5503876209259033 0.02325582504272461
0.28845494985580444 0.5503876209259033 0.03875970467925072
0.29141974449157715 0.5503876209259033 0.05426359176635742
0.29655975103378296 0.5503876209259033 0.08527135848999023
0.29577377438545227 0.5658915042877197 -0.22480618953704834
0.302121102809906 0.5658915042877197 -0.20930230617523193
0.301708847284317 0.5658915042877197 0.007751941680908203
0.29173988103866577 0.5658915042877197 0.02325582504272461
0.2871060371398926 0.5658915042877197 0.038759708404541016
0.2889166474342346 0.5658915042877197 0.05426359176635742
0.293819785118103 0.5813953876495361 -0.22480618953704834
0.30001863837242126 0.5813953876495361 -0.20930230617523193
0.2993750274181366 0.5813953876495361 0.007751941680908203
0.2900146543979645 0.5813953876495361 0.02325582504272461
0.29069656133651733 0.5968992710113525 -0.22480617463588715
0.297868549823761 0.5968992710113525 -0.20930230617523193
0.29705357551574707 0.5968992710113525 0.007751941680908203
0.2880330979824066 0.5968992710113525 0.02325582504272461
0.28753218054771423 0.612403154373169 -0.22480618953704834
0.2958065867424011 0.612403154373169 -0.20930230617523193
0.3019866347312927 0.612403154373169 -0.19379842281341553
0.294665664434433 0.612403154373169 0.007751941680908203
0.2928929328918457 0.6279069185256958 -0.20930230617523193
0.2989833354949951 0.6279069185256958 -0.19379842281341553
0.29323673248291016 0.6279069185256958 0.007751941680908203
0.2894604206085205 0.6434108018875122 -0.20930230617523193
0.29657018184661865 0.6434108018875122 -0.19379842281341553
0.2920517921447754 0.6434108018875122 0.007751941680908203
0.2939935028553009 0.6589146852493286 -0.19379842281341553
0.2997964918613434 0.6589146852493286 -0.1782945990562439
0.3001251816749573 0.6589146852493286 -0.007751941680908203
0.29029515385627747 0.6589146852493286 0.007751941680908203
0.29001089930534363 0.674418568611145 -0.19379842281341553
0.29619845747947693 0.674418568611145 -0.1782945990562439
0.30201736092567444 0.674418568611145 -0.1627907156944275
0.29679134488105774 0.674418568611145 -0.007751941680908203
0.2873552441596985 0.674418568611145 0.007751941680908203
0.2931266129016876 0.6899224519729614 -0.1782945990562439
0.29758772253990173 0.6899224519729614 -0.1627907156944275
0.3003436326980591 0.6899224519729614 -0.02325582504272461
0.2931765615940094 0.6899224519729614 -0.007751941680908203
0.2895296812057495 0.7054263353347778 -0.1782945990562439
0.29471156001091003 0.7054263353347778 -0.1627907156944275
0.2983703017234802 0.7054263353347778 -0.14728683233261108
0.3012775778770447 0.7054263353347778 -0.038759708404541016
0.2965730130672455 0.7054263353347778 -0.02325582504272461
0.28850024938583374 0.7054263353347778 -0.007751941680908203
0.29169851541519165 0.7209302186965942 -0.1627907156944275
0.2954217195510864 0.7209302186965942 -0.14728683233261108
0.2982870936393738 0.7209302186965942 -0.13178294897079468
0.3006884455680847 0.7209302186965942 -0.11627906560897827
0.30205950140953064 0.7209302186965942 -0.10077518224716187
0.3022388815879822 0.7209302186965942 -0.08527129888534546
0.30175626277923584 0.7209302186965942 -0.06976741552352905
0.2999790906906128 0.7209302186965942 -0.05426359176635742
0.2975245714187622 0.7209302186965942 -0.038759708404541016
0.2924793064594269 0.7209302186965942 -0.02325582504272461
0.28854647278785706 0.7364341020584106 -0.1627907156944275
0.29267603158950806 0.7364341020584106 -0.14728683233261108
0.2955635190010071 0.7364341020584106 -0.13178294897079468
0.29717403650283813 0.7364341020584106 -0.11627906560897827
0.29818153381347656 0.7364341020584106 -0.10077518224716187
0.29830309748649597 0.7364341020584106 -0.08527129888534546
0.2979125380516052 0.7364341020584106 -0.06976741552352905
0.29676127433776855 0.7364341020584106 -0.05426359176635742
0.2937847673892975 0.7364341020584106 -0.038759708404541016
0.2878953814506531 0.7364341020584106 -0.02325582504272461
0.2892201840877533 0.751937985420227 -0.14728683233261108
0.2924063503742218 0.751937985420227 -0.13178294897079468
0.2944455146789551 0.751937985420227 -0.11627906560897827
0.2953532934188843 0.751937985420227 -0.10077518224716187
0.2952394485473633 0.751937985420227 -0.08527129888534546
0.29436278343200684 0.751937985420227 -0.06976741552352905
0.2919415831565857 0.751937985420227 -0.05426359176635742
0.28837278485298157 0.751937985420227 -0.03875970467925072
0.28767016530036926 0.7674418687820435 -0.13178294897079468
0.28920242190361023 0.7674418687820435 -0.11627906560897827
0.2897600829601288 0.7674418687820435 -0.10077518224716187
0.2891201376914978 0.7674418687820435 -0.08527129888534546
0.28790462017059326 0.7674418687820435 -0.06976741552352905
0.3039278984069824 -0.10077518224716187 -0.14728683233261108
0.3080102205276489 -0.10077518224716187 -0.13178294897079468
0.30883511900901794 -0.10077518224716187 -0.11627906560897827
0.30797871947288513 -0.10077518224716187 -0.10077518224716187
0.30496859550476074 -0.10077518224716187 -0.08527130633592606
0.3031480610370636 -0.08527129888534546 -0.1627907156944275
0.30971136689186096 -0.08527129888534546 -0.14728683233261108
0.3134293258190155 -0.08527129888534546 -0.13178294897079468
0.31467366218566895 -0.08527129888534546 -0.11627906560897827
0.31455671787261963 -0.08527129888534546 -0.10077518224716187
0.31279289722442627 -0.08527129888534546 -0.08527129888534546
0.3089611828327179 -0.08527129888534546 -0.06976741552352905
0.3035103380680084 -0.08527129888534546 -0.05426359176635742
0.30856531858444214 -0.06976741552352905 -0.1627907156944275
0.31410208344459534 -0.06976741552352905 -0.14728683233261108
0.31677111983299255 -0.06976741552352905 -0.06976741552352905
0.3125769793987274 -0.06976741552352905 -0.05426359176635742
0.3071098029613495 -0.06976741552352905 -0.038759708404541016
0.3046644330024719 -0.05426359549164772 -0.1782946139574051
0.31247755885124207 -0.05426359176635742 -0.1627907156944275
0.31721457839012146 -0.05426359176635742 -0.038759708404541016
0.31099021434783936 -0.05426359176635742 -0.02325582504272461
0.30327290296554565 -0.05426359176635742 -0.007751941680908203
0.30928337574005127 -0.038759708404541016 -0.1782945990562439
0.31607386469841003 -0.038759708404541016 -0.1627907156944275
0.3130373954772949 -0.038759708404541016 -0.007751941680908203
0.31216639280319214 -0.02325582504272461 -0.1782945990562439
0.3087863326072693 -0.02325582504272461 0.007751941680908203
0.3039059340953827 -0.007751941680908203 -0.19379842281341553
0.3140089511871338 -0.007751941680908203 -0.1782945990562439
0.3055405020713806 0.007751941680908203 -0.19379842281341553
0.3151143491268158 0.007751941680908203 -0.1782945990562439
0.30579447746276855 0.02325582504272461 -0.19379842281341553
0.31532591581344604 0.02325582504272461 -0.1782945990562439
0.30737632513046265 0.02325582504272461 0.02325582504272461
0.30473592877388 0.038759708404541016 -0.19379842281341553
0.3146550953388214 0.038759708404541016 -0.1782945990562439
0.31309470534324646 0.038759708404541016 0.02325582504272461
0.30395272374153137 0.05426359176635742 -0.19379842281341553
0.3140661120414734 0.05426359176635742 -0.1782945990562439
0.3036637604236603 0.06976747512817383 -0.19379842281341553
0.31391385197639465 0.06976747512817383 -0.1782945990562439
0.3041462302207947 0.08527135848999023 -0.19379843771457672
0.3143375515937805 0.08527135848999023 -0.1782945990562439
0.30595678091049194 0.10077524185180664 -0.19379842281341553
0.3159743845462799 0.10077524185180664 -0.1782945990562439
0.3084615468978882 0.11627912521362305 -0.19379842281341553
0.3105587363243103 0.1317828893661499 -0.19379842281341553
0.3099215626716614 0.1317828893661499 0.038759708404541016
0.3027447760105133 0.1472867727279663 -0.20930230617523193
0.31251442432403564 0.1472867727279663 -0.19379842281341553
0.305793434381485 0.16279065608978271 -0.20930232107639313
0.3148283362388611 0.16279065608978271 -0.19379842281341553
0.30829522013664246 0.17829453945159912 -0.20930230617523193
0.31724488735198975 0.17829453945159912 -0.19379842281341553
0.3098326325416565 0.19379842281341553 -0.20930230617523193
0.30318164825439453 0.19379843771457672 0.05426359176635742
0.3107472062110901 0.20930230617523193 -0.20930230617523193
0.3049883246421814 0.20930230617523193 0.05426359176635742
0.3110331892967224 0.22480618953704834 -0.20930230617523193
0.30346018075942993 0.22480618953704834 0.05426359176635742
0.31114670634269714 0.24031007289886475 -0.20930230617523193
0.3164345622062683 0.24031007289886475 0.038759708404541016
0.311323344707489 0.25581395626068115 -0.20930230617523193
0.3116144835948944 0.25581395626068115 0.038759708404541016
0.3116076588630676 0.27131783962249756 -0.20930230617523193
0.309770405292511 0.27131783962249756 0.038759708404541016
0.3037872314453125 0.27131783962249756 0.05426358804106712
0.31173789501190186 0.28682172298431396 -0.20930230617523193
0.31069082021713257 0.28682172298431396 0.038759708404541016
0.3153671324253082 0.28682172298431396 0.05426359176635742
0.3117702305316925 0.30232560634613037 -0.20930230617523193
0.31229567527770996 0.30232560634613037 0.038759708404541016
0.30249831080436707 0.3178294897079468 -0.22480620443820953
0.31181609630584717 0.3178294897079468 -0.20930230617523193
0.31334882974624634 0.3178294897079468 0.038759708404541016
0.3024522066116333 0.3333333432674408 -0.22480618953704834
0.31166744232177734 0.3333333730697632 -0.20930230617523193
0.3121483623981476 0.3333333730697632 0.038759708404541016
0.3112945258617401 0.3488372564315796 -0.20930230617523193
0.31512337923049927 0.3488372564315796 0.02325582504272461
0.3091220259666443 0.3488372564315796 0.038759708404541016
0.3100494146347046 0.3488372564315796 0.1317828893661499
0.3109052777290344 0.364341139793396 -0.20930230617523193
0.31015336513519287 0.364341139793396 0.02325582504272461
0.30456918478012085 0.364341139793396 0.038759712129831314
0.3123035132884979 0.364341139793396 0.05426359176635742
0.31063467264175415 0.37984490394592285 -0.20930230617523193
0.3045569956302643 0.37984490394592285 0.02325582318007946
0.3050546944141388 0.37984493374824524 0.05426359176635742
0.3101457953453064 0.39534878730773926 -0.20930230617523193
0.31725800037384033 0.39534878730773926 -0.19379842281341553
0.31374913454055786 0.39534878730773926 0.007751941680908203
0.30923277139663696 0.41085267066955566 -0.20930230617523193
0.316001832485199 0.41085267066955566 -0.19379842281341553
0.3079952597618103 0.41085267066955566 0.007751941680908203
0.3095128536224365 0.41085267066955566 0.11627912521362305
0.3084790110588074 0.42635655403137207 -0.20930230617523193
0.31508713960647583 0.42635655403137207 -0.19379842281341553
0.30416879057884216 0.42635655403137207 0.007751941680908203
0.3163222074508667 0.42635655403137207 0.11627912521362305
0.3080606460571289 0.44186046719551086 -0.20930230617523193
0.3146061897277832 0.4418604373931885 -0.19379842281341553
0.3025435507297516 0.4418604373931885 0.007751941680908203
0.30743640661239624 0.4573643207550049 -0.20930230617523193
0.31406956911087036 0.4573643207550049 -0.19379842281341553
0.31771859526634216 0.4573643207550049 -0.007751941680908203
0.3026427626609802 0.4573643207550049 0.00775194214656949
0.3070064187049866 0.4728682041168213 -0.20930230617523193
0.31368082761764526 0.4728682041168213 -0.19379842281341553
0.31777024269104004 0.4728682041168213 -0.007751941680908203
0.3034990429878235 0.4728681743144989 0.007751941680908203
0.30385270714759827 0.4728682041168213 0.10077524185180664
0.30700767040252686 0.4883720874786377 -0.20930230617523193
0.3136197030544281 0.4883720874786377 -0.19379842281341553
0.30452272295951843 0.4883720874786377 0.007751941680908203
0.3082401752471924 0.4883721172809601 0.10077524185180664
0.30653518438339233 0.5038759708404541 -0.20930230617523193
0.3132493197917938 0.5038759708404541 -0.19379842281341553
0.3050987124443054 0.5038759708404541 0.007751941680908203
0.311786025762558 0.5038759708404541 0.10077524185180664
0.3058409094810486 0.5193798542022705 -0.20930230617523193
0.31278616189956665 0.5193798542022705 -0.19379842281341553
0.3168424963951111 0.5193798542022705 -0.007751941680908203
0.304829478263855 0.5193798542022705 0.007751941680908203
0.3159259259700775 0.5193798542022705 0.10077524185180664
0.30512893199920654 0.5348837375640869 -0.20930230617523193
0.3122979402542114 0.5348837375640869 -0.19379842281341553
0.3157215118408203 0.5348837375640869 -0.007751941680908203
0.304246723651886 0.5348837375640869 0.007751941680908203
0.30400460958480835 0.5503876209259033 -0.20930230617523193
0.31156498193740845 0.5503876209259033 -0.19379842281341553
0.3176782727241516 0.5503876209259033 -0.1782945990562439
0.3141794204711914 0.5503876209259033 -0.007751941680908203
0.3032553791999817 0.5503876209259033 0.007751941680908203
0.3100467920303345 0.5658915042877197 -0.19379842281341553
0.31602761149406433 0.5658915042877197 -0.1782945990562439
0.3120978772640228 0.5658915042877197 -0.007751941680908203
0.3065006732940674 0.5658915042877197 0.08527135848999023
0.3078201711177826 0.5813953876495361 -0.19379842281341553
0.31416669487953186 0.5813953876495361 -0.1782945990562439
0.31012511253356934 0.5813953876495361 -0.007751941680908203
0.3147154748439789 0.5813953876495361 0.06976747512817383
0.31688812375068665 0.5813953876495361 0.08527135848999023
0.3048611879348755 0.5968992710113525 -0.19379842281341553
0.3119759261608124 0.5968992710113525 -0.1782945990562439
0.3178141713142395 0.5968992710113525 -0.1627907156944275
0.3079715967178345 0.5968992710113525 -0.007751941680908203
0.3095473051071167 0.612403154373169 -0.1782945990562439
0.3147851824760437 0.612403154373169 -0.1627907156944275
0.314297080039978 0.612403154373169 -0.02325582504272461
0.3055230379104614 0.612403154373169 -0.007751941215246916
0.3062626123428345 0.6279069185256958 -0.1782945990562439
0.31157436966896057 0.6279069185256958 -0.1627907156944275
0.316707044839859 0.6279069185256958 -0.14728683233261108
0.3117925524711609 0.6279069185256958 -0.02325582504272461
0.303867906332016 0.6279069185256958 -0.007751941680908203
0.3033161461353302 0.6434108018875122 -0.1782945990562439
0.3087974190711975 0.6434108018875122 -0.1627907156944275
0.3130151033401489 0.6434108018875122 -0.14728683233261108
0.31764835119247437 0.6434108018875122 -0.13178294897079468
0.31570127606391907 0.6434108018875122 -0.038759708404541016
0.3096252381801605 0.6434108018875122 -0.02325582504272461
0.30269572138786316 0.6434108018875122 -0.007751941680908203
0.30542081594467163 0.6589146852493286 -0.1627907156944275
0.3097413182258606 0.6589146852493286 -0.14728683233261108
0.31316572427749634 0.6589146852493286 -0.13178294897079468
0.31612518429756165 0.6589146852493286 -0.11627906560897827
0.3159067928791046 0.6589146852493286 -0.05426359176635742
0.3123643398284912 0.6589146852493286 -0.038759708404541016
0.3069513440132141 0.6589146852493286 -0.02325582504272461
0.306160032749176 0.674418568611145 -0.14728683233261108
0.3096100091934204 0.674418568611145 -0.13178294897079468
0.31158390641212463 0.674418568611145 -0.11627906560897827
0.31309857964515686 0.674418568611145 -0.10077518224716187
0.31361353397369385 0.674418568611145 -0.08527129888534546
0.3132915198802948 0.674418568611145 -0.06976741552352905
0.3119239807128906 0.674418568611145 -0.05426359176635742
0.3092162609100342 0.674418568611145 -0.038759708404541016
0.30396270751953125 0.674418568611145 -0.02325582504272461
0.3027248978614807 0.6899224519729614 -0.14728683233261108
0.30584800243377686 0.6899224519729614 -0.13178294897079468
0.30824488401412964 0.6899224519729614 -0.11627906560897827
0.30971622467041016 0.6899224519729614 -0.10077518224716187
0.31015270948410034 0.6899224519729614 -0.08527129888534546
0.30992162227630615 0.6899224519729614 -0.06976741552352905
0.30831921100616455 0.6899224519729614 -0.05426359176635742
0.3051307201385498 0.6899224519729614 -0.038759708404541016
0.30240458250045776 0.7054263353347778 -0.13178294897079468
0.30437368154525757 0.7054263353347778 -0.11627906560897827
0.305629163980484 0.7054263353347778 -0.10077518224716187
0.3059082329273224 0.7054263353347778 -0.08527129888534546
0.305494487285614 0.7054263353347778 -0.06976741552352905
0.30394116044044495 0.7054262757301331 -0.05426359176635742
0.3182147741317749 -0.06976741552352905 -0.13178294897079468
0.320848286151886 -0.06976741552352905 -0.11627906560897827
0.32157057523727417 -0.06976741552352905 -0.10077518224716187
0.31982946395874023 -0.06976741552352905 -0.08527129888534546
0.31845059990882874 -0.05426359176635742 -0.14728683233261108
0.32469481229782104 -0.05426359176635742 -0.13178294897079468
0.32799211144447327 -0.05426359176635742 -0.11627906560897827
0.32911190390586853 -0.05426359176635742 -0.10077518224716187
0.32829010486602783 -0.05426359176635742 -0.08527129888534546
0.32555580139160156 -0.05426359176635742 -0.06976741552352905
0.3211377263069153 -0.05426359176635742 -0.05426359176635742
0.32380983233451843 -0.038759708404541016 -0.14728683233261108
0.32979920506477356 -0.038759708404541016 -0.13178294897079468
0.3333210349082947 -0.038759708404541016 -0.11627906560897827
0.33325275778770447 -0.038759708404541016 -0.06976741552352905
0.32998988032341003 -0.038759708404541016 -0.05426359176635742
0.32552170753479004 -0.038759708404541016 -0.038759708404541016
0.3204728364944458 -0.038759708404541016 -0.02325582504272461
0.3198329508304596 -0.02325582504272461 -0.16279073059558868
0.32783395051956177 -0.02325582504272461 -0.14728683233261108
0.3293581008911133 -0.02325582504272461 -0.02325582504272461
0.3214608430862427 -0.02325582504272461 -0.007751941680908203
0.32331177592277527 -0.007751941680908203 -0.1627907156944275
0.33100301027297974 -0.007751941680908203 -0.14728683233261108
0.33032071590423584 -0.007751941680908203 -0.007751941680908203
0.31854987144470215 -0.00775194214656949 0.00775194214656949
0.3253667950630188 0.007751941680908203 -0.1627907156944275
0.32528769969940186 0.007751941680908203 0.007751941680908203
0.32597091794013977 0.02325582504272461 -0.1627907156944275
0.33324897289276123 0.02325582504272461 0.007751941680908203
0.3258364796638489 0.038759708404541016 -0.1627907156944275
0.3258175253868103 0.05426359176635742 -0.1627907156944275
0.3185323178768158 0.05426359176635742 0.02325582504272461
0.3262655735015869 0.06976747512817383 -0.1627907156944275
0.3224107027053833 0.06976747512817383 0.02325582504272461
0.3271216154098511 0.08527135848999023 -0.1627907156944275
0.3277072012424469 0.08527135848999023 0.02325582504272461
0.328813761472702 0.10077524185180664 -0.1627907156944275
0.318615198135376 0.11627912521362305 -0.1782945990562439
0.33144310116767883 0.11627912521362305 -0.1627907156944275
0.3218578100204468 0.1317828893661499 -0.1782945990562439
0.32511019706726074 0.1472867727279663 -0.1782945990562439
0.3191397786140442 0.1472867727279663 0.038759708404541016
0.32795190811157227 0.16279065608978271 -0.1782945990562439
0.3258337378501892 0.16279065608978271 0.038759708404541016
0.3308899700641632 0.17829453945159912 -0.1782945990562439
0.3303737938404083 0.17829453945159912 0.038759708404541016
0.3195832073688507 0.19379842281341553 -0.19379842281341553
0.3329624533653259 0.19379842281341553 -0.1782945990562439
0.3318234384059906 0.19379842281341553 0.038759708404541016
0.3213255703449249 0.20930230617523193 -0.19379842281341553
0.32893455028533936 0.20930230617523193 0.038759708404541016
0.32182610034942627 0.22480620443820953 -0.19379842281341553
0.32239556312561035 0.22480618953704834 0.038759708404541016
0.32193249464035034 0.24031008780002594 -0.19379842281341553
0.3220554292201996 0.25581395626068115 -0.19379842281341553
0.33104848861694336 0.25581395626068115 0.02325582504272461
0.3318065404891968 0.25581395626068115 0.08527135848999023
0.3222544491291046 0.27131783962249756 -0.19379842281341553
0.32648324966430664 0.27131783962249756 0.02325582504272461
0.32215723395347595 0.28682172298431396 -0.19379842281341553
0.33329495787620544 0.28682172298431396 -0.1782945990562439
0.3244302570819855 0.28682172298431396 0.02325582504272461
0.32185685634613037 0.30232560634613037 -0.19379842281341553
0.3325744867324829 0.30232560634613037 -0.1782945990562439
0.32262542843818665 0.30232560634613037 0.02325582690536976
0.3215426206588745 0.3178294897079468 -0.19379842281341553
0.33187368512153625 0.3178294897079468 -0.1782945990562439
0.3209172487258911 0.31782951951026917 0.02325582690536976
0.32095134258270264 0.3333333730697632 -0.19379842281341553
0.3309916853904724 0.3333333730697632 -0.1782945990562439
0.3187679648399353 0.3333333730697632 0.02325582690536976
0.33049821853637695 0.3333333730697632 0.05426359176635742
0.3201095163822174 0.3488372564315796 -0.19379842281341553
0.3299517333507538 0.3488372564315796 -0.1782945990562439
0.3300521969795227 0.3488372564315796 0.007751941680908203
0.3190913200378418 0.3488372564315796 0.05426359176635742
0.3191756010055542 0.364341139793396 -0.19379842281341553
0.32882899045944214 0.364341139793396 -0.1782945990562439
0.32501447200775146 0.364341139793396 0.007751941680908203
0.3194926381111145 0.364341139793396 0.1317828893661499
0.3182934522628784 0.37984490394592285 -0.19379840791225433
0.32771843671798706 0.37984490394592285 -0.1782945990562439
0.31957411766052246 0.37984490394592285 0.007751941680908203
0.3305739164352417 0.37984490394592285 0.1317828893661499
0.3265855312347412 0.39534878730773926 -0.1782945990562439
0.3327270448207855 0.39534878730773926 -0.007751941680908203
0.3252088129520416 0.41085267066955566 -0.1782945990562439
0.33253034949302673 0.41085267066955566 -0.1627907156944275
0.3260922431945801 0.41085267066955566 -0.007751941680908203
0.32404226064682007 0.42635655403137207 -0.1782945990562439
0.3312198519706726 0.42635655403137207 -0.1627907156944275
0.3210880756378174 0.42635655403137207 -0.007751941680908203
0.323317289352417 0.4418604373931885 -0.1782945990562439
0.3303818106651306 0.4418604373931885 -0.1627907156944275
