-0.13178294897079468 -0.13262952864170074 0.06976747512817383
-0.13178294897079468 -0.12059669196605682 -0.41085273027420044
-0.13178294897079468 -0.12128457427024841 0.08527135848999023
-0.13178294897079468 -0.12252195179462433 0.42635655403137207
-0.13178294897079468 -0.1269495189189911 0.4418604373931885
-0.13178294897079468 -0.1301015019416809 0.45736435055732727
-0.13178294897079468 -0.1288449466228485 0.4728682041168213
-0.13178294897079468 -0.12296886742115021 0.4883720874786377
-0.13178294897079468 -0.11457239836454391 -0.41085273027420044
-0.13178294897079468 -0.11042304337024689 0.10077524185180664
-0.13178294897079468 -0.10088013112545013 0.37984490394592285
-0.13178294897079468 -0.1067146360874176 0.39534878730773926
-0.13178294897079468 -0.11605903506278992 0.41085270047187805
-0.13178294897079468 -0.11486320942640305 0.5038759708404541
-0.13178294897079468 -0.1022394448518753 0.5193798542022705
-0.13178294897079468 -0.09354158490896225 -0.42635661363601685
-0.13178294897079468 -0.0996210128068924 0.11627913266420364
-0.13178294897079468 -0.08680252730846405 0.1317828893661499
-0.13178294897079468 -0.08961854875087738 0.364341139793396
-0.13178294897079468 -0.0880463719367981 0.5348837375640869
-0.13178294897079468 -0.07864203304052353 -0.4418604373931885
-0.13178294897079468 -0.07215254008769989 0.1472867727279663
-0.13178294897079468 -0.07380671799182892 0.3488372564315796
-0.13178294897079468 -0.07280286401510239 0.5503876209259033
-0.13178294897079468 -0.06172024458646774 -0.4573643207550049
-0.13178294897079468 -0.056048594415187836 0.16279065608978271
-0.13178294897079468 -0.058686211705207825 0.5658915042877197
-0.13178294897079468 -0.0411868616938591 -0.4728682041168213
-0.13178294897079468 -0.047176260501146317 0.5813953876495361
-0.13178294897079468 -0.03919781371951103 0.5968992710113525
-0.13178294897079468 -0.02809979021549225 0.612403154373169
-0.13178294897079468 -0.017593860626220703 0.16279065608978271
-0.13178294897079468 -0.01910591870546341 0.3488372564315796
-0.13178294897079468 -0.014404894784092903 0.6279069185256958
-0.13178294897079468 -0.004644923843443394 -0.4728682041168213
-0.13178294897079468 0.0043457867577672005 -0.4573643207550049
-0.13178294897079468 0.0034752313513308764 0.1317828893661499
-0.13178294897079468 -0.007209321949630976 0.1472867727279663
-0.13178294897079468 -0.007414507679641247 0.364341139793396
-0.13178294897079468 0.010080472566187382 -0.4418604373931885
-0.13178294897079468 0.014758709818124771 -0.42635661363601685
-0.13178294897079468 0.02121587097644806 -0.41085273027420044
-0.13178294897079468 0.018300900235772133 0.11627912521362305
-0.13178294897079468 0.008735823445022106 0.37984490394592285
-0.13178294897079468 0.026668667793273926 -0.39534884691238403
-0.13178294897079468 0.032952308654785156 -0.3798449635505676
-0.13178294897079468 0.0317695215344429 0.10077524185180664
-0.13178294897079468 0.026674997061491013 0.39534878730773926
-0.13178294897079468 0.029217958450317383 0.6434108018875122
-0.13178294897079468 0.04134441167116165 -0.3643410801887512
-0.13178294897079468 0.049213957041502 -0.3488371968269348
-0.13178294897079468 0.05270473659038544 0.06976747512817383
-0.13178294897079468 0.042464565485715866 0.08527135848999023
-0.13178294897079468 0.04521690309047699 0.41085267066955566
-0.13178294897079468 0.058673642575740814 -0.3333333134651184
-0.13178294897079468 0.0614461675286293 0.05426359176635742
-0.13178294897079468 0.0644167959690094 0.42635655403137207
-0.13178294897079468 0.0677853673696518 0.6589146852493286
-0.13178294897079468 0.07004960626363754 -0.317829430103302
-0.13178294897079468 0.08366028964519501 -0.30232560634613037
-0.13178294897079468 0.08118315041065216 0.02325582504272461
-0.13178294897079468 0.07077708095312119 0.038759708404541016
-0.13178294897079468 0.09592181444168091 0.007751941680908203
-0.13178294897079468 0.08958622068166733 0.6589146852493286
-0.13178294897079468 0.11474860459566116 -0.007751941680908203
-0.13178294897079468 0.10992901027202606 0.6434108018875122
-0.13178294897079468 0.12921203672885895 -0.317829430103302
-0.13178294897079468 0.11647171527147293 -0.30232560634613037
-0.13178294897079468 0.12182246148586273 0.4418604373931885
-0.13178294897079468 0.12777724862098694 0.4573643207550049
-0.13178294897079468 0.13072070479393005 0.4728682041168213
-0.13178294897079468 0.13084736466407776 0.5813953876495361
-0.13178294897079468 0.12849999964237213 0.5968992710113525
-0.13178294897079468 0.12527737021446228 0.612403154373169
-0.13178294897079468 0.12015441060066223 0.6279069185256958
-0.13178294897079468 0.14107845723628998 -0.3333333134651184
-0.13178294897079468 0.14231672883033752 -0.038759708404541016
-0.13178294897079468 0.13213662803173065 -0.02325582504272461
-0.13178294897079468 0.1319831758737564 0.4883720874786377
-0.13178294897079468 0.13234616816043854 0.5038759708404541
-0.13178294897079468 0.1326848268508911 0.5193798542022705
-0.13178294897079468 0.13291224837303162 0.5348837375640869
-0.13178294897079468 0.13278020918369293 0.5503876209259033
-0.13178294897079468 0.1322721391916275 0.5658915042877197
-0.13178294897079468 0.158476322889328 -0.3643410801887512
-0.13178294897079468 0.1496422439813614 -0.3488371968269348
-0.13178294897079468 0.16146276891231537 -0.14728683233261108
-0.13178294897079468 0.15846014022827148 -0.13178294897079468
-0.13178294897079468 0.15663346648216248 -0.11627906560897827
-0.13178294897079468 0.15536239743232727 -0.10077518224716187
-0.13178294897079468 0.15401622653007507 -0.08527129888534546
-0.13178294897079468 0.15173670649528503 -0.06976741552352905
-0.13178294897079468 0.14866238832473755 -0.05426359176635742
-0.13178294897079468 0.17557485401630402 -0.42635661363601685
-0.13178294897079468 0.17277687788009644 -0.41085273027420044
-0.13178294897079468 0.16885925829410553 -0.39534884691238403
-0.13178294897079468 0.16495560109615326 -0.3798449635505676
-0.13178294897079468 0.17370286583900452 -0.20930230617523193
-0.13178294897079468 0.16872769594192505 -0.19379842281341553
-0.13178294897079468 0.16570749878883362 -0.1782945990562439
-0.13178294897079468 0.16376987099647522 -0.1627907156944275
-0.13178294897079468 0.19110345840454102 -0.4883720874786377
-0.13178294897079468 0.18835386633872986 -0.4728682041168213
-0.13178294897079468 0.1848863959312439 -0.4573643207550049
-0.13178294897079468 0.17925898730754852 -0.44186046719551086
-0.13178294897079468 0.19182388484477997 -0.30232560634613037
-0.13178294897079468 0.18782970309257507 -0.28682172298431396
-0.13178294897079468 0.18545034527778625 -0.27131783962249756
-0.13178294897079468 0.18323993682861328 -0.25581395626068115
-0.13178294897079468 0.18081042170524597 -0.24031007289886475
-0.13178294897079468 0.17885924875736237 -0.22480618953704834
-0.13178294897079468 0.2073098123073578 -0.5348837375640869
-0.13178294897079468 0.20235151052474976 -0.5193798542022705
-0.13178294897079468 0.19584354758262634 -0.5038759708404541
-0.13178294897079468 0.2038501799106598 -0.4728682041168213
-0.13178294897079468 0.20004630088806152 -0.4573643207550049
-0.13178294897079468 0.19855478405952454 -0.4418604373931885
-0.13178294897079468 0.19788794219493866 -0.42635661363601685
-0.13178294897079468 0.19745676219463348 -0.41085273027420044
-0.13178294897079468 0.19715872406959534 -0.39534884691238403
-0.13178294897079468 0.19681882858276367 -0.3798449635505676
-0.13178294897079468 0.1963864266872406 -0.3643410801887512
-0.13178294897079468 0.19573839008808136 -0.3488372266292572
-0.13178294897079468 0.19500227272510529 -0.3333333134651184
-0.13178294897079468 0.19425591826438904 -0.3178294599056244
-0.13178294897079468 0.2111881524324417 -0.5348837375640869
-0.13178294897079468 0.21168115735054016 -0.5193798542022705
-0.13178294897079468 0.2108297049999237 -0.5038759708404541
-0.13178294897079468 0.20981518924236298 -0.4883720874786377
-0.11627906560897827 -0.24331820011138916 -0.5038759708404541
-0.11627906560897827 -0.24405567348003387 -0.4883720874786377
-0.11627906560897827 -0.24364717304706573 -0.4728682041168213
-0.11627906560897827 -0.24278871715068817 -0.4573643207550049
-0.11627906560897827 -0.2412019670009613 -0.4418604373931885
-0.11627906560897827 -0.23804587125778198 -0.5038759708404541
-0.11627906560897827 -0.2356117069721222 -0.4883720874786377
-0.11627906560897827 -0.2306707203388214 -0.4728682041168213
-0.11627906560897827 -0.2363412082195282 -0.42635661363601685
-0.11627906560897827 -0.23161116242408752 -0.41085273027420044
-0.11627906560897827 -0.22984233498573303 -0.39534884691238403
-0.11627906560897827 -0.2292407602071762 -0.3798449635505676
-0.11627906560897827 -0.2269948571920395 -0.3643410801887512
-0.11627906560897827 -0.21730731427669525 -0.4573643207550049
-0.11627906560897827 -0.22420187294483185 -0.3488371968269348
-0.11627906560897827 -0.21997758746147156 -0.3333333134651184
-0.11627906560897827 -0.21847739815711975 -0.317829430103302
-0.11627906560897827 -0.2174152135848999 -0.30232560634613037
-0.11627906560897827 -0.2158927023410797 -0.28682172298431396
-0.11627906560897827 -0.21439571678638458 -0.27131783962249756
-0.11627906560897827 -0.21260759234428406 -0.25581395626068115
-0.11627906560897827 -0.21070438623428345 -0.24031007289886475
-0.11627906560897827 -0.2028822898864746 -0.4418604075908661
-0.11627906560897827 -0.20856554806232452 -0.22480618953704834
-0.11627906560897827 -0.2056094855070114 -0.20930230617523193
-0.11627906560897827 -0.20390218496322632 -0.19379842281341553
-0.11627906560897827 -0.20202632248401642 -0.1782945990562439
-0.11627906560897827 -0.20043909549713135 -0.1627907156944275
-0.11627906560897827 -0.1987432986497879 -0.14728683233261108
-0.11627906560897827 -0.19696614146232605 -0.13178294897079468
-0.11627906560897827 -0.19464769959449768 -0.11627906560897827
-0.11627906560897827 -0.1917283982038498 -0.10077518224716187
-0.11627906560897827 -0.1889025866985321 -0.08527129888534546
-0.11627906560897827 -0.18592891097068787 -0.06976741552352905
-0.11627906560897827 -0.18316830694675446 -0.05426359176635742
-0.11627906560897827 -0.1788053661584854 -0.038759708404541016
-0.11627906560897827 -0.17329168319702148 -0.02325582504272461
-0.11627906560897827 -0.16923919320106506 -0.007751941680908203
-0.11627906560897827 -0.16492563486099243 0.007751941680908203
-0.11627906560897827 -0.15826895833015442 -0.42635661363601685
-0.11627906560897827 -0.15934401750564575 0.02325582504272461
-0.11627906560897827 -0.1547476351261139 0.038759708404541016
-0.11627906560897827 -0.1502971053123474 0.05426359176635742
-0.11627906560897827 -0.14765486121177673 0.41085267066955566
-0.11627906560897827 -0.15109264850616455 0.42635655403137207
-0.11627906560897827 -0.15023061633110046 0.4418604373931885
-0.11627906560897827 -0.14767767488956451 0.4573643207550049
-0.11627906560897827 -0.14680372178554535 0.06976746767759323
-0.11627906560897827 -0.1398206651210785 0.08527135848999023
-0.11627906560897827 -0.13465116918087006 0.10077524185180664
-0.11627906560897827 -0.1378350704908371 0.39534878730773926
-0.11627906560897827 -0.14272284507751465 0.4728682041168213
-0.11627906560897827 -0.13612379133701324 0.4883720874786377
-0.11627906560897827 -0.12253593653440475 -0.41085273027420044
-0.11627905815839767 -0.12834401428699493 0.11627912521362305
-0.11627906560897827 -0.11983029544353485 0.1317828893661499
-0.11627906560897827 -0.11829043924808502 0.3333333730697632
-0.11627906560897827 -0.12209329009056091 0.3488372564315796
-0.11627906560897827 -0.12443725764751434 0.364341139793396
-0.11627906560897827 -0.1307039111852646 0.37984490394592285
-0.11627907305955887 -0.12613418698310852 0.5038759708404541
-0.11627906560897827 -0.11500073224306107 -0.41085273027420044
-0.11627906560897827 -0.11071696877479553 0.1472867727279663
-0.11627906560897827 -0.10280614346265793 0.16279065608978271
-0.11627906560897827 -0.10844998061656952 0.3178294897079468
-0.11627906560897827 -0.11374780535697937 0.5193798542022705
-0.11627906560897827 -0.0946459025144577 -0.42635658383369446
-0.11627906560897827 -0.09482118487358093 0.17829453945159912
-0.11627906560897827 -0.09051896631717682 0.19379842281341553
-0.11627906560897827 -0.08867163211107254 0.20930230617523193
-0.11627906560897827 -0.08752419054508209 0.22480618953704834
-0.11627906560897827 -0.08698993921279907 0.24031007289886475
-0.11627906560897827 -0.08754850924015045 0.25581395626068115
-0.11627906560897827 -0.08856440335512161 0.27131783962249756
-0.11627906560897827 -0.09131249040365219 0.28682172298431396
-0.11627906560897827 -0.09828290343284607 0.30232560634613037
-0.11627905815839767 -0.1002286970615387 0.5348837375640869
-0.11627906560897827 -0.07956206053495407 -0.4418604373931885
-0.11627906560897827 -0.08489198237657547 0.5503876209259033
-0.11627906560897827 -0.07040075957775116 0.5658915042877197
-0.11627906560897827 -0.06291690468788147 -0.4573643207550049
-0.11627906560897827 -0.05697810649871826 0.5813953876495361
-0.11627906560897827 -0.04128073528409004 -0.4728682041168213
-0.11627906560897827 -0.04503569379448891 0.5968992710113525
-0.11627906560897827 -0.03233639895915985 0.612403154373169
-0.11627906560897827 -0.01697532646358013 0.6279069185256958
-0.11627906560897827 -0.005442527588456869 -0.4728682041168213
-0.11627906560897827 0.003943230956792831 -0.4573643207550049
-0.11627906560897827 0.002758621471002698 0.6434108018875122
-0.11627906560897827 0.009921148419380188 -0.4418604373931885
-0.11627907305955887 0.014832691289484501 -0.42635661363601685
-0.11627906560897827 0.02183256298303604 -0.41085273027420044
-0.11627906560897827 0.02682490274310112 -0.39534884691238403
-0.11627906560897827 0.03329478204250336 -0.3798449635505676
-0.11627906560897827 0.03621770069003105 0.20930230617523193
-0.11627906560897827 0.033197071403265 0.22480618953704834
-0.11627906560897827 0.029768824577331543 0.24031007289886475
-0.11627906560897827 0.027932964265346527 0.25581395626068115
-0.11627906560897827 0.026174182072281837 0.27131783962249756
-0.11627906560897827 0.025175606831908226 0.28682172298431396
-0.11627906560897827 0.02480672299861908 0.30232560634613037
-0.11627906560897827 0.025745166465640068 0.3178294897079468
-0.11627906560897827 0.027760490775108337 0.3333333730697632
-0.11627906560897827 0.030756540596485138 0.3488372564315796
-0.11627906560897827 0.03396027907729149 0.364341139793396
-0.11627906560897827 0.04128120094537735 -0.3643410801887512
-0.11627906560897827 0.049095336347818375 -0.3488371968269348
-0.11627906560897827 0.05236779898405075 0.1317828893661499
-0.11627906560897827 0.04801174998283386 0.1472867727279663
-0.11627906560897827 0.044026777148246765 0.16279065608978271
-0.11627906560897827 0.041103824973106384 0.17829453945159912
-0.11627906560897827 0.03895565867424011 0.19379842281341553
-0.11627905815839767 0.040324535220861435 0.37984490394592285
-0.11627906560897827 0.04995403811335564 0.39534878730773926
-0.11627906560897827 0.04284481704235077 0.6589146852493286
-0.11627906560897827 0.058359839022159576 -0.3333333134651184
-0.11627906560897827 0.06638888269662857 0.08527135848999023
-0.11627906560897827 0.06010166555643082 0.10077524185180664
-0.11627906560897827 0.055726129561662674 0.11627912521362305
-0.11627906560897827 0.06282822042703629 0.41085267066955566
-0.11627906560897827 0.06977987289428711 -0.317829430103302
-0.11627906560897827 0.08335224539041519 -0.30232560634613037
-0.11627906560897827 0.08251646161079407 0.05426359176635742
-0.11627905815839767 0.0742703303694725 0.06976747512817383
-0.11627906560897827 0.09215754270553589 0.038759708404541016
-0.11627906560897827 0.1032899022102356 0.02325582504272461
-0.11627906560897827 0.101120725274086 0.6589146852493286
-0.11627906560897827 0.13045771420001984 -0.317829430103302
-0.11627906560897827 0.11719901859760284 -0.30232560634613037
-0.11627906560897827 0.11821912229061127 0.007751941680908203
-0.11627906560897827 0.12320837378501892 0.42635655403137207
-0.11627906560897827 0.13092653453350067 0.4418604373931885
-0.11627906560897827 0.1316641867160797 0.612403154373169
-0.11627906560897827 0.12467405945062637 0.6279069185256958
-0.11627906560897827 0.11673149466514587 0.6434108018875122
-0.11627906560897827 0.14297109842300415 -0.3333333134651184
-0.11627906560897827 0.14194566011428833 -0.02325582504272461
-0.11627906560897827 0.13215216994285583 -0.007751941680908203
-0.11627906560897827 0.13273708522319794 0.4573643207550049
-0.11627906560897827 0.13379403948783875 0.4728682041168213
-0.11627906560897827 0.13470038771629333 0.4883720874786377
-0.11627905815839767 0.13543909788131714 0.5038759708404541
-0.11627906560897827 0.13611356914043427 0.5193798542022705
-0.11627906560897827 0.13633504509925842 0.5348837375640869
-0.11627906560897827 0.13602763414382935 0.5503876209259033
-0.11627905815839767 0.13521987199783325 0.5658915042877197
-0.11627906560897827 0.13429588079452515 0.5813953876495361
-0.11627906560897827 0.13345612585544586 0.5968992710113525
-0.11627906560897827 0.1614665389060974 -0.3643410801887512
-0.11627906560897827 0.1526624709367752 -0.3488371968269348
-0.11627906560897827 0.1616406887769699 -0.08527129888534546
-0.11627906560897827 0.15934602916240692 -0.06976741552352905
-0.11627906560897827 0.15490373969078064 -0.05426359176635742
-0.11627906560897827 0.14955513179302216 -0.03875970467925072
-0.11627906560897827 0.17806994915008545 -0.41085273027420044
-0.11627906560897827 0.17375199496746063 -0.39534884691238403
-0.11627906560897827 0.16897812485694885 -0.3798449635505676
-0.11627906560897827 0.1734311580657959 -0.1782945990562439
-0.11627907305955887 0.16933000087738037 -0.1627907156944275
-0.11627906560897827 0.16675597429275513 -0.14728683233261108
-0.11627906560897827 0.16504377126693726 -0.13178294897079468
-0.11627907305955887 0.16381511092185974 -0.11627907305955887
-0.11627906560897827 0.16293658316135406 -0.10077518224716187
-0.11627906560897827 0.1929706335067749 -0.4728682041168213
-0.11627906560897827 0.18887321650981903 -0.4573643207550049
-0.11627906560897827 0.18502485752105713 -0.4418604373931885
-0.11627906560897827 0.18142205476760864 -0.42635661363601685
-0.11627906560897827 0.1890113204717636 -0.25581395626068115
-0.11627906560897827 0.18552987277507782 -0.24031008780002594
-0.11627906560897827 0.18250373005867004 -0.22480618953704834
-0.11627906560897827 0.18014977872371674 -0.20930230617523193
-0.11627906560897827 0.17856363952159882 -0.19379842281341553
-0.11627906560897827 0.20557618141174316 -0.5193798542022705
-0.11627906560897827 0.203769251704216 -0.5038759708404541
-0.11627906560897827 0.20094938576221466 -0.4883720874786377
-0.11627906560897827 0.20605185627937317 -0.42635661363601685
-0.11627906560897827 0.20400869846343994 -0.41085273027420044
-0.11627906560897827 0.20268231630325317 -0.39534884691238403
-0.11627906560897827 0.20129355788230896 -0.3798449635505676
-0.11627906560897827 0.19984900951385498 -0.3643410801887512
-0.11627906560897827 0.1986713707447052 -0.3488371968269348
-0.11627905815839767 0.1980799436569214 -0.3333333134651184
-0.11627906560897827 0.19745922088623047 -0.317829430103302
-0.11627906560897827 0.1963292807340622 -0.30232560634613037
-0.11627906560897827 0.19497399032115936 -0.28682172298431396
-0.11627906560897827 0.19395002722740173 -0.27131783962249756
-0.11627906560897827 0.21395641565322876 -0.5193798542022705
-0.11627906560897827 0.2128952592611313 -0.5038759708404541
-0.11627906560897827 0.21179386973381042 -0.4883720874786377
-0.11627906560897827 0.21083761751651764 -0.4728681743144989
-0.11627905815839767 0.21001222729682922 -0.4573643207550049
-0.11627906560897827 0.2093607783317566 -0.4418604373931885
-0.10077518224716187 -0.25583887100219727 -0.5193798542022705
-0.10077518224716187 -0.25594189763069153 -0.5038759708404541
-0.10077518224716187 -0.2557593882083893 -0.5193799138069153
-0.10077518224716187 -0.2553280293941498 -0.5038759708404541
-0.10077518224716187 -0.24723556637763977 -0.4728682041168213
-0.10077518224716187 -0.2457686960697174 -0.4573643207550049
-0.10077518224716187 -0.24443945288658142 -0.4418604373931885
-0.10077518224716187 -0.2441697120666504 -0.42635661363601685
-0.10077518224716187 -0.24383802711963654 -0.41085273027420044
-0.10077518224716187 -0.24238435924053192 -0.39534884691238403
-0.10077518224716187 -0.24056343734264374 -0.3798449635505676
-0.10077518224716187 -0.23564185202121735 -0.4728682041168213
-0.10077518224716187 -0.23076701164245605 -0.4573643207550049
-0.10077518224716187 -0.23433475196361542 -0.3643410801887512
-0.10077518224716187 -0.23191222548484802 -0.3488371968269348
-0.10077518224716187 -0.23114338517189026 -0.3333333134651184
-0.10077518224716187 -0.23033320903778076 -0.317829430103302
-0.10077518224716187 -0.22899079322814941 -0.30232560634613037
-0.10077518224716187 -0.22683310508728027 -0.28682172298431396
-0.10077518224716187 -0.22490398585796356 -0.27131783962249756
-0.10077518224716187 -0.22230017185211182 -0.4418604373931885
-0.10077518224716187 -0.21223555505275726 -0.42635661363601685
-0.10077518224716187 -0.2212357223033905 -0.25581395626068115
-0.10077518224716187 -0.2180735468864441 -0.24031007289886475
-0.10077518224716187 -0.2149379700422287 -0.22480618953704834
-0.10077518224716187 -0.2126445174217224 -0.20930230617523193
-0.10077518224716187 -0.21086683869361877 -0.19379842281341553
-0.10077518224716187 -0.20868375897407532 -0.1782945990562439
-0.10077518224716187 -0.2059214562177658 -0.1627907156944275
-0.10077518224716187 -0.20345261693000793 -0.14728683233261108
-0.10077518224716187 -0.20099425315856934 -0.13178294897079468
-0.10077518224716187 -0.19817882776260376 -0.11627906560897827
-0.10077518224716187 -0.19518424570560455 -0.10077518224716187
-0.10077518224716187 -0.1824542135000229 -0.9844961166381836
-0.10077518224716187 -0.19111713767051697 -0.08527129888534546
-0.10077518224716187 -0.18788260221481323 -0.06976741552352905
-0.10077518224716187 -0.18486347794532776 -0.05426359176635742
-0.10077518224716187 -0.18106043338775635 -0.038759708404541016
-0.10077518224716187 -0.17535994946956635 -0.02325582504272461
-0.10077518224716187 -0.17152400314807892 -0.007751941680908203
-0.10077518224716187 -0.1683548390865326 0.007751941680908203
-0.10077518224716187 -0.16402733325958252 0.02325582504272461
-0.10077518224716187 -0.16625764966011047 0.39534878730773926
-0.10077518224716187 -0.17074266076087952 0.41085267066955566
-0.10077518224716187 -0.1734626293182373 0.42635655403137207
-0.10077518224716187 -0.17177814245224 0.4418604373931885
-0.10077518224716187 -0.16671577095985413 0.4573643207550049
-0.10077518224716187 -0.15989762544631958 0.038759708404541016
-0.10077518224716187 -0.15631920099258423 0.05426359176635742
-0.10077518224716187 -0.1533379852771759 0.06976747512817383
-0.10077518224716187 -0.1501171588897705 0.08527135848999023
-0.10077518224716187 -0.14769157767295837 0.10077524185180664
-0.10077518224716187 -0.14733386039733887 0.3333333730697632
-0.10077518224716187 -0.14955000579357147 0.3488372564315796
-0.10077518224716187 -0.1526372879743576 0.364341139793396
-0.10077518224716187 -0.16088508069515228 0.37984490394592285
-0.10077518224716187 -0.1591106504201889 0.4728682041168213
-0.10077518224716187 -0.14990635216236115 0.4883720874786377
-0.10077518224716187 -0.14107146859169006 -0.9844961166381836
-0.10077518224716187 -0.14271214604377747 0.11627911776304245
-0.10077518224716187 -0.1377168893814087 0.1317828893661499
-0.10077518224716187 -0.13357363641262054 0.1472867727279663
-0.10077518224716187 -0.13313639163970947 0.28682172298431396
-0.10077518224716187 -0.1362587958574295 0.30232560634613037
-0.10077518224716187 -0.14107081294059753 0.3178294897079468
-0.10077518224716187 -0.13826781511306763 0.5038759708404541
-0.10077518224716187 -0.12718522548675537 0.16279065608978271
-0.10077518224716187 -0.12135928869247437 0.17829453945159912
-0.10077518224716187 -0.11867207288742065 0.19379842281341553
-0.10077518224716187 -0.11752647161483765 0.20930230617523193
-0.10077518224716187 -0.11758330464363098 0.22480618953704834
-0.10077518224716187 -0.11934933811426163 0.24031007289886475
-0.10077518224716187 -0.12270021438598633 0.25581395626068115
-0.10077518224716187 -0.12812644243240356 0.27131783962249756
-0.10077518224716187 -0.12464995682239532 0.5193798542022705
-0.10077518224716187 -0.11094440519809723 0.5348837375640869
-0.10077518224716187 -0.09822450578212738 -0.42635661363601685
-0.10077518224716187 -0.09610439091920853 0.5503876209259033
-0.10077518224716187 -0.07117191702127457 -0.4573643207550049
-0.10077518224716187 -0.08407088369131088 -0.4418604373931885
-0.10077518224716187 -0.08183247596025467 0.5658915042877197
-0.10077518224716187 -0.06824605166912079 0.5813953876495361
-0.10077518224716187 -0.05466926842927933 0.5968992710113525
-0.10077518224716187 -0.05327976867556572 -0.4728681743144989
-0.10077518224716187 -0.039814453572034836 0.612403154373169
-0.10077518224716187 -0.021899862214922905 0.6279069185256958
-0.10077518224716187 -0.0012956946156919003 -0.4728682041168213
-0.10077518224716187 -0.0006432610098272562 0.6434108018875122
-0.10077518224716187 0.008303209207952023 -0.4573643207550049
-0.10077517479658127 0.012060152366757393 -0.4418604075908661
-0.10077518224716187 0.01810019090771675 -0.42635661363601685
-0.10077518224716187 0.0221564881503582 0.6589146852493286
-0.10077518224716187 0.024181272834539413 -0.41085273027420044
-0.10077518224716187 0.028833264485001564 -0.39534884691238403
-0.10077518224716187 0.03658231347799301 -0.3798449635505676
-0.10077518224716187 0.042966414242982864 -0.3643411099910736
-0.10077518224716187 0.05255001783370972 -0.3488371968269348
-0.10077518224716187 0.04946257919073105 0.674418568611145
-0.10077518224716187 0.0611145980656147 -0.3333333134651184
-0.10077518224716187 0.06944096088409424 0.17829453945159912
-0.10077518224716187 0.06895969808101654 0.19379842281341553
-0.10077518224716187 0.06818024069070816 0.20930230617523193
-0.10077518224716187 0.06715507805347443 0.22480618953704834
-0.10077518224716187 0.06663624942302704 0.24031007289886475
-0.10077518224716187 0.06924174726009369 0.25581395626068115
-0.10077518224716187 0.07425735890865326 -0.317829430103302
-0.10077518224716187 0.08351980149745941 0.08527135848999023
-0.10077518224716187 0.07835011929273605 0.10077524185180664
-0.10077518224716187 0.07392733544111252 0.11627912521362305
-0.10077518224716187 0.07158011943101883 0.1317828893661499
-0.10077518224716187 0.0704304650425911 0.1472867727279663
-0.10077518224716187 0.06979022920131683 0.16279065608978271
-0.10077518224716187 0.07135593146085739 0.27131783962249756
-0.10077518224716187 0.07259058207273483 0.28682172298431396
-0.10077518224716187 0.0720628947019577 0.30232560634613037
-0.10077518224716187 0.0717834085226059 0.3178294897079468
-0.10077518224716187 0.07230667769908905 0.3333333730697632
-0.10077518224716187 0.07362236827611923 0.3488372564315796
-0.10077518969774246 0.07482980191707611 0.364341139793396
-0.10077518224716187 0.07922101765871048 0.37984490394592285
-0.10077518224716187 0.08187169581651688 0.674418568611145
-0.10077518224716187 0.10045462846755981 -0.30232560634613037
-0.10077518224716187 0.09865317493677139 0.05426359176635742
-0.10077518224716187 0.09139017760753632 0.06976747512817383
-0.10077518224716187 0.10108292102813721 -0.30232560634613037
-0.10077518224716187 0.10819323360919952 0.038759708404541016
-0.10077518224716187 0.11009885370731354 0.39534878730773926
-0.10077518224716187 0.10641984641551971 0.6589146852493286
-0.10077518224716187 0.12697762250900269 -0.317829430103302
-0.10077518224716187 0.1283806711435318 0.007751941680908203
-0.10077518224716187 0.11737557500600815 0.02325582504272461
-0.10077518224716187 0.12284411489963531 0.41085267066955566
-0.10077518224716187 0.12946099042892456 0.42635655403137207
-0.10077518224716187 0.12961134314537048 0.6279069185256958
-0.10077517479658127 0.12100496888160706 0.6434108018875122
-0.10077518224716187 0.1411968171596527 -0.3333333134651184
-0.10077518224716187 0.13804757595062256 -0.007751941680908203
-0.10077518224716187 0.13295616209506989 0.4418604075908661
-0.10077518224716187 0.13470806181430817 0.45736435055732727
-0.10077518224716187 0.13645672798156738 0.4728682339191437
-0.10077518224716187 0.1378936767578125 0.4883720576763153
-0.10077518224716187 0.13901183009147644 0.5038759708404541
-0.10077518224716187 0.14001257717609406 0.5193798542022705
-0.10077518224716187 0.1403445154428482 0.5348837375640869
-0.10077518224716187 0.14008045196533203 0.5503876209259033
-0.10077518224716187 0.13929663598537445 0.5658915042877197
-0.10077518224716187 0.13815787434577942 0.5813953876495361
-0.10077518224716187 0.13699091970920563 0.5968992710113525
-0.10077518224716187 0.13488776981830597 0.612403154373169
-0.10077518224716187 0.16059227287769318 -0.3643410801887512
-0.10077518224716187 0.1514701396226883 -0.3488371968269348
-0.10077518224716187 0.1603367030620575 -0.05426359176635742
-0.10077518224716187 0.1543135941028595 -0.038759708404541016
-0.10077518224716187 0.14757320284843445 -0.02325582504272461
-0.10077518224716187 0.17412514984607697 -0.39534884691238403
-0.10077518224716187 0.16870227456092834 -0.3798449635505676
-0.10077518224716187 0.17677675187587738 -0.1627907156944275
-0.10077518224716187 0.1734049916267395 -0.14728683233261108
-0.10077518224716187 0.1709347367286682 -0.13178294897079468
-0.10077518224716187 0.16916650533676147 -0.11627906560897827
-0.10077518224716187 0.16788730025291443 -0.10077518224716187
-0.10077517479658127 0.16627851128578186 -0.08527129888534546
-0.10077517479658127 0.16378413140773773 -0.06976741552352905
-0.10077518224716187 0.1910368800163269 -0.4573643207550049
-0.10077518224716187 0.18638277053833008 -0.4418604373931885
-0.10077518969774246 0.18234366178512573 -0.42635661363601685
-0.10077518224716187 0.17888392508029938 -0.41085273027420044
-0.10077518224716187 0.19111455976963043 -0.24031007289886475
-0.10077518224716187 0.18695449829101562 -0.22480618953704834
-0.10077518224716187 0.18357309699058533 -0.20930230617523193
-0.10077518224716187 0.18104086816310883 -0.19379842281341553
-0.10077518224716187 0.1791512817144394 -0.1782945990562439
-0.10077518224716187 0.20790959894657135 -0.5193798542022705
-0.10077518224716187 0.20537631213665009 -0.5038759708404541
-0.10077518224716187 0.20296424627304077 -0.4883720874786377
-0.10077517479658127 0.19848349690437317 -0.4728681743144989
-0.10077518224716187 0.20927271246910095 -0.3643410801887512
-0.10077518224716187 0.20536869764328003 -0.3488371968269348
-0.10077518224716187 0.20203131437301636 -0.3333333134651184
-0.10077518224716187 0.1996614784002304 -0.317829430103302
-0.10077518224716187 0.19870272278785706 -0.30232560634613037
-0.10077518224716187 0.1977388560771942 -0.28682172298431396
-0.10077517479658127 0.19618788361549377 -0.27131783962249756
-0.10077517479658127 0.19454027712345123 -0.25581395626068115
-0.10077518224716187 0.22217905521392822 -0.5348837375640869
-0.10077518224716187 0.2159937620162964 -0.5038759708404541
-0.10077518224716187 0.2139919400215149 -0.4883720874786377
-0.10077518224716187 0.21260206401348114 -0.4728682041168213
-0.10077518224716187 0.21187424659729004 -0.4573643207550049
-0.10077518224716187 0.2112841159105301 -0.4418604373931885
-0.10077518224716187 0.21076443791389465 -0.42635661363601685
-0.10077517479658127 0.2103535681962967 -0.41085273027420044
-0.10077518224716187 0.21005110442638397 -0.39534881711006165
-0.10077518224716187 0.209720641374588 -0.3798449635505676
-0.10077518224716187 0.22533074021339417 -0.5348837375640869
-0.10077518224716187 0.22494113445281982 -0.5193798542022705
-0.08527129888534546 -0.25933438539505005 -0.5193798542022705
-0.08527129888534546 -0.25895363092422485 -0.5038759708404541
-0.08527129888534546 -0.2581198513507843 -0.4883720874786377
-0.08527129888534546 -0.2570229172706604 -0.4728682041168213
-0.08527129888534546 -0.25582897663116455 -0.4573643207550049
-0.08527129888534546 -0.25211015343666077 -0.5193798542022705
-0.08527129888534546 -0.2512766122817993 -0.5038759708404541
-0.08527129888534546 -0.24970155954360962 -0.4883720874786377
-0.08527129888534546 -0.24309341609477997 -0.4728682041168213
-0.08527129888534546 -0.25014886260032654 -0.4418604373931885
-0.08527129888534546 -0.24828648567199707 -0.42635661363601685
-0.08527129888534546 -0.24676033854484558 -0.41085273027420044
-0.08527129888534546 -0.24536843597888947 -0.39534884691238403
-0.08527129888534546 -0.24508094787597656 -0.3798449635505676
-0.08527129888534546 -0.245388925075531 -0.3643410801887512
-0.08527129888534546 -0.24443402886390686 -0.3488371968269348
-0.08527129888534546 -0.2417472004890442 -0.3333333134651184
-0.08527129888534546 -0.23478077352046967 -0.4573643207550049
-0.08527129888534546 -0.23035746812820435 -0.4418604373931885
-0.08527129888534546 -0.22707116603851318 -0.42635661363601685
-0.08527129143476486 -0.23769217729568481 -0.317829430103302
-0.08527129888534546 -0.234705850481987 -0.30232560634613037
-0.08527129888534546 -0.232864648103714 -0.28682172298431396
-0.08527129888534546 -0.23046180605888367 -0.27131783962249756
-0.08527129888534546 -0.22808495163917542 -0.25581395626068115
-0.08527129888534546 -0.22540371119976044 -0.24031007289886475
-0.08527129888534546 -0.22154684364795685 -0.41085273027420044
-0.08527129888534546 -0.20965127646923065 -0.39534884691238403
-0.08527129888534546 -0.22089043259620667 -0.22480618953704834
-0.08527129888534546 -0.21747638285160065 -0.20930230617523193
-0.08527129888534546 -0.21492721140384674 -0.19379842281341553
-0.08527129888534546 -0.2122349888086319 -0.1782945990562439
-0.08527129888534546 -0.20968404412269592 -0.1627907156944275
-0.08527129888534546 -0.20095230638980865 -0.9844961166381836
-0.08527129888534546 -0.2011677622795105 -0.9689922332763672
-0.08527129888534546 -0.20878352224826813 -0.39534884691238403
-0.08527130633592606 -0.20629090070724487 -0.14728683233261108
-0.08527129888534546 -0.20353278517723083 -0.13178294897079468
-0.08527129888534546 -0.2005595564842224 -0.11627906560897827
-0.08527129888534546 -0.19739001989364624 -0.10077518224716187
-0.08527129888534546 -0.1934816837310791 -0.41085273027420044
-0.08527129888534546 -0.1931118369102478 -0.08527129888534546
-0.08527129888534546 -0.1890357881784439 -0.06976741552352905
-0.08527129888534546 -0.18604595959186554 -0.05426359176635742
-0.08527129888534546 -0.18271830677986145 -0.038759708404541016
-0.08527129888534546 -0.18069912493228912 0.39534878730773926
-0.08527129888534546 -0.18304626643657684 0.41085267066955566
-0.08527129888534546 -0.18433573842048645 0.42635655403137207
-0.08527129888534546 -0.18354946374893188 0.4418604373931885
-0.08527129888534546 -0.18019571900367737 0.4573643207550049
-0.08527129888534546 -0.16594180464744568 -0.42635661363601685
-0.08527129888534546 -0.1776529997587204 -0.02325582318007946
-0.08527129888534546 -0.1729351282119751 -0.007751941680908203
-0.08527129888534546 -0.1700587123632431 0.007751941680908203
-0.08527129888534546 -0.16723847389221191 0.02325582504272461
-0.08527129888534546 -0.16412439942359924 0.038759708404541016
-0.08527129888534546 -0.164265438914299 0.3333333730697632
-0.08527129888534546 -0.16700583696365356 0.3488372564315796
-0.08527129888534546 -0.17077897489070892 0.364341139793396
-0.08527129888534546 -0.17802157998085022 0.37984490394592285
-0.08527129888534546 -0.1726226657629013 0.4728682041168213
-0.08527129888534546 -0.16289524734020233 0.4883720874786377
-0.08527129888534546 -0.15940356254577637 -0.42635661363601685
-0.08527129888534546 -0.1609952598810196 0.05426359176635742
-0.08527129888534546 -0.1578344702720642 0.06976747512817383
-0.08527129888534546 -0.15527257323265076 0.08527135848999023
-0.08527129888534546 -0.15316632390022278 0.10077524185180664
-0.08527129888534546 -0.15092569589614868 0.11627912521362305
-0.08527129888534546 -0.14880028367042542 0.1317828893661499
-0.08527129888534546 -0.14729665219783783 0.1472867727279663
-0.08527129888534546 -0.14736749231815338 0.25581395626068115
-0.08527129888534546 -0.149919331073761 0.27131783962249756
-0.08527129888534546 -0.1527506411075592 0.28682172298431396
-0.08527129888534546 -0.15626296401023865 0.30232560634613037
-0.08527129888534546 -0.1613682359457016 0.3178294897079468
-0.08527129888534546 -0.15003350377082825 0.5038759708404541
-0.08527129888534546 -0.1426190435886383 0.16279065608978271
-0.08527129888534546 -0.139419823884964 0.17829453945159912
-0.08527129888534546 -0.1379680037498474 0.19379842281341553
-0.08527129888534546 -0.1377316117286682 0.20930230617523193
-0.08527129888534546 -0.13853411376476288 0.22480618953704834
-0.08527129888534546 -0.14159531891345978 0.24031007289886475
-0.08527129888534546 -0.1357613354921341 0.5193798542022705
-0.08527129888534546 -0.12153901904821396 0.5348837375640869
-0.08527129888534546 -0.10599392652511597 -0.9689922332763672
-0.08527129888534546 -0.10235525667667389 -0.42635661363601685
-0.08527129888534546 -0.10670411586761475 0.5503876209259033
-0.08527129888534546 -0.08866123855113983 -0.4418604373931885
-0.08527129888534546 -0.09255161881446838 0.5658915042877197
-0.08527129143476486 -0.0852455198764801 -0.9844960570335388
-0.08527129888534546 -0.0768156573176384 -0.4573643207550049
-0.08527129888534546 -0.07892924547195435 0.5813953876495361
-0.08527129888534546 -0.06344077736139297 -0.4728682041168213
-0.08527129888534546 -0.06502503156661987 0.5968992710113525
-0.08527129888534546 -0.04809563606977463 -0.4883720874786377
-0.08527129888534546 -0.048536114394664764 0.612403154373169
-0.08527129888534546 -0.0294515248388052 0.6279069185256958
-0.08527129888534546 -0.010234965942800045 0.6434108018875122
-0.08527129888534546 -0.000790430000051856 -0.4883720874786377
-0.08527129888534546 0.006965939886868 0.6589146852493286
-0.08527129143476486 0.008611063472926617 -0.4728682041168213
-0.08527129888534546 0.01216842606663704 -0.4573643207550049
-0.08527129888534546 0.017279837280511856 -0.4418604373931885
-0.08527129143476486 0.023708239197731018 -0.42635658383369446
-0.08527129888534546 0.02652152255177498 -0.41085273027420044
-0.08527129888534546 0.03269585594534874 -0.39534884691238403
-0.08527129888534546 0.028047233819961548 0.674418568611145
-0.08527129888534546 0.039816964417696 -0.37984493374824524
-0.08527129888534546 0.046351008117198944 -0.3643410801887512
-0.08527129143476486 0.05634452402591705 -0.3488371968269348
-0.08527129888534546 0.06696820259094238 -0.3333333134651184
-0.08527129888534546 0.08385656028985977 -0.317829430103302
-0.08527129888534546 0.08469826728105545 0.1472867727279663
-0.08527129888534546 0.08441971987485886 0.16279065608978271
-0.08527129888534546 0.08521948754787445 0.17829453945159912
-0.08527129888534546 0.09569311141967773 0.08527135848999023
-0.08527129888534546 0.09145863354206085 0.10077524185180664
-0.08527129888534546 0.08729757368564606 0.11627913266420364
-0.08527129888534546 0.08546049892902374 0.1317828893661499
-0.08527129888534546 0.08584685623645782 0.19379843771457672
-0.08527130633592606 0.08640770614147186 0.20930230617523193
-0.08527129888534546 0.08682526648044586 0.22480618953704834
-0.08527129888534546 0.08756114542484283 0.24031007289886475
-0.08527129888534546 0.08981361985206604 0.25581395626068115
-0.08527129888534546 0.09271152317523956 0.27131783962249756
-0.08527129888534546 0.0950060784816742 0.28682172298431396
-0.08527129888534546 0.09580729156732559 0.30232560634613037
-0.08527129888534546 0.09708171337842941 0.3178294897079468
-0.08527129888534546 0.09934991598129272 0.3333333730697632
-0.08527129888534546 0.09194567799568176 0.674418568611145
-0.08527129888534546 0.114942267537117 -0.317829430103302
-0.08527129888534546 0.11611820012331009 0.038759708404541016
-0.08527129888534546 0.10967470705509186 0.05426359176635742
-0.08527129888534546 0.1019372045993805 0.06976747512817383
-0.08527130633592606 0.10235365480184555 0.3488372564315796
-0.08527129888534546 0.10740328580141068 0.364341139793396
-0.08527129888534546 0.11285611987113953 0.6589146852493286
-0.08527129888534546 0.12500907480716705 0.02325582504272461
-0.08527130633592606 0.11718419194221497 0.37984490394592285
-0.08527129888534546 0.1226969063282013 0.39534878730773926
-0.08527129888534546 0.12784254550933838 0.41085267066955566
-0.08527129888534546 0.12569312751293182 0.6434108018875122
-0.08527129888534546 0.1457766741514206 -0.3488371968269348
-0.08527129888534546 0.13381551206111908 -0.3333333134651184
-0.08527129888534546 0.14279425144195557 -0.007751941680908203
-0.08527129888534546 0.13381268084049225 0.007751941680908203
-0.08527129888534546 0.13249604403972626 0.42635655403137207
-0.08527129888534546 0.1351352035999298 0.4418604373931885
-0.08527129888534546 0.13738933205604553 0.4573643207550049
-0.08527129888534546 0.13941748440265656 0.4728682041168213
-0.08527129888534546 0.14080694317817688 0.4883720874786377
-0.08527129888534546 0.14179405570030212 0.5038759708404541
-0.08527129888534546 0.14272522926330566 0.5193798542022705
-0.08527129888534546 0.14315631985664368 0.5348837375640869
-0.08527129888534546 0.1431397944688797 0.5503876209259033
-0.08527129888534546 0.14259423315525055 0.5658915042877197
-0.08527129888534546 0.14153987169265747 0.5813953876495361
-0.08527129888534546 0.1403665542602539 0.5968992710113525
-0.08527129888534546 0.13842043280601501 0.612403154373169
-0.08527129888534546 0.13411003351211548 0.6279069185256958
-0.08527129888534546 0.16278186440467834 -0.3798449635505676
-0.08527129888534546 0.1555720865726471 -0.3643410801887512
-0.08527129888534546 0.15862873196601868 -0.038759708404541016
-0.08527129888534546 0.15136495232582092 -0.02325582504272461
-0.08527129888534546 0.17579814791679382 -0.41085273027420044
-0.08527129888534546 0.16967740654945374 -0.39534884691238403
-0.08527129888534546 0.17653535306453705 -0.13178294897079468
-0.08527129888534546 0.17481814324855804 -0.11627906560897827
-0.08527129888534546 0.17331984639167786 -0.10077518224716187
-0.08527129888534546 0.17148947715759277 -0.08527129888534546
-0.08527129888534546 0.1686132848262787 -0.06976741552352905
-0.08527129143476486 0.16427366435527802 -0.05426358804106712
-0.08527129888534546 0.19087092578411102 -0.4573643207550049
-0.08527129888534546 0.1846688985824585 -0.44186046719551086
-0.08527129888534546 0.17924551665782928 -0.42635661363601685
-0.08527129888534546 0.19183307886123657 -0.22480618953704834
-0.08527129888534546 0.18817543983459473 -0.20930230617523193
-0.08527129888534546 0.1851380169391632 -0.19379842281341553
-0.08527129888534546 0.18234586715698242 -0.1782945990562439
-0.08527129888534546 0.18005119264125824 -0.1627907156944275
-0.08527129888534546 0.17847611010074615 -0.1472868174314499
-0.08527129888534546 0.20795808732509613 -0.5038759708404541
-0.08527129888534546 0.20395800471305847 -0.4883720874786377
-0.08527129888534546 0.1988675743341446 -0.4728682339191437
-0.08527129888534546 0.20434004068374634 -0.317829430103302
-0.08527129888534546 0.2016773819923401 -0.30232560634613037
-0.08527129888534546 0.20024776458740234 -0.28682172298431396
-0.08527129888534546 0.19895702600479126 -0.27131783962249756
-0.08527129888534546 0.19732239842414856 -0.25581395626068115
-0.08527130633592606 0.19506102800369263 -0.24031007289886475
-0.08527129888534546 0.21988597512245178 -0.5348837375640869
-0.08527129888534546 0.2157524824142456 -0.5193798542022705
-0.08527129888534546 0.2192302644252777 -0.4883720874786377
-0.08527129888534546 0.21529516577720642 -0.4728682041168213
-0.08527129888534546 0.2136755734682083 -0.4573643207550049
-0.08527129888534546 0.21297913789749146 -0.4418604373931885
-0.08527129888534546 0.2125946432352066 -0.42635661363601685
-0.08527129888534546 0.21227027475833893 -0.41085273027420044
-0.08527129888534546 0.21200446784496307 -0.39534884691238403
-0.08527129888534546 0.2116081416606903 -0.3798449635505676
-0.08527129888534546 0.21109764277935028 -0.3643410801887512
-0.08527129888534546 0.2103862315416336 -0.3488371968269348
-0.08527129888534546 0.2094869315624237 -0.3333333134651184
-0.08527129888534546 0.22734545171260834 -0.5348837375640869
-0.08527129888534546 0.2261689007282257 -0.5193798542022705
-0.08527129888534546 0.22530744969844818 -0.5038759708404541
-0.06976741552352905 -0.26154160499572754 -0.5193798542022705
-0.06976741552352905 -0.2603882849216461 -0.5038759708404541
-0.06976741552352905 -0.2591169476509094 -0.4883720874786377
-0.06976741552352905 -0.25817203521728516 -0.4728682041168213
-0.06976741552352905 -0.2573135197162628 -0.4573643207550049
-0.06976741552352905 -0.256571888923645 -0.4418604373931885
-0.06976741552352905 -0.2561663091182709 -0.42635661363601685
-0.06976741552352905 -0.25591138005256653 -0.41085273027420044
-0.06976741552352905 -0.25211143493652344 -0.5193798542022705
-0.06976741552352905 -0.25143757462501526 -0.5038759708404541
-0.06976741552352905 -0.24996376037597656 -0.4883720874786377
-0.06976741552352905 -0.24574285745620728 -0.4728682041168213
-0.06976741552352905 -0.25390979647636414 -0.39534884691238403
-0.06976741552352905 -0.25137341022491455 -0.3798449635505676
-0.06976741552352905 -0.24857251346111298 -0.3643410801887512
-0.06976741552352905 -0.2474556267261505 -0.3488371968269348
-0.06976741552352905 -0.24631455540657043 -0.3333333134651184
-0.06976741552352905 -0.24467504024505615 -0.317829430103302
-0.06976741552352905 -0.2419707328081131 -0.30232560634613037
-0.06976741552352905 -0.23739401996135712 -0.4573643207550049
-0.06976741552352905 -0.23221993446350098 -0.4418604373931885
-0.06976741552352905 -0.22912396490573883 -0.42635661363601685
-0.06976741552352905 -0.22687256336212158 -0.41085273027420044
-0.06976741552352905 -0.2377728819847107 -0.28682172298431396
-0.06976741552352905 -0.23447774350643158 -0.27131783962249756
-0.06976741552352905 -0.23158761858940125 -0.25581395626068115
-0.06976741552352905 -0.2284296303987503 -0.24031007289886475
-0.06976741552352905 -0.2255372405052185 -0.22480618953704834
-0.06976741552352905 -0.21165047585964203 -0.9689922332763672
-0.06976741552352905 -0.21716901659965515 -0.39534884691238403
-0.06976741552352905 -0.22133463621139526 -0.20930229127407074
-0.06976741552352905 -0.2182660698890686 -0.19379842281341553
-0.06976741552352905 -0.21487292647361755 -0.1782945990562439
-0.06976741552352905 -0.211592435836792 -0.1627907156944275
-0.06976740807294846 -0.20813924074172974 -0.9844961166381836
-0.06976741552352905 -0.20142509043216705 -0.9534883499145508
-0.06976741552352905 -0.19981026649475098 -0.41085273027420044
-0.06976741552352905 -0.20778928697109222 -0.39534884691238403
-0.06976741552352905 -0.2080157995223999 -0.14728683233261108
-0.06976741552352905 -0.2047494649887085 -0.13178294897079468
-0.06976741552352905 -0.2017408013343811 -0.11627906560897827
-0.06976741552352905 -0.19838915765285492 -0.10077518224716187
-0.06976741552352905 -0.19428026676177979 -0.08527129888534546
-0.06976741552352905 -0.1868462860584259 -0.42635661363601685
-0.06976741552352905 -0.1897296905517578 -0.06976741552352905
-0.06976741552352905 -0.1868552565574646 -0.05426359176635742
-0.06976741552352905 -0.1837470829486847 -0.038759708404541016
-0.06976741552352905 -0.17928892374038696 -0.02325582504272461
-0.06976741552352905 -0.17832714319229126 0.3488372564315796
-0.06976741552352905 -0.18054413795471191 0.364341139793396
-0.06976741552352905 -0.183571457862854 0.37984490394592285
-0.06976741552352905 -0.18657401204109192 0.39534878730773926
-0.06976741552352905 -0.1891234666109085 0.41085267066955566
-0.06976741552352905 -0.19028779864311218 0.42635655403137207
-0.06976741552352905 -0.1892443746328354 0.4418604373931885
-0.06976741552352905 -0.18572744727134705 0.4573643207550049
-0.06976741552352905 -0.18021531403064728 0.4728682041168213
-0.06976741552352905 -0.17415501177310944 -0.007751941680908203
-0.06976741552352905 -0.17149704694747925 0.007751941680908203
