-0.02325582504272461 0.05426359176635742 0.9685067534446716
-0.02325582504272461 0.06976747512817383 -0.9087982177734375
-0.02325582504272461 0.06976747512817383 0.7172194123268127
-0.02325582504272461 0.06976747512817383 0.7933454513549805
-0.02325582504272461 0.06976747512817383 0.9611520767211914
-0.02325582504272461 0.08527135848999023 -0.8570871353149414
-0.02325582504272461 0.08527136594057083 -0.8130694627761841
-0.02325582504272461 0.08527135848999023 -0.7080614566802979
-0.02325582504272461 0.08527135848999023 0.7134289145469666
-0.02325582504272461 0.08527135848999023 0.8365854024887085
-0.02325582504272461 0.08527135848999023 0.91620272397995
-0.02325582504272461 0.10077524185180664 -0.6157710552215576
-0.02325582504272461 0.10077524185180664 0.7090100049972534
-0.02325582504272461 0.11627912521362305 -0.5245634913444519
-0.02325582504272461 0.11627912521362305 0.7008368968963623
-0.02325582504272461 0.1317828893661499 -0.509412944316864
-0.02325582504272461 0.1317828893661499 0.6865667104721069
-0.02325582504272461 0.1472867727279663 -0.5342368483543396
-0.02325582504272461 0.1472867727279663 -0.14866448938846588
-0.02325582504272461 0.1472867727279663 0.04130260646343231
-0.02325582504272461 0.1472867727279663 0.6677599549293518
-0.02325582504272461 0.16279065608978271 -0.6029789447784424
-0.02325582504272461 0.16279065608978271 -0.3144436180591583
-0.02325582504272461 0.16279065608978271 0.19158418476581573
-0.02325582504272461 0.16279065608978271 0.6409701704978943
-0.02325582504272461 0.17829453945159912 -0.6665759086608887
-0.02325582504272461 0.17829453945159912 -0.5230906009674072
-0.02325582504272461 0.17829453945159912 0.29139500856399536
-0.02325582504272461 0.17829453945159912 0.5889416337013245
-0.02325582504272461 0.19379842281341553 -0.7162908315658569
-0.02325582504272461 0.19379842281341553 -0.6274157166481018
-0.02325582504272461 0.19379842281341553 0.40200275182724
-0.02325582504272461 0.19379842281341553 0.5020301342010498
-0.02325582504272461 0.20930230617523193 -0.7578198909759521
-0.02325582504272461 0.20930230617523193 -0.6911612153053284
-0.02325582504272461 0.22480618953704834 -0.7719180583953857
-0.02325582504272461 0.22480618953704834 -0.7361934185028076
-0.007751941680908203 -0.19379842281341553 0.8091250658035278
-0.007751941680908203 -0.19379842281341553 0.8296111822128296
-0.007751941680908203 -0.1782945990562439 -0.11477141827344894
-0.007751941215246916 -0.1782945990562439 0.15308921039104462
-0.007751941680908203 -0.1782945990562439 0.7972850799560547
-0.007751941680908203 -0.1782945990562439 0.8322910070419312
-0.007751941680908203 -0.1627907156944275 -0.15579071640968323
-0.007751941680908203 -0.1627907156944275 0.23144710063934326
-0.007751941680908203 -0.1627907156944275 0.25564324855804443
-0.007751941680908203 -0.1627907156944275 0.4811239242553711
-0.007751941680908203 -0.1627907156944275 0.7500488758087158
-0.007751941680908203 -0.1627907156944275 0.8511658906936646
-0.00775194214656949 -0.14728683233261108 -0.17759257555007935
-0.007751941680908203 -0.14728683233261108 0.5092495083808899
-0.007751941680908203 -0.14728683233261108 0.7262018918991089
-0.007751941680908203 -0.14728683233261108 0.964288055896759
-0.007751941215246916 -0.13178294897079468 -0.2069607377052307
-0.007751941680908203 -0.13178294897079468 0.5289939045906067
-0.007751941680908203 -0.13178294897079468 0.71297287940979
-0.007751941680908203 -0.13178294897079468 0.9757720232009888
-0.00775194214656949 -0.11627906560897827 -0.2803075313568115
-0.007751941680908203 -0.11627906560897827 0.5475701689720154
-0.007751941680908203 -0.11627906560897827 0.7028692960739136
-0.007751941680908203 -0.11627906560897827 0.9847843050956726
-0.007751941680908203 -0.10077518224716187 -0.3451300263404846
-0.007751941680908203 -0.10077518224716187 0.5688469409942627
-0.007751941680908203 -0.10077518224716187 0.6941583752632141
-0.007751941680908203 -0.10077518224716187 0.9867937564849854
-0.007751941680908203 -0.08527129888534546 -0.38375145196914673
-0.007751941680908203 -0.08527129888534546 0.5903069972991943
-0.007751941680908203 -0.08527129888534546 0.6727087497711182
-0.007751941680908203 -0.08527130633592606 0.9885494709014893
-0.007751941680908203 -0.06976741552352905 -0.41618359088897705
-0.007751941680908203 -0.06976741552352905 0.9893398284912109
-0.007751941680908203 -0.05426359176635742 -0.43825680017471313
-0.007751941680908203 -0.05426359176635742 0.9893730878829956
-0.007751941680908203 -0.038759708404541016 -0.4562862813472748
-0.007751941680908203 -0.038759708404541016 0.9888259768486023
-0.007751941680908203 -0.02325582504272461 -0.47121647000312805
-0.007751941680908203 -0.02325582504272461 0.9879599213600159
-0.007751941680908203 -0.007751941680908203 -0.48704707622528076
-0.007751941680908203 -0.007751941680908203 0.9866473078727722
-0.007751941680908203 0.007751941680908203 -0.5068534016609192
-0.007751941680908203 0.007751941680908203 0.9849580526351929
-0.007751941680908203 0.02325582504272461 -0.5544713139533997
-0.007751941680908203 0.02325582504272461 0.9790942072868347
-0.007751941680908203 0.038759708404541016 -0.6606385707855225
-0.007751941680908203 0.038759708404541016 0.9727725982666016
-0.007751941680908203 0.05426358804106712 -0.8441463112831116
-0.007751941680908203 0.05426359176635742 -0.8118956089019775
-0.00775194214656949 0.05426359176635742 -0.7322909235954285
-0.007751941680908203 0.05426359176635742 0.7320912480354309
-0.007751941680908203 0.05426359176635742 0.7713276743888855
-0.007751941680908203 0.05426359176635742 0.9670140743255615
-0.007751941680908203 0.06976747512817383 -0.8752854466438293
-0.007751941680908203 0.06976747512817383 -0.7915153503417969
-0.007751941680908203 0.06976747512817383 -0.7285661697387695
-0.007751941680908203 0.06976747512817383 0.7150357961654663
-0.007751941680908203 0.06976747512817383 0.7922426462173462
-0.007751941680908203 0.06976747512817383 0.9589955806732178
-0.007751941680908203 0.08527135848999023 -0.6785297989845276
-0.007751941215246916 0.08527135848999023 0.7114263772964478
-0.007751941680908203 0.08527135848999023 0.8376660346984863
-0.007751941680908203 0.08527135848999023 0.9031330347061157
-0.007751941680908203 0.10077524185180664 -0.5411424040794373
-0.007751941680908203 0.10077524185180664 0.7074377536773682
-0.007751941680908203 0.11627912521362305 -0.44861429929733276
-0.007751941680908203 0.11627912521362305 0.6995135545730591
-0.007751941680908203 0.1317828893661499 -0.42909517884254456
-0.007751941680908203 0.1317828893661499 0.6853144764900208
-0.007751941215246916 0.1472867727279663 -0.5027512311935425
-0.007751941680908203 0.1472867727279663 -0.15221884846687317
-0.007751941680908203 0.1472867727279663 0.0484619140625
-0.007751941680908203 0.1472867727279663 0.6685493588447571
-0.007751941680908203 0.16279065608978271 -0.5945068001747131
-0.007751941680908203 0.16279065608978271 -0.28726065158843994
-0.007751941680908203 0.16279065608978271 0.18580037355422974
-0.007751941680908203 0.16279065608978271 0.6463337540626526
-0.007751941680908203 0.17829453945159912 -0.6572493314743042
-0.007751941680908203 0.17829452455043793 -0.48637449741363525
-0.007751941680908203 0.17829453945159912 0.28243568539619446
-0.007751941680908203 0.17829453945159912 0.6006909608840942
-0.007751941680908203 0.19379842281341553 -0.7088829278945923
-0.007751941680908203 0.19379842281341553 -0.6135214567184448
-0.007751941680908203 0.19379842281341553 0.3807249069213867
-0.007751941215246916 0.19379842281341553 0.521242618560791
-0.007751941680908203 0.20930230617523193 -0.7476171255111694
-0.007751941680908203 0.20930230617523193 -0.6775180101394653
-0.007751941680908203 0.22480618953704834 -0.7716550827026367
-0.007751941680908203 0.22480618953704834 -0.7267094254493713
0.007751941680908203 -0.1782945990562439 -0.10468754172325134
0.007751941680908203 -0.1782945990562439 0.14641116559505463
0.007751941680908203 -0.1627907156944275 -0.13995496928691864
0.007751941680908203 -0.1627907156944275 0.20705772936344147
0.007751941680908203 -0.1627907156944275 0.38642027974128723
0.007751941680908203 -0.1627907156944275 0.4752002954483032
0.00775194214656949 -0.1627907156944275 0.7562312483787537
0.007751941680908203 -0.1627907156944275 0.8253515958786011
0.007751941680908203 -0.14728683233261108 -0.15711474418640137
0.007751941680908203 -0.14728683233261108 0.5032805800437927
0.007751941680908203 -0.14728683233261108 0.7299467921257019
0.00775194214656949 -0.14728683233261108 0.9565752148628235
0.007751941680908203 -0.13178294897079468 -0.18103182315826416
0.007751941680908203 -0.13178294897079468 0.5258062481880188
0.007751941680908203 -0.13178294897079468 0.7154300808906555
0.00775194214656949 -0.13178294897079468 0.9709205627441406
0.007751941680908203 -0.11627906560897827 -0.22360999882221222
0.007751941680908203 -0.11627906560897827 0.5449515581130981
0.007751941680908203 -0.11627906560897827 0.7046185731887817
0.007751941680908203 -0.11627906560897827 0.9783332347869873
0.007751941680908203 -0.10077518224716187 -0.3131456971168518
0.007751941680908203 -0.10077518224716187 0.5641130208969116
0.007751941680908203 -0.10077518224716187 0.697847843170166
0.007751941215246916 -0.10077518224716187 0.9847764372825623
0.007751941680908203 -0.08527129888534546 -0.3568156361579895
0.007751941680908203 -0.08527129888534546 0.5869013071060181
0.007751941215246916 -0.08527129888534546 0.680858314037323
0.007751941680908203 -0.08527129888534546 0.986315906047821
0.007751941680908203 -0.06976741552352905 -0.38584521412849426
0.007751941680908203 -0.06976741552352905 0.9875748157501221
0.007751941680908203 -0.05426359176635742 -0.41010186076164246
0.007751941680908203 -0.05426359176635742 0.9878714084625244
0.007751941680908203 -0.038759708404541016 -0.4290817379951477
0.007751941680908203 -0.038759708404541016 0.9873781800270081
0.007751941680908203 -0.02325582504272461 -0.4420711100101471
0.007751941680908203 -0.02325582504272461 0.9864341020584106
0.007751941680908203 -0.007751941680908203 -0.4593924582004547
0.007751941680908203 -0.007751941680908203 0.9850841760635376
0.007751941680908203 0.007751941680908203 -0.47803229093551636
0.007751941680908203 0.007751941680908203 0.9808241724967957
0.007751941680908203 0.02325582504272461 -0.5044826865196228
0.007751941680908203 0.02325582504272461 0.9747672080993652
0.007751941680908203 0.038759708404541016 -0.5742145776748657
0.007751941680908203 0.038759708404541016 0.9688043594360352
0.007751941680908203 0.05426359176635742 -0.708665132522583
0.007751941680908203 0.05426359176635742 0.7330932021141052
0.007751941680908203 0.05426359176635742 0.7711960673332214
0.007751941680908203 0.05426359176635742 0.9644586443901062
0.007751941680908203 0.06976747512817383 -0.914071798324585
0.007751941680908203 0.06976747512817383 -0.7764860391616821
0.007751941680908203 0.06976747512817383 -0.7219789624214172
0.007751941215246916 0.06976747512817383 0.7129074335098267
0.007751941680908203 0.06976747512817383 0.7917530536651611
0.007751941680908203 0.06976747512817383 0.9537476301193237
0.007751941680908203 0.08527135848999023 -0.9013842344284058
0.007751941680908203 0.08527135848999023 -0.7913788557052612
0.007751941680908203 0.08527135103940964 -0.6738204956054688
0.007751941680908203 0.08527135848999023 0.7089993953704834
0.007751941680908203 0.10077524185180664 -0.5021138191223145
0.007751941680908203 0.10077524185180664 -0.3794742822647095
0.007751941680908203 0.10077524185180664 -0.3539733290672302
0.007751941215246916 0.10077523440122604 0.7056221961975098
0.007751941680908203 0.11627912521362305 -0.35079845786094666
0.00775194214656949 0.11627913266420364 0.6968894004821777
0.007751941680908203 0.1317828893661499 -0.3730810284614563
0.007751941680908203 0.1317828893661499 0.6832500696182251
0.007751941680908203 0.1472867727279663 -0.47774451971054077
0.007751941680908203 0.1472867727279663 -0.1497729867696762
0.007751941680908203 0.1472867727279663 0.04735029488801956
0.007751941680908203 0.1472867727279663 0.6681720018386841
0.007751941680908203 0.16279065608978271 -0.5941672921180725
0.007751941680908203 0.16279064118862152 -0.27066218852996826
0.007751941680908203 0.16279065608978271 0.1817348599433899
0.007751941680908203 0.16279065608978271 0.6494721174240112
0.007751941680908203 0.17829453945159912 -0.6557753682136536
0.007751941680908203 0.17829453945159912 -0.45794814825057983
0.00775194214656949 0.17829453945159912 0.27614155411720276
0.007751941215246916 0.17829452455043793 0.612968385219574
0.007751941680908203 0.19379842281341553 -0.7049086093902588
0.007751941680908203 0.19379842281341553 -0.6016725301742554
0.00775194214656949 0.19379842281341553 0.36761391162872314
0.007751941680908203 0.19379842281341553 0.5381922721862793
0.007751941680908203 0.20930230617523193 -0.7399049401283264
0.007751941680908203 0.20930230617523193 -0.6659309267997742
0.007751941680908203 0.22480618953704834 -0.7702581882476807
0.007751941680908203 0.22480618953704834 -0.7188453674316406
0.007751941680908203 0.24031007289886475 -0.768908679485321
0.007751941680908203 0.24031007289886475 -0.7499324083328247
0.02325582504272461 -0.1782945990562439 -0.1096121296286583
0.02325582504272461 -0.1782945990562439 0.1436873823404312
0.02325582504272461 -0.1627907156944275 -0.15841743350028992
0.02325582504272461 -0.1627907156944275 0.19876688718795776
0.02325582504272461 -0.1627907156944275 0.4008708596229553
0.02325582504272461 -0.1627907156944275 0.47419020533561707
0.02325582504272461 -0.14728683233261108 -0.1849413812160492
0.02325582504272461 -0.14728683233261108 0.5019710659980774
0.02325582504272461 -0.14728684723377228 0.7366297245025635
0.02325582504272461 -0.14728683233261108 0.9010912179946899
0.02325582504272461 -0.13178294897079468 -0.22718921303749084
0.02325582504272461 -0.13178294897079468 0.5241581201553345
0.02325582504272461 -0.13178294897079468 0.7202882766723633
0.02325582504272461 -0.13178294897079468 0.9640092849731445
0.02325582504272461 -0.11627906560897827 -0.32113969326019287
0.02325582504272461 -0.11627906560897827 0.544101893901825
0.02325582504272461 -0.11627906560897827 0.7118552923202515
0.02325582504272461 -0.11627906560897827 0.9720948934555054
0.02325582504272461 -0.10077518224716187 -0.3688925504684448
0.02325582504272461 -0.10077518224716187 0.5627753138542175
0.02325582504272461 -0.10077518224716187 0.7044470310211182
0.02325582504272461 -0.10077518224716187 0.9771061539649963
0.02325582504272461 -0.08527129888534546 -0.4092964231967926
0.02325582504272461 -0.08527129888534546 0.5854916572570801
0.02325582504272461 -0.08527129888534546 0.6940744519233704
0.02325582504272461 -0.08527129888534546 0.9820641279220581
0.02325582504272461 -0.06976741552352905 -0.4462585151195526
0.02325582504272461 -0.06976741552352905 0.6251793503761292
0.02325582504272461 -0.06976741552352905 0.6445207595825195
0.02325582504272461 -0.06976741552352905 0.9851798415184021
0.02325582504272461 -0.05426359176635742 -0.47898411750793457
0.02325582504272461 -0.05426358804106712 0.9856855869293213
0.02325582504272461 -0.038759708404541016 -0.5029891729354858
0.02325582504272461 -0.038759712129831314 0.9854586124420166
0.02325582504272461 -0.02325582504272461 -0.5223190784454346
0.02325582504272461 -0.02325582504272461 0.9846969246864319
0.02325582504272461 -0.007751941680908203 -0.543004035949707
0.02325582504272461 -0.007751941680908203 0.9803762435913086
0.02325582318007946 0.007751941680908203 -0.5800938606262207
0.02325582504272461 0.007751941215246916 0.9750480651855469
0.02325582504272461 0.02325582504272461 -0.6460824012756348
0.02325582504272461 0.02325582504272461 0.9689735174179077
0.02325582504272461 0.038759708404541016 -0.7617699503898621
0.02325582504272461 0.038759708404541016 0.9653028249740601
0.02325582504272461 0.05426359176635742 -0.9477863311767578
0.02325582504272461 0.05426359176635742 0.7265628576278687
0.02325582504272461 0.05426359176635742 0.7735326290130615
0.02325582504272461 0.05426359176635742 0.9600206613540649
0.02325582504272461 0.06976747512817383 -0.9719333648681641
0.02325582504272461 0.06976747512817383 0.7089642286300659
0.02325582504272461 0.06976747512817383 0.7915008664131165
0.02325582504272461 0.06976747512817383 0.9452571868896484
0.02325582504272461 0.08527135848999023 -0.9706258177757263
0.02325582504272461 0.08527135848999023 -0.7531305551528931
0.02325582504272461 0.08527135848999023 -0.7217854261398315
0.02325582504272461 0.08527135848999023 0.7066366672515869
0.02325582504272461 0.10077524185180664 -0.9099456071853638
0.02325582504272461 0.10077524185180664 -0.7868502140045166
0.02325582504272461 0.10077524185180664 -0.5621556639671326
0.02325582504272461 0.10077524185180664 0.7020881175994873
0.02325582504272461 0.11627912521362305 -0.4315459132194519
0.02325582504272461 0.11627912521362305 -0.4230462610721588
0.02325582504272461 0.11627912521362305 -0.35003602504730225
0.02325582504272461 0.11627912521362305 0.6936560869216919
0.02325582504272461 0.1317828893661499 -0.36645159125328064
0.02325582504272461 0.1317828893661499 0.6807156801223755
0.02325582504272461 0.1472867727279663 -0.47686105966567993
0.02325582504272461 0.1472867727279663 -0.14120356738567352
0.02325582504272461 0.1472867727279663 0.03707839548587799
0.02325582504272461 0.1472867727279663 0.6671720147132874
0.02325582504272461 0.16279065608978271 -0.5940266251564026
0.02325582504272461 0.16279065608978271 -0.25747236609458923
0.02325582504272461 0.16279065608978271 0.1749521940946579
0.02325582504272461 0.16279065608978271 0.6512618064880371
0.02325582504272461 0.17829453945159912 -0.6578534841537476
0.02325582504272461 0.17829453945159912 -0.4383265972137451
0.02325582504272461 0.17829453945159912 0.26993927359580994
0.02325582504272461 0.17829453945159912 0.6206855177879333
0.02325582504272461 0.19379842281341553 -0.70371413230896
0.02325582504272461 0.19379842281341553 -0.5918451547622681
0.02325582504272461 0.19379842281341553 0.35964953899383545
0.02325582504272461 0.19379842281341553 0.5541690587997437
0.02325582504272461 0.20930230617523193 -0.7331945896148682
0.02325582504272461 0.20930229127407074 -0.6562332510948181
0.02325582504272461 0.22480618953704834 -0.7677149176597595
0.02325582504272461 0.22480618953704834 -0.7112643718719482
0.02325582504272461 0.24031007289886475 -0.7707155346870422
0.02325582504272461 0.24031007289886475 -0.7446922063827515
0.038759708404541016 -0.1782945990562439 -0.11011315882205963
0.038759708404541016 -0.1782945990562439 0.13961967825889587
0.038759708404541016 -0.1627907156944275 -0.17049208283424377
0.038759708404541016 -0.1627907156944275 0.1898902803659439
0.038759708404541016 -0.1627907156944275 0.41175225377082825
0.038759708404541016 -0.1627907156944275 0.4755726754665375
0.038759708404541016 -0.14728683233261108 -0.21680998802185059
0.038759708404541016 -0.14728683233261108 0.5026460886001587
0.038759708404541016 -0.14728683233261108 0.7607384920120239
0.038759708404541016 -0.14728683233261108 0.8135018348693848
0.038759708404541016 -0.13178294897079468 -0.3099006414413452
0.038759708404541016 -0.13178294897079468 0.5243841409683228
0.038759708404541016 -0.13178294897079468 0.7338982820510864
0.038759708404541016 -0.13178294897079468 0.944701611995697
0.038759708404541016 -0.11627906560897827 -0.363463431596756
0.038759708404541016 -0.11627906560897827 0.5440877079963684
0.038759708404541016 -0.11627906560897827 0.7206156253814697
0.038759708404541016 -0.11627906560897827 0.9639459848403931
0.038759708404541016 -0.10077517479658127 -0.4061005115509033
0.038759708404541016 -0.10077518224716187 0.5632315874099731
0.038759708404541016 -0.10077518224716187 0.7167761921882629
0.038759708404541016 -0.10077518224716187 0.9697840213775635
0.038759708404541016 -0.08527129888534546 -0.45226314663887024
0.038759708404541016 -0.08527129888534546 0.5873693823814392
0.038759708404541016 -0.08527129888534546 0.7140645980834961
0.038759708404541016 -0.08527129888534546 0.9739845991134644
0.038759708404541016 -0.06976741552352905 -0.4929986596107483
0.038759708404541016 -0.06976741552352905 0.6227204203605652
0.038759708404541016 -0.06976741552352905 0.6813949346542358
0.038759708404541016 -0.06976741552352905 0.9765967130661011
0.038759708404541016 -0.05426359176635742 -0.5280725359916687
0.038759708404541016 -0.05426359176635742 0.9785873293876648
0.038759708404541016 -0.038759708404541016 -0.5648500323295593
0.038759708404541016 -0.038759708404541016 0.9790248274803162
0.038759708404541016 -0.02325582504272461 -0.610336422920227
0.038759708404541016 -0.02325582504272461 0.9772093296051025
0.038759708404541016 -0.007751941680908203 -0.6583735942840576
0.038759708404541016 -0.007751941215246916 0.9735284447669983
0.038759708404541016 0.007751941680908203 -0.7536815404891968
0.038759708404541016 0.007751941680908203 0.968247652053833
0.038759708404541016 0.02325582504272461 -0.9130018949508667
0.038759708404541016 0.02325582504272461 -0.8341286182403564
0.038759708404541016 0.02325582504272461 -0.8243382573127747
0.038759708404541016 0.02325582504272461 0.9647053480148315
0.038759708404541016 0.038759708404541016 -0.9662667512893677
0.038759708404541016 0.038759708404541016 0.9594786167144775
0.038759708404541016 0.05426359176635742 -0.9884405136108398
0.038759708404541016 0.05426359176635742 0.710829496383667
0.038759708404541016 0.05426359176635742 0.775776743888855
0.038759708404541016 0.05426359176635742 0.951825737953186
0.038759708404541016 0.06976747512817383 -0.9913903474807739
0.038759708404541016 0.06976747512817383 0.7015539407730103
0.038759708404541016 0.06976747512817383 0.7907595038414001
0.038759708404541016 0.06976747512817383 0.9333709478378296
0.038759708404541016 0.08527135848999023 -0.9911121129989624
0.038759708404541016 0.08527135848999023 0.7028717398643494
0.038759708404541016 0.10077524185180664 -0.9506775140762329
0.038759708404541016 0.10077524185180664 -0.7715427279472351
0.038759708404541016 0.10077524185180664 -0.5765963792800903
0.038759708404541016 0.10077524185180664 0.6994956135749817
0.038759708404541016 0.11627912521362305 -0.46841108798980713
0.038759708404541016 0.11627912521362305 -0.3992222547531128
0.038759708404541016 0.11627912521362305 -0.34266358613967896
0.038759708404541016 0.11627912521362305 0.6914701461791992
0.038759708404541016 0.1317828893661499 -0.3564225435256958
0.038759708404541016 0.1317828893661499 0.6781289577484131
0.038759708404541016 0.1472867727279663 -0.47630780935287476
0.038759708404541016 0.1472867727279663 -0.13300970196723938
0.03875970467925072 0.1472867727279663 0.025539370253682137
0.038759708404541016 0.1472867727279663 0.6656479835510254
0.038759708404541016 0.16279065608978271 -0.5796681046485901
0.038759708404541016 0.16279065608978271 -0.24590429663658142
0.038759708404541016 0.16279065608978271 0.16534003615379333
0.038759708404541016 0.16279065608978271 0.6515384912490845
0.038759708404541016 0.17829453945159912 -0.6522546410560608
0.038759708404541016 0.17829453945159912 -0.42131131887435913
0.038759708404541016 0.17829453945159912 0.263763427734375
0.038759708404541016 0.17829453945159912 0.6265447735786438
0.038759708404541016 0.19379842281341553 -0.7004238367080688
0.038759708404541016 0.19379842281341553 -0.5816342830657959
0.038759708404541016 0.19379842281341553 0.3553856611251831
0.038759708404541016 0.19379843771457672 0.567142903804779
0.038759708404541016 0.20930230617523193 -0.7276594638824463
0.038759708404541016 0.20930230617523193 -0.6466555595397949
0.038759708404541016 0.22480618953704834 -0.7572687864303589
0.038759708404541016 0.22480620443820953 -0.702619194984436
0.038759708404541016 0.24031007289886475 -0.7707669734954834
0.038759708404541016 0.24031007289886475 -0.7356139421463013
0.05426359176635742 -0.1782945990562439 -0.10959278047084808
0.05426359176635742 -0.1782945990562439 0.13386757671833038
0.05426359549164772 -0.1627907156944275 -0.17433783411979675
0.05426359176635742 -0.1627907156944275 0.17734119296073914
0.05426359176635742 -0.1627907156944275 0.42435723543167114
0.05426359176635742 -0.1627907156944275 0.47715669870376587
0.05426359176635742 -0.14728683233261108 -0.25104576349258423
0.05426359176635742 -0.14728683233261108 0.5033236145973206
0.05426359176635742 -0.13178294897079468 -0.3375420570373535
0.05426359176635742 -0.13178294897079468 0.5240790843963623
0.05426359176635742 -0.13178294897079468 0.7758281230926514
0.05426359176635742 -0.13178294897079468 0.814643383026123
0.05426359176635742 -0.11627906560897827 -0.3846937417984009
0.05426359176635742 -0.11627906560897827 0.5436010360717773
0.05426358804106712 -0.11627905815839767 0.7425236701965332
0.05426358804106712 -0.11627906560897827 0.9388172626495361
0.05426359176635742 -0.10077518224716187 -0.4355989694595337
0.05426359176635742 -0.10077518224716187 0.563032865524292
0.05426359176635742 -0.10077518224716187 0.733366072177887
0.05426359176635742 -0.10077518224716187 0.9572367668151855
0.05426359176635742 -0.08527129888534546 -0.4816487431526184
0.05426359176635742 -0.08527129888534546 0.5877434015274048
0.05426359176635742 -0.08527129888534546 0.7322349548339844
0.05426359176635742 -0.08527129888534546 0.9646307826042175
0.05426359176635742 -0.06976741552352905 -0.9867996573448181
0.05426359176635742 -0.06976741552352905 -0.9595447778701782
0.05426359176635742 -0.06976741552352905 -0.5225393772125244
0.05426359176635742 -0.06976741552352905 0.6194956302642822
0.05426359176635742 -0.06976741552352905 0.731460690498352
0.05426359176635742 -0.06976741552352905 0.9692167043685913
0.05426359176635742 -0.05426359176635742 -0.986923098564148
0.05426359176635742 -0.05426359176635742 -0.9514786005020142
0.05426359176635742 -0.05426359176635742 -0.5640283823013306
0.05426359176635742 -0.05426359176635742 0.9713876247406006
0.05426359176635742 -0.038759708404541016 -0.9858953356742859
0.05426359176635742 -0.038759708404541016 -0.9536065459251404
0.05426359176635742 -0.038759708404541016 -0.6201598048210144
0.05426359176635742 -0.038759708404541016 0.9719091653823853
0.05426359176635742 -0.02325582504272461 -0.6869819760322571
0.05426359176635742 -0.02325582504272461 0.9700911045074463
0.05426359176635742 -0.007751941680908203 -0.8997633457183838
0.05426359176635742 -0.007751941680908203 -0.8413378000259399
0.05426359176635742 -0.007751941680908203 -0.7976400256156921
0.05426359176635742 -0.007751941680908203 0.9670436978340149
0.05426359176635742 0.007751941680908203 -0.9392614364624023
0.05426359176635742 0.007751941680908203 0.9636331796646118
0.05426359176635742 0.02325582504272461 -0.9697602391242981
0.05426359176635742 0.02325582690536976 0.9574680924415588
0.05426359176635742 0.038759708404541016 -0.9852284789085388
0.05426358804106712 0.03875970467925072 0.7080885767936707
0.05426359176635742 0.038759708404541016 0.7632717490196228
0.05426359176635742 0.038759708404541016 0.9512657523155212
0.05426359176635742 0.05426359176635742 -0.9908218383789062
0.05426359176635742 0.05426359176635742 0.6908236145973206
0.05426359176635742 0.05426359176635742 0.7769995927810669
0.05426359176635742 0.05426359176635742 0.9441103339195251
0.05426359176635742 0.06976747512817383 -0.9915543794631958
0.05426359176635742 0.06976747512817383 0.6931816339492798
0.05426359176635742 0.06976747512817383 0.7904459238052368
0.05426359176635742 0.06976747512817383 0.916515588760376
0.05426359176635742 0.08527135848999023 -0.991173267364502
0.05426359176635742 0.08527135848999023 0.6971989870071411
0.05426359176635742 0.10077524185180664 -0.956314742565155
0.05426359176635742 0.10077524185180664 -0.7744953632354736
0.05426359176635742 0.10077524930238724 -0.5497575998306274
0.05426359176635742 0.10077524185180664 0.6968561410903931
0.05426359176635742 0.11627912521362305 -0.45293116569519043
0.05426359176635742 0.11627912521362305 -0.4218748211860657
0.05426359176635742 0.11627912521362305 -0.32720303535461426
0.05426359176635742 0.11627912521362305 0.6900451183319092
0.05426359176635742 0.1317828893661499 -0.34611284732818604
0.05426359549164772 0.1317828893661499 0.6757730841636658
0.05426359176635742 0.1472867727279663 -0.478568434715271
0.05426359549164772 0.1472867727279663 -0.1317112147808075
0.05426359176635742 0.1472867727279663 0.021306931972503662
0.05426359176635742 0.1472867727279663 0.6633930206298828
0.05426359549164772 0.16279065608978271 -0.5613894462585449
0.05426359176635742 0.16279065608978271 -0.24189262092113495
0.05426359176635742 0.16279065608978271 0.15661390125751495
0.05426359176635742 0.16279065608978271 0.6504372954368591
0.05426359176635742 0.17829453945159912 -0.6423278450965881
0.05426359176635742 0.17829453945159912 -0.4115826487541199
0.05426359176635742 0.17829453945159912 0.25893282890319824
0.05426359176635742 0.17829453945159912 0.6282712817192078
0.05426359176635742 0.19379842281341553 -0.6954466104507446
0.05426359176635742 0.19379842281341553 -0.5732046365737915
0.05426359176635742 0.19379842281341553 0.35482609272003174
0.05426359176635742 0.19379842281341553 0.5747179388999939
0.05426359176635742 0.20930230617523193 -0.723351001739502
0.05426359176635742 0.20930230617523193 -0.6401228904724121
0.05426359176635742 0.22480618953704834 -0.7464662790298462
0.05426359176635742 0.22480618953704834 -0.693748950958252
0.05426359176635742 0.24031007289886475 -0.7696603536605835
0.05426359176635742 0.24031007289886475 -0.7290925979614258
0.05426359176635742 0.25581395626068115 -0.7691033482551575
0.05426359176635742 0.25581395626068115 -0.7579900026321411
0.06976747512817383 -0.1782945990562439 -0.10671848058700562
0.06976747512817383 -0.1782945990562439 0.12386656552553177
0.06976747512817383 -0.1627907156944275 -0.1732223927974701
0.06976747512817383 -0.1627907156944275 0.16387391090393066
0.06976747512817383 -0.1627907156944275 0.4366256594657898
0.06976747512817383 -0.1627907156944275 0.4773481488227844
0.06976747512817383 -0.14728683233261108 -0.2905329465866089
0.06976747512817383 -0.14728683233261108 0.23901277780532837
0.06976747512817383 -0.14728683233261108 0.24229548871517181
0.06976747512817383 -0.14728683233261108 0.5029416084289551
0.06976747512817383 -0.13178294897079468 -0.3542007803916931
0.06976747512817383 -0.13178294897079468 0.5220059752464294
0.06976747512817383 -0.11627906560897827 -0.4051729440689087
0.06976747512817383 -0.11627906560897827 0.5417798757553101
0.06976747512817383 -0.10077518224716187 -0.9882845878601074
0.06976747512817383 -0.10077518224716187 -0.9591821432113647
0.06976747512817383 -0.10077518224716187 -0.46280646324157715
0.06976747512817383 -0.10077518224716187 0.5606952905654907
0.06976747512817383 -0.10077518224716187 0.7740955948829651
0.06976747512817383 -0.10077518224716187 0.8934499621391296
0.06976747512817383 -0.08527129888534546 -0.9894946217536926
0.06976747512817383 -0.08527129888534546 -0.9416850209236145
0.06976747512817383 -0.08527129888534546 -0.5073654055595398
0.06976747512817383 -0.08527129888534546 0.5846157073974609
0.06976747512817383 -0.08527129888534546 0.7600611448287964
0.06976747512817383 -0.08527129888534546 0.9411213397979736
0.06976747512817383 -0.06976741552352905 -0.9886630177497864
0.06976747512817383 -0.06976741552352905 -0.9327696561813354
0.06976747512817383 -0.06976742297410965 -0.5491856336593628
0.06976747512817383 -0.06976741552352905 0.6099896430969238
0.06976748257875443 -0.06976741552352905 0.7525045275688171
0.06976747512817383 -0.06976741552352905 0.954241931438446
0.06976747512817383 -0.05426359176635742 -0.9877177476882935
0.06976747512817383 -0.05426359176635742 -0.9246442914009094
0.06976747512817383 -0.05426359176635742 -0.5961712598800659
0.06976747512817383 -0.05426359176635742 0.64060378074646
0.06976747512817383 -0.05426358804106712 0.7386241555213928
0.06976747512817383 -0.05426359176635742 0.9615042209625244
0.06976747512817383 -0.038759708404541016 -0.9871219992637634
0.06976747512817383 -0.038759708404541016 -0.9182355403900146
0.06976747512817383 -0.038759708404541016 -0.6600478887557983
0.06976747512817383 -0.038759708404541016 0.6793588399887085
0.06976747512817383 -0.038759708404541016 0.7153998613357544
0.06976747512817383 -0.038759708404541016 0.9633740782737732
0.06976747512817383 -0.02325582504272461 -0.9863619804382324
0.06976747512817383 -0.02325582504272461 -0.8534929156303406
0.06976747512817383 -0.02325582504272461 -0.7734097242355347
0.06976747512817383 -0.02325582504272461 0.9630481004714966
0.06976747512817383 -0.007751941680908203 -0.979347825050354
0.06976747512817383 -0.007751941215246916 0.9601908922195435
0.06976747512817383 0.007751941680908203 -0.9703651070594788
0.06976747512817383 0.007751941680908203 0.9546562433242798
0.06976747512817383 0.02325582504272461 -0.9709749817848206
0.06976747512817383 0.02325582504272461 0.6899204850196838
0.06976747512817383 0.02325582504272461 0.7404782772064209
0.06976747512817383 0.02325582504272461 0.9487026333808899
0.06976747512817383 0.038759708404541016 -0.9757169485092163
0.06976747512817383 0.038759708404541016 0.6820902824401855
0.06976747512817383 0.038759708404541016 0.7661585807800293
0.06976747512817383 0.038759708404541016 0.9418299198150635
0.06976747512817383 0.05426359176635742 -0.988085150718689
0.06976747512817383 0.05426359176635742 0.6799250245094299
0.06976747512817383 0.05426359176635742 0.7780070900917053
0.06976747512817383 0.05426359176635742 0.9276297688484192
0.06976747512817383 0.06976747512817383 -0.989517331123352
0.06976747512817383 0.06976747512817383 0.686420738697052
0.06976747512817383 0.06976747512817383 0.7912030816078186
0.06976747512817383 0.06976747512817383 0.8751884698867798
0.06976747512817383 0.08527135848999023 -0.9748287796974182
0.06976747512817383 0.08527135848999023 -0.7488987445831299
0.06976747512817383 0.08527135848999023 -0.6146195530891418
0.06976747512817383 0.08527135848999023 0.6922723054885864
0.06976747512817383 0.10077524185180664 -0.9377781748771667
0.06976747512817383 0.10077524185180664 -0.8121132850646973
0.06976747512817383 0.10077524185180664 -0.5135183334350586
0.06976747512817383 0.10077524185180664 -0.3975426256656647
0.06976747512817383 0.10077524185180664 -0.3010624945163727
0.06976747512817383 0.10077524185180664 0.6929512619972229
0.06976747512817383 0.11627912521362305 -0.29104793071746826
0.06976747512817383 0.11627912521362305 0.6864278316497803
0.06976747512817383 0.1317828893661499 -0.32770904898643494
0.06976747512817383 0.1317828893661499 0.6729924082756042
0.06976747512817383 0.1472867727279663 -0.4583231806755066
0.06976747512817383 0.1472867727279663 -0.1388666182756424
0.06976747512817383 0.1472867727279663 0.02628980576992035
0.06976747512817383 0.1472867727279663 0.6602606177330017
0.06976747512817383 0.16279065608978271 -0.5524449348449707
0.06976747512817383 0.16279065608978271 -0.24838928878307343
0.06976747512817383 0.16279064118862152 0.1508135050535202
0.06976747512817383 0.16279065608978271 0.6474799513816833
0.06976747512817383 0.17829453945159912 -0.6348667740821838
0.06976747512817383 0.17829453945159912 -0.41284945607185364
0.06976747512817383 0.17829453945159912 0.2557050287723541
0.06976747512817383 0.17829453945159912 0.6254389882087708
0.06976747512817383 0.19379842281341553 -0.689307451248169
0.06976747512817383 0.19379842281341553 -0.5703386068344116
0.06976747512817383 0.19379842281341553 0.35764777660369873
0.06976747512817383 0.19379842281341553 0.5756919384002686
0.06976747512817383 0.20930230617523193 -0.7203709483146667
0.06976747512817383 0.20930230617523193 -0.6373298764228821
0.06976747512817383 0.22480618953704834 -0.7389175295829773
0.06976747512817383 0.22480618953704834 -0.6887377500534058
0.06976747512817383 0.24031007289886475 -0.764723539352417
0.06976747512817383 0.24031007289886475 -0.7249791026115417
0.06976747512817383 0.25581395626068115 -0.7708864808082581
0.06976747512817383 0.25581395626068115 -0.750694990158081
0.08527135848999023 -0.1782945990562439 -0.09931479394435883
0.08527135848999023 -0.1782945990562439 0.10653743147850037
0.08527135848999023 -0.1627907156944275 -0.16713061928749084
0.08527135848999023 -0.1627907156944275 0.14772118628025055
0.08527135848999023 -0.1627907156944275 0.4559130370616913
0.08527135848999023 -0.1627907156944275 0.4658559262752533
0.08527135848999023 -0.14728683233261108 -0.29797491431236267
0.08527135848999023 -0.14728683233261108 0.19132937490940094
0.08527135848999023 -0.14728683233261108 0.3135625422000885
0.08527135848999023 -0.14728683233261108 0.5000497102737427
0.08527135848999023 -0.13178294897079468 -0.9856314659118652
0.08527135848999023 -0.13178294897079468 -0.9708825349807739
0.08527135848999023 -0.13178294897079468 -0.3614012598991394
0.08527135848999023 -0.13178294897079468 0.5173854827880859
0.08527135848999023 -0.11627906560897827 -0.9905874133110046
0.08527135848999023 -0.11627906560897827 -0.9483217000961304
0.08527135848999023 -0.11627906560897827 -0.4213792383670807
0.08527135848999023 -0.11627906560897827 0.5361319184303284
0.08527135848999023 -0.10077518224716187 -0.9904448986053467
0.08527135103940964 -0.10077518224716187 -0.9356309771537781
0.08527135848999023 -0.10077518224716187 -0.4795888662338257
0.08527135848999023 -0.10077518224716187 0.5561363697052002
0.08527135848999023 -0.08527129888534546 -0.9893893599510193
0.08527135848999023 -0.08527129888534546 -0.9291784167289734
0.08527135848999023 -0.08527129888534546 -0.5245037078857422
0.08527135848999023 -0.08527129888534546 0.5768806338310242
0.08527135848999023 -0.06976741552352905 -0.9882071614265442
0.08527135848999023 -0.06976741552352905 -0.9199696779251099
0.08527135848999023 -0.06976741552352905 -0.5697263479232788
0.08527135848999023 -0.06976741552352905 0.6032096147537231
0.08527135848999023 -0.06976741552352905 0.8027456402778625
0.08527135848999023 -0.06976741552352905 0.9003950357437134
0.08527135848999023 -0.05426359176635742 -0.9872792363166809
0.08527135848999023 -0.05426359176635742 -0.9125092029571533
0.08527135848999023 -0.05426359176635742 -0.620080828666687
0.08527135848999023 -0.05426359176635742 0.6267614960670471
0.08527135848999023 -0.05426359176635742 0.7566372156143188
0.08527135848999023 -0.05426359176635742 0.9323320388793945
0.08527135848999023 -0.038759708404541016 -0.98689866065979
0.08527135848999023 -0.038759712129831314 -0.890030562877655
0.08527135848999023 -0.038759708404541016 -0.6922153830528259
0.08527135848999023 -0.038759708404541016 0.6510109901428223
0.08527135848999023 -0.038759708404541016 0.7331966757774353
0.08527135848999023 -0.038759708404541016 0.9430086612701416
0.08527135848999023 -0.02325582504272461 -0.9867480993270874
0.08527135848999023 -0.02325582504272461 0.6713393926620483
0.08527135848999023 -0.02325582504272461 0.7203152775764465
0.08527135848999023 -0.02325582504272461 0.94493567943573
0.08527135848999023 -0.007751941680908203 -0.9854803681373596
0.08527135848999023 -0.00775194214656949 0.6786140203475952
0.08527135848999023 -0.007751941680908203 0.7180399894714355
0.08527135848999023 -0.007751941680908203 0.9437739849090576
0.08527135848999023 0.007751941680908203 -0.9715211391448975
0.08527135848999023 0.007751941680908203 0.6779312491416931
0.08527135848999023 0.007751941680908203 0.7305609583854675
0.08527135848999023 0.007751941680908203 0.9389946460723877
0.08527135848999023 0.02325582504272461 -0.9608664512634277
0.08527135848999023 0.02325582504272461 0.6773185133934021
0.08527135848999023 0.02325582504272461 0.7535997629165649
0.08527135848999023 0.02325582504272461 0.9294103384017944
0.08527135848999023 0.038759708404541016 -0.9567075967788696
0.08527135848999023 0.038759708404541016 0.6765889525413513
0.08527135848999023 0.038759708404541016 0.7713292837142944
0.08527135848999023 0.038759708404541016 0.9154580235481262
0.08527135848999023 0.05426359176635742 -0.9561112523078918
0.08527135848999023 0.05426359176635742 0.6763176321983337
0.08527135848999023 0.05426359176635742 0.7814068794250488
0.08527135848999023 0.05426359176635742 0.8757890462875366
0.08527135848999023 0.06976747512817383 -0.9511450529098511
0.08527135848999023 0.06976747512817383 0.6783885359764099
0.08527135848999023 0.06976747512817383 0.7951752543449402
0.08527135848999023 0.06976747512817383 0.8445624709129333
0.08527135848999023 0.08527135848999023 -0.9297440052032471
0.08527135848999023 0.08527135848999023 -0.8466113209724426
0.08527135848999023 0.08527135848999023 -0.52936190366745
0.08527135848999023 0.08527135848999023 -0.380864679813385
0.08527135848999023 0.08527135848999023 -0.2933207154273987
0.08527135848999023 0.08527135848999023 0.6848134994506836
0.08527135848999023 0.10077524185180664 -0.2611244022846222
0.08527135848999023 0.10077524185180664 0.6864974498748779
0.08527135848999023 0.11627912521362305 -0.2612588107585907
0.08527135848999023 0.11627912521362305 0.6793289184570312
0.08527135848999023 0.1317828893661499 -0.2969818115234375
0.08527135848999023 0.1317828893661499 0.6684763431549072
0.08527135848999023 0.1472867727279663 -0.3926194906234741
0.08527135848999023 0.1472867727279663 -0.14605391025543213
0.08527135848999023 0.1472867727279663 0.0348183773458004
0.08527135848999023 0.1472867727279663 0.6548912525177002
0.08527135848999023 0.16279065608978271 -0.540858268737793
0.08527135848999023 0.16279065608978271 -0.25378426909446716
0.08527136594057083 0.16279065608978271 0.15114660561084747
0.08527135848999023 0.16279065608978271 0.6404528021812439
0.08527135848999023 0.17829453945159912 -0.6272408366203308
0.08527135848999023 0.17829453945159912 -0.41406211256980896
0.08527135848999023 0.17829453945159912 0.26065999269485474
0.08527135848999023 0.17829453945159912 0.6186748743057251
0.08527135848999023 0.19379842281341553 -0.6822143793106079
0.08527135848999023 0.19379842281341553 -0.5695043802261353
0.08527135848999023 0.19379842281341553 0.3704628348350525
0.08527135848999023 0.19379842281341553 0.566935122013092
0.08527135848999023 0.20930230617523193 -0.7162709832191467
0.08527135848999023 0.20930230617523193 -0.6358160972595215
0.08527135848999023 0.22480618953704834 -0.7326390743255615
0.08527135848999023 0.22480618953704834 -0.6860289573669434
0.08527135848999023 0.24031007289886475 -0.755462646484375
0.08527135848999023 0.24031007289886475 -0.7209370136260986
0.08527135848999023 0.25581395626068115 -0.7712062001228333
0.08527135848999023 0.25581395626068115 -0.7484129071235657
0.10077524185180664 -0.1782945990562439 -0.07001546025276184
0.10077524185180664 -0.1782945990562439 0.07606528699398041
0.10077524185180664 -0.1627907156944275 -0.984508752822876
0.10077524185180664 -0.1627907156944275 -0.968542754650116
0.10077524185180664 -0.1627907156944275 -0.15442007780075073
0.10077524185180664 -0.1627907156944275 0.1257162243127823
0.10077524185180664 -0.14728683233261108 -0.989773154258728
0.10077524185180664 -0.14728683233261108 -0.9537569284439087
0.10077523440122604 -0.14728683233261108 -0.2401859164237976
0.10077524185180664 -0.14728683233261108 0.16035550832748413
0.10077524185180664 -0.14728683233261108 0.391814649105072
0.10077524185180664 -0.14728683233261108 0.494606614112854
0.10077524185180664 -0.13178294897079468 -0.9908593893051147
0.10077524185180664 -0.13178294897079468 -0.9435609579086304
0.10077524185180664 -0.13178294897079468 -0.35603511333465576
0.10077524185180664 -0.13178294897079468 0.2188502550125122
0.10077524185180664 -0.13178294897079468 0.27567705512046814
0.10077524185180664 -0.13178294897079468 0.5124715566635132
0.10077524185180664 -0.11627906560897827 -0.9906246066093445
0.10077524185180664 -0.11627907305955887 -0.9348695278167725
0.10077524185180664 -0.11627906560897827 -0.42044374346733093
0.10077524185180664 -0.11627906560897827 0.5287949442863464
0.10077524185180664 -0.10077518224716187 -0.9899207353591919
0.10077524185180664 -0.10077518224716187 -0.9295172691345215
0.10077524185180664 -0.10077518224716187 -0.48725923895835876
0.10077524185180664 -0.10077518224716187 0.5463876128196716
0.10077524185180664 -0.08527129888534546 -0.988878071308136
0.10077524185180664 -0.08527129888534546 -0.9208531975746155
0.10077524185180664 -0.08527129888534546 -0.5332947373390198
0.10077524185180664 -0.08527129888534546 0.5689437389373779
0.10077524185180664 -0.06976741552352905 -0.9877663254737854
0.10077524185180664 -0.06976741552352905 -0.9153822660446167
0.10077524185180664 -0.06976741552352905 -0.5784214735031128
0.10077524185180664 -0.06976741552352905 0.5926221609115601
0.10077524185180664 -0.05426359176635742 -0.9869341850280762
0.10077524185180664 -0.05426359176635742 -0.9034305214881897
0.10077524185180664 -0.05426359176635742 -0.6259880661964417
0.10077524185180664 -0.05426359176635742 0.6173191666603088
0.10077524185180664 -0.038759708404541016 -0.9866381287574768
0.10077524185180664 -0.038759708404541016 -0.8826372623443604
0.10077524185180664 -0.038759708404541016 -0.6969667673110962
0.10077524185180664 -0.038759708404541016 0.6378079056739807
0.10077524185180664 -0.038759708404541016 0.7819308042526245
0.10077524185180664 -0.038759708404541016 0.8616310954093933
0.10077524185180664 -0.02325582504272461 -0.9866418242454529
0.10077524185180664 -0.02325582504272461 0.6542831063270569
0.10077524185180664 -0.02325582504272461 0.7517227530479431
0.10077524185180664 -0.02325582504272461 0.892987847328186
0.10077524185180664 -0.007751941680908203 -0.9854624271392822
0.10077524185180664 -0.007751941680908203 0.663718581199646
0.10077524185180664 -0.007751941680908203 0.749995231628418
0.10077524185180664 -0.00775194214656949 0.8961204290390015
0.10077524185180664 0.007751941680908203 -0.9635697603225708
0.10077524185180664 0.007751941680908203 0.6684051752090454
0.10077524185180664 0.007751941680908203 0.764805018901825
0.10077524185180664 0.007751941680908203 0.8841907978057861
0.10077524185180664 0.02325582504272461 -0.9077906012535095
0.10077524185180664 0.02325582504272461 0.6716182231903076
0.10077524185180664 0.02325582504272461 0.7789024114608765
0.10077524185180664 0.02325582504272461 0.8637338876724243
0.10077524185180664 0.03875970467925072 -0.8594232201576233
0.10077524185180664 0.038759708404541016 0.672224760055542
0.10077524185180664 0.038759708404541016 0.7883785963058472
0.10077524185180664 0.038759708404541016 0.8460719585418701
0.10077524185180664 0.05426359176635742 -0.7903776168823242
0.10077524185180664 0.05426359176635742 0.6715641021728516
0.10077524185180664 0.05426359176635742 0.798396646976471
0.10077524185180664 0.05426359176635742 0.8264505863189697
0.10077524185180664 0.06976747512817383 -0.5708383321762085
0.10077524185180664 0.06976747512817383 0.6723740696907043
0.10077524185180664 0.08527135848999023 -0.26840996742248535
0.10077523440122604 0.08527135848999023 0.6748014688491821
0.10077524185180664 0.10077524185180664 -0.25144171714782715
0.10077524185180664 0.10077524185180664 0.6747691035270691
0.10077524185180664 0.11627913266420364 -0.25161445140838623
0.10077524185180664 0.11627912521362305 0.6699200868606567
0.10077524185180664 0.1317828893661499 -0.2811969518661499
0.10077524185180664 0.1317828893661499 0.6595004796981812
0.10077524185180664 0.1472867727279663 -0.36460167169570923
0.10077524185180664 0.1472867727279663 -0.15344958007335663
0.10077524185180664 0.1472867727279663 0.04285714402794838
0.10077524185180664 0.1472867727279663 0.6473823189735413
0.10077524185180664 0.16279065608978271 -0.5277161598205566
0.10077524185180664 0.16279065608978271 -0.26015281677246094
0.10077524185180664 0.16279065608978271 0.15535587072372437
0.10077524185180664 0.16279065608978271 0.6322057843208313
0.10077524185180664 0.17829453945159912 -0.6212994456291199
0.10077524185180664 0.17829453945159912 -0.41950762271881104
0.10077523440122604 0.17829453945159912 0.27672144770622253
0.10077524185180664 0.17829453945159912 0.6083739399909973
0.10077524185180664 0.19379842281341553 -0.674766480922699
0.10077524185180664 0.19379842281341553 -0.5709946751594543
0.10077524185180664 0.19379842281341553 0.397270143032074
