0.25581395626068115 0.11886938661336899 0.5038759708404541
0.25581395626068115 0.14556346833705902 0.4573643207550049
0.25581395626068115 0.13894949853420258 0.4728682041168213
0.25581395626068115 0.1521703004837036 0.24031007289886475
0.25581395626068115 0.16020745038986206 0.25581395626068115
0.25581395626068115 0.15736515820026398 0.42635655403137207
0.25581395626068115 0.1530526876449585 0.4418604373931885
0.25581395626068115 0.1642514169216156 0.27131783962249756
0.25581395626068115 0.16601799428462982 0.28682172298431396
0.25581395626068115 0.1672794669866562 0.30232560634613037
0.25581395626068115 0.16797010600566864 0.3178294897079468
0.25581395626068115 0.16862443089485168 0.3333333730697632
0.25581395626068115 0.16886278986930847 0.3488372564315796
0.25581395626068115 0.16885557770729065 0.364341139793396
0.25581395626068115 0.1683509349822998 0.37984490394592285
0.25581395626068115 0.16682475805282593 0.39534878730773926
0.25581395626068115 0.16304358839988708 0.41085267066955566
0.27131783962249756 0.0222180038690567 0.5038759708404541
0.27131783962249756 0.03332941234111786 0.4573643207550049
0.27131783962249756 0.0277317613363266 0.4728681743144989
0.27131783962249756 0.023825379088521004 0.4883720874786377
0.27131783962249756 0.023795273154973984 0.5193797945976257
0.27131783962249756 0.026519596576690674 0.5348837375640869
0.27131783962249756 0.03195984661579132 0.5503876209259033
0.27131783962249756 0.05335099995136261 0.39534878730773926
0.27131783962249756 0.04915829747915268 0.41085267066955566
0.27131783962249756 0.04435688257217407 0.42635655403137207
0.27131783962249756 0.03919370472431183 0.4418604373931885
0.27131783962249756 0.06870470196008682 0.25581395626068115
0.27131783962249756 0.06623974442481995 0.27131783962249756
0.27131783962249756 0.06488785147666931 0.28682172298431396
0.27131783962249756 0.0646706148982048 0.30232560634613037
0.27131783962249756 0.06514649093151093 0.3178294897079468
0.27131783962249756 0.06547974050045013 0.3333333730697632
0.27131783962249756 0.06444286555051804 0.3488372564315796
0.27131783962249756 0.061980437487363815 0.364341139793396
0.27131783962249756 0.058317676186561584 0.37984490394592285
0.27131783962249756 0.06283922493457794 0.5503876209259033
0.27131783962249756 0.08153016865253448 0.22480618953704834
0.27131783962249756 0.07376882433891296 0.24031007289886475
0.27131783962249756 0.07723557204008102 0.5348837375640869
0.27131783962249756 0.09535165131092072 0.20930230617523193
0.27131783962249756 0.08964445441961288 0.5193798542022705
0.27131783962249756 0.11448889970779419 0.4883720874786377
0.27131783962249756 0.10194750875234604 0.5038759708404541
0.27131783962249756 0.12633967399597168 0.4728682041168213
0.27131783962249756 0.1440775990486145 0.4418604373931885
0.27131783962249756 0.13703157007694244 0.4573642909526825
0.27131783962249756 0.1539229452610016 0.20930230617523193
0.27131783962249756 0.15731936693191528 0.41085267066955566
0.27131783962249756 0.15238595008850098 0.42635655403137207
0.27131783962249756 0.1635594516992569 0.22480617463588715
0.27131783962249756 0.16681857407093048 0.24031007289886475
0.27131783962249756 0.1683521270751953 0.25581395626068115
0.27131783962249756 0.16898520290851593 0.27131783962249756
0.27131783962249756 0.1692228615283966 0.28682172298431396
0.27131783962249756 0.1692902147769928 0.30232560634613037
0.27131783962249756 0.1691773235797882 0.3178294897079468
0.27131783962249756 0.16910260915756226 0.3333333730697632
0.27131783962249756 0.1688370704650879 0.3488372564315796
0.27131783962249756 0.16826839745044708 0.364341139793396
0.27131783962249756 0.16671015322208405 0.37984490394592285
0.27131783962249756 0.16326533257961273 0.39534878730773926
0.28682172298431396 0.053237199783325195 0.4418604373931885
0.28682172298431396 0.05045175179839134 0.4573643207550049
0.28682172298431396 0.048387568444013596 0.4728682041168213
0.28682172298431396 0.04711253196001053 0.4883720874786377
0.28682172298431396 0.04787353053689003 0.5038759708404541
0.28682172298431396 0.06844174861907959 0.364341139793396
0.28682172298431396 0.06635880470275879 0.37984490394592285
0.28682172298431396 0.06344576179981232 0.39534878730773926
0.28682172298431396 0.05993903428316116 0.41085267066955566
0.28682172298431396 0.05626684054732323 0.42635655403137207
0.28682172298431396 0.0844016820192337 0.20930230617523193
0.28682172298431396 0.07908470928668976 0.22480618953704834
0.28682172298431396 0.07486951351165771 0.24031007289886475
0.28682172298431396 0.07297220826148987 0.25581395626068115
0.28682172298431396 0.07199595868587494 0.27131783962249756
0.28682172298431396 0.07098397612571716 0.28682172298431396
0.28682172298431396 0.07071421295404434 0.302325576543808
0.28682172298431396 0.07114297151565552 0.3178294897079468
0.2868216931819916 0.0714997798204422 0.3333333730697632
0.28682172298431396 0.0701020210981369 0.3488372564315796
0.28682172298431396 0.07298938930034637 0.5038759708404541
0.28682172298431396 0.09616890549659729 0.19379842281341553
0.28682172298431396 0.08948814868927002 0.4883720874786377
0.28682172298431396 0.10470671206712723 0.4728681743144989
0.28682172298431396 0.11777874082326889 0.17829453945159912
0.28682172298431396 0.1296718716621399 0.4418604373931885
0.28682172298431396 0.1183965727686882 0.45736435055732727
0.28682172298431396 0.14008040726184845 0.42635655403137207
0.28682172298431396 0.15131640434265137 0.17829453945159912
0.28682172298431396 0.16198872029781342 0.37984490394592285
0.28682172298431396 0.15578973293304443 0.39534878730773926
0.28682172298431396 0.14920248091220856 0.41085267066955566
0.28682172298431396 0.16460590064525604 0.19379842281341553
0.28682172298431396 0.16854527592658997 0.20930230617523193
0.28682172298431396 0.16962045431137085 0.22480618953704834
0.28682172298431396 0.16976454854011536 0.24031007289886475
0.28682172298431396 0.1696929931640625 0.25581395626068115
0.28682172298431396 0.16950124502182007 0.27131783962249756
0.28682172298431396 0.1692889928817749 0.28682172298431396
0.28682172298431396 0.16902963817119598 0.30232560634613037
0.28682172298431396 0.16870597004890442 0.3178294897079468
0.28682172298431396 0.16842761635780334 0.3333333730697632
0.28682172298431396 0.16776850819587708 0.3488372564315796
0.28682172298431396 0.16597092151641846 0.364341139793396
0.30232560634613037 0.08304961025714874 0.20930230617523193
0.30232560634613037 0.07969839870929718 0.22480618953704834
0.30232560634613037 0.07807840406894684 0.24031007289886475
0.30232560634613037 0.07829086482524872 0.25581395626068115
0.30232560634613037 0.07879453152418137 0.27131783962249756
0.30232560634613037 0.07885484397411346 0.28682172298431396
0.30232560634613037 0.07899927347898483 0.30232560634613037
0.30232560634613037 0.07925526052713394 0.3178294897079468
0.30232560634613037 0.07958607375621796 0.3333333730697632
0.30232560634613037 0.0791199803352356 0.3488372564315796
0.30232560634613037 0.07806310057640076 0.364341139793396
0.30232560634613037 0.07694876194000244 0.37984490394592285
0.30232560634613037 0.07555243372917175 0.39534878730773926
0.30232560634613037 0.07471711933612823 0.41085267066955566
0.30232560634613037 0.0754915326833725 0.42635655403137207
0.30232560634613037 0.08356708288192749 0.4418604373931885
0.30232560634613037 0.09744159132242203 0.17829453945159912
0.30232560634613037 0.08938242495059967 0.19379842281341553
0.30232560634613037 0.08680801093578339 0.4418604075908661
0.30232560634613037 0.11507480591535568 0.1472867727279663
0.30232560634613037 0.10654100775718689 0.16279065608978271
0.30232560634613037 0.11047295480966568 0.42635655403137207
0.30232560634613037 0.13036540150642395 -0.02325582504272461
0.30232560634613037 0.12368996441364288 -0.007751941680908203
0.30232560634613037 0.12046681344509125 0.007751941680908203
0.30232560634613037 0.12171265482902527 0.02325582504272461
0.30232560634613037 0.1256340742111206 0.038759708404541016
0.30232560634613037 0.13090218603610992 0.05426359176635742
0.30232560634613037 0.13019141554832458 0.11627912521362305
0.30232560634613037 0.12344428896903992 0.1317828893661499
0.30232560634613037 0.12841138243675232 0.41085267066955566
0.30232560634613037 0.1406932771205902 0.06976747512817383
0.30232560634613037 0.14210371673107147 0.39534878730773926
0.30232560634613037 0.15280379354953766 -0.02325582504272461
0.30232560634613037 0.1607505977153778 0.06976747512817383
0.30232560634613037 0.15031564235687256 0.11627912521362305
0.30232560634613037 0.15760749578475952 0.1317828893661499
0.30232560634613037 0.1597253382205963 0.364341139793396
0.30232560634613037 0.15311487019062042 0.37984490394592285
0.30232560634613037 0.16389453411102295 -0.007751941215246916
0.30232560634613037 0.16918057203292847 0.007751941680908203
0.30232560634613037 0.17216311395168304 0.02325582504272461
0.30232560634613037 0.1728655993938446 0.038759708404541016
0.30232560634613037 0.1700160801410675 0.05426359176635742
0.30232560634613037 0.16427966952323914 0.1472867727279663
0.30232560634613037 0.1677154004573822 0.16279065608978271
0.30232560634613037 0.17001180350780487 0.17829453945159912
0.30232560634613037 0.17111262679100037 0.19379842281341553
0.30232560634613037 0.1711922585964203 0.20930230617523193
0.30232560634613037 0.17078706622123718 0.22480618953704834
0.30232560634613037 0.17024999856948853 0.24031007289886475
0.30232560634613037 0.16984206438064575 0.25581395626068115
0.30232560634613037 0.1694396436214447 0.27131783962249756
0.30232560634613037 0.16911101341247559 0.28682172298431396
0.30232560634613037 0.16878081858158112 0.30232560634613037
0.30232560634613037 0.16826634109020233 0.3178294897079468
0.30232560634613037 0.1671736240386963 0.3333333730697632
0.30232563614845276 0.16482537984848022 0.3488372564315796
0.3178294897079468 0.0835835337638855 0.20930230617523193
0.3178294897079468 0.08231368660926819 0.22480618953704834
0.3178294897079468 0.0826272964477539 0.24031007289886475
0.3178294897079468 0.08422824740409851 0.25581395626068115
0.3178294897079468 0.09959759563207626 0.1317828893661499
0.3178294897079468 0.0970965176820755 0.1472867727279663
0.3178294897079468 0.09460054337978363 0.16279065608978271
0.3178294897079468 0.09111474454402924 0.17829453945159912
0.3178294897079468 0.08647093921899796 0.19379840791225433
0.3178294897079468 0.08605640381574631 0.27131783962249756
0.3178294897079468 0.08722580969333649 0.28682172298431396
0.3178294897079468 0.0881553515791893 0.30232560634613037
0.3178294897079468 0.08896148204803467 0.3178294897079468
0.3178294897079468 0.09068255126476288 0.3333333730697632
0.3178294897079468 0.09273580461740494 0.3488372564315796
0.3178294897079468 0.09786660969257355 0.364341139793396
0.3178294897079468 0.10779915750026703 -0.10077518224716187
0.3178294897079468 0.10871992260217667 -0.08527129888534546
0.3178294897079468 0.11488541960716248 -0.007751941680908203
0.3178294897079468 0.1137925237417221 0.007751941680908203
0.3178294897079468 0.11432837694883347 0.02325582504272461
0.3178294897079468 0.11557943373918533 0.038759708404541016
0.3178294897079468 0.11615123599767685 0.06976747512817383
0.3178294897079468 0.11183501034975052 0.08527135848999023
0.3178294897079468 0.10743077844381332 0.10077524185180664
0.3178294897079468 0.10300153493881226 0.11627912521362305
0.3178294897079468 0.12132163345813751 -0.11627905815839767
0.3178294897079468 0.12132667005062103 -0.06976741552352905
0.3178294897079468 0.13047122955322266 -0.05426359176635742
0.3178294897079468 0.12692373991012573 -0.038759708404541016
0.3178294897079468 0.11776012927293777 -0.02325582504272461
0.3178294897079468 0.11752602458000183 0.05426359176635742
0.3178294897079468 0.13827332854270935 -0.11627906560897827
0.3178294897079468 0.13691675662994385 0.364341139793396
0.3178294897079468 0.1482798159122467 -0.10077517479658127
0.3178294897079468 0.15015920996665955 -0.08527129888534546
0.3178294897079468 0.1496277153491974 -0.06976741552352905
0.3178294897079468 0.15112456679344177 -0.05426359549164772
0.3178294897079468 0.16056717932224274 -0.038759708404541016
0.3178294897079468 0.16108740866184235 0.3333333730697632
0.3178294897079468 0.15404216945171356 0.3488372564315796
0.3178294897079468 0.16751796007156372 -0.02325582504272461
0.3178294897079468 0.17299529910087585 -0.007751941680908203
0.3178294897079468 0.17473898828029633 0.08527135848999023
0.3178294897079468 0.17245522141456604 0.10077524185180664
0.3178294897079468 0.17233915627002716 0.11627912521362305
0.3178294897079468 0.17293088138103485 0.1317828893661499
0.3178294897079468 0.17326059937477112 0.1472867727279663
0.3178294897079468 0.17303432524204254 0.16279065608978271
0.3178294897079468 0.17246390879154205 0.17829453945159912
0.3178294897079468 0.17173612117767334 0.19379842281341553
0.3178294897079468 0.1710401475429535 0.20930230617523193
0.3178294897079468 0.17046517133712769 0.22480618953704834
0.3178294897079468 0.1699613332748413 0.24031008780002594
0.3178294897079468 0.16941314935684204 0.25581395626068115
0.3178294897079468 0.16862934827804565 0.27131783962249756
0.3178294897079468 0.16782599687576294 0.28682172298431396
0.3178294897079468 0.16680598258972168 0.30232560634613037
0.3178294897079468 0.16515547037124634 0.3178294897079468
0.3178294897079468 0.1786048859357834 0.007751941680908203
0.3178294897079468 0.18216857314109802 0.02325582504272461
0.3178294897079468 0.18335913121700287 0.038759708404541016
0.3178294897079468 0.18213437497615814 0.05426359176635742
0.31782951951026917 0.17899157106876373 0.06976747512817383
0.3333333730697632 0.09593575447797775 -0.10077518224716187
0.3333333730697632 0.09613719582557678 -0.08527129888534546
0.3333333730697632 0.09742233902215958 0.08527135848999023
0.3333333730697632 0.09359267354011536 0.10077524185180664
0.3333333730697632 0.09041690826416016 0.11627912521362305
0.3333333730697632 0.08784538507461548 0.1317828893661499
0.3333333730697632 0.0865241140127182 0.1472867727279663
0.3333333730697632 0.08732067048549652 0.16279065608978271
0.33333340287208557 0.08806350827217102 0.17829453945159912
0.3333333730697632 0.08798080682754517 0.19379842281341553
0.3333333432674408 0.08761633932590485 0.20930230617523193
0.3333333730697632 0.08893926441669464 0.22480617463588715
0.3333333730697632 0.09215027838945389 0.24031007289886475
0.3333333730697632 0.09594239294528961 0.25581395626068115
0.3333333730697632 0.0998564139008522 0.27131783962249756
0.3333333730697632 0.10573466122150421 -0.11627906560897827
0.3333333730697632 0.10670112073421478 -0.06976741552352905
0.3333333730697632 0.11620516330003738 -0.05426359176635742
0.3333333730697632 0.11620427668094635 -0.038759708404541016
0.3333333730697632 0.11423297226428986 -0.02325582504272461
0.3333333730697632 0.11102968454360962 -0.007751941680908203
0.3333333730697632 0.10884876549243927 0.007751941680908203
0.3333333730697632 0.10911670327186584 0.02325582504272461
0.3333333730697632 0.10954413563013077 0.038759708404541016
0.3333333730697632 0.10882551968097687 0.05426359176635742
0.3333333730697632 0.1032056212425232 0.06976747512817383
0.3333333730697632 0.1048414558172226 0.28682172298431396
0.3333333730697632 0.11058042198419571 0.30232560634613037
0.3333333730697632 0.12890110909938812 0.3178294897079468
0.3333333730697632 0.1397523581981659 -0.11627906560897827
0.3333333730697632 0.13468687236309052 0.3178294897079468
0.3333333730697632 0.14998269081115723 -0.10077518224716187
0.3333333730697632 0.15383204817771912 -0.08527129888534546
0.3333333730697632 0.15656925737857819 -0.06976741552352905
0.3333333730697632 0.15977057814598083 -0.05426359176635742
0.3333333730697632 0.15981392562389374 0.28682172298431396
0.3333333730697632 0.15523463487625122 0.30232560634613037
0.3333333730697632 0.16577503085136414 -0.038759708404541016
0.3333333730697632 0.17082679271697998 -0.02325582504272461
0.3333333730697632 0.17663663625717163 -0.007751941680908203
0.3333333730697632 0.17705994844436646 0.1317828893661499
0.3333333730697632 0.1750410497188568 0.1472867727279663
0.3333333730697632 0.1729198694229126 0.16279065608978271
0.3333333730697632 0.1713031530380249 0.17829453945159912
0.3333333730697632 0.17053715884685516 0.19379842281341553
0.3333333730697632 0.16963845491409302 0.20930230617523193
0.3333333730697632 0.16794246435165405 0.22480618953704834
0.3333333730697632 0.16613660752773285 0.24031005799770355
0.3333333730697632 0.16460171341896057 0.25581395626068115
0.3333333730697632 0.16295558214187622 0.27131783962249756
0.3333333730697632 0.18246468901634216 0.007751941680908203
0.3333333730697632 0.18530070781707764 0.02325582504272461
0.3333333730697632 0.18622741103172302 0.038759708404541016
0.3333333730697632 0.18593312799930573 0.05426359176635742
0.3333333730697632 0.1843661367893219 0.06976747512817383
0.3333333432674408 0.1811894178390503 0.08527135103940964
0.3333333730697632 0.17939138412475586 0.10077524185180664
0.3333333730697632 0.17848393321037292 0.11627912521362305
0.3488372564315796 0.08510718494653702 -0.10077518224716187
0.3488372564315796 0.08473046123981476 -0.08527129888534546
0.3488372564315796 0.08366464078426361 0.10077524185180664
0.3488372564315796 0.08292588591575623 0.11627912521362305
0.3488372564315796 0.08319112658500671 0.1317828893661499
0.3488372564315796 0.08434879779815674 0.1472867727279663
0.3488372564315796 0.09762534499168396 -0.11627906560897827
0.3488372564315796 0.09696000069379807 -0.06976741552352905
0.3488372564315796 0.09945805370807648 0.05426359176635742
0.3488372564315796 0.09265916794538498 0.06976747512817383
0.3488372564315796 0.08646269887685776 0.08527135848999023
0.3488372564315796 0.08723443001508713 0.16279065608978271
0.3488372564315796 0.09118886291980743 0.17829453945159912
0.3488372564315796 0.09423670172691345 0.19379842281341553
0.3488372564315796 0.09754972159862518 0.20930230617523193
0.3488372564315796 0.10989393293857574 -0.05426359176635742
0.3488372564315796 0.11286818236112595 -0.038759708404541016
0.3488372564315796 0.11160361766815186 -0.02325582504272461
0.3488372564315796 0.10826162993907928 -0.00775194214656949
0.3488372564315796 0.10565494000911713 0.007751941215246916
0.3488372564315796 0.10530488938093185 0.02325582504272461
0.3488372564315796 0.1034475713968277 0.038759708404541016
0.3488372564315796 0.10269539803266525 0.22480618953704834
0.3488372564315796 0.11152733862400055 0.24031007289886475
0.3488372564315796 0.1302342414855957 0.25581395626068115
0.3488372564315796 0.13333269953727722 -0.11627907305955887
0.3488372564315796 0.1470622718334198 -0.10077518224716187
0.3488372564315796 0.13532519340515137 0.25581395626068115
0.3488372564315796 0.15195885300636292 -0.08527129888534546
0.3488372564315796 0.15663763880729675 -0.06976741552352905
0.3488372564315796 0.16075308620929718 -0.05426359176635742
0.3488372564315796 0.15736258029937744 0.22480618953704834
0.3488372564315796 0.15316835045814514 0.24031007289886475
0.3488372564315796 0.16575360298156738 -0.038759708404541016
0.3488372564315796 0.17052018642425537 -0.02325582504272461
0.3488372564315796 0.17670923471450806 -0.007751941680908203
0.3488372564315796 0.17583529651165009 0.1317828893661499
0.3488372564315796 0.17261701822280884 0.1472867727279663
0.3488372564315796 0.17096620798110962 0.16279065608978271
0.3488372564315796 0.16919755935668945 0.17829453945159912
0.3488372564315796 0.16610048711299896 0.19379842281341553
0.3488372564315796 0.1628476083278656 0.20930230617523193
0.3488372564315796 0.1825588345527649 0.007751941680908203
0.3488372564315796 0.18552151322364807 0.02325582504272461
0.3488372564315796 0.18664732575416565 0.038759708404541016
0.3488372564315796 0.18663980066776276 0.05426359176635742
0.3488372564315796 0.18545398116111755 0.06976747512817383
0.3488372564315796 0.18263638019561768 0.08527135848999023
0.3488372564315796 0.18022412061691284 0.10077524930238724
0.3488372564315796 0.1786673218011856 0.11627912521362305
0.364341139793396 0.08274354040622711 -0.10077518224716187
0.364341139793396 0.08215781301259995 -0.08527129888534546
0.364341139793396 0.08327591419219971 0.06976747512817383
0.364341139793396 0.08105654269456863 0.08527135848999023
0.364341139793396 0.08126744627952576 0.10077524185180664
0.364341139793396 0.08312808722257614 0.11627912521362305
0.364341139793396 0.09459684789180756 -0.11627906560897827
0.364341139793396 0.08703134953975677 -0.06976741552352905
0.364341139793396 0.09857486933469772 -0.05426359176635742
0.364341139793396 0.10064328461885452 0.02325582504272461
0.364341139793396 0.0967010110616684 0.038759708404541016
0.364341139793396 0.09011297672986984 0.05426359176635742
0.364341139793396 0.0857001394033432 0.1317828893661499
0.364341139793396 0.09096421301364899 0.1472867727279663
0.364341139793396 0.09563598036766052 0.16279065608978271
0.3643411695957184 0.10525685548782349 -0.038759708404541016
0.364341139793396 0.1075892299413681 -0.02325582504272461
0.364341139793396 0.1060701236128807 -0.007751941680908203
0.364341139793396 0.10343150049448013 0.007751941680908203
0.3643411099910736 0.10201384872198105 0.17829452455043793
0.364341139793396 0.11177368462085724 0.19379842281341553
0.3643411099910736 0.11873826384544373 -0.11627905815839767
0.364341139793396 0.13663777709007263 -0.10077518224716187
0.364341139793396 0.14838045835494995 -0.08527129888534546
0.364341139793396 0.1530081331729889 -0.06976741552352905
0.364341139793396 0.15745742619037628 -0.05426359176635742
0.364341139793396 0.15737731754779816 0.17829453945159912
0.3643411695957184 0.1498936414718628 0.19379842281341553
0.364341139793396 0.1636171191930771 -0.038759712129831314
0.364341139793396 0.16820786893367767 -0.02325582504272461
0.364341139793396 0.17386482656002045 -0.007751941680908203
0.364341139793396 0.17806433141231537 0.10077524185180664
0.364341139793396 0.17347115278244019 0.11627912521362305
0.364341139793396 0.17139166593551636 0.1317828893661499
0.364341139793396 0.16909560561180115 0.1472867727279663
0.364341139793396 0.16448535025119781 0.16279065608978271
0.364341139793396 0.1800166815519333 0.007751941215246916
0.364341139793396 0.18399769067764282 0.02325582504272461
0.364341139793396 0.18582198023796082 0.038759708404541016
0.364341139793396 0.18582290410995483 0.05426359176635742
0.364341139793396 0.18396174907684326 0.06976747512817383
0.364341139793396 0.18080265820026398 0.08527135848999023
0.37984490394592285 0.0803537368774414 -0.10077518224716187
0.37984490394592285 0.07763135433197021 -0.08527129888534546
0.37984490394592285 0.08110634982585907 -0.06976741552352905
0.37984490394592285 0.08491342514753342 0.05426359176635742
0.37984490394592285 0.08324037492275238 0.06976747512817383
0.37984490394592285 0.0838199257850647 0.08527135848999023
0.37984490394592285 0.08840648829936981 -0.05426359176635742
0.37984490394592285 0.09637170284986496 -0.038759708404541016
0.37984490394592285 0.10042361915111542 -0.02325582504272461
0.37984490394592285 0.10052583366632462 0.007751941680908203
0.37984490394592285 0.09731560200452805 0.02325582504272461
0.37984493374824524 0.0898999571800232 0.038759708404541016
0.37984490394592285 0.08686913549900055 0.10077524185180664
0.37984490394592285 0.09264747053384781 0.11627912521362305
0.37984490394592285 0.0982046127319336 0.1317828893661499
0.37984490394592285 0.1027175784111023 -0.007751941680908203
0.37984490394592285 0.10717841237783432 0.1472867727279663
0.37984490394592285 0.1255241334438324 -0.10077518224716187
0.37984490394592285 0.12498292326927185 0.16279065608978271
0.37984490394592285 0.13806062936782837 -0.08527129888534546
0.37984490394592285 0.13577869534492493 0.16279065608978271
0.37984490394592285 0.14854943752288818 -0.06976741552352905
0.37984490394592285 0.1526992917060852 -0.05426359176635742
0.37984490394592285 0.15763041377067566 -0.038759708404541016
0.37984490394592285 0.16082188487052917 0.1317828893661499
0.37984490394592285 0.15412995219230652 0.1472867727279663
0.37984487414360046 0.16388925909996033 -0.02325582318007946
0.37984490394592285 0.16874288022518158 -0.007751941680908203
0.37984490394592285 0.1737229824066162 0.007751941680908203
0.37984490394592285 0.1776626855134964 0.06976747512817383
0.37984490394592285 0.17369094491004944 0.08527135848999023
0.37984490394592285 0.17049214243888855 0.10077524185180664
0.37984490394592285 0.16654713451862335 0.11627912521362305
0.37984490394592285 0.17840568721294403 0.02325582504272461
0.37984490394592285 0.17977312207221985 0.038759708404541016
0.37984490394592285 0.1792609691619873 0.05426359549164772
0.39534878730773926 0.06852178275585175 -0.06976741552352905
0.39534878730773926 0.07055120170116425 -0.08527129888534546
0.39534878730773926 0.07230974733829498 -0.05426359176635742
0.39534878730773926 0.08030268549919128 -0.038759708404541016
0.39534878730773926 0.08319945633411407 0.038759708404541016
0.39534878730773926 0.08422007411718369 0.05426359176635742
0.39534878730773926 0.08857143670320511 -0.02325582504272461
0.39534878730773926 0.09463532269001007 -0.007751941680908203
0.39534878730773926 0.09369681030511856 0.007751941680908203
0.39534878730773926 0.08603814989328384 0.02325582504272461
0.39534878730773926 0.08750782907009125 0.06976747512817383
0.39534878730773926 0.09381935745477676 0.08527135848999023
0.39534878730773926 0.10070497542619705 0.10077524185180664
0.39534878730773926 0.11214596778154373 0.11627912521362305
0.39534878730773926 0.1279895007610321 -0.08527129888534546
0.39534878730773926 0.13854199647903442 -0.06976741552352905
0.39534878730773926 0.14025498926639557 0.11627912521362305
0.39534878730773926 0.14763787388801575 -0.05426359176635742
0.39534878730773926 0.15176653861999512 -0.038759708404541016
0.39534878730773926 0.1550936996936798 -0.02325582504272461
0.39534878730773926 0.16044792532920837 -0.007751941680908203
0.39534878730773926 0.15727633237838745 0.08527135848999023
0.39534878730773926 0.15250951051712036 0.10077524185180664
0.39534878730773926 0.16474473476409912 0.007751941680908203
0.39534878730773926 0.16808341443538666 0.02325582504272461
0.39534878730773926 0.16943231225013733 0.038759708404541016
0.39534878730773926 0.16708984971046448 0.05426359176635742
0.39534878730773926 0.16316011548042297 0.06976747512817383
0.41085267066955566 0.07786053419113159 -0.06976741552352905
0.41085267066955566 0.07181458920240402 -0.05426359549164772
0.41085267066955566 0.07484348863363266 -0.038759708404541016
0.41085267066955566 0.08046022802591324 -0.02325582504272461
0.41085267066955566 0.08331149071455002 -0.007751941680908203
0.41085267066955566 0.08329275995492935 0.007751941680908203
0.41085267066955566 0.08273530751466751 0.02325582504272461
0.41085267066955566 0.08353554457426071 0.038759708404541016
0.41085267066955566 0.09021192789077759 0.05426359176635742
0.41085267066955566 0.09960441291332245 0.06976747512817383
0.41085267066955566 0.12161757051944733 -0.06976741552352905
0.41085267066955566 0.13493184745311737 -0.05426359176635742
0.41085267066955566 0.1406276375055313 -0.038759708404541016
0.41085267066955566 0.14581580460071564 -0.02325582504272461
0.41085267066955566 0.14529460668563843 0.05426359176635742
0.41085267066955566 0.13664256036281586 0.06976747512817383
0.41085267066955566 0.14951938390731812 -0.007751941215246916
0.4108526408672333 0.1518637090921402 0.007751941680908203
0.41085267066955566 0.15280690789222717 0.02325582504272461
0.41085270047187805 0.15160797536373138 0.038759708404541016
0.42635655403137207 0.09366816282272339 -0.038759708404541016
0.42635658383369446 0.08889680355787277 -0.02325582504272461
0.42635655403137207 0.08851692825555801 -0.007751941680908203
0.42635655403137207 0.08814218640327454 0.00775194214656949
0.42635655403137207 0.09076550602912903 0.02325582504272461
0.42635655403137207 0.0969698429107666 0.038759708404541016
0.42635658383369446 0.11794938147068024 -0.038759708404541016
0.42635655403137207 0.12528054416179657 -0.02325582504272461
0.42635655403137207 0.13169673085212708 0.02325582504272461
0.42635655403137207 0.12421784549951553 0.038759708404541016
0.4263565242290497 0.13180096447467804 -0.007751941680908203
0.42635655403137207 0.1334000825881958 0.007751941215246916
-0.4418604373931885 0.11627912521362305 -0.10279617458581924
-0.4418604373931885 0.11627912521362305 -0.04025396332144737
-0.44186046719551086 0.1317828893661499 -0.09713397920131683
-0.4418604373931885 0.1317828893661499 -0.02315465733408928
-0.4418604373931885 0.1472867727279663 -0.07242706418037415
-0.4418604373931885 0.1472867727279663 -0.022071244195103645
-0.42635661363601685 0.08527135848999023 -0.09133385121822357
-0.42635661363601685 0.08527135848999023 -0.06747004389762878
-0.42635661363601685 0.10077524185180664 -0.11461447924375534
-0.42635661363601685 0.10077524185180664 -0.03177373856306076
-0.42635661363601685 0.11627912521362305 -0.11757942289113998
-0.42635661363601685 0.11627912521362305 0.09452223032712936
-0.42635661363601685 0.1317828893661499 -0.10707472264766693
-0.42635664343833923 0.1317828893661499 0.1199488639831543
-0.42635661363601685 0.1472867727279663 -0.08767274022102356
-0.42635661363601685 0.1472867727279663 0.12078599631786346
-0.42635661363601685 0.16279065608978271 -0.028590170666575432
-0.42635661363601685 0.16279065608978271 0.039041806012392044
-0.41085273027420044 0.08527135848999023 -0.1111595556139946
-0.41085273027420044 0.08527135848999023 -0.05332782492041588
-0.41085273027420044 0.10077524185180664 -0.11913318932056427
-0.41085273027420044 0.10077524185180664 -0.029430191963911057
-0.41085273027420044 0.11627912521362305 -0.11885246634483337
-0.41085273027420044 0.11627912521362305 0.13708072900772095
-0.41085273027420044 0.1317828893661499 -0.10822369158267975
-0.41085273027420044 0.1317828893661499 0.20697429776191711
-0.41085273027420044 0.1472867727279663 -0.08888173848390579
-0.41085273027420044 0.1472867727279663 0.21890252828598022
-0.41085273027420044 0.16279065608978271 -0.028396539390087128
-0.41085273027420044 0.16279065608978271 0.20736534893512726
-0.39534884691238403 0.08527135848999023 -0.10088136047124863
-0.39534884691238403 0.08527135848999023 -0.08091075718402863
-0.39534884691238403 0.10077524185180664 -0.11073707044124603
-0.39534884691238403 0.10077524185180664 -0.06327182054519653
-0.39534884691238403 0.11627912521362305 -0.10872112214565277
-0.39534884691238403 0.11627912521362305 -0.05670905113220215
-0.39534884691238403 0.11627912521362305 -0.0023188560735434294
-0.39534884691238403 0.11627912521362305 0.20158353447914124
-0.39534884691238403 0.1317828893661499 -0.10113666951656342
-0.39534884691238403 0.1317828893661499 -0.06098427623510361
-0.39534884691238403 0.1317828893661499 -0.01700817421078682
-0.39534884691238403 0.1317828893661499 0.249583438038826
-0.39534884691238403 0.1472867727279663 -0.018102703616023064
-0.39534884691238403 0.1472867727279663 0.26116350293159485
-0.39534884691238403 0.16279065608978271 -0.011407613754272461
-0.39534884691238403 0.16279065608978271 0.25808823108673096
-0.39534884691238403 0.17829453945159912 0.04060584306716919
-0.3953488767147064 0.17829453945159912 0.22620534896850586
-0.3798449635505676 0.11627912521362305 0.04686155915260315
-0.37984493374824524 0.11627911776304245 0.24237705767154694
-0.3798449635505676 0.1317828893661499 0.004005756229162216
-0.3798449635505676 0.1317828893661499 0.2777363061904907
-0.3798449635505676 0.1472867727279663 0.00024068355560302734
-0.3798449635505676 0.1472867727279663 0.2917535901069641
-0.3798449635505676 0.16279065608978271 0.006182188168168068
-0.3798449635505676 0.16279065608978271 0.2924121618270874
-0.3798449635505676 0.17829453945159912 0.04675493389368057
-0.3798449635505676 0.17829453945159912 0.2758183181285858
-0.3643410801887512 0.11627913266420364 0.07026127725839615
-0.3643410801887512 0.11627912521362305 0.25910434126853943
-0.3643410801887512 0.1317828893661499 0.04816857725381851
-0.3643410801887512 0.1317828893661499 0.30177220702171326
-0.3643410801887512 0.1472867727279663 0.03898973390460014
-0.3643410801887512 0.1472867727279663 0.3202948272228241
-0.3643410801887512 0.16279065608978271 0.04338609427213669
-0.3643410801887512 0.16279065608978271 0.3225245177745819
-0.36434105038642883 0.17829453945159912 0.05905859172344208
-0.3643410801887512 0.17829453945159912 0.30921441316604614
-0.3643410801887512 0.19379842281341553 0.13507287204265594
-0.3643410801887512 0.19379842281341553 0.2510131001472473
-0.3488371968269348 0.11627912521362305 0.1676030158996582
-0.3488371968269348 0.11627912521362305 0.2717752456665039
-0.3488371968269348 0.1317828893661499 0.06831729412078857
-0.3488371968269348 0.1317828893661499 0.328103244304657
-0.3488371968269348 0.1472867727279663 0.05934607982635498
-0.3488371968269348 0.1472867727279663 0.3545634150505066
-0.3488371968269348 0.16279065608978271 0.059845175594091415
-0.3488371968269348 0.16279065608978271 0.3560522794723511
-0.3488371968269348 0.17829453945159912 0.07155730575323105
-0.3488371968269348 0.17829453945159912 0.34349727630615234
-0.3488371968269348 0.19379842281341553 0.11242876201868057
-0.3488371968269348 0.19379842281341553 0.2966257631778717
-0.3333333134651184 0.11627912521362305 0.18223732709884644
-0.3333333134651184 0.11627912521362305 0.28643250465393066
-0.3333333134651184 0.1317828893661499 0.09242675453424454
-0.3333333134651184 0.1317828893661499 0.3838488459587097
-0.3333333134651184 0.1472867727279663 0.07814672589302063
-0.3333333134651184 0.1472867727279663 0.40024811029434204
-0.3333333134651184 0.16279065608978271 0.07789918780326843
-0.3333333134651184 0.16279065608978271 0.39509618282318115
-0.3333333134651184 0.17829453945159912 0.09003021568059921
-0.3333333134651184 0.17829453945159912 0.3838673532009125
-0.3333333134651184 0.19379842281341553 0.12141406536102295
-0.3333333432674408 0.19379842281341553 0.34990301728248596
-0.3178294003009796 0.11627912521362305 0.1942075788974762
-0.317829430103302 0.11627912521362305 0.325126588344574
-0.317829430103302 0.1317828893661499 0.12210048735141754
-0.317829430103302 0.1317828893661499 0.4425106346607208
-0.317829430103302 0.1472867727279663 0.09709358215332031
-0.317829430103302 0.1472867727279663 0.44113433361053467
-0.317829430103302 0.16279065608978271 0.0982336550951004
-0.317829430103302 0.16279065608978271 0.4343961477279663
-0.317829430103302 0.17829453945159912 0.11299793422222137
-0.317829430103302 0.17829453945159912 0.41921621561050415
-0.317829430103302 0.19379842281341553 0.14196397364139557
-0.317829430103302 0.19379842281341553 0.3907737731933594
-0.30232560634613037 0.11627912521362305 0.20836186408996582
-0.30232560634613037 0.11627912521362305 0.49611932039260864
-0.30232560634613037 0.1317828893661499 0.15423963963985443
-0.30232560634613037 0.1317828893661499 0.49252021312713623
-0.30232560634613037 0.1472867727279663 0.1227317750453949
-0.30232560634613037 0.1472867727279663 0.4804556965827942
-0.30232560634613037 0.16279065608978271 0.12389630824327469
-0.30232560634613037 0.16279065608978271 0.465481698513031
-0.30232560634613037 0.17829453945159912 0.13918372988700867
-0.30232560634613037 0.17829453945159912 0.4473167061805725
-0.30232560634613037 0.19379842281341553 0.16722440719604492
-0.30232560634613037 0.19379842281341553 0.41935649514198303
-0.28682172298431396 0.08527135848999023 0.5644714832305908
-0.28682172298431396 0.08527135848999023 0.5662850737571716
-0.28682172298431396 0.10077524185180664 0.4017553925514221
-0.28682172298431396 0.10077524185180664 0.5635952353477478
-0.28682172298431396 0.11627913266420364 0.2293497920036316
-0.28682172298431396 0.11627912521362305 0.5466458797454834
-0.28682172298431396 0.1317828893661499 0.18204082548618317
-0.28682172298431396 0.1317828893661499 0.5265437364578247
-0.28682172298431396 0.1472867727279663 0.15788425505161285
-0.28682172298431396 0.1472867727279663 0.5074611306190491
-0.28682172298431396 0.16279065608978271 0.15623284876346588
-0.28682172298431396 0.16279065608978271 0.48818159103393555
-0.28682172298431396 0.17829453945159912 0.16840261220932007
-0.28682172298431396 0.17829453945159912 0.4670007824897766
-0.28682172298431396 0.19379842281341553 0.19630250334739685
-0.28682172298431396 0.19379842281341553 0.4408417344093323
-0.27131783962249756 0.06976747512817383 0.5501657724380493
-0.27131783962249756 0.06976747512817383 0.606529951095581
-0.27131783962249756 0.08527135848999023 0.5204681158065796
-0.27131783962249756 0.08527135848999023 0.609099268913269
-0.27131783962249756 0.10077524185180664 0.3655518591403961
-0.27131783962249756 0.10077524185180664 0.6032387018203735
-0.27131783962249756 0.11627912521362305 0.26317059993743896
-0.27131783962249756 0.11627912521362305 0.5844367742538452
-0.27131783962249756 0.1317828893661499 0.2110712230205536
-0.27131783962249756 0.1317828893661499 0.5553283095359802
-0.27131783962249756 0.1472867727279663 0.19049791991710663
-0.27131783962249756 0.1472867727279663 0.5289453268051147
-0.27131783962249756 0.16279065608978271 0.1880151331424713
-0.27131783962249756 0.16279065608978271 0.5077135562896729
-0.27131783962249756 0.17829453945159912 0.198064386844635
-0.27131783962249756 0.17829453945159912 0.4851738512516022
-0.27131783962249756 0.19379842281341553 0.2308216691017151
-0.27131783962249756 0.19379842281341553 0.45777183771133423
-0.25581395626068115 0.038759708404541016 0.5722500681877136
-0.25581395626068115 0.038759708404541016 0.6046546101570129
-0.25581395626068115 0.05426359176635742 0.549359917640686
-0.25581395626068115 0.05426359176635742 0.6209449172019958
-0.25581395626068115 0.06976747512817383 0.5301159620285034
-0.25581395626068115 0.06976747512817383 0.6264587640762329
-0.25581395626068115 0.08527135848999023 0.4867296814918518
-0.25581395626068115 0.08527135848999023 0.6274440884590149
-0.25581395626068115 0.10077524185180664 0.3597657084465027
-0.25581395626068115 0.10077524185180664 0.624484658241272
-0.25581395626068115 0.11627912521362305 0.2951090633869171
-0.25581395626068115 0.11627912521362305 0.609561562538147
-0.25581395626068115 0.1317828893661499 0.2536006271839142
-0.25581395626068115 0.1317828893661499 0.5868058800697327
-0.25581395626068115 0.1472867727279663 0.22740748524665833
-0.25581395626068115 0.1472867727279663 0.555220365524292
-0.25581395626068115 0.16279065608978271 0.22219909727573395
-0.25581395626068115 0.16279065608978271 0.5263458490371704
-0.25581395626068115 0.17829453945159912 0.23403577506542206
-0.25581395626068115 0.17829453945159912 0.5018548369407654
-0.25581395626068115 0.19379842281341553 0.27484196424484253
-0.25581395626068115 0.19379842281341553 0.47093719244003296
-0.24031007289886475 0.02325582504272461 0.5644550919532776
-0.24031007289886475 0.02325582504272461 0.6039120554924011
-0.24031007289886475 0.038759708404541016 0.5444093346595764
-0.24031007289886475 0.038759708404541016 0.6240437030792236
-0.24031007289886475 0.05426359176635742 0.5307790040969849
-0.24031007289886475 0.05426359176635742 0.6342251896858215
-0.24031007289886475 0.06976747512817383 0.5135220885276794
-0.24031007289886475 0.06976747512817383 0.6397444009780884
-0.24031007289886475 0.08527135848999023 0.4719562232494354
-0.24031007289886475 0.08527135848999023 0.6412338018417358
-0.24031007289886475 0.10077524185180664 0.3753531277179718
-0.24031007289886475 0.10077524185180664 0.638948917388916
-0.24031007289886475 0.11627912521362305 0.3221915364265442
-0.24031007289886475 0.11627912521362305 0.6269111037254333
-0.24031007289886475 0.1317828893661499 0.291779100894928
-0.24031007289886475 0.1317828893661499 0.6096681356430054
-0.24031007289886475 0.1472867727279663 0.27278533577919006
-0.24031007289886475 0.1472867727279663 0.5853008031845093
-0.24031007289886475 0.16279065608978271 0.26687705516815186
-0.24031007289886475 0.16279065608978271 0.5521442890167236
-0.24031007289886475 0.17829453945159912 0.2757995128631592
-0.24031007289886475 0.17829453945159912 0.5183358192443848
-0.24031007289886475 0.19379842281341553 0.31117624044418335
-0.24031007289886475 0.19379842281341553 0.48107147216796875
-0.22480618953704834 0.02325582504272461 0.5342985987663269
-0.22480618953704834 0.02325582504272461 0.620898962020874
-0.22480618953704834 0.038759708404541016 0.5264562368392944
-0.22480618953704834 0.038759708404541016 0.6334975957870483
-0.22480618953704834 0.05426359176635742 0.5180376768112183
-0.22480618953704834 0.05426359176635742 0.6404510140419006
-0.22480618953704834 0.06976747512817383 0.5039861798286438
-0.22480617463588715 0.06976747512817383 0.6460352540016174
-0.22480618953704834 0.08527135848999023 0.47517067193984985
-0.22480618953704834 0.08527135848999023 0.6493360996246338
-0.22480618953704834 0.10077524185180664 0.40693795680999756
-0.22480618953704834 0.10077524185180664 0.6465562582015991
-0.22480618953704834 0.11627912521362305 0.358902245759964
-0.22480618953704834 0.11627912521362305 0.6406986713409424
-0.22480618953704834 0.1317828893661499 0.323154091835022
-0.22480618953704834 0.1317828893661499 0.6265438795089722
-0.22480618953704834 0.1472867727279663 0.306509792804718
-0.22480618953704834 0.1472867727279663 0.6058388352394104
-0.22480618953704834 0.16279065608978271 0.3010525703430176
-0.22480618953704834 0.16279065608978271 0.5755341649055481
-0.22480618953704834 0.17829453945159912 0.30976295471191406
-0.22480618953704834 0.17829453945159912 0.5367136001586914
-0.22480618953704834 0.19379842281341553 0.347568154335022
-0.22480618953704834 0.19379842281341553 0.4912276566028595
-0.20930230617523193 -0.02325582504272461 -0.11949770152568817
-0.20930230617523193 -0.02325582504272461 -0.024221710860729218
-0.20930230617523193 -0.007751941680908203 -0.1341014951467514
-0.20930230617523193 -0.007751941680908203 0.012876622378826141
-0.20930230617523193 0.007751941680908203 -0.13446451723575592
-0.20930230617523193 0.007751941680908203 0.02037649415433407
-0.20930230617523193 0.007751941680908203 0.5313670635223389
-0.20930230617523193 0.007751941680908203 0.6066213846206665
-0.20930230617523193 0.02325582504272461 -0.12390860915184021
-0.20930230617523193 0.02325582690536976 0.00844576582312584
-0.20930230617523193 0.02325582504272461 0.5188605189323425
-0.20930230617523193 0.02325582504272461 0.6287186741828918
-0.20930230617523193 0.038759708404541016 0.5160812139511108
-0.20930230617523193 0.038759708404541016 0.6381343007087708
-0.20930230617523193 0.05426359176635742 0.5115469098091125
-0.20930230617523193 0.05426359176635742 0.644738495349884
-0.20930230617523193 0.06976747512817383 0.5005072355270386
-0.20930230617523193 0.06976747512817383 0.6514594554901123
-0.20930230617523193 0.08527135848999023 0.47475212812423706
-0.20930230617523193 0.08527135848999023 0.6542667150497437
-0.20930230617523193 0.10077524185180664 0.4267323613166809
-0.20930230617523193 0.10077524185180664 0.653488039970398
-0.20930230617523193 0.11627912521362305 0.3893963098526001
-0.20930230617523193 0.11627912521362305 0.6477422714233398
-0.20930230617523193 0.1317828893661499 0.3564677834510803
-0.20930230617523193 0.1317828893661499 0.6389323472976685
-0.20930230617523193 0.1472867727279663 0.33645105361938477
-0.20930230617523193 0.1472867727279663 0.6205794811248779
-0.20930230617523193 0.16279065608978271 0.3319750428199768
-0.20930230617523193 0.16279065608978271 0.589185893535614
-0.20930230617523193 0.17829453945159912 0.34573888778686523
-0.20930230617523193 0.17829453945159912 0.5512592792510986
-0.20930230617523193 0.19379842281341553 0.39172887802124023
-0.20930230617523193 0.19379842281341553 0.4988231658935547
-0.19379842281341553 -0.038759708404541016 -0.18364058434963226
-0.19379842281341553 -0.038759708404541016 0.026606762781739235
-0.19379842281341553 -0.02325582504272461 -0.21239778399467468
-0.19379842281341553 -0.02325582504272461 0.061577245593070984
-0.19379842281341553 -0.007751941680908203 -0.2295648157596588
-0.19379842281341553 -0.007751941680908203 0.07806889712810516
-0.19379842281341553 0.007751941680908203 -0.23137760162353516
-0.19379842281341553 0.007751941680908203 0.07820974290370941
-0.19379842281341553 0.007751941680908203 0.5008585453033447
-0.19379842281341553 0.007751941680908203 0.6227045059204102
-0.19379842281341553 0.02325582504272461 -0.2198173701763153
-0.19379842281341553 0.02325582504272461 0.06883031874895096
-0.19379842281341553 0.02325582504272461 0.49984049797058105
-0.19379842281341553 0.02325582504272461 0.6357415914535522
-0.19379842281341553 0.038759708404541016 -0.19357715547084808
-0.19379842281341553 0.038759708404541016 0.04857337102293968
-0.19379842281341553 0.038759708404541016 0.5017745494842529
-0.19379842281341553 0.038759708404541016 0.6420983672142029
-0.19379842281341553 0.05426359176635742 -0.14024974405765533
-0.19379842281341553 0.05426359176635742 0.0016613909974694252
-0.19379842281341553 0.05426359176635742 0.5003833770751953
-0.19379842281341553 0.05426359176635742 0.6494210958480835
-0.19379842281341553 0.06976747512817383 0.49103090167045593
-0.19379842281341553 0.06976747512817383 0.6545442342758179
-0.19379842281341553 0.08527135848999023 0.46403002738952637
-0.19379842281341553 0.08527135848999023 0.6563867926597595
-0.19379842281341553 0.10077524185180664 0.42425110936164856
-0.19379842281341553 0.10077524185180664 0.6562743782997131
-0.19379842281341553 0.11627912521362305 0.3937782347202301
-0.19379842281341553 0.11627912521362305 0.6525881886482239
-0.19379842281341553 0.1317828893661499 0.3730430603027344
-0.19379842281341553 0.1317828893661499 0.6419097185134888
-0.19379842281341553 0.1472867727279663 0.3623864948749542
-0.19379842281341553 0.1472867727279663 0.624323844909668
-0.19379842281341553 0.16279065608978271 0.36496710777282715
-0.19379842281341553 0.16279065608978271 0.5944036245346069
-0.19379842281341553 0.17829453945159912 0.38305243849754333
-0.19379842281341553 0.17829453945159912 0.5575625896453857
-0.19379842281341553 0.19379842281341553 0.4180222749710083
-0.19379842281341553 0.19379842281341553 0.5023109912872314
-0.1782945990562439 -0.06976741552352905 -0.36619219183921814
-0.1782945990562439 -0.06976741552352905 -0.35491979122161865
-0.1782945990562439 -0.05426359176635742 -0.37461280822753906
-0.1782945990562439 -0.05426359176635742 0.03811058774590492
-0.1782945990562439 -0.038759708404541016 -0.3797442615032196
-0.1782945990562439 -0.038759708404541016 0.08305986225605011
-0.1782945990562439 -0.02325582504272461 -0.38179290294647217
-0.1782945990562439 -0.02325582504272461 0.10691484808921814
-0.1782945990562439 -0.007751941680908203 -0.3824814558029175
-0.1782945990562439 -0.007751941680908203 0.11767487972974777
-0.1782945990562439 -0.007751941680908203 0.4698069989681244
-0.1782945990562439 -0.007751941680908203 0.6181676983833313
-0.1782945990562439 0.007751941680908203 -0.3808358609676361
-0.1782945990562439 0.007751941680908203 0.11466678977012634
-0.1782945990562439 0.007751941680908203 0.4664154648780823
-0.1782945990562439 0.007751941680908203 0.6366848945617676
-0.1782945990562439 0.02325582690536976 -0.37517625093460083
-0.1782945990562439 0.02325582504272461 0.103907510638237
-0.1782945990562439 0.02325582504272461 0.467896044254303
-0.1782945990562439 0.02325582504272461 0.6430385112762451
-0.1782945990562439 0.038759708404541016 -0.366253137588501
-0.1782945990562439 0.038759708404541016 0.08697883039712906
-0.1782945990562439 0.038759708404541016 0.4716203510761261
-0.1782945990562439 0.038759708404541016 0.6490015387535095
-0.1782945990562439 0.05426359176635742 -0.3105430006980896
-0.1782945990562439 0.05426359176635742 0.06735549122095108
-0.1782945990562439 0.05426359176635742 0.47276872396469116
-0.1782945990562439 0.05426359176635742 0.6542824506759644
-0.1782945990562439 0.06976747512817383 -0.24186177551746368
-0.1782945990562439 0.06976747512817383 0.032161813229322433
-0.1782945990562439 0.06976747512817383 0.46420466899871826
