0.017908906564116478 0.22480618953704834 -0.27131783962249756
0.0200051199644804 0.24031007289886475 -0.4573643207550049
0.0187804214656353 0.24031007289886475 -0.30232560634613037
0.022118957713246346 0.25581395626068115 -0.4728682041168213
0.009816929697990417 0.27131783962249756 -0.5038759708404541
0.02121458388864994 0.27131783962249756 -0.3798449635505676
0.022148942574858665 0.28682172298431396 -0.5193798542022705
0.016349753364920616 0.28682172298431396 -0.4418604373931885
0.017417283728718758 0.30232560634613037 -0.5503876209259033
0.016511576250195503 0.30232560634613037 -0.4883720874786377
0.021074721589684486 0.3178294897079468 -0.5813953876495361
0.011463062837719917 0.3178294897079468 -0.5348837375640869
0.01980252005159855 0.3333333730697632 -0.5658915042877197
0.008106328547000885 0.3488372564315796 -0.6589146852493286
0.010447084903717041 0.3488372564315796 -0.6124030351638794
0.009967132471501827 0.3643411099910736 -0.643410861492157
0.01892956532537937 0.37984490394592285 -0.7364341020584106
0.011686775833368301 0.37984487414360046 -0.6744185090065002
0.03766334429383278 -0.28682172298431396 -0.4418604373931885
0.03689407929778099 -0.28682172298431396 -0.42635661363601685
0.0350196547806263 -0.28682172298431396 -0.41085273027420044
0.033820122480392456 -0.28682172298431396 -0.39534884691238403
0.02991519495844841 -0.28682172298431396 -0.3798449635505676
0.027544371783733368 -0.28682172298431396 -0.3643410801887512
0.02545766904950142 -0.28682172298431396 -0.3488371968269348
0.025378046557307243 -0.28682172298431396 -0.3333333134651184
0.028040239587426186 -0.28682172298431396 -0.317829430103302
0.03316816687583923 -0.28682172298431396 -0.30232560634613037
0.03606652468442917 -0.28682172298431396 -0.24031007289886475
0.032666824758052826 -0.28682172298431396 0.20930230617523193
0.028811855241656303 -0.28682172298431396 0.22480618953704834
0.033619701862335205 -0.28682172298431396 0.24031007289886475
0.028596017509698868 -0.28682172298431396 0.3333333730697632
0.02395397424697876 -0.28682172298431396 0.7829457521438599
0.027411451563239098 -0.28682172298431396 0.7984496355056763
0.029416201636195183 -0.28682172298431396 0.8139535188674927
0.029842600226402283 -0.28682172298431396 0.8294574022293091
0.03205098956823349 -0.28682172298431396 0.8449612855911255
0.03165476769208908 -0.28682172298431396 0.8604651689529419
0.02654501050710678 -0.28682172298431396 0.8759689331054688
0.03815959393978119 -0.27131783962249756 -0.6279069781303406
0.025630243122577667 -0.27131783962249756 0.751937985420227
0.03461014851927757 -0.27131783962249756 0.7674418687820435
0.03814612701535225 -0.27131783962249756 0.922480583190918
0.02449522167444229 -0.27131783962249756 0.9379845261573792
0.02384219504892826 -0.25581395626068115 0.6899224519729614
0.024331487715244293 -0.25581395626068115 0.7054263353347778
0.025374390184879303 -0.25581395626068115 0.7209302186965942
0.029800351709127426 -0.25581395626068115 0.7364341020584106
0.024802476167678833 -0.25581395626068115 0.9534883499145508
0.037750493735075 -0.24031007289886475 -0.39534884691238403
0.03571416437625885 -0.24031007289886475 -0.3798449635505676
0.030340703204274178 -0.24031007289886475 -0.3643410801887512
0.024624699726700783 -0.24031007289886475 0.674418568611145
0.026201896369457245 -0.24031007289886475 0.6899224519729614
0.02788975089788437 -0.24031007289886475 0.7054263353347778
0.032798681408166885 -0.24031007289886475 0.7209302186965942
0.03142959997057915 -0.22480618953704834 -0.5038759708404541
0.03625170513987541 -0.22480618953704834 -0.3488371968269348
0.027910562232136726 -0.22480618953704834 -0.30232560634613037
0.023404039442539215 -0.22480618953704834 0.6589146852493286
0.02614026889204979 -0.22480618953704834 0.674418568611145
0.029559314250946045 -0.22480618953704834 0.6899224519729614
0.03451390564441681 -0.22480618953704834 0.7054263353347778
0.03750299662351608 -0.20930230617523193 -0.4883720874786377
0.026261664927005768 -0.20930230617523193 -0.4728682041168213
0.03846628591418266 -0.20930230617523193 -0.317829430103302
0.03284219652414322 -0.20930230617523193 -0.30232560634613037
0.03499216213822365 -0.20930230617523193 0.5813953876495361
0.024778496474027634 -0.20930232107639313 0.6589146852493286
0.028822271153330803 -0.20930230617523193 0.674418568611145
0.034470509737730026 -0.20930230617523193 0.6899224519729614
0.029580548405647278 -0.20930230617523193 0.9689921736717224
0.034210290759801865 -0.19379842281341553 -0.4573643207550049
0.026361702010035515 -0.19379842281341553 -0.4418604373931885
0.03776517137885094 -0.19379842281341553 0.612403154373169
0.02338687889277935 -0.19379842281341553 0.6434108018875122
0.02654043212532997 -0.19379840791225433 0.6589146852493286
0.03172285109758377 -0.19379842281341553 0.674418568611145
0.03529825806617737 -0.19379842281341553 0.9689922332763672
0.035228628665208817 -0.1782945990562439 -0.42635661363601685
0.03154410049319267 -0.1782945990562439 -0.41085273027420044
0.025258885696530342 -0.1782945990562439 -0.3953488767147064
0.026032231748104095 -0.1782945990562439 0.6434108018875122
0.027551207691431046 -0.1782945990562439 0.6589146852493286
0.031729504466056824 -0.1782945990562439 0.674418568611145
0.0351305790245533 -0.1782945990562439 0.9689922332763672
0.035729750990867615 -0.1627907156944275 -0.39534884691238403
0.031164877116680145 -0.1627907156944275 -0.3798449635505676
0.023261012509465218 -0.1627907156944275 -0.3643410801887512
0.028774956241250038 -0.1627907156944275 -0.25581395626068115
0.025170153006911278 -0.1627907156944275 -0.24031007289886475
0.03468892723321915 -0.1627907156944275 -0.007751941680908203
0.028459712862968445 -0.1627907156944275 0.02325582504272461
0.038584474474191666 -0.1627907156944275 0.6434108018875122
0.028388313949108124 -0.1627907156944275 0.6589146852493286
0.0296277217566967 -0.1627907156944275 0.674418568611145
0.03343454375863075 -0.1627907156944275 0.6899224519729614
0.02918378822505474 -0.1627907156944275 0.9689922332763672
0.03577757254242897 -0.14728683233261108 -0.3798449635505676
0.029842399060726166 -0.14728683233261108 -0.3643410801887512
0.024806015193462372 -0.14728683233261108 -0.3488371968269348
0.02398938313126564 -0.14728683233261108 -0.3333333134651184
0.02332971803843975 -0.14728683233261108 -0.317829430103302
0.029625091701745987 -0.14728683233261108 -0.30232560634613037
0.036132920533418655 -0.14728683233261108 -0.28682172298431396
0.03532898426055908 -0.14728683233261108 -0.19379842281341553
0.03214103356003761 -0.14728683233261108 0.6589146852493286
0.027575094252824783 -0.14728683233261108 0.674418568611145
0.02895495295524597 -0.14728683233261108 0.6899224519729614
0.03344401717185974 -0.14728683233261108 0.7054263353347778
0.036969803273677826 -0.13178294897079468 -0.3798449635505676
0.031471654772758484 -0.13178294897079468 -0.3643410801887512
0.02725912258028984 -0.13178294897079468 -0.3488372266292572
0.027772177010774612 -0.13178294897079468 -0.3333333134651184
0.02971988543868065 -0.13178294897079468 -0.317829430103302
0.03663940355181694 -0.13178294897079468 -0.30232560634613037
0.025821246206760406 -0.13178294897079468 0.674418568611145
0.025330983102321625 -0.13178294897079468 0.6899224519729614
0.026674073189496994 -0.13178294897079468 0.7054263353347778
0.031789012253284454 -0.13178294897079468 0.7209302186965942
0.030189987272024155 -0.13178294897079468 0.9534883499145508
0.03535951301455498 -0.11627906560897827 -0.3798449635505676
0.029065977782011032 -0.11627906560897827 -0.3643410801887512
0.02428501471877098 -0.11627905815839767 -0.3488371968269348
0.02604665234684944 -0.11627906560897827 -0.3333333134651184
0.030070841312408447 -0.11627906560897827 -0.317829430103302
0.026034096255898476 -0.11627906560897827 0.7364341020584106
0.034796763211488724 -0.11627906560897827 0.751937985420227
0.03558278828859329 -0.11627906560897827 0.922480583190918
0.02499806508421898 -0.11627906560897827 0.9379844665527344
0.03811401501297951 -0.10077518224716187 -0.39534884691238403
0.03184613585472107 -0.10077518224716187 -0.3798449635505676
0.02645222097635269 -0.10077518224716187 -0.317829430103302
0.030241621658205986 -0.10077518224716187 0.6589146852493286
0.025534482672810555 -0.10077518224716187 0.7829457521438599
0.03234638273715973 -0.10077518224716187 0.7984496355056763
0.036267802119255066 -0.10077518224716187 0.8139535188674927
0.03795110061764717 -0.10077518224716187 0.8294574022293091
0.038642432540655136 -0.10077518224716187 0.8449612855911255
0.03663897514343262 -0.10077518224716187 0.8604651689529419
0.03209884092211723 -0.10077518224716187 0.8759689331054688
0.02582934871315956 -0.10077518224716187 0.8914728164672852
0.032493479549884796 -0.08527129888534546 -0.39534884691238403
0.036896489560604095 -0.08527129888534546 -0.30232560634613037
0.03240293264389038 -0.08527129888534546 0.37984490394592285
0.025894340127706528 -0.08527129888534546 0.39534878730773926
0.03681362047791481 -0.06976741552352905 -0.42635661363601685
0.03198876231908798 -0.06976741552352905 -0.41085273027420044
0.03050149790942669 -0.06976741552352905 0.37984490394592285
0.02352403663098812 -0.06976741552352905 0.39534878730773926
0.036720819771289825 -0.05426359176635742 -0.4418604373931885
0.029904309660196304 -0.05426359176635742 -0.42635661363601685
0.036629706621170044 -0.05426359176635742 -0.317829430103302
0.03153543919324875 -0.038759708404541016 -0.4418604373931885
0.024004867300391197 -0.038759708404541016 -0.3333333134651184
0.037549618631601334 -0.038759708404541016 0.5968992710113525
0.03765394911170006 -0.02325582504272461 -0.4573643207550049
0.025036949664354324 -0.02325582690536976 -0.4418604373931885
0.02557242102921009 -0.02325582504272461 -0.3333333134651184
0.03198399394750595 -0.007751941680908203 -0.4573643207550049
0.024039344862103462 0.007751941215246916 -0.4573643207550049
0.024745112285017967 0.007751941215246916 -0.24031005799770355
0.02919001504778862 0.00775194214656949 -0.22480618953704834
0.0289907306432724 0.007751941680908203 -0.20930230617523193
0.025933027267456055 0.00775194214656949 -0.19379842281341553
0.03543524816632271 0.007751941680908203 -0.1782945990562439
0.029584284871816635 0.00775194214656949 -0.06976741552352905
0.03831145167350769 0.02325582504272461 -0.4728682041168213
0.027294639497995377 0.038759708404541016 -0.4728681743144989
0.02761662006378174 0.038759708404541016 0.20930230617523193
0.03029288724064827 0.038759708404541016 0.24031007289886475
0.03248625248670578 0.16279065608978271 -0.11627906560897827
0.025533782318234444 0.25581395626068115 -0.3333333134651184
0.030822206288576126 0.27131783962249756 -0.4883720874786377
0.03701266646385193 0.28682172298431396 -0.42635661363601685
0.038064345717430115 0.30232560634613037 -0.5348837375640869
0.03508937358856201 0.30232560634613037 -0.4728682041168213
0.038639429956674576 0.3178294897079468 -0.5658915042877197
0.028017032891511917 0.3178294897079468 -0.5193798542022705
0.026058640331029892 0.3333333730697632 -0.612403154373169
0.035625748336315155 0.3333333730697632 -0.5503876209259033
0.027960874140262604 0.3488372564315796 -0.643410861492157
0.0276687853038311 0.3488372564315796 -0.5968992710113525
0.024504277855157852 0.364341139793396 -0.674418568611145
0.028459753841161728 0.364341139793396 -0.6279070377349854
0.027588024735450745 0.37984490394592285 -0.7209302186965942
0.033923711627721786 0.37984490394592285 -0.7054263353347778
0.025902053341269493 0.37984490394592285 -0.6589146852493286
0.025253288447856903 0.39534878730773926 -0.7209302186965942
0.03226108103990555 0.39534878730773926 -0.7054263353347778
0.05375242605805397 -0.28682172298431396 -0.5968992114067078
0.050543271005153656 -0.28682172298431396 -0.5813953876495361
0.04903675615787506 -0.28682172298431396 -0.5658915042877197
0.04716886207461357 -0.28682172298431396 -0.5503876209259033
0.046463169157505035 -0.28682172298431396 -0.5348837375640869
0.044250428676605225 -0.28682172298431396 -0.5193798542022705
0.04301055520772934 -0.28682172298431396 -0.5038759708404541
0.041633009910583496 -0.28682172298431396 -0.4883720874786377
0.040709637105464935 -0.28682172298431396 -0.4728682041168213
0.039209477603435516 -0.28682172298431396 -0.4573643207550049
0.04040461406111717 -0.28682172298431396 -0.28682172298431396
0.042910877615213394 -0.28682172298431396 -0.27131783962249756
0.04321099817752838 -0.28682172298431396 -0.25581395626068115
0.04843362793326378 -0.28682172298431396 0.19379842281341553
0.04501616954803467 -0.28682172298431396 0.25581395626068115
0.05097499117255211 -0.28682172298431396 0.30232560634613037
0.04106493294239044 -0.28682172298431396 0.31782951951026917
0.04452069476246834 -0.27131783962249756 0.39534878730773926
0.04358053207397461 -0.27131783962249756 0.7829457521438599
0.049167752265930176 -0.27131783962249756 0.7984496355056763
0.05280424654483795 -0.27131783962249756 0.8139535188674927
0.04819278419017792 -0.27131783962249756 0.9069766998291016
0.04576603323221207 -0.25581395626068115 -0.5968992114067078
0.05091956630349159 -0.25581395626068115 0.4418604373931885
0.04164670407772064 -0.25581395626068115 0.7519380450248718
0.054052241146564484 -0.25581395626068115 0.7674418687820435
0.04274733364582062 -0.25581395626068115 0.9379844665527344
0.04112013429403305 -0.24031007289886475 -0.5503876209259033
0.04699458181858063 -0.24031007289886475 -0.42635661363601685
0.040957480669021606 -0.24031007289886475 -0.41085273027420044
0.04277101904153824 -0.24031007289886475 -0.317829430103302
0.04322110861539841 -0.24031008780002594 0.7364341616630554
0.03884212672710419 -0.24031008780002594 0.9534883499145508
0.04756727069616318 -0.22480618953704834 -0.5193798542022705
0.05149232596158981 -0.22480618953704834 -0.41085273027420044
0.04844096675515175 -0.22480618953704834 -0.39534884691238403
0.047325313091278076 -0.22480618953704834 -0.3798449635505676
0.04383275657892227 -0.22480618953704834 -0.3643410801887512
0.05392033979296684 -0.22480618953704834 -0.28682172298431396
0.04308635741472244 -0.22480617463588715 0.7209302186965942
0.04720373451709747 -0.22480618953704834 0.9534883499145508
0.05205625295639038 -0.20930230617523193 -0.5038759708404541
0.039174530655145645 -0.20930230617523193 -0.28682172298431396
0.05128490924835205 -0.20930230617523193 0.5658915042877197
0.0413338802754879 -0.20930230617523193 0.7054263353347778
0.05268234759569168 -0.20930230617523193 0.7209302186965942
0.053738806396722794 -0.20930230617523193 0.9534883499145508
0.05391102656722069 -0.19379842281341553 -0.4883720874786377
0.04422737658023834 -0.19379842281341553 -0.4728682339191437
0.05363405868411064 -0.19379842281341553 -0.28682172298431396
0.03907669708132744 -0.19379840791225433 0.6899223923683167
0.04442787915468216 -0.19379842281341553 0.7054263353347778
0.04880140721797943 -0.1782945990562439 -0.4573643207550049
0.04061802849173546 -0.1782945841550827 -0.4418604373931885
0.04068379104137421 -0.1782945990562439 0.6279069185256958
0.03884170576930046 -0.1782945990562439 0.6899225115776062
0.04383741319179535 -0.1782945990562439 0.7054263353347778
0.05132785439491272 -0.1627907156944275 -0.4418604373931885
0.04594395309686661 -0.1627907156944275 -0.42635661363601685
0.04058097302913666 -0.1627907156944275 -0.41085273027420044
0.04050082340836525 -0.1627907156944275 0.7054263353347778
0.05185053125023842 -0.1627907156944275 0.7209302186965942
0.0524178221821785 -0.1627907156944275 0.9534883499145508
0.05169308930635452 -0.14728683233261108 -0.42635661363601685
0.04770633950829506 -0.14728683233261108 -0.41085273027420044
0.04080900922417641 -0.14728683233261108 -0.39534881711006165
0.04351527616381645 -0.14728683233261108 -0.27131783962249756
0.05021540820598602 -0.14728683233261108 -0.25581395626068115
0.05291261151432991 -0.14728683233261108 -0.24031007289886475
0.04386647790670395 -0.14728683233261108 -0.19379842281341553
0.04364892095327377 -0.14728683233261108 -0.06976741552352905
0.05024019256234169 -0.14728683233261108 -0.05426359176635742
0.04251481965184212 -0.14728683233261108 0.7209302186965942
0.044109590351581573 -0.14728683233261108 0.9534883499145508
0.05400824174284935 -0.13178294897079468 -0.42635661363601685
0.050553299486637115 -0.13178294897079468 -0.41085273027420044
0.044085532426834106 -0.13178294897079468 -0.39534884691238403
0.048828721046447754 -0.13178294897079468 -0.28682172298431396
0.03954257443547249 -0.13178296387195587 0.6589146852493286
0.042335815727710724 -0.13178294897079468 0.7364341020584106
0.046828389167785645 -0.13178294897079468 0.9379844665527344
0.05389970541000366 -0.11627906560897827 -0.42635661363601685
0.05054932087659836 -0.11627906560897827 -0.41085273027420044
0.04279068857431412 -0.11627906560897827 -0.39534884691238403
0.03969923034310341 -0.11627905815839767 -0.30232560634613037
0.05378134921193123 -0.11627906560897827 -0.28682172298431396
0.04107924923300743 -0.11627906560897827 0.6589146256446838
0.04453255981206894 -0.11627906560897827 0.7674418687820435
0.052787475287914276 -0.11627906560897827 0.8759689331054688
0.04868510365486145 -0.11627906560897827 0.8914728164672852
0.04339510202407837 -0.11627906560897827 0.9069766998291016
0.051763471215963364 -0.10077518224716187 -0.42635661363601685
0.04808137193322182 -0.10077518224716187 -0.41085273027420044
0.04021396115422249 -0.10077518224716187 -0.30232560634613037
0.05420614406466484 -0.08527129888534546 -0.4573643207550049
0.05011872202157974 -0.08527129888534546 -0.4418604373931885
0.04561791568994522 -0.08527129888534546 -0.42635661363601685
0.03898536413908005 -0.08527129888534546 -0.41085273027420044
0.049456533044576645 -0.06976741552352905 -0.4573643207550049
0.04315377026796341 -0.06976741552352905 -0.4418604373931885
0.042186617851257324 -0.06976741552352905 -0.30232560634613037
0.04711409658193588 -0.06976741552352905 0.6434108018875122
0.05220950022339821 -0.05426359176635742 -0.4728682041168213
0.04473767429590225 -0.05426359176635742 -0.4573643207550049
0.050380729138851166 -0.038759708404541016 -0.4728682041168213
0.04071067273616791 -0.038759708404541016 -0.4573643207550049
0.05105185881257057 -0.038759708404541016 -0.317829430103302
0.0501333586871624 -0.02325582504272461 -0.4728682041168213
0.049206946045160294 -0.007751941680908203 -0.4728682041168213
0.04647812992334366 0.007751941680908203 -0.4728682041168213
0.045758701860904694 0.038759708404541016 0.22480618953704834
0.04941238462924957 0.05426359176635742 -0.4883720874786377
0.04064837843179703 0.06976747512817383 -0.4883720874786377
0.04464354366064072 0.1317828893661499 -0.007751941680908203
0.04827860742807388 0.1472867727279663 -0.3488371968269348
0.05317576974630356 0.1472867727279663 -0.3333333134651184
0.04747449606657028 0.1472867727279663 -0.05426359176635742
0.042557232081890106 0.16279065608978271 -0.3643410801887512
0.05425307899713516 0.16279065608978271 -0.3488371968269348
0.05420701578259468 0.16279065608978271 -0.10077518224716187
0.04808296263217926 0.17829453945159912 -0.3798449635505676
0.05038612335920334 0.17829453945159912 -0.14728683233261108
0.04064873233437538 0.19379842281341553 -0.19379842281341553
0.04724792763590813 0.20930230617523193 -0.4418604373931885
0.04817693680524826 0.20930230617523193 -0.22480618953704834
0.03949759528040886 0.22480618953704834 -0.4418604373931885
0.05099920928478241 0.22480618953704834 -0.25581395626068115
0.04503817856311798 0.24031007289886475 -0.4418604373931885
0.05240994319319725 0.24031007289886475 -0.28682172298431396
0.04352521151304245 0.25581395626068115 -0.4573643207550049
0.05149011313915253 0.27131783962249756 -0.4728682041168213
0.044737309217453 0.27131783962249756 -0.3643410801887512
0.04194018244743347 0.28682172298431396 -0.5038759708404541
0.045460157096385956 0.3178294897079468 -0.5038759708404541
0.04359309375286102 0.3333333730697632 -0.596899151802063
0.05379319563508034 0.3333333730697632 -0.5348837375640869
0.04650018364191055 0.3488372564315796 -0.6279069781303406
0.04403950273990631 0.3488372564315796 -0.5813953876495361
0.043080560863018036 0.364341139793396 -0.6589146852493286
0.04505948722362518 0.364341139793396 -0.612403154373169
0.04416142404079437 0.37984490394592285 -0.6899224519729614
0.0388219952583313 0.37984490394592285 -0.643410861492157
0.04200613126158714 0.39534878730773926 -0.6899224519729614
0.051936980336904526 0.39534878730773926 -0.674418568611145
0.05808016285300255 -0.28682172298431396 -0.5968992114067078
0.06620081514120102 -0.28682172298431396 -0.1627907156944275
0.0643601268529892 -0.28682172298431396 -0.14728683233261108
0.06413570046424866 -0.28682172298431396 -0.13178294897079468
0.06456921249628067 -0.28682172298431396 -0.11627906560897827
0.0660775750875473 -0.28682172298431396 -0.10077518224716187
0.06886748224496841 -0.28682172298431396 -0.08527129888534546
0.05531817302107811 -0.28682172298431396 0.27131786942481995
0.056255847215652466 -0.28682172298431396 0.28682172298431396
0.056350015103816986 -0.27131783962249756 -0.6124030947685242
0.05582108348608017 -0.27131783962249756 0.8294574022293091
0.06350697576999664 -0.27131783962249756 0.8449612855911255
0.06460586190223694 -0.27131783962249756 0.8604651689529419
0.06102032959461212 -0.27131783962249756 0.8759689331054688
0.05459116771817207 -0.27131783962249756 0.8914728164672852
0.06780676543712616 -0.25581395626068115 -0.4418604373931885
0.05725013464689255 -0.25581395626068115 -0.42635661363601685
0.057099174708127975 -0.25581395626068115 -0.41085273027420044
0.059676822274923325 -0.25581395626068115 -0.39534884691238403
0.05972747877240181 -0.25581395626068115 -0.3798449635505676
0.06178245320916176 -0.25581395626068115 -0.3643410801887512
0.06448028981685638 -0.25581395626068115 -0.3488371968269348
0.06789761781692505 -0.25581395626068115 -0.3333333134651184
0.061328738927841187 -0.25581395626068115 0.7829457521438599
0.06604593992233276 -0.25581395626068115 0.7984496355056763
0.0682467520236969 -0.25581395626068115 0.8139535188674927
0.06494584679603577 -0.25581395626068115 0.9069766998291016
0.05554363131523132 -0.25581395626068115 0.922480583190918
0.059418126940727234 -0.24031007289886475 -0.4418604373931885
0.058145735412836075 -0.24031008780002594 -0.30232560634613037
0.05693045258522034 -0.24031007289886475 0.751937985420227
0.06750762462615967 -0.24031007289886475 0.7674418687820435
0.06668100506067276 -0.24031007289886475 0.922480583190918
0.054950322955846786 -0.24031007289886475 0.9379844665527344
0.05858120694756508 -0.22480618953704834 -0.42635661363601685
0.05625566840171814 -0.22480618953704834 0.7364341020584106
0.06909537315368652 -0.22480618953704834 0.751937985420227
0.06319573521614075 -0.22480618953704834 0.9379844665527344
0.06800045818090439 -0.20930230617523193 -0.39534884691238403
0.06710019707679749 -0.20930230617523193 -0.3798449635505676
0.06550683081150055 -0.20930230617523193 -0.3643410801887512
0.06365077942609787 -0.20930230617523193 -0.3488371968269348
0.055517807602882385 -0.20930232107639313 -0.3333333134651184
0.06481930613517761 -0.20930230617523193 0.7364341020584106
0.06799469888210297 -0.20930230617523193 0.9379844665527344
0.06822510063648224 -0.19379842281341553 -0.5038759708404541
0.06380865722894669 -0.19379842281341553 0.5968992710113525
0.05710966885089874 -0.19379842281341553 0.7209302186965942
0.055700190365314484 -0.19379840791225433 0.953488290309906
0.06745050847530365 -0.1782945990562439 -0.4883720874786377
0.05725798010826111 -0.1782945990562439 -0.4728682041168213
0.05697597190737724 -0.1782945990562439 0.7209302186965942
0.06907141208648682 -0.1782945990562439 0.9379844665527344
0.05545680597424507 -0.1782945990562439 0.9534883499145508
0.06680605560541153 -0.1627907156944275 -0.4728682041168213
0.05841154605150223 -0.1627907156944275 -0.4573643207550049
0.05824071168899536 -0.1627907156944275 -0.007751941680908203
0.06738819181919098 -0.1627907156944275 0.7364341020584106
0.06606048345565796 -0.1627907156944275 0.9379844665527344
0.06476616859436035 -0.14728683233261108 -0.4573643207550049
0.05756247043609619 -0.14728683233261108 -0.44186046719551086
0.054931022226810455 -0.14728683233261108 -0.22480618953704834
0.05474583059549332 -0.14728683233261108 -0.20930230617523193
0.05528082698583603 -0.14728683233261108 -0.038759708404541016
0.059639908373355865 -0.14728683233261108 -0.02325582504272461
0.06681103259325027 -0.14728683233261108 -0.007751941680908203
0.05662176385521889 -0.14728683233261108 0.7364341616630554
0.06633153557777405 -0.14728683233261108 0.922480583190918
0.05867164582014084 -0.14728683233261108 0.9379844665527344
0.06650768220424652 -0.13178294897079468 -0.4573643207550049
0.060891442000865936 -0.13178294897079468 -0.4418604373931885
0.05569129064679146 -0.13178294897079468 -0.27131783962249756
0.060517147183418274 -0.13178294897079468 -0.25581395626068115
0.062263235449790955 -0.13178294897079468 -0.24031007289886475
0.06388619542121887 -0.13178294897079468 -0.22480618953704834
0.06502082943916321 -0.13178294897079468 -0.20930230617523193
0.06547581404447556 -0.13178294897079468 -0.19379842281341553
0.06362855434417725 -0.13178294897079468 -0.1782945990562439
0.06226791441440582 -0.13178294897079468 -0.1627907156944275
0.06154514104127884 -0.13178294897079468 -0.14728683233261108
0.05938926339149475 -0.13178294897079468 -0.13178294897079468
0.05719209462404251 -0.13178294897079468 -0.11627906560897827
0.05779171735048294 -0.13178294897079468 -0.10077518224716187
0.058224037289619446 -0.13178294897079468 -0.08527129888534546
0.057413067668676376 -0.13178294897079468 -0.06976741552352905
0.05760486423969269 -0.13178294897079468 -0.05426359176635742
0.05923600494861603 -0.13178294897079468 -0.038759708404541016
0.06298832595348358 -0.13178294897079468 -0.02325582504272461
0.06856794655323029 -0.13178294897079468 -0.007751941680908203
0.0679209753870964 -0.13178294897079468 0.05426359176635742
0.05581238120794296 -0.13178294897079468 0.751937985420227
0.0668446272611618 -0.13178294897079468 0.7674418687820435
0.06968239694833755 -0.13178294897079468 0.8759689331054688
0.06504310667514801 -0.13178294897079468 0.8914728164672852
0.061528198421001434 -0.13178294897079468 0.9069766998291016
0.05583123490214348 -0.13178294897079468 0.922480583190918
0.06512081623077393 -0.11627906560897827 -0.4573643207550049
0.059519991278648376 -0.11627906560897827 -0.4418604373931885
0.06124154478311539 -0.11627906560897827 -0.27131783962249756
0.06587506830692291 -0.11627906560897827 -0.25581395626068115
0.06736418604850769 -0.11627906560897827 -0.24031007289886475
0.06839054077863693 -0.11627906560897827 -0.22480618953704834
0.06928647309541702 -0.11627906560897827 -0.20930230617523193
0.06784886866807938 -0.11627906560897827 -0.11627906560897827
0.06527890264987946 -0.11627906560897827 -0.10077518224716187
0.06286926567554474 -0.11627906560897827 -0.08527129888534546
0.06020915508270264 -0.11627906560897827 -0.06976741552352905
0.060116156935691833 -0.11627906560897827 -0.05426359176635742
0.06273795664310455 -0.11627906560897827 -0.038759708404541016
0.06817572563886642 -0.11627906560897827 -0.02325582504272461
0.058968715369701385 -0.11627906560897827 0.06976747512817383
0.05474114418029785 -0.11627906560897827 0.7829457521438599
0.05865645408630371 -0.11627906560897827 0.7984495759010315
0.05931273102760315 -0.11627906560897827 0.8139535188674927
0.05898324400186539 -0.11627906560897827 0.8294574022293091
0.059720173478126526 -0.11627906560897827 0.8449612855911255
0.05814077705144882 -0.11627907305955887 0.8604652285575867
0.0675879567861557 -0.10077518224716187 -0.4728682041168213
0.06123504787683487 -0.10077518224716187 -0.4573643207550049
0.05503358319401741 -0.10077518224716187 -0.4418604373931885
0.05594616383314133 -0.10077518224716187 -0.28682172298431396
0.06420457363128662 -0.10077518224716187 -0.27131783962249756
0.06928461045026779 -0.10077518224716187 -0.25581395626068115
0.06797033548355103 -0.10077518224716187 -0.06976741552352905
0.06723982095718384 -0.10077518224716187 -0.05426359176635742
0.06936915963888168 -0.08527129888534546 -0.4883720874786377
0.062279112637043 -0.08527129888534546 -0.4728682041168213
0.05450577288866043 -0.08527130633592606 -0.28682172298431396
0.06434747576713562 -0.08527129888534546 -0.27131783962249756
0.06488895416259766 -0.06976741552352905 -0.4883720874786377
0.05586792901158333 -0.06976741552352905 -0.4728682041168213
0.057469967752695084 -0.06976741552352905 -0.28682172298431396
0.0641326755285263 -0.06976741552352905 -0.27131783962249756
0.06919392943382263 -0.06976741552352905 -0.25581395626068115
0.06119368225336075 -0.05426359176635742 -0.4883720874786377
0.05580637603998184 -0.05426359176635742 -0.30232560634613037
0.06695666164159775 -0.05426359176635742 -0.28682172298431396
0.06857722997665405 -0.05426359176635742 -0.27131783962249756
0.062421999871730804 -0.05426359176635742 0.6279069185256958
0.0694623589515686 -0.038759708404541016 -0.5038759708404541
0.05980446934700012 -0.038759708404541016 -0.4883720874786377
0.066128209233284 -0.038759708404541016 -0.30232560634613037
0.06754391640424728 -0.038759708404541016 0.007751941680908203
0.06107594445347786 -0.02325582504272461 -0.4883720874786377
0.057127829641103745 -0.02325582504272461 -0.317829430103302
0.06906390935182571 -0.02325582504272461 -0.30232560634613037
0.06874013692140579 -0.02325582504272461 -0.24031007289886475
0.05873701721429825 -0.02325582504272461 -0.02325582504272461
0.060748323798179626 -0.02325582504272461 0.5503876209259033
0.06288072466850281 -0.007751941680908203 -0.4883720874786377
0.05677727982401848 -0.007751941680908203 -0.30232560634613037
0.05998559296131134 -0.007751941680908203 -0.28682172298431396
0.05725747346878052 -0.007751941680908203 -0.27131783962249756
0.05573199316859245 -0.007751941680908203 -0.25581395626068115
0.054649706929922104 -0.00775194214656949 -0.24031008780002594
0.05689924210309982 -0.007751941680908203 -0.22480618953704834
0.06027783453464508 -0.007751941680908203 -0.20930230617523193
0.06625282764434814 -0.007751941680908203 -0.19379842281341553
0.06363917887210846 0.007751941680908203 -0.4883720874786377
0.055109791457653046 0.007751941680908203 -0.1627907156944275
0.060566872358322144 0.02325582504272461 -0.4883720874786377
0.06407693028450012 0.02325582504272461 -0.10077518224716187
0.056939542293548584 0.02325582504272461 0.4728682041168213
0.05557811260223389 0.038759708404541016 -0.4883720874786377
0.061582036316394806 0.038759708404541016 0.22480618953704834
0.06394481658935547 0.11627912521362305 0.038759708404541016
0.06739718466997147 0.1317828893661499 -0.3488371968269348
0.06760966032743454 0.1317828893661499 -0.3333333134651184
0.05950850248336792 0.1472867727279663 -0.3643410801887512
0.06348487734794617 0.16279065608978271 -0.3798449635505676
0.0676121637225151 0.19379842281341553 -0.4418604373931885
0.0694776102900505 0.19379842281341553 -0.1782945990562439
0.06679868698120117 0.20930230617523193 -0.3488371968269348
0.06833640486001968 0.22480618953704834 -0.42635661363601685
0.06896529346704483 0.22480618953704834 -0.3798449635505676
0.06391496956348419 0.22480618953704834 -0.3643410801887512
0.06921270489692688 0.22480618953704834 -0.3488371968269348
0.0673578530550003 0.24031007289886475 -0.42635661363601685
0.0696815475821495 0.25581395626068115 -0.4418604373931885
0.05951952934265137 0.25581395626068115 -0.317829430103302
0.06738251447677612 0.28682172298431396 -0.4883720874786377
0.05993116647005081 0.28682172298431396 -0.41085273027420044
0.060068245977163315 0.30232560634613037 -0.5193798542022705
0.059095822274684906 0.30232560634613037 -0.4573643207550049
0.05720861256122589 0.3178294897079468 -0.5503876209259033
0.0621475912630558 0.3333333730697632 -0.5813953876495361
0.06701826304197311 0.3488372564315796 -0.6124030947685242
0.062156762927770615 0.3488372564315796 -0.5658915042877197
0.06260504573583603 0.364341139793396 -0.643410861492157
0.06421871483325958 0.364341139793396 -0.5968992114067078
0.058328792452812195 0.37984490394592285 -0.674418568611145
0.05445320904254913 0.37984487414360046 -0.6279069781303406
0.0656130239367485 0.39534878730773926 -0.6589146852493286
0.08290887624025345 -0.30232560634613037 -0.5503876209259033
0.07837177067995071 -0.30232560634613037 -0.5348837375640869
0.07584182173013687 -0.30232560634613037 -0.5193798542022705
0.07469998300075531 -0.30232560634613037 -0.5038759708404541
0.07412164658308029 -0.30232560634613037 -0.4883720874786377
0.07433591783046722 -0.30232560634613037 -0.4728682041168213
0.07429066300392151 -0.30232560634613037 -0.4573643207550049
0.07430048286914825 -0.30232560634613037 -0.4418604373931885
0.07450547814369202 -0.30232560634613037 -0.42635661363601685
0.0742112547159195 -0.30232560634613037 -0.41085273027420044
0.07421571761369705 -0.30232560634613037 -0.39534884691238403
0.07301868498325348 -0.30232560634613037 -0.3798449635505676
0.0727083757519722 -0.30232560634613037 -0.3643410801887512
0.07266809791326523 -0.30232560634613037 -0.3488371968269348
0.07337112724781036 -0.30232560634613037 -0.3333333134651184
0.07516323029994965 -0.30232560634613037 -0.317829430103302
0.07870642840862274 -0.30232560634613037 -0.30232560634613037
0.07575003057718277 -0.28682172298431396 -0.5813953876495361
0.07589288055896759 -0.28682172298431396 -0.19379842281341553
0.07056441903114319 -0.28682172298431396 -0.1782946139574051
0.07059447467327118 -0.28682172298431396 -0.06976741552352905
0.07237441092729568 -0.28682172298431396 -0.05426359176635742
0.07347648590803146 -0.28682172298431396 -0.038759708404541016
0.07449913769960403 -0.28682172298431396 -0.02325582504272461
0.07618550956249237 -0.28682172298431396 -0.007751941680908203
0.07964726537466049 -0.28682172298431396 0.007751941680908203
0.07638369500637054 -0.28682172298431396 0.17829453945159912
0.07174646109342575 -0.27131783962249756 -0.5968992114067078
0.08300352841615677 -0.27131783962249756 -0.5813953876495361
0.08476009964942932 -0.27131783962249756 -0.41085273027420044
0.08428244292736053 -0.27131783962249756 -0.39534884691238403
0.08333384245634079 -0.27131783962249756 -0.3798449635505676
0.08348163962364197 -0.27131783962249756 -0.3643410801887512
0.08433373272418976 -0.27131783962249756 -0.3488371968269348
0.07522749900817871 -0.27131783962249756 0.37984490394592285
0.07555095851421356 -0.25581395626068115 -0.5813953876495361
0.07272166758775711 -0.25581395626068115 -0.317829430103302
0.07976651191711426 -0.25581395626068115 -0.30232560634613037
0.07087204605340958 -0.25581395626068115 0.8294574022293091
0.07709328830242157 -0.25581395626068115 0.8449612855911255
0.07834795862436295 -0.25581395626068115 0.8604651689529419
0.07559916377067566 -0.25581395626068115 0.8759689331054688
0.06992168724536896 -0.25581395626068115 0.8914728164672852
0.07587113976478577 -0.24031007289886475 -0.28682172298431396
0.08523088693618774 -0.24031007289886475 0.4728682041168213
0.07481251657009125 -0.24031007289886475 0.7829457521438599
0.07801589369773865 -0.24031007289886475 0.7984496355056763
0.07919307798147202 -0.24031007289886475 0.8139535188674927
0.08074820041656494 -0.24031007289886475 0.8294574022293091
0.08325468748807907 -0.24031007289886475 0.8759689331054688
0.07965654879808426 -0.24031007289886475 0.8914728164672852
0.07415977120399475 -0.24031007289886475 0.9069766998291016
0.07398524880409241 -0.22480618953704834 -0.5348837375640869
0.07541631907224655 -0.22480617463588715 -0.4418604075908661
0.0781218558549881 -0.22480618953704834 0.7674418687820435
0.08464457839727402 -0.22480618953704834 0.7829457521438599
0.08083055913448334 -0.22480618953704834 0.9069766998291016
0.07232442498207092 -0.22480620443820953 0.922480583190918
0.07091465592384338 -0.20930229127407074 -0.5193798542022705
0.08490436524152756 -0.20930230617523193 -0.42635661363601685
0.0739712119102478 -0.20930230617523193 -0.41085273027420044
0.07567402720451355 -0.20930230617523193 0.5503876209259033
0.07729880511760712 -0.20930230617523193 0.751937985420227
0.08364126831293106 -0.20930230617523193 0.9069766998291016
0.07701504230499268 -0.20930230617523193 0.922480583190918
0.08391140401363373 -0.19379842281341553 -0.317829430103302
0.07098866254091263 -0.19379842281341553 -0.30232560634613037
0.07665176689624786 -0.19379842281341553 -0.28682172298431396
0.07761014997959137 -0.19379842281341553 0.5813953876495361
0.07155627012252808 -0.19379842281341553 0.7364341020584106
0.08411727845668793 -0.19379842281341553 0.751937985420227
0.08469432592391968 -0.19379842281341553 0.9069766998291016
0.07875175774097443 -0.19379842281341553 0.922480583190918
0.06986565887928009 -0.19379843771457672 0.9379845261573792
0.07948251068592072 -0.1782945990562439 -0.5038759708404541
0.07277518510818481 -0.1782945990562439 0.612403154373169
0.07255257666110992 -0.1782945841550827 0.7364340424537659
0.08283805847167969 -0.1782945990562439 0.9069766998291016
0.07755926996469498 -0.1782945990562439 0.922480583190918
0.08437871932983398 -0.1627907156944275 -0.5038759708404541
0.0755741149187088 -0.1627907156944275 -0.4883720874786377
0.07127533107995987 -0.1627907156944275 0.007751941680908203
0.07153625041246414 -0.1627907156944275 0.02325582504272461
0.07634061574935913 -0.1627907156944275 0.6279069185256958
0.08314939588308334 -0.1627907156944275 0.751937985420227
0.08376312255859375 -0.1627907156944275 0.8914728164672852
0.07968464493751526 -0.1627907156944275 0.9069766998291016
0.07343483716249466 -0.1627907156944275 0.922480583190918
0.08005648851394653 -0.14728683233261108 -0.4883720874786377
0.0708564817905426 -0.14728683233261108 -0.4728682041168213
0.07531467825174332 -0.14728683233261108 0.007751941680908203
0.0810762420296669 -0.14728683233261108 0.02325582504272461
0.07655633985996246 -0.14728683233261108 0.038759708404541016
0.07173246890306473 -0.14728683233261108 0.6434107422828674
0.07211070507764816 -0.14728683233261108 0.751937985420227
0.08366681635379791 -0.14728683233261108 0.7674418687820435
0.08129950612783432 -0.14728683233261108 0.8759689331054688
0.07722881436347961 -0.14728683233261108 0.8914728164672852
0.07286576181650162 -0.14728683233261108 0.9069766998291016
0.08098099380731583 -0.13178294897079468 -0.4883720874786377
0.07289750874042511 -0.13178294897079468 -0.4728682041168213
0.0744796097278595 -0.13178294897079468 0.007751941680908203
0.08114300668239594 -0.13178294897079468 0.02325582504272461
0.08240911364555359 -0.13178294897079468 0.038759708404541016
0.07558631896972656 -0.13178294897079468 0.7829457521438599
0.07855001091957092 -0.13178294897079468 0.7984496355056763
0.07781779766082764 -0.13178294897079468 0.8139535188674927
0.07630408555269241 -0.13178294897079468 0.8294574022293091
0.0771917998790741 -0.13178294897079468 0.8449612855911255
0.07573139667510986 -0.13178294897079468 0.8604651689529419
0.07874731719493866 -0.11627906560897827 -0.4883720874786377
0.07065541297197342 -0.11627906560897827 -0.4728682041168213
0.07050696015357971 -0.11627905815839767 -0.19379842281341553
0.07043550908565521 -0.11627906560897827 -0.1782945990562439
0.07098961621522903 -0.11627906560897827 -0.1627907156944275
0.07237868010997772 -0.11627906560897827 -0.14728683233261108
0.07163897156715393 -0.11627906560897827 -0.13178294897079468
0.07321539521217346 -0.11627906560897827 -0.007751941680908203
0.07899003475904465 -0.11627906560897827 0.007751941680908203
0.0793074369430542 -0.11627906560897827 0.05426359176635742
0.08291499316692352 -0.10077518224716187 -0.5038759708404541
0.07455423474311829 -0.10077518224716187 -0.4883720874786377
0.07096738368272781 -0.10077518224716187 -0.24031007289886475
0.07136766612529755 -0.10077517479658127 -0.22480618953704834
0.07142285257577896 -0.10077517479658127 -0.20930230617523193
0.07283680140972137 -0.10077518224716187 -0.19379842281341553
0.07514875382184982 -0.10077518224716187 -0.1782945990562439
0.08062989264726639 -0.10077518224716187 -0.1627907156944275
0.08518568426370621 -0.10077518224716187 -0.11627906560897827
0.07918228209018707 -0.10077518224716187 -0.10077518224716187
0.07314953207969666 -0.10077518224716187 -0.08527129888534546
0.07072613388299942 -0.10077518224716187 -0.038759712129831314
0.07554535567760468 -0.10077518224716187 -0.02325582504272461
0.08168969303369522 -0.10077518224716187 -0.007751941680908203
0.07131385803222656 -0.10077518224716187 0.06976747512817383
0.0781254693865776 -0.08527129888534546 -0.5038759708404541
0.07043884694576263 -0.08527129888534546 -0.25581395626068115
0.0729558989405632 -0.08527129888534546 -0.24031007289886475
0.07401112467050552 -0.08527129888534546 -0.22480617463588715
0.07494712620973587 -0.08527129888534546 -0.20930230617523193
0.07795524597167969 -0.08527129888534546 -0.19379842281341553
0.08512090146541595 -0.08527129888534546 -0.1782945990562439
0.08491433411836624 -0.08527129888534546 -0.06976741552352905
0.08000770211219788 -0.08527129888534546 -0.05426359176635742
0.08205462247133255 -0.08527129888534546 -0.038759708404541016
0.07248565554618835 -0.08527129888534546 0.06976747512817383
0.0794639065861702 -0.08527129888534546 0.6434108018875122
0.08411715924739838 -0.06976741552352905 -0.5193798542022705
0.07335823774337769 -0.06976741552352905 -0.5038759708404541
0.07190705835819244 -0.06976741552352905 -0.24031007289886475
0.07483159750699997 -0.06976741552352905 -0.22480618953704834
0.07886601239442825 -0.06976741552352905 -0.20930230617523193
0.08422836661338806 -0.06976741552352905 0.05426359176635742
0.0821833461523056 -0.05426359176635742 -0.5193798542022705
0.07009390741586685 -0.05426359176635742 -0.5038759708404541
0.07041680812835693 -0.05426359176635742 -0.25581395626068115
0.07149209082126617 -0.05426358804106712 -0.24031007289886475
0.07521922141313553 -0.05426359176635742 -0.22480618953704834
0.08171635866165161 -0.05426359176635742 -0.20930230617523193
0.07701203972101212 -0.05426359176635742 0.038759708404541016
0.0821770429611206 -0.038759708404541016 -0.5193798542022705
0.07412485778331757 -0.038759708404541016 -0.28682172298431396
0.07412546873092651 -0.038759708404541016 -0.27131783962249756
0.07311388850212097 -0.038759708404541016 -0.25581395626068115
0.07197313010692596 -0.038759708404541016 -0.24031007289886475
0.07515761256217957 -0.038759708404541016 -0.22480618953704834
0.08210711926221848 -0.038759708404541016 -0.20930230617523193
0.07922404259443283 -0.038759708404541016 -0.007751941680908203
0.07346417009830475 -0.038759708404541016 0.5813953876495361
0.08398249000310898 -0.02325582504272461 -0.5193798542022705
0.07186180353164673 -0.02325582504272461 -0.5038759708404541
0.07385765761137009 -0.02325582504272461 -0.28682172298431396
0.0724683329463005 -0.02325582318007946 -0.27131783962249756
0.07045868784189224 -0.02325582504272461 -0.25581395626068115
0.07087167352437973 -0.02325582504272461 -0.22480618953704834
0.07581987977027893 -0.02325582504272461 -0.20930230617523193
0.08476971089839935 -0.02325582504272461 -0.19379842281341553
0.07892422378063202 -0.02325582504272461 -0.038759708404541016
0.07559104263782501 -0.00775194214656949 -0.5038759708404541
0.07672431319952011 -0.007751941680908203 -0.1782945990562439
0.08351895958185196 -0.007751941680908203 -0.05426359176635742
0.07821448892354965 0.007751941680908203 -0.5038759708404541
0.08163899183273315 0.007751941680908203 -0.14728683233261108
0.07989347726106644 0.007751941680908203 0.5038759708404541
0.07811076939105988 0.02325582504272461 -0.5038759708404541
0.07676422595977783 0.038759708404541016 -0.5038759708404541
0.07800310850143433 0.038759708404541016 0.20930230617523193
0.07043095678091049 0.038759708404541016 0.24031005799770355
0.07581210136413574 0.05426359176635742 -0.5038759708404541
0.07713854312896729 0.06976747512817383 -0.5038759708404541
0.08100414276123047 0.08527135848999023 -0.5038759708404541
0.07282347232103348 0.10077524185180664 -0.5038759708404541
0.08040224015712738 0.1317828893661499 -0.3643410801887512
0.08331362903118134 0.1472867727279663 -0.22480618953704834
0.08142559975385666 0.1472867727279663 -0.038759708404541016
0.08283566683530807 0.16279065608978271 -0.08527129888534546
0.07368846237659454 0.17829453945159912 -0.4728682041168213
0.07621641457080841 0.17829453945159912 -0.39534884691238403
0.07819990813732147 0.17829453945159912 -0.13178294897079468
0.07367926090955734 0.19379842281341553 -0.4418604373931885
0.07409253716468811 0.20930230617523193 -0.3643410801887512
0.07047948986291885 0.20930230617523193 -0.3333333134651184
0.08455315977334976 0.20930230617523193 -0.317829430103302
0.08308983594179153 0.20930230617523193 -0.20930230617523193
0.08481364697217941 0.22480618953704834 -0.41085273027420044
0.07989545911550522 0.22480618953704834 -0.39534884691238403
0.0832223892211914 0.22480618953704834 -0.3333333134651184
0.0819530263543129 0.24031007289886475 -0.41085273027420044
0.08496726304292679 0.24031007289886475 -0.39534884691238403
0.0843128189444542 0.24031007289886475 -0.3798449635505676
0.08305443078279495 0.27131783962249756 -0.4573643207550049
0.07694557309150696 0.27131783962249756 -0.3488371968269348
0.08507300168275833 0.28682172298431396 -0.39534884691238403
0.08309812843799591 0.3178294897079468 -0.5348837375640869
0.07099536806344986 0.3178294897079468 -0.4883720874786377
0.08408000320196152 0.3333333730697632 -0.5658915042877197
0.07905595004558563 0.3333333730697632 -0.5193798542022705
0.08405420929193497 0.3488372564315796 -0.5503876209259033
0.07606307417154312 0.37984490394592285 -0.6589146852493286
0.07606383413076401 0.37984490394592285 -0.6124030947685242
0.08142542839050293 0.39534878730773926 -0.643410861492157
0.09985361993312836 -0.317829430103302 -0.5193798542022705
0.09923405945301056 -0.317829430103302 -0.5038759708404541
0.0993095338344574 -0.317829430103302 -0.4883720874786377
0.1001429334282875 -0.317829430103302 -0.4728682041168213
0.08720062673091888 -0.30232560634613037 -0.5503876209259033
0.08644728362560272 -0.30232560634613037 -0.28682172298431396
0.08702342957258224 -0.2868216931819916 -0.5658915042877197
0.09120665490627289 -0.28682172298431396 -0.5503876209259033
0.09681212157011032 -0.28682172298431396 -0.5348837375640869
0.0968167781829834 -0.28682172298431396 -0.22480618953704834
0.08605972677469254 -0.28682172298431396 -0.20930232107639313
0.0853927955031395 -0.28682172298431396 0.02325582504272461
0.09057524800300598 -0.28682172298431396 0.038759708404541016
0.09892921894788742 -0.28682172298431396 0.05426359176635742
0.08972486853599548 -0.27131783962249756 -0.5658915042877197
0.09490835666656494 -0.27131783962249756 -0.5503876209259033
0.0998113751411438 -0.27131783962249756 -0.5348837375640869
0.08928410708904266 -0.27131783962249756 -0.3333333134651184
0.09822610765695572 -0.27131783962249756 -0.317829430103302
0.09692844748497009 -0.27131783962249756 -0.1627907156944275
0.09507319331169128 -0.27131783962249756 -0.14728683233261108
0.09506736695766449 -0.27131783962249756 -0.13178294897079468
0.09649652242660522 -0.27131783962249756 -0.11627906560897827
0.09979020804166794 -0.27131783962249756 -0.10077518224716187
0.09045937657356262 -0.27131783962249756 0.364341139793396
0.08915180712938309 -0.25581395626068115 -0.5658915042877197
0.09564151614904404 -0.25581395626068115 -0.5503876209259033
0.09580403566360474 -0.25581395626068115 0.42635655403137207
0.08733673393726349 -0.24031007289886475 -0.5503876209259033
0.09756874293088913 -0.24031007289886475 -0.5348837375640869
0.08652482181787491 -0.24031007289886475 0.8449612259864807
0.08740521967411041 -0.24031007289886475 0.8604651093482971
0.0879107266664505 -0.22480618953704834 -0.5348837375640869
0.08940653502941132 -0.22480618953704834 0.5038759708404541
0.08770348876714706 -0.22480618953704834 0.7984496355056763
0.0887095183134079 -0.22480618953704834 0.8139535188674927
0.09000102430582047 -0.22480618953704834 0.8294574022293091
0.09389367699623108 -0.22480618953704834 0.8449612855911255
0.09417447447776794 -0.22480618953704834 0.8604651689529419
