-0.28682172298431396 0.9018490314483643 0.4573643207550049
-0.28682172298431396 0.8987810611724854 0.8759689331054688
-0.2868216931819916 0.9078512191772461 0.4728682041168213
-0.28682172298431396 0.914077639579773 0.4883720874786377
-0.28682172298431396 0.9191907644271851 0.5038759708404541
-0.28682172298431396 0.9247611165046692 0.5193798542022705
-0.28682172298431396 0.9305851459503174 0.5348837375640869
-0.28682172298431396 0.9345624446868896 0.5503876209259033
-0.28682172298431396 0.9253181219100952 0.8604651689529419
-0.28682175278663635 0.9387061595916748 0.5658915042877197
-0.28682172298431396 0.9433393478393555 0.5813953876495361
-0.28682172298431396 0.9480092525482178 0.5968992710113525
-0.28682172298431396 0.9510587453842163 0.612403154373169
-0.28682172298431396 0.9497101306915283 0.8449612855911255
-0.28682172298431396 0.9550840854644775 0.6279069185256958
-0.28682172298431396 0.9587279558181763 0.6434108018875122
-0.28682172298431396 0.961470365524292 0.6589146852493286
-0.28682172298431396 0.9638478755950928 0.674418568611145
-0.28682172298431396 0.9656057953834534 0.6899224519729614
-0.28682172298431396 0.9670488834381104 0.7054263353347778
-0.28682172298431396 0.9700236320495605 0.7209302186965942
-0.28682172298431396 0.9741305112838745 0.7364341020584106
-0.28682172298431396 0.9795880317687988 0.751937985420227
-0.28682172298431396 0.9706687331199646 0.8294574022293091
-0.2868216931819916 0.9851191639900208 0.7674418091773987
-0.28682172298431396 0.988283634185791 0.7829457521438599
-0.28682172298431396 0.9890834093093872 0.7984496355056763
-0.28682172298431396 0.9845537543296814 0.8139534592628479
-0.27131783962249756 -0.970669150352478 -0.4573643207550049
-0.27131783962249756 -0.9740877151489258 -0.4418604373931885
-0.27131783962249756 -0.977287769317627 -0.42635661363601685
-0.27131783962249756 -0.9794322848320007 -0.41085273027420044
-0.27131783962249756 -0.9803275465965271 -0.39534884691238403
-0.27131783962249756 -0.979893684387207 -0.3798449635505676
-0.27131783962249756 -0.9784756302833557 -0.3643410801887512
-0.27131783962249756 -0.9766832590103149 -0.3488371968269348
-0.27131783962249756 -0.974718451499939 -0.3333333134651184
-0.27131783962249756 -0.9731217622756958 -0.317829430103302
-0.27131783962249756 -0.971903920173645 -0.30232560634613037
-0.27131783962249756 -0.9707441329956055 -0.28682172298431396
-0.27131783962249756 -0.9691986441612244 -0.27131783962249756
-0.27131783962249756 -0.9567438364028931 -0.5038759708404541
-0.27131783962249756 -0.9639803171157837 -0.4883720874786377
-0.27131783962249756 -0.9678540229797363 -0.4728682041168213
-0.27131783962249756 -0.9661713242530823 -0.25581395626068115
-0.27131783962249756 -0.9539138078689575 -0.24031007289886475
-0.27131783962249756 -0.9492858648300171 -0.5193798542022705
-0.27131783962249756 -0.936612606048584 -0.5348837375640869
-0.27131783962249756 -0.917521595954895 -0.5503876209259033
-0.27131783962249756 -0.9126908779144287 -0.22480618953704834
-0.27131783962249756 -0.8946529626846313 -0.5658915042877197
-0.27131783962249756 -0.8739529848098755 -0.5813953876495361
-0.27131783962249756 -0.8453813195228577 -0.6124030947685242
-0.27131783962249756 -0.8583276271820068 -0.5968992710113525
-0.27131783962249756 -0.8498246073722839 -0.20930230617523193
-0.27131783962249756 -0.8249457478523254 -0.6279069781303406
-0.27131783962249756 -0.7748143672943115 -0.643410861492157
-0.27131783962249756 -0.7713213562965393 -0.19379842281341553
-0.27131783962249756 -0.642073392868042 -0.1782945990562439
-0.27131783962249756 -0.5440687537193298 -0.643410861492157
-0.27131783962249756 -0.5008404850959778 -0.643410861492157
-0.27131783962249756 -0.4889228940010071 -0.1627907156944275
-0.27131783962249756 -0.4359692931175232 -0.14728683233261108
-0.27131783962249756 -0.12542718648910522 -0.13178294897079468
-0.27131783962249756 -0.09531209617853165 -0.11627906560897827
-0.27131783962249756 -0.07076077163219452 -0.10077518224716187
-0.27131783962249756 -0.045602381229400635 -0.08527129888534546
-0.27131783962249756 -0.012839021161198616 -0.06976741552352905
-0.27131783962249756 0.06954962760210037 -0.05426359176635742
-0.27131783962249756 0.15332138538360596 -0.038759708404541016
-0.27131783962249756 0.2465277463197708 -0.02325582504272461
-0.27131783962249756 0.2647511959075928 -0.007751941680908203
-0.27131783962249756 0.27559179067611694 0.007751941680908203
-0.27131783962249756 0.28200840950012207 0.02325582504272461
-0.27131783962249756 0.2847523093223572 0.038759708404541016
-0.27131783962249756 0.28645917773246765 0.06976747512817383
-0.27131783962249756 0.28768888115882874 0.05426359176635742
-0.27131786942481995 0.28781676292419434 0.08527136594057083
-0.27131783962249756 0.2897253930568695 0.10077524185180664
-0.27131783962249756 0.29294610023498535 0.11627911776304245
-0.27131783962249756 0.29857319593429565 0.1317828893661499
-0.27131783962249756 0.3064608871936798 0.1472867727279663
-0.27131783962249756 0.3146020472049713 0.16279065608978271
-0.27131783962249756 0.3149327337741852 0.24031007289886475
-0.27131783962249756 0.31035447120666504 0.25581395626068115
-0.27131783962249756 0.3066525459289551 0.27131783962249756
-0.27131783962249756 0.30449149012565613 0.28682172298431396
-0.27131783962249756 0.30403807759284973 0.30232560634613037
-0.27131783962249756 0.3055579662322998 0.3178294897079468
-0.27131783962249756 0.3081832230091095 0.3333333730697632
-0.27131783962249756 0.3106698989868164 0.3488372564315796
-0.27131783962249756 0.31294572353363037 0.364341139793396
-0.27131783962249756 0.31527718901634216 0.37984490394592285
-0.27131783962249756 0.31708016991615295 0.39534878730773926
-0.27131783962249756 0.3195422887802124 0.17829453945159912
-0.27131783962249756 0.3217167556285858 0.19379840791225433
-0.27131783962249756 0.32079142332077026 0.20930230617523193
-0.27131783962249756 0.3186016082763672 0.22480618953704834
-0.27131783962249756 0.3201826214790344 0.41085267066955566
-0.27131783962249756 0.32408618927001953 0.42635655403137207
-0.27131783962249756 0.3286573588848114 0.4418604373931885
-0.27131783962249756 0.33256712555885315 0.4573643207550049
-0.27131783962249756 0.337860643863678 0.4728682041168213
-0.27131783962249756 0.3447820842266083 0.4883720874786377
-0.27131783962249756 0.3508489727973938 0.5038759708404541
-0.27131783962249756 0.35883331298828125 0.5193798542022705
-0.27131783962249756 0.3659764230251312 0.5348837375640869
-0.27131783962249756 0.37278833985328674 0.5503876209259033
-0.27131783962249756 0.3769344687461853 0.5658915042877197
-0.27131780982017517 0.3807022273540497 0.5813953876495361
-0.27131783962249756 0.38544923067092896 0.5968992710113525
-0.27131783962249756 0.3921933174133301 0.612403154373169
-0.27131783962249756 0.4010072350502014 0.6279069185256958
-0.27131783962249756 0.4101554751396179 0.6434108018875122
-0.27131783962249756 0.4204975962638855 0.6589146852493286
-0.27131783962249756 0.4297662377357483 0.674418568611145
-0.27131783962249756 0.4383755922317505 0.6899224519729614
-0.27131783962249756 0.4479316174983978 0.7054263353347778
-0.27131783962249756 0.45850539207458496 0.7209302186965942
-0.27131783962249756 0.47031986713409424 0.7364341020584106
-0.27131783962249756 0.48582571744918823 0.751937985420227
-0.27131783962249756 0.5007481575012207 0.7674418687820435
-0.27131783962249756 0.5177429914474487 0.7829457521438599
-0.27131783962249756 0.5346311330795288 0.7984496355056763
-0.27131783962249756 0.5525709390640259 0.8139535188674927
-0.27131783962249756 0.5707170963287354 0.8294574022293091
-0.27131783962249756 0.5950245261192322 -0.6434109210968018
-0.27131783962249756 0.5895929336547852 0.8449612855911255
-0.27131783962249756 0.6077272891998291 -0.6279069781303406
-0.27131783962249756 0.6097960472106934 0.8604651689529419
-0.27131783962249756 0.6124188303947449 -0.6124030351638794
-0.27131783962249756 0.6151205897331238 -0.5968992114067078
-0.27131783962249756 0.6172657608985901 -0.5813953876495361
-0.27131783962249756 0.6205270290374756 -0.5658915042877197
-0.27131783962249756 0.6238858103752136 -0.5503876209259033
-0.27131783962249756 0.625912070274353 -0.5348837375640869
-0.27131783962249756 0.6291859149932861 -0.5193798542022705
-0.27131783962249756 0.6330227851867676 -0.5038759708404541
-0.27131783962249756 0.6374917030334473 -0.4883720874786377
-0.27131783962249756 0.6406917572021484 -0.4728682041168213
-0.27131783962249756 0.6334922313690186 0.8759689331054688
-0.27131783962249756 0.6447334289550781 -0.4573643207550049
-0.27131783962249756 0.6503505706787109 -0.4418604373931885
-0.27131783962249756 0.6548618674278259 -0.42635661363601685
-0.27131783962249756 0.6572355031967163 -0.41085273027420044
-0.27131783962249756 0.6561957597732544 0.8914728164672852
-0.27131783962249756 0.6609616279602051 -0.39534884691238403
-0.27131783962249756 0.6653766632080078 -0.3798449635505676
-0.27131783962249756 0.6691017150878906 -0.3643410801887512
-0.27131783962249756 0.6714138388633728 -0.3488371968269348
-0.27131783962249756 0.6729637980461121 -0.3333333134651184
-0.27131786942481995 0.6754355430603027 -0.317829430103302
-0.27131783962249756 0.6796823740005493 -0.30232560634613037
-0.27131783962249756 0.6849951148033142 -0.28682172298431396
-0.27131783962249756 0.6881294846534729 -0.27131783962249756
-0.27131783962249756 0.6766643524169922 0.9069766998291016
-0.27131783962249756 0.6913124322891235 -0.25581395626068115
-0.27131783962249756 0.6960013508796692 -0.24031008780002594
-0.27131783962249756 0.7007297277450562 -0.22480618953704834
-0.27131783962249756 0.70323246717453 -0.20930230617523193
-0.27131783962249756 0.7057016491889954 -0.19379842281341553
-0.27131783962249756 0.7099454998970032 -0.1782945990562439
-0.27131783962249756 0.7155850529670715 -0.1627907156944275
-0.27131783962249756 0.719375491142273 -0.14728683233261108
-0.27131783962249756 0.7221788167953491 -0.13178294897079468
-0.27131783962249756 0.7276831865310669 -0.11627906560897827
-0.27131783962249756 0.7333652377128601 -0.10077518224716187
-0.27131783962249756 0.7363670468330383 -0.08527129888534546
-0.27131783962249756 0.7229357957839966 0.9224805235862732
-0.27131783962249756 0.7406420707702637 -0.06976741552352905
-0.27131783962249756 0.7466747760772705 -0.05426359176635742
-0.27131783962249756 0.7504080533981323 -0.038759708404541016
-0.27131783962249756 0.7526989579200745 -0.02325582690536976
-0.27131783962249756 0.7563467025756836 -0.007751941680908203
-0.27131783962249756 0.7608071565628052 0.007751941680908203
-0.27131783962249756 0.7648071050643921 0.02325582504272461
-0.27131783962249756 0.7676129341125488 0.038759708404541016
-0.27131783962249756 0.7714748382568359 0.05426359176635742
-0.27131783962249756 0.7765166759490967 0.06976747512817383
-0.27131783962249756 0.780916690826416 0.08527135848999023
-0.27131783962249756 0.7712574601173401 0.922480583190918
-0.27131783962249756 0.7849012613296509 0.10077524185180664
-0.27131783962249756 0.7902791500091553 0.11627912521362305
-0.27131783962249756 0.7955998182296753 0.1317828893661499
-0.27131783962249756 0.7994121313095093 0.1472867727279663
-0.27131783962249756 0.8034093379974365 0.16279065608978271
-0.27131783962249756 0.8081811666488647 0.17829453945159912
-0.27131783962249756 0.8122552633285522 0.19379842281341553
-0.27131780982017517 0.815031111240387 0.20930230617523193
-0.27131783962249756 0.819208025932312 0.22480618953704834
-0.27131783962249756 0.8248937129974365 0.24031007289886475
-0.27131783962249756 0.8292375206947327 0.25581395626068115
-0.27131783962249756 0.8334760069847107 0.27131783962249756
-0.27131783962249756 0.8394880294799805 0.28682172298431396
-0.27131783962249756 0.8442978262901306 0.30232560634613037
-0.27131783962249756 0.8491818904876709 0.3178294897079468
-0.27131783962249756 0.8559460639953613 0.3333333730697632
-0.27131783962249756 0.8466112613677979 0.9069766998291016
-0.27131786942481995 0.8611077070236206 0.3488372564315796
-0.27131783962249756 0.8666099905967712 0.364341139793396
-0.27131783962249756 0.8729661703109741 0.37984490394592285
-0.27131783962249756 0.874630331993103 0.8914728164672852
-0.27131783962249756 0.8779206871986389 0.39534878730773926
-0.27131783962249756 0.8844915628433228 0.41085267066955566
-0.27131783962249756 0.8904157280921936 0.42635655403137207
-0.27131783962249756 0.896574854850769 0.4418604373931885
-0.27131783962249756 0.9032838344573975 0.4573643207550049
-0.27131783962249756 0.8969211578369141 0.8759689331054688
-0.27131783962249756 0.9088820815086365 0.4728682041168213
-0.27131783962249756 0.9151042699813843 0.4883720874786377
-0.27131783962249756 0.9197120070457458 0.5038759708404541
-0.27131783962249756 0.9252829551696777 0.5193798542022705
-0.27131783962249756 0.9309896230697632 0.5348837375640869
-0.27131783962249756 0.9347677826881409 0.5503876209259033
-0.27131783962249756 0.9242558479309082 0.8604651689529419
-0.27131780982017517 0.9389203786849976 0.5658915042877197
-0.27131783962249756 0.9435664415359497 0.5813953876495361
-0.27131783962249756 0.9481874704360962 0.5968992710113525
-0.27131783962249756 0.951156497001648 0.612403154373169
-0.27131783962249756 0.9483245611190796 0.8449612855911255
-0.27131783962249756 0.9551811814308167 0.6279069781303406
-0.27131783962249756 0.958834707736969 0.6434108018875122
-0.27131783962249756 0.9615606665611267 0.6589146852493286
-0.27131783962249756 0.9639395475387573 0.674418568611145
-0.27131783962249756 0.9657125473022461 0.6899224519729614
-0.27131783962249756 0.9671615958213806 0.7054263353347778
-0.27131783962249756 0.9701290130615234 0.7209302186965942
-0.27131783962249756 0.9741697311401367 0.7364341020584106
-0.27131783962249756 0.9795234203338623 0.751937985420227
-0.27131783962249756 0.9829357266426086 0.8139535188674927
-0.27131783962249756 0.9702709317207336 0.8294574022293091
-0.27131783962249756 0.9851378798484802 0.7674418687820435
-0.27131783962249756 0.9883298277854919 0.7829456925392151
-0.27131783962249756 0.9890052080154419 0.7984496355056763
-0.25581395626068115 -0.9703771471977234 -0.4573643207550049
-0.25581395626068115 -0.973676860332489 -0.4418604373931885
-0.25581395626068115 -0.9768342971801758 -0.42635661363601685
-0.25581395626068115 -0.9789798855781555 -0.41085273027420044
-0.25581395626068115 -0.9799007177352905 -0.39534881711006165
-0.25581395626068115 -0.9794571399688721 -0.3798449635505676
-0.25581395626068115 -0.978002667427063 -0.3643410801887512
-0.25581395626068115 -0.9761881828308105 -0.3488371968269348
-0.25581395626068115 -0.974231481552124 -0.3333333134651184
-0.25581395626068115 -0.972707211971283 -0.317829430103302
-0.25581395626068115 -0.9715415239334106 -0.30232560634613037
-0.25581395626068115 -0.9704171419143677 -0.28682172298431396
-0.25581395626068115 -0.9564671516418457 -0.5038759708404541
-0.25581395626068115 -0.9635937213897705 -0.4883720874786377
-0.25581395626068115 -0.9677188396453857 -0.4728682041168213
-0.25581398606300354 -0.9688281416893005 -0.27131786942481995
-0.25581395626068115 -0.9656682014465332 -0.25581395626068115
-0.25581395626068115 -0.9489085078239441 -0.5193798542022705
-0.25581395626068115 -0.9522076845169067 -0.24031007289886475
-0.25581395626068115 -0.9361114501953125 -0.5348837375640869
-0.25581395626068115 -0.9168479442596436 -0.5503876209259033
-0.25581395626068115 -0.9093353152275085 -0.22480618953704834
-0.25581395626068115 -0.894469141960144 -0.5658915042877197
-0.25581395626068115 -0.8738219141960144 -0.5813953876495361
-0.25581395626068115 -0.8454550504684448 -0.6124030947685242
-0.25581395626068115 -0.8584318161010742 -0.5968992114067078
-0.25581395626068115 -0.8469600677490234 -0.20930230617523193
-0.25581395626068115 -0.8248356580734253 -0.6279069781303406
-0.25581395626068115 -0.7719871401786804 -0.643410861492157
-0.25581395626068115 -0.7633609771728516 -0.19379842281341553
-0.25581395626068115 -0.6322545409202576 -0.1782945990562439
-0.25581395626068115 -0.6237320303916931 -0.643410861492157
-0.25581395626068115 -0.48189371824264526 -0.643410861492157
-0.25581395626068115 -0.47869187593460083 -0.1627907156944275
-0.25581395626068115 -0.4115169942378998 -0.14728683233261108
-0.25581395626068115 -0.34175318479537964 -0.14728683233261108
-0.25581395626068115 -0.15087956190109253 -0.14728683233261108
-0.25581395626068115 -0.10599541664123535 -0.13178294897079468
-0.25581395626068115 -0.0776558518409729 -0.11627906560897827
-0.25581395626068115 -0.053544968366622925 -0.10077517479658127
-0.25581395626068115 -0.02490682154893875 -0.08527129888534546
-0.25581395626068115 0.03566199168562889 -0.06976741552352905
-0.25581395626068115 0.13413402438163757 -0.05426359176635742
-0.25581395626068115 0.2434975802898407 -0.038759708404541016
-0.25581395626068115 0.2647504210472107 -0.02325582504272461
-0.25581395626068115 0.28228357434272766 -0.5193798542022705
-0.25581395626068115 0.2788046598434448 -0.007751941680908203
-0.25581395626068115 0.28746822476387024 0.007751941680908203
-0.25581395626068115 0.29347825050354004 0.02325582504272461
-0.25581395626068115 0.29560962319374084 0.038759708404541016
-0.25581395626068115 0.297587126493454 0.05426359176635742
-0.25581395626068115 0.29626351594924927 0.06976747512817383
-0.25581395626068115 0.2969088852405548 0.08527135848999023
-0.25581395626068115 0.29809504747390747 0.10077524185180664
-0.25581395626068115 0.30052897334098816 0.11627912521362305
-0.25581395626068115 0.30326640605926514 -0.5193798542022705
-0.25581395626068115 0.3065114915370941 0.1317828893661499
-0.25581395626068115 0.3139770030975342 0.1472867727279663
-0.25581395626068115 0.3158707916736603 0.25581395626068115
-0.25581395626068115 0.3132489323616028 0.27131783962249756
-0.25581395626068115 0.3119450509548187 0.28682172298431396
-0.25581395626068115 0.3117077946662903 0.30232560634613037
-0.25581395626068115 0.3129420578479767 0.3178294897079468
-0.25581395626068115 0.314822256565094 0.3333333730697632
-0.25581395626068115 0.31664299964904785 0.3488372564315796
-0.25581395626068115 0.32173460721969604 0.16279065608978271
-0.25581395626068115 0.3269898593425751 0.17829453945159912
-0.25581395626068115 0.3283191919326782 0.19379842281341553
-0.25581395626068115 0.32752370834350586 0.20930230617523193
-0.25581395626068115 0.3257692754268646 0.22480618953704834
-0.25581395626068115 0.32096558809280396 0.24031007289886475
-0.25581395626068115 0.31869423389434814 0.364341139793396
-0.25581395626068115 0.3218380808830261 0.37984490394592285
-0.25581395626068115 0.32448795437812805 0.39534878730773926
-0.25581395626068115 0.32765787839889526 0.41085267066955566
-0.25581395626068115 0.33069223165512085 0.42635655403137207
-0.25581395626068115 0.3342171013355255 0.4418604373931885
-0.25581395626068115 0.3391188979148865 0.4573643207550049
-0.25581395626068115 0.3442721962928772 0.4728682041168213
-0.25581395626068115 0.34952831268310547 0.4883721172809601
-0.25581395626068115 0.3549395799636841 0.5038759708404541
-0.25581395626068115 0.36153876781463623 0.5193798542022705
-0.25581395626068115 0.3668658137321472 0.5348837375640869
-0.25581395626068115 0.37225544452667236 0.5503876209259033
-0.25581395626068115 0.37546443939208984 0.5658915042877197
-0.25581395626068115 0.3787391483783722 0.5813953876495361
-0.25581395626068115 0.38272625207901 0.5968992710113525
-0.25581395626068115 0.3899627923965454 0.612403154373169
-0.25581395626068115 0.3979472815990448 0.6279069185256958
-0.25581395626068115 0.40796035528182983 0.6434108018875122
-0.25581395626068115 0.4185182452201843 0.6589146852493286
-0.25581395626068115 0.42825794219970703 0.674418568611145
-0.25581395626068115 0.43786710500717163 0.6899224519729614
-0.25581395626068115 0.44786104559898376 0.7054263353347778
-0.25581395626068115 0.4590398073196411 0.7209302186965942
-0.25581395626068115 0.47083503007888794 0.7364341020584106
-0.25581395626068115 0.4864846169948578 0.751937985420227
-0.25581395626068115 0.5014910697937012 0.7674418687820435
-0.25581395626068115 0.51850426197052 0.7829457521438599
-0.25581395626068115 0.5356155037879944 0.7984496355056763
-0.25581395626068115 0.5536834001541138 0.8139535188674927
-0.25581395626068115 0.5719548463821411 0.8294574022293091
-0.25581395626068115 0.5945636034011841 -0.643410861492157
-0.25581395626068115 0.5906760096549988 0.8449612855911255
-0.25581395626068115 0.6078629493713379 -0.6279069781303406
-0.25581395626068115 0.6105709075927734 0.8604651689529419
-0.25581395626068115 0.6125513315200806 -0.6124030947685242
-0.25581395626068115 0.6152257919311523 -0.5968992114067078
-0.25581395626068115 0.6173245906829834 -0.5813953876495361
-0.25581395626068115 0.620593249797821 -0.5658915042877197
-0.25581395626068115 0.6239628195762634 -0.5503876209259033
-0.25581395626068115 0.6260021924972534 -0.5348837375640869
-0.25581395626068115 0.6292476654052734 -0.5193798542022705
-0.25581395626068115 0.6330788135528564 -0.5038759708404541
-0.25581395626068115 0.6375493407249451 -0.4883720874786377
-0.25581395626068115 0.6407378315925598 -0.4728682041168213
-0.25581395626068115 0.6340590119361877 0.8759689331054688
-0.25581395626068115 0.6448086500167847 -0.4573643207550049
-0.25581395626068115 0.6505208015441895 -0.4418604373931885
-0.25581395626068115 0.6549676656723022 -0.42635661363601685
-0.25581395626068115 0.6573511362075806 -0.41085273027420044
-0.25581395626068115 0.6556767225265503 0.8914728164672852
-0.25581395626068115 0.6612401008605957 -0.39534884691238403
-0.25581395626068115 0.6658108234405518 -0.3798449635505676
-0.25581395626068115 0.6694381237030029 -0.3643410801887512
-0.25581395626068115 0.6716128587722778 -0.3488371968269348
-0.25581395626068115 0.6731885671615601 -0.3333333134651184
-0.25581395626068115 0.6740915179252625 0.9069766998291016
-0.25581395626068115 0.6758943796157837 -0.317829430103302
-0.25581395626068115 0.6805123686790466 -0.30232560634613037
-0.25581395626068115 0.6856346130371094 -0.28682172298431396
-0.25581395626068115 0.6884337663650513 -0.27131783962249756
-0.25581395626068115 0.6920017004013062 -0.25581395626068115
-0.25581395626068115 0.697020411491394 -0.24031007289886475
-0.25581395626068115 0.7013661861419678 -0.22480618953704834
-0.25581395626068115 0.7034684419631958 -0.20930230617523193
-0.25581395626068115 0.7061097025871277 -0.19379840791225433
-0.25581395626068115 0.7107821702957153 -0.1782945990562439
-0.25581395626068115 0.7163540124893188 -0.1627907156944275
-0.25581395626068115 0.7196565866470337 -0.14728683233261108
-0.25581395626068115 0.7200673222541809 0.922480583190918
-0.25581395626068115 0.7227388024330139 -0.13178294897079468
-0.25581395626068115 0.7286614179611206 -0.11627906560897827
-0.25581395626068115 0.7338777780532837 -0.10077518224716187
-0.25581395626068115 0.7366835474967957 -0.08527129888534546
-0.25581395626068115 0.7415168285369873 -0.06976741552352905
-0.25581395626068115 0.7474755048751831 -0.05426359176635742
-0.25581395626068115 0.7508226633071899 -0.038759708404541016
-0.25581395626068115 0.7531688213348389 -0.02325582504272461
-0.25581395626068115 0.7570754885673523 -0.007751941680908203
-0.25581395626068115 0.7615410685539246 0.007751941680908203
-0.25581395626068115 0.765324592590332 0.02325582504272461
-0.25581395626068115 0.7681005597114563 0.038759708404541016
-0.25581395626068115 0.7722445726394653 0.05426359176635742
-0.25581395626068115 0.7773662805557251 0.06976747512817383
-0.25581395626068115 0.7815940380096436 0.08527135848999023
-0.25581395626068115 0.7712536454200745 0.922480583190918
-0.25581395626068115 0.7859283089637756 0.10077524185180664
-0.25581395626068115 0.7916674613952637 0.11627912521362305
-0.25581395626068115 0.796574056148529 0.1317828893661499
-0.25581395626068115 0.8008204102516174 0.1472867727279663
-0.25581395626068115 0.8054516315460205 0.16279065608978271
-0.25581395626068115 0.8101871013641357 0.17829453945159912
-0.25581395626068115 0.8137326240539551 0.19379842281341553
-0.25581395626068115 0.8169432282447815 0.20930229127407074
-0.25581395626068115 0.8219113945960999 0.22480618953704834
-0.25581395626068115 0.827097475528717 0.24031007289886475
-0.25581395626068115 0.8308282494544983 0.25581395626068115
-0.25581395626068115 0.836262047290802 0.27131783962249756
-0.25581395626068115 0.8420953750610352 0.28682172298431396
-0.25581395626068115 0.8461690545082092 0.302325576543808
-0.25581395626068115 0.8519827127456665 0.3178294897079468
-0.25581395626068115 0.8581165671348572 0.3333333730697632
-0.25581395626068115 0.8461018204689026 0.9069766998291016
-0.25581395626068115 0.8628988265991211 0.348837286233902
-0.25581395626068115 0.869145393371582 0.364341139793396
-0.25581395626068115 0.8744860887527466 0.37984490394592285
-0.25581395626068115 0.8728334307670593 0.8914728164672852
-0.25581395626068115 0.8795676231384277 0.39534878730773926
-0.25581395626068115 0.8863611221313477 0.41085267066955566
-0.25581395626068115 0.8916606307029724 0.42635655403137207
-0.25581395626068115 0.897861897945404 0.4418604075908661
-0.25581395626068115 0.9039329290390015 0.4573643207550049
-0.25581395626068115 0.8953865766525269 0.8759689331054688
-0.25581395626068115 0.9093345403671265 0.4728682041168213
-0.25581395626068115 0.9154813289642334 0.4883720874786377
-0.25581395626068115 0.9198137521743774 0.5038759708404541
-0.25581395626068115 0.9252318739891052 0.5193798542022705
-0.25581395626068115 0.9308892488479614 0.5348837375640869
-0.25581395626068115 0.9346938133239746 0.5503876209259033
-0.25581395626068115 0.9231610894203186 0.8604651689529419
-0.25581395626068115 0.9386307597160339 0.565891444683075
-0.25581395626068115 0.9432063102722168 0.5813953876495361
-0.25581395626068115 0.9479079246520996 0.5968992710113525
-0.25581395626068115 0.9509207010269165 0.612403154373169
-0.25581395626068115 0.9467073678970337 0.8449612855911255
-0.25581395626068115 0.9546984434127808 0.6279069185256958
-0.25581395626068115 0.9584195613861084 0.6434108018875122
-0.25581395626068115 0.9612095952033997 0.6589146852493286
-0.25581395626068115 0.9636960029602051 0.674418568611145
-0.25581395626068115 0.9656111598014832 0.6899224519729614
-0.25581395626068115 0.9670515656471252 0.7054263353347778
-0.25581395626068115 0.9699350595474243 0.7209302186965942
-0.25581395626068115 0.9738396406173706 0.7364341020584106
-0.25581395626068115 0.979006826877594 0.751937985420227
-0.25581395626068115 0.9805188179016113 0.8139535188674927
-0.25581395626068115 0.9697175025939941 0.8294574022293091
-0.25581395626068115 0.9849721193313599 0.7674418091773987
-0.25581395626068115 0.9882232546806335 0.7829457521438599
-0.25581395626068115 0.988742470741272 0.7984496355056763
-0.24031007289886475 -0.9701634049415588 -0.4573643207550049
-0.24031007289886475 -0.9734063148498535 -0.4418604373931885
-0.24031007289886475 -0.9765435457229614 -0.42635661363601685
-0.24031007289886475 -0.9786925315856934 -0.41085273027420044
-0.24031007289886475 -0.9796305894851685 -0.39534884691238403
-0.24031007289886475 -0.979169487953186 -0.3798449635505676
-0.24031007289886475 -0.9776771068572998 -0.3643410801887512
-0.24031007289886475 -0.9758308529853821 -0.3488371968269348
-0.24031007289886475 -0.973864734172821 -0.3333333134651184
-0.24031007289886475 -0.9723744988441467 -0.317829430103302
-0.24031007289886475 -0.9712282419204712 -0.30232560634613037
-0.24031007289886475 -0.9701166152954102 -0.28682172298431396
-0.24031007289886475 -0.956141471862793 -0.5038759708404541
-0.24031007289886475 -0.9631655216217041 -0.4883720874786377
-0.24031008780002594 -0.9675846695899963 -0.4728682041168213
-0.24031007289886475 -0.9684276580810547 -0.27131783962249756
-0.24031007289886475 -0.9651499390602112 -0.25581395626068115
-0.24031007289886475 -0.9483600854873657 -0.5193798542022705
-0.24031007289886475 -0.9507651329040527 -0.24031007289886475
-0.24031007289886475 -0.9353589415550232 -0.5348837375640869
-0.24031007289886475 -0.9160853028297424 -0.5503876209259033
-0.24031007289886475 -0.8943560123443604 -0.5658915042877197
-0.24031007289886475 -0.9067975282669067 -0.22480618953704834
-0.24031007289886475 -0.8739848136901855 -0.5813953876495361
-0.24031007289886475 -0.8454012274742126 -0.6124030947685242
-0.24031007289886475 -0.8584556579589844 -0.5968992114067078
-0.24031005799770355 -0.8442582488059998 -0.20930230617523193
-0.24031007289886475 -0.824384331703186 -0.6279069185256958
-0.24031007289886475 -0.7701340913772583 -0.643410861492157
-0.24031007289886475 -0.7466742992401123 -0.19379842281341553
-0.24031007289886475 -0.6395314335823059 -0.643410861492157
-0.24031007289886475 -0.6145261526107788 -0.1782945990562439
-0.24031007289886475 -0.56111079454422 -0.1782945990562439
-0.24031007289886475 -0.513201117515564 -0.1782945990562439
-0.24031007289886475 -0.4678073525428772 -0.643410861492157
-0.24031007289886475 -0.4643820524215698 -0.1627907156944275
-0.24031005799770355 -0.11603402346372604 -0.1472868174314499
-0.24031007289886475 -0.08854354918003082 -0.13178294897079468
-0.24031007289886475 -0.060538142919540405 -0.11627906560897827
-0.24031007289886475 -0.03483381122350693 -0.10077518224716187
-0.24031007289886475 0.005632108077406883 -0.08527129888534546
-0.24031007289886475 0.10768213123083115 -0.06976741552352905
-0.24031007289886475 0.2290191948413849 -0.05426359176635742
-0.24031007289886475 0.2575492560863495 -0.038759708404541016
-0.24031007289886475 0.2821043133735657 -0.5193798542022705
-0.24031007289886475 0.2749287188053131 -0.02325582318007946
-0.24031007289886475 0.2869853377342224 -0.007751941215246916
-0.24031007289886475 0.29567211866378784 0.007751941680908203
-0.24031007289886475 0.30047789216041565 0.02325582504272461
-0.24031007289886475 0.30226460099220276 0.038759708404541016
-0.24031007289886475 0.3052646219730377 -0.5193798542022705
-0.24031008780002594 0.30446863174438477 0.05426359176635742
-0.24031008780002594 0.30264249444007874 0.06976748257875443
-0.24031007289886475 0.30314379930496216 0.08527135848999023
-0.24031007289886475 0.30442574620246887 0.10077524185180664
-0.24031008780002594 0.3072999119758606 0.11627912521362305
-0.24031007289886475 0.3125835657119751 0.1317828893661499
-0.24031007289886475 0.31746795773506165 0.27131783962249756
-0.24031007289886475 0.31655773520469666 0.28682172298431396
-0.24031007289886475 0.3164731562137604 0.30232560634613037
-0.24031007289886475 0.31771495938301086 0.3178294897079468
-0.24031007289886475 0.31935858726501465 0.1472867727279663
-0.24031007289886475 0.3274531960487366 0.16279065608978271
-0.24031007289886475 0.33127546310424805 0.17829453945159912
-0.24031007289886475 0.3322256803512573 0.19379842281341553
-0.24031007289886475 0.3315584659576416 0.20930230617523193
-0.24031007289886475 0.3300720751285553 0.22480618953704834
-0.24031007289886475 0.32633256912231445 0.24031007289886475
-0.24031005799770355 0.3211682140827179 0.25581395626068115
-0.24031007289886475 0.32041874527931213 0.3333333432674408
-0.24031007289886475 0.3231359124183655 0.3488372564315796
-0.24031007289886475 0.325562983751297 0.364341139793396
-0.24031007289886475 0.32806628942489624 0.37984490394592285
-0.24031007289886475 0.3300917148590088 0.39534878730773926
-0.24031007289886475 0.33241698145866394 0.41085267066955566
-0.24031008780002594 0.3360130190849304 0.42635655403137207
-0.24031007289886475 0.34089696407318115 0.4418604373931885
-0.24031007289886475 0.34499943256378174 0.4573643207550049
-0.24031007289886475 0.348544180393219 0.4728682041168213
-0.24031007289886475 0.35416269302368164 0.4883720874786377
-0.24031007289886475 0.3587825298309326 0.5038759708404541
-0.24031007289886475 0.36363720893859863 0.5193798542022705
-0.24031007289886475 0.36816251277923584 0.5348837375640869
-0.24031007289886475 0.37252795696258545 0.5503876209259033
-0.24031007289886475 0.37509384751319885 0.5658915042877197
-0.24031007289886475 0.37827858328819275 0.5813953876495361
-0.24031007289886475 0.3822767734527588 0.5968992710113525
-0.24031007289886475 0.3896504044532776 0.612403154373169
-0.24031007289886475 0.39735037088394165 0.6279069185256958
-0.24031007289886475 0.40730446577072144 0.6434108018875122
-0.24031007289886475 0.41768962144851685 0.6589146852493286
-0.24031007289886475 0.42774438858032227 0.674418568611145
-0.24031007289886475 0.4381086826324463 0.6899224519729614
-0.24031007289886475 0.44885489344596863 0.7054263353347778
-0.24031007289886475 0.46097323298454285 0.7209302186965942
-0.24031007289886475 0.47249558568000793 0.7364341020584106
-0.24031007289886475 0.48826470971107483 0.751937985420227
-0.24031007289886475 0.5032186508178711 0.7674418687820435
-0.24031007289886475 0.5204747915267944 0.7829457521438599
-0.24031007289886475 0.5376131534576416 0.7984496355056763
-0.24031007289886475 0.5555338859558105 0.8139535188674927
-0.24031007289886475 0.5736484527587891 0.8294574022293091
-0.24031007289886475 0.5945583581924438 -0.643410861492157
-0.24031007289886475 0.5919501781463623 0.8449612855911255
-0.24031007289886475 0.608126699924469 -0.6279069781303406
-0.24031007289886475 0.6112622022628784 0.8604651689529419
-0.24031007289886475 0.6127158999443054 -0.6124030947685242
-0.24031007289886475 0.6154239773750305 -0.5968992114067078
-0.24031005799770355 0.6175484657287598 -0.5813953876495361
-0.24031007289886475 0.6208398938179016 -0.5658915042877197
-0.24031007289886475 0.6241688132286072 -0.5503876209259033
-0.24031007289886475 0.6261934638023376 -0.5348837375640869
-0.24031007289886475 0.6294683814048767 -0.5193798542022705
-0.24031007289886475 0.6333363056182861 -0.5038759708404541
-0.24031007289886475 0.6377888917922974 -0.4883720874786377
-0.24031007289886475 0.6409203410148621 -0.4728682041168213
-0.24031007289886475 0.6340246200561523 0.8759689331054688
-0.24031007289886475 0.6451356410980225 -0.4573643207550049
-0.24031007289886475 0.6509610414505005 -0.4418604373931885
-0.24031007289886475 0.6552433967590332 -0.42635661363601685
-0.24031007289886475 0.6576611399650574 -0.41085273027420044
-0.24031007289886475 0.6547760963439941 0.8914728164672852
-0.24031007289886475 0.6617867350578308 -0.39534884691238403
-0.24031007289886475 0.6665058135986328 -0.3798449635505676
-0.24031007289886475 0.6699504852294922 -0.3643410801887512
-0.24031007289886475 0.6719469428062439 -0.3488371968269348
-0.24031007289886475 0.6735969185829163 -0.3333333134651184
-0.24031007289886475 0.6726982593536377 0.9069766998291016
-0.24031007289886475 0.676604688167572 -0.317829430103302
-0.24031007289886475 0.6815393567085266 -0.30232560634613037
-0.24031007289886475 0.6862496137619019 -0.28682172298431396
-0.24031007289886475 0.6888989806175232 -0.27131783962249756
-0.24031007289886475 0.6929052472114563 -0.25581395626068115
-0.24031007289886475 0.698139488697052 -0.24031007289886475
-0.24031007289886475 0.7019538879394531 -0.22480618953704834
-0.24031007289886475 0.7038071751594543 -0.20930230617523193
-0.24031005799770355 0.7067669630050659 -0.19379840791225433
-0.24031007289886475 0.7118672132492065 -0.1782945990562439
-0.24031007289886475 0.7171509861946106 -0.1627907156944275
-0.24031007289886475 0.7200077772140503 -0.14728683233261108
-0.24031007289886475 0.7201240658760071 0.922480583190918
-0.24031007289886475 0.7236069440841675 -0.13178294897079468
-0.24031007289886475 0.7298380136489868 -0.11627906560897827
-0.24031007289886475 0.7344006896018982 -0.10077518224716187
-0.24031007289886475 0.737223207950592 -0.08527130633592606
-0.24031007289886475 0.742672324180603 -0.06976741552352905
-0.24031007289886475 0.7483533024787903 -0.05426359176635742
-0.24031007289886475 0.7513138651847839 -0.038759708404541016
-0.24031007289886475 0.7538315653800964 -0.02325582504272461
-0.24031007289886475 0.758009672164917 -0.007751941680908203
-0.24031007289886475 0.7624179720878601 0.007751941680908203
-0.24031007289886475 0.7659213542938232 0.02325582504272461
-0.24031007289886475 0.7686946392059326 0.038759708404541016
-0.24031007289886475 0.7730504870414734 0.05426359176635742
-0.24031007289886475 0.778157651424408 0.06976747512817383
-0.24031007289886475 0.782342255115509 0.08527135848999023
-0.24031008780002594 0.7684045433998108 0.922480583190918
-0.24031008780002594 0.786767840385437 0.10077524185180664
-0.24031007289886475 0.7925912141799927 0.11627912521362305
-0.24031007289886475 0.7973566055297852 0.1317828893661499
-0.24031008780002594 0.8018211722373962 0.1472867727279663
-0.24031007289886475 0.8066926002502441 0.16279065608978271
-0.24031007289886475 0.8111598491668701 0.17829453945159912
-0.24031008780002594 0.8146393299102783 0.19379842281341553
-0.24031007289886475 0.8182858228683472 0.20930230617523193
-0.24031007289886475 0.8235017657279968 0.22480618953704834
-0.24031007289886475 0.8280485272407532 0.24031007289886475
-0.24031007289886475 0.8319873809814453 0.25581395626068115
-0.24031007289886475 0.83793044090271 0.27131783962249756
-0.24031007289886475 0.8431599140167236 0.28682172298431396
-0.24031007289886475 0.8473402857780457 0.30232560634613037
-0.24031007289886475 0.8536522388458252 0.3178294897079468
-0.24031007289886475 0.8590216636657715 0.3333333730697632
-0.24031007289886475 0.8457576632499695 0.9069766402244568
-0.24031007289886475 0.8639810085296631 0.3488372564315796
-0.24031007289886475 0.8704341650009155 0.364341139793396
-0.24031007289886475 0.8752049207687378 0.37984490394592285
-0.24031007289886475 0.8714784383773804 0.8914728164672852
-0.24031007289886475 0.8804620504379272 0.39534878730773926
-0.24031007289886475 0.8871090412139893 0.41085267066955566
-0.24031007289886475 0.8920294046401978 0.42635655403137207
-0.24031007289886475 0.898313045501709 0.4418604373931885
-0.24031007289886475 0.9040536880493164 0.4573643207550049
-0.24031007289886475 0.8943226337432861 0.8759689331054688
-0.24031007289886475 0.9093064665794373 0.4728682041168213
-0.24031007289886475 0.9153509140014648 0.4883720874786377
-0.24031007289886475 0.9196645617485046 0.5038759708404541
-0.24031007289886475 0.9222333431243896 0.8604651689529419
-0.24031007289886475 0.9248689413070679 0.5193798542022705
-0.24031007289886475 0.9304969310760498 0.5348837375640869
-0.24031007289886475 0.9344695210456848 0.5503876209259033
-0.24031008780002594 0.9381619095802307 0.5658915042877197
-0.24031007289886475 0.942613959312439 0.5813953876495361
-0.24031007289886475 0.9474057555198669 0.5968992710113525
-0.24031007289886475 0.9506017565727234 0.612403154373169
-0.24031007289886475 0.9455053806304932 0.8449612855911255
-0.24031005799770355 0.954006016254425 0.6279069185256958
-0.24031007289886475 0.9578051567077637 0.6434108018875122
-0.24031007289886475 0.9606356620788574 0.6589146852493286
-0.24031007289886475 0.9632527828216553 0.674418568611145
-0.24031007289886475 0.9653400778770447 0.6899224519729614
-0.24031007289886475 0.9668596982955933 0.7054263353347778
-0.24031007289886475 0.9696246981620789 0.7209302186965942
-0.24031007289886475 0.9734066724777222 0.7364341020584106
-0.24031007289886475 0.9783605337142944 0.751937985420227
-0.24031007289886475 0.9788928031921387 0.8139535188674927
-0.24031007289886475 0.9692531228065491 0.8294574022293091
-0.24031007289886475 0.984708845615387 0.7674418687820435
-0.24031007289886475 0.9880220890045166 0.7829457521438599
-0.24031008780002594 0.9884014129638672 0.7984496355056763
-0.22480618953704834 -0.9699972867965698 -0.4573643207550049
-0.22480618953704834 -0.9731820821762085 -0.4418604373931885
-0.22480618953704834 -0.9762814044952393 -0.42635661363601685
-0.22480620443820953 -0.9784127473831177 -0.41085273027420044
-0.22480618953704834 -0.9793468713760376 -0.39534884691238403
-0.22480618953704834 -0.9788752198219299 -0.3798449635505676
-0.22480618953704834 -0.9773707985877991 -0.3643410801887512
-0.22480618953704834 -0.9755210280418396 -0.3488371968269348
-0.22480618953704834 -0.9735655784606934 -0.3333333134651184
-0.22480618953704834 -0.9720934629440308 -0.317829430103302
-0.22480618953704834 -0.9709588289260864 -0.30232560634613037
-0.22480618953704834 -0.9698551893234253 -0.28682172298431396
-0.22480618953704834 -0.955919623374939 -0.5038759708404541
-0.22480618953704834 -0.9628375768661499 -0.4883720874786377
-0.22480618953704834 -0.9674540162086487 -0.4728681743144989
-0.22480617463588715 -0.9681386947631836 -0.27131783962249756
-0.22480618953704834 -0.9646800756454468 -0.25581395626068115
-0.22480618953704834 -0.947999119758606 -0.5193798542022705
-0.22480617463588715 -0.9493212699890137 -0.24031007289886475
-0.22480618953704834 -0.9349104166030884 -0.5348837375640869
-0.22480618953704834 -0.9157499074935913 -0.5503876209259033
-0.22480618953704834 -0.8944403529167175 -0.5658915042877197
-0.22480618953704834 -0.9041099548339844 -0.22480618953704834
-0.22480620443820953 -0.8745583891868591 -0.5813953876495361
-0.22480618953704834 -0.8452815413475037 -0.6124030947685242
-0.22480618953704834 -0.8584563136100769 -0.5968992114067078
-0.22480617463588715 -0.8401566743850708 -0.20930230617523193
-0.22480618953704834 -0.8237411975860596 -0.6279069781303406
-0.22480618953704834 -0.7691848874092102 -0.643410861492157
-0.22480618953704834 -0.7006729245185852 -0.19379842281341553
-0.22480618953704834 -0.6503796577453613 -0.643410861492157
-0.22480617463588715 -0.4875616729259491 -0.1782945990562439
-0.22480618953704834 -0.4549329876899719 -0.6434109210968018
-0.22480618953704834 -0.4443814158439636 -0.1627907156944275
-0.22480618953704834 -0.3206680715084076 -0.643410861492157
-0.22480618953704834 -0.3177458941936493 -0.1627907156944275
-0.22480618953704834 -0.22120141983032227 -0.643410861492157
-0.22480618953704834 -0.11468572914600372 -0.1627907156944275
-0.22480617463588715 -0.09714756906032562 -0.14728683233261108
-0.22480618953704834 -0.07010067254304886 -0.13178294897079468
-0.22480618953704834 -0.041762903332710266 -0.11627906560897827
-0.22480618953704834 -0.00837420392781496 -0.10077518224716187
-0.22480618953704834 0.07069579511880875 -0.08527130633592606
-0.22480618953704834 0.19119852781295776 -0.06976741552352905
-0.22480618953704834 0.24510744214057922 -0.05426359176635742
-0.22480618953704834 0.2669738233089447 -0.038759708404541016
-0.22480618953704834 0.28221991658210754 -0.02325582504272461
-0.22480618953704834 0.29419147968292236 -0.007751941680908203
-0.22480618953704834 0.3016297519207001 0.007751941680908203
-0.22480618953704834 0.3071945607662201 0.02325582504272461
-0.22480618953704834 0.3089440166950226 0.038759708404541016
-0.22480618953704834 0.3103102445602417 0.05426359176635742
-0.22480618953704834 0.3087442219257355 0.06976747512817383
-0.22480618953704834 0.3088439404964447 0.08527135848999023
-0.22480618953704834 0.3096984028816223 0.10077524185180664
-0.22480618953704834 0.3119230568408966 0.11627912521362305
-0.22480618953704834 0.31620272994041443 0.1317828893661499
-0.22480618953704834 0.32366883754730225 0.1472867727279663
-0.22480618953704834 0.33003613352775574 0.16279065608978271
-0.22480618953704834 0.33325862884521484 0.17829453945159912
-0.22480618953704834 0.3331677317619324 0.20930230617523193
-0.22480618953704834 0.3317490518093109 0.22480618953704834
-0.22480618953704834 0.3285154700279236 0.24031007289886475
-0.22480618953704834 0.3246004581451416 0.25581395626068115
-0.22480618953704834 0.3217170834541321 0.27131783962249756
-0.22480618953704834 0.3208995461463928 0.28682172298431396
-0.22480618953704834 0.32109391689300537 0.30232560634613037
-0.22480618953704834 0.3233092129230499 0.3178294897079468
-0.22480618953704834 0.3257409930229187 0.3333333730697632
-0.22480618953704834 0.3280102014541626 0.3488372564315796
-0.22480618953704834 0.329947829246521 0.364341139793396
-0.22480618953704834 0.33191341161727905 0.37984490394592285
-0.22480618953704834 0.33428868651390076 0.19379842281341553
-0.22480618953704834 0.33391663432121277 0.39534878730773926
-0.22480618953704834 0.3378247022628784 0.41085267066955566
-0.22480618953704834 0.3417515158653259 0.42635655403137207
-0.22480618953704834 0.34546512365341187 0.4418604373931885
-0.22480618953704834 0.34830793738365173 0.4573643207550049
-0.22480618953704834 0.3525955080986023 0.4728681743144989
-0.22480618953704834 0.3576444387435913 0.4883720874786377
-0.22480618953704834 0.3612115681171417 0.5038759708404541
-0.22480618953704834 0.3647559881210327 0.5193798542022705
-0.22480618953704834 0.36872589588165283 0.5348837375640869
-0.22480618953704834 0.37227481603622437 0.5503876209259033
-0.22480618953704834 0.3744593858718872 0.5658915042877197
-0.22480618953704834 0.3777618408203125 0.5813953876495361
-0.22480618953704834 0.3818042278289795 0.5968992710113525
-0.22480618953704834 0.3892166316509247 0.612403154373169
-0.22480618953704834 0.39640524983406067 0.6279069185256958
-0.22480618953704834 0.40625709295272827 0.6434108018875122
-0.22480618953704834 0.41601940989494324 0.6589146852493286
-0.22480618953704834 0.4260607361793518 0.674418568611145
-0.22480618953704834 0.4374271631240845 0.6899224519729614
-0.22480618953704834 0.44876962900161743 0.7054263353347778
-0.22480618953704834 0.4616067111492157 0.7209302186965942
-0.22480618953704834 0.4734688103199005 0.7364341020584106
-0.22480618953704834 0.48966723680496216 0.751937985420227
-0.22480617463588715 0.5043181777000427 0.7674418091773987
-0.22480618953704834 0.521787166595459 0.7829457521438599
-0.22480618953704834 0.5387027859687805 0.7984496355056763
-0.22480618953704834 0.55647212266922 0.8139535188674927
-0.22480618953704834 0.5744361877441406 0.8294574022293091
-0.22480618953704834 0.5940865278244019 -0.643410861492157
-0.22480618953704834 0.592456579208374 0.8449612855911255
-0.22480618953704834 0.6084219217300415 -0.6279069781303406
-0.22480618953704834 0.6113877296447754 0.8604651689529419
-0.22480620443820953 0.6129066348075867 -0.6124030947685242
-0.22480618953704834 0.6156824231147766 -0.5968992114067078
-0.22480618953704834 0.6178426742553711 -0.5813953876495361
-0.22480618953704834 0.6211534142494202 -0.5658915042877197
-0.22480618953704834 0.6244217157363892 -0.5503876209259033
-0.22480618953704834 0.6264423131942749 -0.5348837375640869
-0.22480618953704834 0.6298350095748901 -0.5193798542022705
-0.22480618953704834 0.6337639093399048 -0.5038759708404541
-0.22480618953704834 0.638178825378418 -0.4883720874786377
-0.22480618953704834 0.6411877870559692 -0.4728682041168213
-0.22480618953704834 0.6332794427871704 0.8759689331054688
-0.22480618953704834 0.6457244753837585 -0.4573643207550049
-0.22480618953704834 0.6516603827476501 -0.4418604373931885
-0.22480618953704834 0.6556363105773926 -0.42635661363601685
-0.22480618953704834 0.6582366228103638 -0.41085273027420044
-0.22480618953704834 0.6537197828292847 0.8914728164672852
-0.22480618953704834 0.6627334952354431 -0.39534884691238403
-0.22480618953704834 0.6675214767456055 -0.3798449635505676
-0.22480618953704834 0.6706212162971497 -0.3643410801887512
-0.22480618953704834 0.6724299192428589 -0.3488371968269348
-0.22480618953704834 0.6743312478065491 -0.3333333134651184
-0.22480618953704834 0.6714998483657837 0.9069766998291016
-0.22480618953704834 0.6777355074882507 -0.317829430103302
-0.22480618953704834 0.682844340801239 -0.30232560634613037
-0.22480618953704834 0.6869063377380371 -0.28682172298431396
-0.22480618953704834 0.6897611618041992 -0.27131783962249756
-0.22480618953704834 0.6942398548126221 -0.25581395626068115
-0.22480618953704834 0.6994629502296448 -0.24031007289886475
-0.22480618953704834 0.7026262879371643 -0.22480618953704834
-0.22480618953704834 0.7045307159423828 -0.20930230617523193
-0.22480618953704834 0.7080215215682983 -0.19379842281341553
-0.22480618953704834 0.7134509086608887 -0.1782945990562439
-0.22480618953704834 0.7181259393692017 -0.1627907156944275
-0.22480618953704834 0.7207121849060059 -0.14728683233261108
-0.22480618953704834 0.7252147197723389 -0.13178294897079468
-0.22480618953704834 0.7314772009849548 -0.11627906560897827
-0.22480618953704834 0.7351343035697937 -0.10077518224716187
-0.22480618953704834 0.7218508720397949 0.9224805235862732
-0.22480620443820953 0.7385281324386597 -0.08527130633592606
