-0.13178294897079468 0.06976747512817383 0.5784136652946472
-0.13178294897079468 0.06976747512817383 0.8767842054367065
-0.13178294897079468 0.08527135848999023 0.006404143758118153
-0.13178296387195587 0.08527135848999023 0.008467674255371094
-0.13178294897079468 0.08527135848999023 0.5815061330795288
-0.13178294897079468 0.08527135848999023 0.8663324117660522
-0.13178294897079468 0.10077524185180664 0.006510065868496895
-0.13178294897079468 0.10077524185180664 0.009871164336800575
-0.13178294897079468 0.10077524185180664 0.588009238243103
-0.13178294897079468 0.10077524185180664 0.8638320565223694
-0.13178294897079468 0.11627912521362305 0.5931463837623596
-0.13178294897079468 0.11627912521362305 0.8634990453720093
-0.13178294897079468 0.1317828893661499 0.6022745370864868
-0.13178294897079468 0.1317828893661499 0.8605509400367737
-0.13178294897079468 0.1472867727279663 0.6116253733634949
-0.13178294897079468 0.1472867727279663 0.853035569190979
-0.13178294897079468 0.16279065608978271 0.624871551990509
-0.13178294897079468 0.16279065608978271 0.8481574058532715
-0.13178294897079468 0.17829453945159912 0.6396862268447876
-0.13178294897079468 0.17829453945159912 0.8447880744934082
-0.13178294897079468 0.19379842281341553 0.6564022898674011
-0.13178294897079468 0.19379840791225433 0.8321101069450378
-0.13178294897079468 0.20930230617523193 0.67564457654953
-0.13178294897079468 0.20930230617523193 0.8229641318321228
-0.13178294897079468 0.22480618953704834 0.7010008096694946
-0.13178294897079468 0.22480618953704834 0.8182918429374695
-0.13178294897079468 0.24031007289886475 0.7317302823066711
-0.13178294897079468 0.24031007289886475 0.8167092800140381
-0.13178294897079468 0.25581395626068115 0.760827898979187
-0.13178294897079468 0.25581395626068115 0.8159419894218445
-0.13178294897079468 0.27131783962249756 0.7776793241500854
-0.13178294897079468 0.27131783962249756 0.8157831430435181
-0.13178294897079468 0.28682172298431396 0.7869669198989868
-0.13178294897079468 0.28682172298431396 0.8160400390625
-0.13178294897079468 0.30232560634613037 0.7959232330322266
-0.13178294897079468 0.30232560634613037 0.8164123892784119
-0.13178294897079468 0.3178294897079468 0.8044517040252686
-0.13178294897079468 0.3178294897079468 0.8161991238594055
-0.11627906560897827 -0.20930230617523193 0.7351875901222229
-0.11627906560897827 -0.20930230617523193 0.7775489687919617
-0.11627906560897827 -0.19379842281341553 0.705826461315155
-0.11627907305955887 -0.19379842281341553 0.8151247501373291
-0.11627906560897827 -0.1782945990562439 0.6368225812911987
-0.11627906560897827 -0.1782945990562439 0.8387436866760254
-0.11627907305955887 -0.1627907156944275 0.6178467869758606
-0.11627906560897827 -0.1627907156944275 0.909180760383606
-0.11627906560897827 -0.14728683233261108 0.6047399044036865
-0.11627907305955887 -0.14728683233261108 0.9235015511512756
-0.11627906560897827 -0.13178294897079468 0.594407320022583
-0.11627906560897827 -0.13178294897079468 0.9250830411911011
-0.11627906560897827 -0.11627906560897827 0.588749349117279
-0.11627906560897827 -0.11627906560897827 0.9197133779525757
-0.11627906560897827 -0.10077518224716187 0.5806050300598145
-0.11627907305955887 -0.10077518224716187 0.8764629364013672
-0.11627906560897827 -0.08527129888534546 0.5756280422210693
-0.11627906560897827 -0.08527129888534546 0.8679450154304504
-0.11627906560897827 -0.06976741552352905 0.5714761018753052
-0.11627906560897827 -0.06976741552352905 0.8755226135253906
-0.11627906560897827 -0.05426359176635742 -0.011400412768125534
-0.11627906560897827 -0.05426359176635742 -0.004850639495998621
-0.11627906560897827 -0.05426359549164772 0.5676634907722473
-0.11627906560897827 -0.05426359176635742 0.8790757656097412
-0.11627906560897827 -0.038759708404541016 -0.021457377821207047
-0.11627905815839767 -0.038759708404541016 -0.0018695408944040537
-0.11627906560897827 -0.038759708404541016 0.5648651719093323
-0.11627906560897827 -0.038759708404541016 0.8782200813293457
-0.11627906560897827 -0.02325582504272461 -0.021117832511663437
-0.11627906560897827 -0.02325582504272461 0.0019879729952663183
-0.11627906560897827 -0.02325582504272461 0.5639392733573914
-0.11627906560897827 -0.02325582504272461 0.8758525252342224
-0.11627906560897827 -0.007751941680908203 -0.015105629339814186
-0.11627906560897827 -0.007751941680908203 0.0048386696726083755
-0.11627906560897827 -0.007751941680908203 0.5640246868133545
-0.11627906560897827 -0.007751941680908203 0.870229184627533
-0.11627906560897827 0.007751941680908203 -0.01176479272544384
-0.11627906560897827 0.007751941680908203 0.0029827526304870844
-0.11627906560897827 0.007751941680908203 0.5639617443084717
-0.11627906560897827 0.007751941680908203 0.8745039105415344
-0.11627906560897827 0.02325582504272461 -0.010356456972658634
-0.11627906560897827 0.02325582504272461 0.00026204995810985565
-0.11627906560897827 0.02325582504272461 0.5645647048950195
-0.11627906560897827 0.02325582690536976 0.8808751106262207
-0.11627906560897827 0.038759708404541016 -0.009739181958138943
-0.11627906560897827 0.038759708404541016 -0.0009418614208698273
-0.11627906560897827 0.038759708404541016 0.5659656524658203
-0.11627906560897827 0.038759708404541016 0.8883360624313354
-0.11627906560897827 0.05426359176635742 -0.00906463898718357
-0.11627906560897827 0.05426359176635742 -0.0003076761495321989
-0.11627906560897827 0.05426359176635742 0.5706984400749207
-0.11627906560897827 0.05426359176635742 0.8864203691482544
-0.11627906560897827 0.06976747512817383 0.5741714239120483
-0.11627905815839767 0.06976747512817383 0.8793083429336548
-0.11627906560897827 0.08527135848999023 0.005046436563134193
-0.11627905815839767 0.08527135848999023 0.00901565421372652
-0.11627906560897827 0.08527135848999023 0.577061653137207
-0.11627906560897827 0.08527135848999023 0.874077320098877
-0.11627906560897827 0.10077524185180664 0.005449985153973103
-0.11627906560897827 0.10077524930238724 0.012667409144341946
-0.11627906560897827 0.10077524185180664 0.5799447298049927
-0.11627906560897827 0.10077524185180664 0.8742518424987793
-0.11627906560897827 0.11627912521362305 0.006992042064666748
-0.11627906560897827 0.11627912521362305 0.020160043612122536
-0.11627906560897827 0.11627913266420364 0.5859829783439636
-0.11627906560897827 0.11627912521362305 0.8760567903518677
-0.11627906560897827 0.1317828893661499 0.021574927493929863
-0.11627906560897827 0.1317828893661499 0.023949556052684784
-0.11627906560897827 0.1317828893661499 0.5937561988830566
-0.11627906560897827 0.1317828893661499 0.8659356236457825
-0.11627906560897827 0.1472867727279663 0.6055474877357483
-0.11627906560897827 0.1472867727279663 0.8593625426292419
-0.11627906560897827 0.16279065608978271 0.6186105012893677
-0.11627906560897827 0.16279065608978271 0.8492728471755981
-0.11627905815839767 0.17829453945159912 0.6346379518508911
-0.11627906560897827 0.17829453945159912 0.8451510071754456
-0.11627906560897827 0.19379842281341553 0.6538501977920532
-0.11627906560897827 0.19379842281341553 0.8319790363311768
-0.11627906560897827 0.20930230617523193 0.6739315390586853
-0.11627906560897827 0.20930230617523193 0.8227890729904175
-0.11627906560897827 0.22480618953704834 0.7019364833831787
-0.11627906560897827 0.22480618953704834 0.8183104991912842
-0.11627906560897827 0.24031007289886475 0.7340593338012695
-0.11627906560897827 0.24031007289886475 0.8169229030609131
-0.11627906560897827 0.25581395626068115 0.7630150318145752
-0.11627906560897827 0.25581395626068115 0.8162968158721924
-0.11627906560897827 0.27131783962249756 0.7790208458900452
-0.11627906560897827 0.27131783962249756 0.8158565163612366
-0.11627906560897827 0.28682172298431396 0.7892796397209167
-0.11627905815839767 0.28682172298431396 0.815462052822113
-0.11627906560897827 0.30232560634613037 0.7971662878990173
-0.11627906560897827 0.30232560634613037 0.8155338168144226
-0.11627906560897827 0.3178294897079468 0.8039646148681641
-0.11627906560897827 0.3178294897079468 0.8168013095855713
-0.11627906560897827 0.3333333730697632 0.8129585981369019
-0.11627906560897827 0.3333333730697632 0.8146011829376221
-0.10077518224716187 -0.20930230617523193 0.7346391677856445
-0.10077518224716187 -0.20930230617523193 0.8016879558563232
-0.10077518224716187 -0.19379842281341553 0.15686053037643433
-0.10077518224716187 -0.19379840791225433 0.1646382063627243
-0.10077518224716187 -0.19379842281341553 0.6457852721214294
-0.10077518224716187 -0.19379842281341553 0.8279933333396912
-0.10077518224716187 -0.1782945990562439 0.14392536878585815
-0.10077518224716187 -0.1782945990562439 0.14976593852043152
-0.10077518224716187 -0.1782945990562439 0.6220730543136597
-0.10077518224716187 -0.1782945990562439 0.8922579288482666
-0.10077518224716187 -0.1627907156944275 0.6060869097709656
-0.10077518224716187 -0.1627907156944275 0.9121131896972656
-0.10077518224716187 -0.14728683233261108 0.5937391519546509
-0.10077518224716187 -0.14728683233261108 0.9250001311302185
-0.10077518969774246 -0.13178294897079468 0.5871511697769165
-0.10077518224716187 -0.13178294897079468 0.9261788725852966
-0.10077518224716187 -0.11627906560897827 0.5795565247535706
-0.10077518224716187 -0.11627906560897827 0.9203460216522217
-0.10077518224716187 -0.10077518224716187 0.5750283598899841
-0.10077518224716187 -0.10077518224716187 0.8814460039138794
-0.10077518224716187 -0.08527129888534546 0.5694622993469238
-0.10077518224716187 -0.08527129888534546 0.8687869310379028
-0.10077518224716187 -0.06976741552352905 0.5634310245513916
-0.10077518224716187 -0.06976741552352905 0.8745182156562805
-0.10077518224716187 -0.05426359176635742 -0.009340044111013412
-0.10077518224716187 -0.05426359549164772 -0.006847900338470936
-0.10077518224716187 -0.05426359176635742 0.560517430305481
-0.10077518224716187 -0.05426359176635742 0.8777680993080139
-0.10077518224716187 -0.038759708404541016 -0.02415069006383419
-0.10077518224716187 -0.038759708404541016 -0.0005193185061216354
-0.10077518224716187 -0.038759708404541016 0.5586079359054565
-0.10077518224716187 -0.038759708404541016 0.8780902624130249
-0.10077518224716187 -0.02325582504272461 -0.024501632899045944
-0.10077518224716187 -0.02325582504272461 0.006301147863268852
-0.10077518224716187 -0.02325582504272461 0.557892918586731
-0.10077518224716187 -0.02325582504272461 0.8767378330230713
-0.10077518224716187 -0.007751941680908203 -0.024147778749465942
-0.10077518969774246 -0.007751941680908203 0.008031833916902542
-0.10077518224716187 -0.007751941680908203 0.5583171844482422
-0.10077518224716187 -0.007751941680908203 0.8708854913711548
-0.10077518224716187 0.007751941680908203 -0.019447781145572662
-0.10077518224716187 0.007751941680908203 0.006105354987084866
-0.10077518224716187 0.007751941680908203 0.5588735342025757
-0.10077518969774246 0.007751941680908203 0.8769693374633789
-0.10077518224716187 0.02325582504272461 -0.012580820359289646
-0.10077518224716187 0.02325582504272461 0.0036635370925068855
-0.10077518224716187 0.02325582504272461 0.5601199865341187
-0.10077518224716187 0.02325582504272461 0.8815208077430725
-0.10077518224716187 0.038759708404541016 -0.010622686706483364
-0.10077518224716187 0.038759708404541016 0.002005445770919323
-0.10077518224716187 0.038759708404541016 0.561858057975769
-0.10077518224716187 0.038759708404541016 0.8863440752029419
-0.10077518224716187 0.05426359176635742 -0.0092553049325943
-0.10077518224716187 0.05426359176635742 0.0032925859559327364
-0.10077518224716187 0.05426359176635742 0.5641876459121704
-0.10077518224716187 0.05426359176635742 0.884756863117218
-0.10077518224716187 0.06976747512817383 -0.001532867318019271
-0.10077518224716187 0.06976747512817383 0.008151698857545853
-0.10077518224716187 0.06976747512817383 0.5678626894950867
-0.10077518224716187 0.06976747512817383 0.8807180523872375
-0.10077518224716187 0.08527135848999023 0.003910715691745281
-0.10077518224716187 0.08527135848999023 0.009971029125154018
-0.10077518224716187 0.08527135848999023 0.5722567439079285
-0.10077518224716187 0.08527135848999023 0.8788315057754517
-0.10077518224716187 0.10077524185180664 0.005241187289357185
-0.10077518224716187 0.10077524185180664 0.015425555408000946
-0.10077518224716187 0.10077524185180664 0.5752891302108765
-0.10077518224716187 0.10077524930238724 0.880066990852356
-0.10077518224716187 0.11627912521362305 0.006766933016479015
-0.10077518224716187 0.11627913266420364 0.023977862671017647
-0.10077518224716187 0.11627912521362305 0.578969419002533
-0.10077518224716187 0.11627912521362305 0.8808192014694214
-0.10077518224716187 0.1317828893661499 0.01749766245484352
-0.10077518224716187 0.1317828893661499 0.025948261842131615
-0.10077518224716187 0.1317828893661499 0.5872833132743835
-0.10077518224716187 0.1317828893661499 0.8776839971542358
-0.10077518224716187 0.1472867727279663 0.02133784629404545
-0.10077518224716187 0.1472867727279663 0.0301952064037323
-0.10077518224716187 0.1472867727279663 0.5966475605964661
-0.10077518224716187 0.1472867727279663 0.865524411201477
-0.10077518224716187 0.16279065608978271 0.6112555265426636
-0.10077518224716187 0.16279065608978271 0.853573203086853
-0.10077518969774246 0.17829455435276031 0.6289865374565125
-0.10077518224716187 0.17829453945159912 0.8463241457939148
-0.10077518224716187 0.19379842281341553 0.6517407894134521
-0.10077518224716187 0.19379842281341553 0.8328295946121216
-0.10077518224716187 0.20930230617523193 0.6741749048233032
-0.10077518224716187 0.20930230617523193 0.8256635665893555
-0.10077518224716187 0.22480618953704834 0.7046911716461182
-0.10077518224716187 0.22480618953704834 0.819199800491333
-0.10077518224716187 0.24031007289886475 0.7375099062919617
-0.10077518224716187 0.24031008780002594 0.8175927400588989
-0.10077518224716187 0.25581395626068115 0.7649755477905273
-0.10077518224716187 0.25581395626068115 0.8168869614601135
-0.10077518224716187 0.27131783962249756 0.7803077697753906
-0.10077518224716187 0.27131783962249756 0.8160799741744995
-0.10077518224716187 0.28682172298431396 0.7923846244812012
-0.10077518224716187 0.28682175278663635 0.815425455570221
-0.10077518224716187 0.30232560634613037 0.7984018921852112
-0.10077518224716187 0.30232560634613037 0.81523597240448
-0.10077518224716187 0.3178294897079468 0.8070073127746582
-0.10077518224716187 0.3178294897079468 0.8164992928504944
-0.10077518224716187 0.3333333730697632 0.8119012117385864
-0.10077518224716187 0.3333333730697632 0.815680742263794
-0.08527129888534546 -0.24031007289886475 0.8587637543678284
-0.08527129888534546 -0.24031007289886475 0.8862414360046387
-0.08527129888534546 -0.22480618953704834 0.8476895093917847
-0.08527129888534546 -0.22480618953704834 0.8839080929756165
-0.08527129888534546 -0.20930230617523193 0.15918323397636414
-0.08527129888534546 -0.20930230617523193 0.16700494289398193
-0.08527129888534546 -0.20930230617523193 0.7321743965148926
-0.08527129888534546 -0.20930230617523193 0.8208882808685303
-0.08527129888534546 -0.20930230617523193 0.8533554077148438
-0.08527129888534546 -0.20930230617523193 0.8774344325065613
-0.08527129888534546 -0.19379842281341553 0.14569899439811707
-0.08527129888534546 -0.19379842281341553 0.15926483273506165
-0.08527129888534546 -0.19379842281341553 0.6275262832641602
-0.08527129888534546 -0.19379842281341553 0.8854742646217346
-0.08527129888534546 -0.1782945990562439 0.14059233665466309
-0.08527129888534546 -0.1782945990562439 0.1489904522895813
-0.08527129888534546 -0.1782945990562439 0.6087177991867065
-0.08527129888534546 -0.1782945990562439 0.899154782295227
-0.08527129888534546 -0.1627907156944275 0.12829042971134186
-0.08527129888534546 -0.1627907156944275 0.13490432500839233
-0.08527129888534546 -0.1627907156944275 0.5939463973045349
-0.08527129888534546 -0.1627907156944275 0.9167125821113586
-0.08527129888534546 -0.14728683233261108 0.11563211679458618
-0.08527129888534546 -0.14728683233261108 0.11870383471250534
-0.08527129888534546 -0.14728683233261108 0.5847683548927307
-0.08527129888534546 -0.14728683233261108 0.9270668029785156
-0.08527129888534546 -0.13178294897079468 0.11033551394939423
-0.08527130633592606 -0.13178294897079468 0.11774712055921555
-0.08527129888534546 -0.13178294897079468 0.5777642726898193
-0.08527129888534546 -0.13178294897079468 0.9276925325393677
-0.08527129888534546 -0.11627906560897827 0.09699364751577377
-0.08527129888534546 -0.11627906560897827 0.10298335552215576
-0.08527129888534546 -0.11627906560897827 0.5743598937988281
-0.08527129888534546 -0.11627905815839767 0.9230338931083679
-0.08527129888534546 -0.10077518224716187 0.08239931613206863
-0.08527129143476486 -0.10077518224716187 0.08835531771183014
-0.08527129888534546 -0.10077518224716187 0.5700142979621887
-0.08527129888534546 -0.10077518224716187 0.894967257976532
-0.08527129888534546 -0.08527129888534546 0.563607931137085
-0.08527129888534546 -0.08527129888534546 0.8716124296188354
-0.08527129888534546 -0.06976741552352905 0.5594339966773987
-0.08527129143476486 -0.06976741552352905 0.8765715956687927
-0.08527129888534546 -0.05426359176635742 0.06952831894159317
-0.08527129888534546 -0.05426359176635742 0.07026276737451553
-0.08527129888534546 -0.05426359176635742 0.5565187931060791
-0.08527129888534546 -0.05426359176635742 0.8804348707199097
-0.08527129888534546 -0.038759708404541016 -0.02470400370657444
-0.08527129888534546 -0.038759708404541016 -0.001731483032926917
-0.08527129888534546 -0.038759708404541016 0.5542920827865601
-0.08527129888534546 -0.038759708404541016 0.8821249604225159
-0.08527129888534546 -0.02325582504272461 -0.025415517389774323
-0.08527129888534546 -0.02325582504272461 0.007285336963832378
-0.08527130633592606 -0.02325582690536976 0.5534454584121704
-0.08527129888534546 -0.02325582504272461 0.8795267343521118
-0.08527129888534546 -0.007751941680908203 -0.02518310584127903
-0.08527129888534546 -0.007751941680908203 0.008230694569647312
-0.08527129888534546 -0.007751941680908203 0.5539041757583618
-0.08527129888534546 -0.00775194214656949 0.8762657642364502
-0.08527129888534546 0.007751941680908203 -0.02419102005660534
-0.08527129888534546 0.007751941680908203 0.007909562438726425
-0.08527129888534546 0.007751941680908203 0.5547078847885132
-0.08527129888534546 0.007751941215246916 0.8788750171661377
-0.08527129888534546 0.02325582504272461 -0.01641261950135231
-0.08527129888534546 0.02325582504272461 0.007667951285839081
-0.08527129888534546 0.02325582504272461 0.5563488006591797
-0.08527129888534546 0.02325582504272461 0.8851168155670166
-0.08527129888534546 0.038759708404541016 -0.011686362326145172
-0.08527129888534546 0.038759708404541016 0.006116800010204315
-0.08527129888534546 0.038759708404541016 0.5583946704864502
-0.08527130633592606 0.038759712129831314 0.8917703628540039
-0.08527129888534546 0.05426359176635742 -0.009338922798633575
-0.08527129888534546 0.05426359176635742 0.008022809401154518
-0.08527129888534546 0.05426359176635742 0.5604099631309509
-0.08527129888534546 0.05426359176635742 0.8914483785629272
-0.08527129888534546 0.06976747512817383 -0.0023380115162581205
-0.08527129888534546 0.06976747512817383 0.009073970839381218
-0.08527129888534546 0.06976747512817383 0.5626834034919739
-0.08527129888534546 0.06976747512817383 0.8873051404953003
-0.08527129888534546 0.08527135848999023 0.0034217610955238342
-0.08527129888534546 0.08527135848999023 0.011932467110455036
-0.08527129888534546 0.08527135848999023 0.5654452443122864
-0.08527129888534546 0.08527135848999023 0.8849823474884033
-0.08527129888534546 0.10077524185180664 0.005296008661389351
-0.08527129888534546 0.10077524185180664 0.02221490815281868
-0.08527129888534546 0.10077524185180664 0.5697697997093201
-0.08527129888534546 0.10077524185180664 0.8885541558265686
-0.08527129888534546 0.11627912521362305 0.0068880245089530945
-0.08527129888534546 0.11627912521362305 0.02552434615790844
-0.08527129888534546 0.11627912521362305 0.5739108920097351
-0.08527129888534546 0.11627912521362305 0.8920913934707642
-0.08527129888534546 0.1317828893661499 0.016881905496120453
-0.08527129888534546 0.1317828893661499 0.033829543739557266
-0.08527129888534546 0.1317828893661499 0.5801962614059448
-0.08527129888534546 0.1317828893661499 0.8830207586288452
-0.08527129888534546 0.1472867727279663 0.021021591499447823
-0.08527129888534546 0.14728675782680511 0.04074813053011894
-0.08527129888534546 0.1472867727279663 0.5920947194099426
-0.08527129888534546 0.1472867727279663 0.8780257105827332
-0.08527130633592606 0.16279065608978271 0.027385447174310684
-0.08527129888534546 0.16279065608978271 0.04686877876520157
-0.08527129888534546 0.16279065608978271 0.6075098514556885
-0.08527129888534546 0.16279065608978271 0.862665057182312
-0.08527129888534546 0.17829453945159912 0.03593731299042702
-0.08527129143476486 0.17829453945159912 0.05590815842151642
-0.08527129888534546 0.17829453945159912 0.6268922686576843
-0.08527129888534546 0.17829453945159912 0.8474127650260925
-0.08527129888534546 0.19379842281341553 0.04862232506275177
-0.08527129888534546 0.19379842281341553 0.05832953751087189
-0.08527129888534546 0.19379842281341553 0.6520673632621765
-0.08527129888534546 0.19379842281341553 0.8337244391441345
-0.08527129888534546 0.20930230617523193 0.6789337396621704
-0.08527129888534546 0.20930230617523193 0.8295637369155884
-0.08527129888534546 0.22480620443820953 0.7118986248970032
-0.08527129888534546 0.22480618953704834 0.8205018043518066
-0.08527129888534546 0.24031007289886475 0.7443864345550537
-0.08527129888534546 0.24031005799770355 0.8184095621109009
-0.08527129888534546 0.25581395626068115 0.7672489285469055
-0.08527129888534546 0.25581395626068115 0.8174105882644653
-0.08527129888534546 0.27131783962249756 0.7818662524223328
-0.08527129888534546 0.27131783962249756 0.8163608312606812
-0.08527129888534546 0.28682172298431396 0.7956902980804443
-0.08527129888534546 0.28682175278663635 0.8156948685646057
-0.08527129888534546 0.30232560634613037 0.8045457601547241
-0.08527129888534546 0.30232560634613037 0.8156245350837708
-0.08527129888534546 0.3178294897079468 0.8095552921295166
-0.08527129143476486 0.3178294897079468 0.8165846467018127
-0.06976741552352905 -0.25581395626068115 0.8624607920646667
-0.06976741552352905 -0.25581395626068115 0.8924129009246826
-0.06976741552352905 -0.24031007289886475 0.8386916518211365
-0.06976741552352905 -0.24031007289886475 0.8932322859764099
-0.06976741552352905 -0.22480618953704834 0.7803270816802979
-0.06976741552352905 -0.22480618953704834 0.8093822002410889
-0.06976741552352905 -0.22480618953704834 0.8180685639381409
-0.06976742297410965 -0.22480618953704834 0.8919798731803894
-0.06976741552352905 -0.20930230617523193 0.15740831196308136
-0.06976741552352905 -0.20930232107639313 0.1642765998840332
-0.06976741552352905 -0.20930230617523193 0.7297181487083435
-0.06976741552352905 -0.20930230617523193 0.8886017203330994
-0.06976741552352905 -0.19379842281341553 0.14407704770565033
-0.06976741552352905 -0.19379842281341553 0.15092849731445312
-0.06976741552352905 -0.19379843771457672 0.6129610538482666
-0.06976741552352905 -0.19379842281341553 0.8944592475891113
-0.06976741552352905 -0.1782945990562439 0.13071627914905548
-0.06976741552352905 -0.1782945990562439 0.14232227206230164
-0.06976741552352905 -0.1782945990562439 0.5954205393791199
-0.06976741552352905 -0.1782945990562439 0.9071836471557617
-0.06976741552352905 -0.1627907156944275 0.12647491693496704
-0.06976741552352905 -0.1627907156944275 0.13401415944099426
-0.06976741552352905 -0.1627907156944275 0.5828446745872498
-0.06976741552352905 -0.1627907156944275 0.9166632294654846
-0.06976741552352905 -0.14728683233261108 0.11328218877315521
-0.06976741552352905 -0.14728683233261108 0.11987534165382385
-0.06976741552352905 -0.14728683233261108 0.574978768825531
-0.06976741552352905 -0.14728683233261108 0.927118182182312
-0.06976741552352905 -0.13178294897079468 0.10043168812990189
-0.06976741552352905 -0.13178294897079468 0.1178465336561203
-0.06976741552352905 -0.13178294897079468 0.5715271234512329
-0.06976741552352905 -0.13178294897079468 0.9275099039077759
-0.06976741552352905 -0.11627905815839767 0.08941496908664703
-0.06976741552352905 -0.11627906560897827 0.10592079907655716
-0.06976741552352905 -0.11627906560897827 0.5682681202888489
-0.06976741552352905 -0.11627906560897827 0.9230632185935974
-0.06976741552352905 -0.10077518224716187 0.07398271560668945
-0.06976741552352905 -0.10077518224716187 0.10133425891399384
-0.06976741552352905 -0.10077518224716187 0.563846230506897
-0.06976741552352905 -0.10077518224716187 0.8957620859146118
-0.06976741552352905 -0.08527129888534546 0.06750474870204926
-0.06976741552352905 -0.08527130633592606 0.08731278777122498
-0.06976741552352905 -0.08527129888534546 0.5598945617675781
-0.06976741552352905 -0.08527129888534546 0.8761175274848938
-0.06976741552352905 -0.06976741552352905 0.06625303626060486
-0.06976741552352905 -0.06976741552352905 0.08637742698192596
-0.06976741552352905 -0.06976741552352905 0.5564575791358948
-0.06976741552352905 -0.06976741552352905 0.8778706789016724
-0.06976741552352905 -0.05426359176635742 0.06241042539477348
-0.06976741552352905 -0.05426359176635742 0.08638768643140793
-0.06976741552352905 -0.05426359176635742 0.5535814762115479
-0.06976741552352905 -0.05426359176635742 0.8839069604873657
-0.06976741552352905 -0.038759708404541016 -0.023883823305368423
-0.06976741552352905 -0.038759708404541016 -0.007550107315182686
-0.06976741552352905 -0.038759708404541016 0.06167832016944885
-0.06976741552352905 -0.038759708404541016 0.0858105942606926
-0.06976741552352905 -0.038759708404541016 0.5511128902435303
-0.06976741552352905 -0.038759708404541016 0.8906868100166321
-0.06976741552352905 -0.02325582504272461 -0.026048390194773674
-0.06976741552352905 -0.02325582504272461 0.0012093980330973864
-0.06976741552352905 -0.02325582504272461 0.06893640011548996
-0.06976741552352905 -0.02325582504272461 0.07115253061056137
-0.06976741552352905 -0.02325582504272461 0.5502549409866333
-0.06976741552352905 -0.02325582504272461 0.8855339288711548
-0.06976741552352905 -0.007751941680908203 -0.02604149468243122
-0.06976741552352905 -0.007751941680908203 0.007853519171476364
-0.06976741552352905 -0.007751941680908203 0.5505621433258057
-0.06976741552352905 -0.007751941680908203 0.8794621825218201
-0.06976741552352905 0.007751941680908203 -0.02497676946222782
-0.06976741552352905 0.007751941680908203 0.007997920736670494
-0.06976741552352905 0.007751941680908203 0.5514312386512756
-0.06976741552352905 0.007751941680908203 0.8819806575775146
-0.06976741552352905 0.02325582690536976 -0.021092716604471207
-0.06976741552352905 0.02325582504272461 0.007987700402736664
-0.06976741552352905 0.02325582504272461 0.5531559586524963
-0.06976741552352905 0.02325582504272461 0.8918289542198181
-0.06976741552352905 0.038759708404541016 -0.012624100781977177
-0.06976740807294846 0.038759708404541016 0.00790344923734665
-0.06976741552352905 0.038759708404541016 0.5554829835891724
-0.06976741552352905 0.038759708404541016 0.8936569690704346
-0.06976741552352905 0.05426359176635742 -0.009407962672412395
-0.06976740807294846 0.05426359176635742 0.008519938215613365
-0.06976741552352905 0.05426359176635742 0.557630181312561
-0.06976741552352905 0.05426359176635742 0.8937046527862549
-0.06976741552352905 0.06976747512817383 -0.0022413982078433037
-0.06976741552352905 0.06976747512817383 0.009929213672876358
-0.06976741552352905 0.06976747512817383 0.5595766305923462
-0.06976741552352905 0.06976747512817383 0.8932027220726013
-0.06976741552352905 0.08527135848999023 0.00338164740242064
-0.06976741552352905 0.08527135848999023 0.014116913080215454
-0.06976741552352905 0.08527135848999023 0.5617963671684265
-0.06976741552352905 0.08527135848999023 0.8930726647377014
-0.06976741552352905 0.10077524185180664 0.00540523137897253
-0.06976741552352905 0.10077524185180664 0.02390419878065586
-0.06976741552352905 0.10077524185180664 0.5644532442092896
-0.06976741552352905 0.10077524930238724 0.894737720489502
-0.06976741552352905 0.11627912521362305 0.00702623650431633
-0.06976741552352905 0.11627911776304245 0.030198384076356888
-0.06976741552352905 0.11627912521362305 0.5690560936927795
-0.06976741552352905 0.11627911776304245 0.8956295847892761
-0.06976741552352905 0.1317828893661499 0.01727350987493992
-0.06976741552352905 0.1317828893661499 0.0399201326072216
-0.06976741552352905 0.1317828893661499 0.5761439800262451
-0.06976741552352905 0.1317828893661499 0.8933838605880737
-0.06976741552352905 0.1472867727279663 0.021197373047471046
-0.06976741552352905 0.1472867727279663 0.045779671519994736
-0.06976741552352905 0.1472867727279663 0.5876743793487549
-0.06976741552352905 0.1472867727279663 0.8838340044021606
-0.06976741552352905 0.16279065608978271 0.028035830706357956
-0.06976741552352905 0.16279065608978271 0.055120546370744705
-0.06976741552352905 0.16279065608978271 0.6040878295898438
-0.06976741552352905 0.16279065608978271 0.875038743019104
-0.06976741552352905 0.17829453945159912 0.03606230020523071
-0.06976741552352905 0.17829453945159912 0.06135062873363495
-0.06976741552352905 0.17829453945159912 0.6263870596885681
-0.06976741552352905 0.17829453945159912 0.8498045206069946
-0.06976741552352905 0.19379842281341553 0.04354776442050934
-0.06976741552352905 0.19379842281341553 0.07184955477714539
-0.06976741552352905 0.19379842281341553 0.6540979146957397
-0.06976741552352905 0.19379842281341553 0.8348534107208252
-0.06976741552352905 0.20930230617523193 0.05122653394937515
-0.06976741552352905 0.20930230617523193 0.08331497758626938
-0.06976741552352905 0.20930230617523193 0.6845957636833191
-0.06976741552352905 0.20930230617523193 0.8303929567337036
-0.06976741552352905 0.22480618953704834 0.062277015298604965
-0.06976741552352905 0.22480618953704834 0.0884222686290741
-0.06976741552352905 0.22480618953704834 0.7186458110809326
-0.06976741552352905 0.22480618953704834 0.8222630023956299
-0.06976741552352905 0.24031007289886475 0.7501301169395447
-0.06976741552352905 0.24031007289886475 0.8191242218017578
-0.06976741552352905 0.25581395626068115 0.7713472843170166
-0.06976741552352905 0.25581395626068115 0.8177456259727478
-0.06976741552352905 0.27131783962249756 0.7834612727165222
-0.06976741552352905 0.27131783962249756 0.8166207671165466
-0.06976741552352905 0.28682172298431396 0.7977319359779358
-0.06976741552352905 0.28682172298431396 0.8159074783325195
-0.06976741552352905 0.30232560634613037 0.8084864020347595
-0.06976741552352905 0.30232560634613037 0.816116213798523
-0.06976741552352905 0.3178294897079468 0.8118382692337036
-0.06976741552352905 0.3178294599056244 0.815975546836853
-0.05426359176635742 -0.25581395626068115 0.8433516025543213
-0.05426359176635742 -0.25581395626068115 0.8948391675949097
-0.05426359176635742 -0.24031007289886475 0.8230657577514648
-0.05426359176635742 -0.24031007289886475 0.8946132659912109
-0.05426359176635742 -0.22480618953704834 0.7638574838638306
-0.05426359176635742 -0.22480618953704834 0.8943901658058167
-0.05426359176635742 -0.20930230617523193 0.6236825585365295
-0.05426359176635742 -0.20930230617523193 0.6559653878211975
-0.05426359176635742 -0.20930230617523193 0.7294266223907471
-0.05426359176635742 -0.20930230617523193 0.8964588642120361
-0.05426359176635742 -0.19379842281341553 -0.19543300569057465
-0.05426359176635742 -0.19379842281341553 -0.19357915222644806
-0.05426359176635742 -0.19379842281341553 0.14515671133995056
-0.05426359176635742 -0.19379842281341553 0.14799144864082336
-0.05426359176635742 -0.19379842281341553 0.6015665531158447
-0.05426359176635742 -0.19379842281341553 0.9036411046981812
-0.05426359176635742 -0.1782945990562439 -0.21366238594055176
-0.05426359176635742 -0.1782945990562439 -0.20464308559894562
-0.05426359176635742 -0.1782945990562439 0.12929722666740417
-0.05426359176635742 -0.1782946139574051 0.134084552526474
-0.05426359176635742 -0.1782945990562439 0.5860468149185181
-0.05426359176635742 -0.1782945990562439 0.907535195350647
-0.05426359176635742 -0.1627907156944275 -0.22573678195476532
-0.05426359176635742 -0.1627907156944275 -0.21710196137428284
-0.05426359176635742 -0.1627907156944275 0.5747135877609253
-0.05426359176635742 -0.1627907007932663 0.908950686454773
-0.05426359176635742 -0.14728683233261108 -0.2272682785987854
-0.05426359176635742 -0.1472868174314499 -0.22369346022605896
-0.05426359176635742 -0.14728683233261108 0.11087679117918015
-0.05426359176635742 -0.14728683233261108 0.11823748797178268
-0.05426359176635742 -0.14728683233261108 0.5689586400985718
-0.05426359176635742 -0.14728683233261108 0.9174602031707764
-0.05426359176635742 -0.13178294897079468 0.09746812283992767
-0.05426359176635742 -0.13178294897079468 0.11690272390842438
-0.05426359176635742 -0.13178294897079468 0.5653276443481445
-0.05426359176635742 -0.13178294897079468 0.9232759475708008
-0.05426359176635742 -0.11627906560897827 0.08287790417671204
-0.05426359176635742 -0.11627906560897827 0.1033383458852768
-0.05426359176635742 -0.11627906560897827 0.5631662607192993
-0.05426359176635742 -0.11627906560897827 0.9105912446975708
-0.05426359176635742 -0.10077518224716187 0.06871934235095978
-0.05426359176635742 -0.10077518224716187 0.09457354992628098
-0.05426359176635742 -0.10077518224716187 0.5605856776237488
-0.05426359176635742 -0.10077518224716187 0.8819082379341125
-0.05426359176635742 -0.08527129888534546 0.0675874873995781
-0.05426359176635742 -0.08527129888534546 0.0866183415055275
-0.05426359176635742 -0.08527129888534546 0.5575079917907715
-0.05426359176635742 -0.08527129888534546 0.8773044347763062
-0.05426359176635742 -0.06976741552352905 0.06821314990520477
-0.05426359176635742 -0.06976741552352905 0.08001749217510223
-0.05426359176635742 -0.06976741552352905 0.5545803308486938
-0.05426359176635742 -0.06976741552352905 0.8799206018447876
-0.05426359176635742 -0.05426359176635742 0.06774428486824036
-0.05426359176635742 -0.05426359176635742 0.08310602605342865
-0.05426359176635742 -0.05426359176635742 0.5521199107170105
-0.05426359176635742 -0.05426359176635742 0.8884593844413757
-0.05426359176635742 -0.038759708404541016 0.06759973615407944
-0.05426359176635742 -0.038759708404541016 0.08093012124300003
-0.05426359176635742 -0.038759708404541016 0.5501411557197571
-0.05426359176635742 -0.038759708404541016 0.8939610719680786
-0.05426359176635742 -0.02325582504272461 -0.024536052718758583
-0.05426359176635742 -0.02325582504272461 -0.008586603216826916
-0.05426359176635742 -0.02325582504272461 0.5496698617935181
-0.05426358804106712 -0.02325582504272461 0.8938740491867065
-0.05426359176635742 -0.007751941680908203 -0.026205645874142647
-0.05426359176635742 -0.007751941680908203 -0.003432030789554119
-0.05426359176635742 -0.007751941680908203 0.5498309135437012
-0.05426359176635742 -0.007751941680908203 0.8918761014938354
-0.05426359176635742 0.007751941680908203 -0.025443052873015404
-0.05426359176635742 0.007751941680908203 0.0023458171635866165
-0.05426359176635742 0.007751941680908203 0.5501464605331421
-0.05426359176635742 0.007751941680908203 0.8892937898635864
-0.05426359176635742 0.02325582504272461 -0.023919908329844475
-0.05426359176635742 0.02325582504272461 0.007705146446824074
-0.05426359176635742 0.02325582504272461 0.5511861443519592
-0.05426359176635742 0.02325582504272461 0.8934398889541626
-0.05426359176635742 0.038759708404541016 -0.013961439952254295
-0.05426359176635742 0.038759708404541016 0.0077419644221663475
-0.05426359176635742 0.038759708404541016 0.553478479385376
-0.05426359176635742 0.038759708404541016 0.8951504230499268
-0.05426359176635742 0.05426359176635742 -0.009727816097438335
-0.05426359176635742 0.05426359176635742 0.008430066518485546
-0.05426359176635742 0.05426359176635742 0.5557658076286316
-0.05426359176635742 0.05426359176635742 0.8954614400863647
-0.05426359176635742 0.06976747512817383 -0.00382159068249166
-0.05426359549164772 0.06976747512817383 0.009778674691915512
-0.05426359176635742 0.06976747512817383 0.5577525496482849
-0.05426359176635742 0.06976747512817383 0.8949013352394104
-0.05426359176635742 0.08527135848999023 0.003172609955072403
-0.05426359176635742 0.08527135848999023 0.013935867697000504
-0.05426359176635742 0.08527135848999023 0.5597729682922363
-0.05426359176635742 0.08527135848999023 0.8950010538101196
-0.05426359176635742 0.10077524185180664 0.005368123762309551
-0.05426359176635742 0.10077524185180664 0.024025650694966316
-0.05426359176635742 0.10077524185180664 0.5620726346969604
-0.05426359176635742 0.10077524185180664 0.8976274132728577
-0.05426359176635742 0.11627912521362305 0.007046589627861977
-0.05426359176635742 0.11627912521362305 0.031167294830083847
-0.05426359176635742 0.11627912521362305 0.5656333565711975
-0.05426359176635742 0.11627912521362305 0.9011986255645752
-0.05426359176635742 0.1317828893661499 0.01762806810438633
-0.05426359176635742 0.1317828893661499 0.039940107613801956
-0.05426359176635742 0.1317828893661499 0.5736866593360901
-0.05426359176635742 0.1317828893661499 0.8956432342529297
-0.05426359176635742 0.1472867727279663 0.021463681012392044
-0.05426359176635742 0.1472867727279663 0.04574387148022652
-0.05426359176635742 0.1472867727279663 0.5852096080780029
-0.05426359176635742 0.1472867727279663 0.8926492929458618
-0.05426359176635742 0.16279065608978271 0.02993079274892807
-0.05426359549164772 0.1627906709909439 0.05484196916222572
-0.05426359176635742 0.16279065608978271 0.6030927300453186
-0.05426359176635742 0.16279065608978271 0.8794302344322205
-0.05426359176635742 0.17829453945159912 0.03658866137266159
-0.05426359176635742 0.17829453945159912 0.061678022146224976
-0.05426359176635742 0.17829453945159912 0.627568244934082
-0.05426359176635742 0.17829453945159912 0.8611008524894714
-0.05426359176635742 0.19379842281341553 0.04563340172171593
-0.05426359176635742 0.19379842281341553 0.07149840891361237
-0.05426359176635742 0.19379842281341553 0.6569420695304871
-0.05426359176635742 0.19379842281341553 0.8390509486198425
-0.05426359176635742 0.20930230617523193 0.051818013191223145
-0.05426359176635742 0.20930230617523193 0.08060265332460403
-0.05426359176635742 0.20930230617523193 0.6891818046569824
-0.05426359176635742 0.20930230617523193 0.8311217427253723
-0.05426359176635742 0.22480618953704834 0.06105271726846695
-0.05426359176635742 0.22480618953704834 0.09251197427511215
-0.05426359176635742 0.22480618953704834 0.7258240580558777
-0.05426359176635742 0.22480618953704834 0.8254277110099792
-0.05426359176635742 0.24031007289886475 0.07576239109039307
-0.05426359176635742 0.24031007289886475 0.09057419002056122
-0.05426359176635742 0.24031007289886475 0.7554529905319214
-0.05426359176635742 0.24031007289886475 0.8200578689575195
-0.05426359176635742 0.25581395626068115 0.7744923233985901
-0.05426359176635742 0.25581395626068115 0.8180216550827026
-0.05426359176635742 0.27131783962249756 0.7883557081222534
-0.05426359176635742 0.27131783962249756 0.8168568015098572
-0.05426359176635742 0.28682172298431396 0.7998121976852417
-0.05426359176635742 0.28682172298431396 0.8162329196929932
-0.05426359176635742 0.30232560634613037 0.8101039528846741
-0.05426359176635742 0.30232560634613037 0.8166121244430542
-0.038759708404541016 -0.25581395626068115 0.8320324420928955
-0.038759708404541016 -0.25581395626068115 0.8947958946228027
-0.038759708404541016 -0.24031007289886475 0.7974193692207336
-0.038759708404541016 -0.24031007289886475 0.8942775726318359
-0.038759708404541016 -0.22480618953704834 -0.19784200191497803
-0.038759708404541016 -0.22480618953704834 -0.18643233180046082
-0.038759708404541016 -0.22480618953704834 0.7621459364891052
-0.038759708404541016 -0.22480618953704834 0.8945720791816711
-0.038759708404541016 -0.20930230617523193 -0.210314080119133
-0.038759708404541016 -0.20930230617523193 -0.19100745022296906
-0.038759708404541016 -0.20930230617523193 0.6108633279800415
-0.038759708404541016 -0.20930230617523193 0.656232476234436
-0.038759708404541016 -0.20930230617523193 0.7313820719718933
-0.038759708404541016 -0.20930230617523193 0.898761510848999
-0.038759708404541016 -0.19379842281341553 -0.21531875431537628
-0.038759708404541016 -0.19379842281341553 -0.19880004227161407
-0.038759708404541016 -0.19379842281341553 0.5932172536849976
-0.038759708404541016 -0.19379842281341553 0.9080259799957275
-0.038759708404541016 -0.1782945990562439 -0.2271667718887329
-0.038759708404541016 -0.1782945990562439 -0.2076805680990219
-0.038759708404541016 -0.1782945990562439 0.5787911415100098
-0.038759708404541016 -0.1782945990562439 0.9070971012115479
-0.038759708404541016 -0.1627907156944275 -0.23147892951965332
-0.038759708404541016 -0.1627907156944275 -0.2189265638589859
-0.038759708404541016 -0.1627907156944275 0.5705103278160095
-0.038759708404541016 -0.1627907156944275 0.8976050615310669
-0.038759708404541016 -0.14728683233261108 -0.24323417246341705
-0.038759708404541016 -0.14728683233261108 -0.23116517066955566
-0.038759708404541016 -0.14728683233261108 0.5647593140602112
-0.038759708404541016 -0.14728683233261108 0.8993933796882629
-0.038759708404541016 -0.13178294897079468 -0.24178995192050934
-0.038759708404541016 -0.13178294897079468 -0.23989759385585785
-0.038759708404541016 -0.13178294897079468 0.09842326492071152
-0.038759708404541016 -0.13178294897079468 0.10164888948202133
-0.038759708404541016 -0.13178294897079468 0.5622679591178894
-0.038759708404541016 -0.13178294897079468 0.9024650454521179
-0.038759708404541016 -0.11627906560897827 0.08276311308145523
-0.038759708404541016 -0.11627906560897827 0.09391631186008453
-0.038759708404541016 -0.11627906560897827 0.5603602528572083
-0.038759708404541016 -0.11627906560897827 0.8898452520370483
-0.038759708404541016 -0.10077518224716187 0.07345539331436157
-0.038759708404541016 -0.10077518224716187 0.08671347796916962
-0.038759708404541016 -0.10077518224716187 0.5582630634307861
-0.038759708404541016 -0.10077518224716187 0.8785743713378906
-0.038759708404541016 -0.08527129888534546 0.555630087852478
-0.038759708404541016 -0.08527129888534546 0.8791766166687012
-0.038759712129831314 -0.06976741552352905 0.5533879995346069
-0.038759708404541016 -0.06976741552352905 0.882685661315918
-0.038759708404541016 -0.05426358804106712 0.5517065525054932
-0.038759708404541016 -0.05426359549164772 0.8915500640869141
-0.038759708404541016 -0.038759708404541016 0.5501506328582764
-0.038759708404541016 -0.038759708404541016 0.8946095108985901
-0.038759708404541016 -0.02325582504272461 0.549714207649231
-0.038759708404541016 -0.02325582504272461 0.8949041366577148
-0.038759708404541016 -0.007751941680908203 0.5498009324073792
-0.038759708404541016 -0.007751941680908203 0.8933479189872742
-0.038759708404541016 0.007751941680908203 -0.024865685030817986
-0.038759708404541016 0.00775194214656949 -0.006955732125788927
-0.038759708404541016 0.007751941680908203 0.5500454306602478
-0.038759708404541016 0.007751941680908203 0.8916733860969543
-0.038759708404541016 0.02325582504272461 -0.023945288732647896
-0.038759708404541016 0.02325582504272461 -0.002259348053485155
-0.038759708404541016 0.02325582504272461 0.5504639744758606
-0.038759708404541016 0.02325582504272461 0.8941582441329956
-0.038759708404541016 0.038759708404541016 -0.01315213181078434
-0.038759708404541016 0.038759708404541016 0.0017586520407348871
-0.038759708404541016 0.038759708404541016 0.552405834197998
-0.038759708404541016 0.038759708404541016 0.8961819410324097
-0.038759708404541016 0.05426359176635742 -0.008988695219159126
-0.038759708404541016 0.05426359176635742 0.004247207194566727
-0.038759708404541016 0.05426359176635742 0.5548746585845947
-0.038759708404541016 0.05426359176635742 0.8963614702224731
-0.038759708404541016 0.06976747512817383 0.004915534518659115
-0.038759712129831314 0.06976747512817383 0.008219322189688683
-0.038759708404541016 0.06976747512817383 0.5570593476295471
-0.038759708404541016 0.06976747512817383 0.895780086517334
-0.038759708404541016 0.08527135848999023 0.005433176644146442
-0.038759708404541016 0.08527135848999023 0.010005622170865536
-0.038759708404541016 0.08527135848999023 0.5591131448745728
-0.038759708404541016 0.08527135848999023 0.8971619606018066
-0.038759708404541016 0.10077524185180664 0.006152517162263393
-0.038759708404541016 0.10077524185180664 0.021487759426236153
-0.038759708404541016 0.10077524185180664 0.5613962411880493
-0.038759708404541016 0.10077524185180664 0.9075517058372498
-0.038759708404541016 0.11627912521362305 0.007634636014699936
-0.038759708404541016 0.11627912521362305 0.028858879581093788
-0.038759708404541016 0.11627912521362305 0.5650820136070251
-0.038759708404541016 0.11627912521362305 0.9091179966926575
-0.038759708404541016 0.1317828893661499 0.01888425461947918
-0.038759708404541016 0.1317828893661499 0.039105888456106186
-0.038759708404541016 0.1317828893661499 0.5731967687606812
-0.038759708404541016 0.1317828893661499 0.906075119972229
-0.038759708404541016 0.1472867727279663 0.021943209692835808
-0.038759708404541016 0.1472867727279663 0.043082330375909805
-0.038759708404541016 0.1472867727279663 0.585476279258728
-0.038759708404541016 0.1472867727279663 0.8941159248352051
-0.038759708404541016 0.16279065608978271 0.032350681722164154
-0.038759708404541016 0.16279065608978271 0.05165582522749901
-0.038759708404541016 0.16279065608978271 0.6048859357833862
-0.038759708404541016 0.16279065608978271 0.8826977014541626
-0.038759708404541016 0.17829453945159912 0.03735387325286865
-0.038759708404541016 0.17829453945159912 0.05899973213672638
-0.038759708404541016 0.17829453945159912 0.6310310363769531
-0.038759708404541016 0.17829453945159912 0.8639039993286133
-0.038759708404541016 0.19379842281341553 0.04818699508905411
-0.038759708404541016 0.19379842281341553 0.07112745195627213
-0.038759708404541016 0.19379842281341553 0.6594233512878418
-0.038759708404541016 0.19379842281341553 0.8416813015937805
-0.038759708404541016 0.20930230617523193 0.05314294248819351
-0.038759708404541016 0.20930230617523193 0.08413086831569672
-0.038759708404541016 0.20930230617523193 0.6929036974906921
-0.038759708404541016 0.20930230617523193 0.8316953182220459
-0.038759708404541016 0.22480618953704834 0.06578031182289124
-0.038759708404541016 0.22480618953704834 0.0928439199924469
-0.038759708404541016 0.22480618953704834 0.7311853170394897
-0.038759708404541016 0.22480620443820953 0.8294971585273743
-0.038759708404541016 0.24031007289886475 0.7588140964508057
-0.038759708404541016 0.24031007289886475 0.82086181640625
-0.038759708404541016 0.25581395626068115 0.7762370109558105
-0.038759708404541016 0.25581395626068115 0.8181540369987488
-0.038759708404541016 0.27131783962249756 0.791609525680542
-0.038759708404541016 0.27131783962249756 0.8169205188751221
-0.038759708404541016 0.28682172298431396 0.8034285306930542
-0.038759708404541016 0.28682172298431396 0.8165265321731567
-0.038759708404541016 0.30232560634613037 0.8119184970855713
-0.038759708404541016 0.30232560634613037 0.8157792091369629
-0.02325582504272461 -0.27131783962249756 0.8709604740142822
-0.02325582504272461 -0.27131783962249756 0.8892155885696411
-0.02325582504272461 -0.25581395626068115 -0.18740105628967285
-0.02325582318007946 -0.25581395626068115 -0.17633673548698425
-0.02325582504272461 -0.25581395626068115 0.8262259364128113
-0.02325582504272461 -0.25581395626068115 0.8940817713737488
-0.02325582504272461 -0.24031007289886475 -0.198383629322052
-0.02325582504272461 -0.24031007289886475 -0.17788030207157135
-0.02325582504272461 -0.24031007289886475 0.7906925678253174
-0.02325582504272461 -0.24031007289886475 0.8930572867393494
-0.02325582504272461 -0.22480618953704834 -0.21021012961864471
-0.02325582504272461 -0.22480618953704834 -0.1904246211051941
-0.02325582504272461 -0.22480618953704834 0.7645027041435242
-0.02325582504272461 -0.22480618953704834 0.8920562267303467
-0.02325582504272461 -0.20930230617523193 -0.21408683061599731
