-0.05426359176635742 0.21947702765464783 -0.1627907156944275
-0.05426359176635742 0.2132628709077835 0.7829457521438599
-0.05426359176635742 0.22359317541122437 0.7984496355056763
-0.05426359176635742 0.2162991613149643 0.8449612855911255
-0.05426359176635742 0.2134665995836258 0.922480583190918
-0.05426359176635742 0.21081005036830902 0.9534883499145508
-0.05426359176635742 0.23246228694915771 -0.1627907156944275
-0.05426359176635742 0.2295432984828949 -0.14728683233261108
-0.05426359176635742 0.22758685052394867 0.8139535188674927
-0.05426359176635742 0.22835734486579895 0.8294574022293091
-0.05426358804106712 0.22607749700546265 0.9379844069480896
-0.05426359176635742 0.2467377930879593 -0.13178294897079468
-0.05426359176635742 0.25678887963294983 -0.14728683233261108
-0.05426359176635742 0.2865467965602875 -0.13178294897079468
-0.05426359176635742 0.2740354537963867 -0.11627906560897827
-0.05426359176635742 0.30801135301589966 -0.10077518224716187
-0.05426359176635742 0.3206850290298462 -0.11627906560897827
-0.05426359176635742 0.32771995663642883 -0.10077518224716187
-0.038759708404541016 -0.30339065194129944 0.8139535188674927
-0.038759708404541016 -0.3158816397190094 0.8294574022293091
-0.038759708404541016 -0.308932363986969 0.8449612855911255
-0.038759708404541016 -0.2886691093444824 0.7829457521438599
-0.038759708404541016 -0.29516708850860596 0.7984496355056763
-0.038759708404541016 -0.2779872417449951 0.7674418687820435
-0.038759708404541016 -0.26429930329322815 0.751937985420227
-0.038759708404541016 -0.2685208022594452 0.8604651689529419
-0.038759708404541016 -0.25729960203170776 0.8759689331054688
-0.038759708404541016 -0.24399511516094208 0.7364341020584106
-0.038759708404541016 -0.24420493841171265 0.8914728164672852
-0.038759708404541016 -0.2106987088918686 0.7209302186965942
-0.038759708404541016 -0.20899459719657898 0.9069766998291016
-0.038759708404541016 -0.16796553134918213 0.7054263353347778
-0.038759708404541016 -0.15600238740444183 0.922480583190918
-0.038759708404541016 -0.12685942649841309 0.6899224519729614
-0.038759708404541016 -0.09843555837869644 0.674418568611145
-0.038759708404541016 -0.08532121777534485 0.922480583190918
-0.038759708404541016 -0.07031944394111633 0.6589146852493286
-0.038759708404541016 -0.04678826406598091 0.922480583190918
-0.038759708404541016 -0.02286359667778015 0.6589146852493286
-0.038759708404541016 0.005289272405207157 -0.317829430103302
-0.038759708404541016 0.00021640118211507797 -0.30232560634613037
-0.038759708404541016 0.017627904191613197 0.674418568611145
-0.038759708404541016 0.04345422983169556 -0.317829430103302
-0.038759708404541016 0.04324474185705185 -0.28682172298431396
-0.038759708404541016 0.0639481395483017 -0.30232560634613037
-0.038759708404541016 0.08044783025979996 -0.28682172298431396
-0.038759708404541016 0.07961121201515198 -0.27131783962249756
-0.038759708404541016 0.07543642818927765 0.922480583190918
-0.038759708404541016 0.09099917113780975 0.6899224519729614
-0.038759708404541016 0.10085398703813553 -0.27131783962249756
-0.038759708404541016 0.10229417681694031 0.922480583190918
-0.038759708404541016 0.12501779198646545 0.7054263353347778
-0.038759708404541016 0.13078515231609344 0.9379844665527344
-0.038759708404541016 0.14884696900844574 0.7209301590919495
-0.038759708404541016 0.16016162931919098 0.9534883499145508
-0.038759708404541016 0.16710145771503448 0.7364341020584106
-0.038759708404541016 0.18490128219127655 0.751937985420227
-0.038759708404541016 0.18621960282325745 0.8604651689529419
-0.038759708404541016 0.17925849556922913 0.8759689331054688
-0.038759712129831314 0.1791876256465912 0.8914728760719299
-0.038759708404541016 0.18487021327018738 0.9069766998291016
-0.038759708404541016 0.20131641626358032 0.7674418687820435
-0.038759708404541016 0.22354456782341003 -0.1627907156944275
-0.038759708404541016 0.22417916357517242 -0.14728683233261108
-0.038759708404541016 0.21520021557807922 0.7829457521438599
-0.038759708404541016 0.22047556936740875 0.8449612855911255
-0.038759708404541016 0.21315734088420868 0.9534883499145508
-0.038759708404541016 0.22527660429477692 -0.1627907156944275
-0.038759708404541016 0.22546938061714172 0.7984496355056763
-0.038759708404541016 0.22875557839870453 0.8139535784721375
-0.038759708404541016 0.23063692450523376 0.8294574022293091
-0.038759708404541016 0.2287258356809616 0.9224805235862732
-0.038759708404541016 0.2315601408481598 0.9379844665527344
-0.038759708404541016 0.24555569887161255 -0.14728683233261108
-0.038759708404541016 0.24107986688613892 -0.13178294897079468
-0.038759708404541016 0.2693146765232086 -0.11627906560897827
-0.038759708404541016 0.2729572057723999 -0.13178294897079468
-0.038759708404541016 0.3107328414916992 -0.10077518224716187
-0.038759708404541016 0.31996461749076843 -0.11627906560897827
-0.038759708404541016 0.33531495928764343 -0.10077518224716187
-0.02325582504272461 -0.32352423667907715 0.8294574022293091
-0.02325582504272461 -0.3257942199707031 0.8449612855911255
-0.02325582504272461 -0.303854376077652 0.8139535188674927
-0.02325582504272461 -0.2900451123714447 0.7829457521438599
-0.02325582504272461 -0.29654499888420105 0.7984496355056763
-0.02325582504272461 -0.27939194440841675 0.7674418687820435
-0.02325582504272461 -0.2650899291038513 0.751937985420227
-0.02325582504272461 -0.263788104057312 0.8604651689529419
-0.02325582504272461 -0.25656989216804504 0.8759689331054688
-0.02325582504272461 -0.2439703494310379 0.7364341020584106
-0.02325582504272461 -0.24320337176322937 0.8914728164672852
-0.02325582504272461 -0.21070057153701782 0.7209302186965942
-0.02325582504272461 -0.1945701241493225 0.9069766998291016
-0.02325582504272461 -0.18229269981384277 0.28682172298431396
-0.02325582504272461 -0.17630232870578766 0.28682172298431396
-0.02325582504272461 -0.16664543747901917 0.7054263353347778
-0.02325582504272461 -0.15237998962402344 0.922480583190918
-0.02325582504272461 -0.12316212058067322 0.6899224519729614
-0.02325582504272461 -0.09355665743350983 0.674418568611145
-0.02325582504272461 -0.09192274510860443 0.922480583190918
-0.02325582504272461 -0.0656951442360878 0.6589146852493286
-0.02325582504272461 -0.04005895555019379 0.922480583190918
-0.02325582504272461 -0.025710763409733772 0.6589146852493286
-0.02325582504272461 0.007160663604736328 -0.317829430103302
-0.02325582504272461 0.0013099906500428915 -0.30232560634613037
-0.02325582504272461 0.0157383531332016 0.674418568611145
-0.02325582504272461 0.028284426778554916 -0.317829430103302
-0.02325582504272461 0.03501948341727257 -0.28682172298431396
-0.02325582504272461 0.05758385732769966 -0.30232560634613037
-0.02325582504272461 0.054967015981674194 0.922480583190918
-0.02325582690536976 0.07412954419851303 -0.28682172298431396
-0.02325582504272461 0.07791280746459961 -0.27131783962249756
-0.02325582504272461 0.09064759314060211 -0.27131783962249756
-0.02325582504272461 0.08744822442531586 0.6899224519729614
-0.02325582504272461 0.10964979976415634 0.922480583190918
-0.02325582504272461 0.11866704374551773 0.7054263353347778
-0.02325582504272461 0.1404406726360321 0.7209302186965942
-0.02325582504272461 0.13458548486232758 0.9379844665527344
-0.02325582504272461 0.1603030264377594 0.9534883499145508
-0.02325582504272461 0.16307398676872253 0.7364341020584106
-0.02325582504272461 0.18188481032848358 0.751937985420227
-0.02325582504272461 0.18340793251991272 0.8604651689529419
-0.02325582318007946 0.17990796267986298 0.8759689331054688
-0.02325582504272461 0.1805521547794342 0.8914728164672852
-0.02325582690536976 0.1825990527868271 0.9069766998291016
-0.02325582504272461 0.2006097435951233 0.7674418687820435
-0.02325582504272461 0.1965501308441162 0.953488290309906
-0.02325582504272461 0.22231262922286987 -0.14728683233261108
-0.02325582504272461 0.21551167964935303 0.7829457521438599
-0.02325582504272461 0.23656369745731354 -0.14728683233261108
-0.02325582504272461 0.23673005402088165 -0.13178294897079468
-0.02325582504272461 0.22562159597873688 0.7984496355056763
-0.02325582504272461 0.2292690873146057 0.8139535188674927
-0.02325582504272461 0.23350250720977783 0.8294574022293091
-0.02325582504272461 0.22509661316871643 0.8449612855911255
-0.02325582504272461 0.23441772162914276 0.922480583190918
-0.02325582504272461 0.23327133059501648 0.9379844665527344
-0.02325582504272461 0.2621438503265381 -0.13178294897079468
-0.02325582504272461 0.2600400447845459 -0.11627906560897827
-0.02325582504272461 0.30040743947029114 -0.11627906560897827
-0.02325582504272461 0.30175334215164185 -0.10077518224716187
-0.02325582504272461 0.3344165086746216 -0.10077518224716187
-0.007751941680908203 -0.3203950524330139 0.8294574022293091
-0.007751941680908203 -0.3184881806373596 0.8449612855911255
-0.007751941680908203 -0.31548723578453064 0.8449612855911255
-0.007751941680908203 -0.29125747084617615 0.7829457521438599
-0.007751941680908203 -0.2974717617034912 0.7984496355056763
-0.007751941680908203 -0.30005893111228943 0.8139535188674927
-0.007751941680908203 -0.2804482877254486 0.7674418687820435
-0.007751941680908203 -0.2794346213340759 0.8449612855911255
-0.007751941680908203 -0.26506394147872925 0.751937985420227
-0.007751941680908203 -0.26248589158058167 0.8604651689529419
-0.007751941680908203 -0.2570733428001404 0.8759689331054688
-0.007751941680908203 -0.24374230206012726 0.7364341020584106
-0.007751941680908203 -0.24303904175758362 0.8914728164672852
-0.007751941680908203 -0.22637294232845306 0.3178294897079468
-0.007751941680908203 -0.20980282127857208 0.30232560634613037
-0.007751941680908203 -0.22189496457576752 0.3178294897079468
-0.007751941680908203 -0.2113538384437561 0.7209302186965942
-0.007751941680908203 -0.18403562903404236 0.28682172298431396
-0.007751941680908203 -0.1935236006975174 0.30232560634613037
-0.007751941680908203 -0.18212714791297913 0.9069766998291016
-0.007751941680908203 -0.16392940282821655 0.27131783962249756
-0.007751941680908203 -0.1748383641242981 0.28682172298431396
-0.007751941680908203 -0.1668950319290161 0.7054263353347778
-0.007751941680908203 -0.13295689225196838 0.25581395626068115
-0.00775194214656949 -0.14126217365264893 0.27131783962249756
-0.007751941680908203 -0.14556606113910675 0.922480583190918
-0.007751941680908203 -0.12268905341625214 0.6899224519729614
-0.007751941680908203 -0.10350529849529266 0.24031007289886475
-0.007751941680908203 -0.10356903821229935 0.25581395626068115
-0.007751941680908203 -0.08622273057699203 0.22480618953704834
-0.007751941680908203 -0.09215617179870605 0.674418568611145
-0.007751941680908203 -0.09825164824724197 0.922480583190918
-0.007751941680908203 -0.08241382241249084 0.22480617463588715
-0.007751941680908203 -0.08320218324661255 0.24031007289886475
-0.007751941680908203 -0.06357656419277191 0.6589146852493286
-0.007751941680908203 -0.02411520853638649 0.6589146852493286
-0.007751941680908203 -0.029665257781744003 0.922480583190918
-0.007751941680908203 -0.01081136055290699 0.922480583190918
-0.007751941680908203 0.0027567921206355095 -0.30232560634613037
-0.007751941680908203 0.014440013095736504 0.674418568611145
-0.007751941680908203 0.03185640275478363 -0.28682172298431396
-0.007751941215246916 0.04452231526374817 -0.30232560634613037
-0.007751941680908203 0.0698951855301857 -0.28682172298431396
-0.007751941680908203 0.07942085713148117 -0.27131783962249756
-0.007751941680908203 0.07942292094230652 0.6899224519729614
-0.007751941680908203 0.08614593744277954 -0.27131783962249756
-0.007751941680908203 0.10889935493469238 0.7054263353347778
-0.007751941680908203 0.1130378246307373 0.922480583190918
-0.007751941680908203 0.13276594877243042 0.7209302186965942
-0.007751941680908203 0.13868631422519684 0.9379844665527344
-0.00775194214656949 0.1538550853729248 0.7364341020584106
-0.007751941680908203 0.17583061754703522 0.751937985420227
-0.007751941680908203 0.1656372845172882 0.9534883499145508
-0.007751941680908203 0.1797051876783371 0.8604651093482971
-0.007751941680908203 0.179108664393425 0.8759689331054688
-0.007751941680908203 0.18059447407722473 0.8914728164672852
-0.007751941680908203 0.182908296585083 0.9069766998291016
-0.007751941680908203 0.19332028925418854 0.922480583190918
-0.007751941680908203 0.17919416725635529 0.9534883499145508
-0.007751941680908203 0.19750283658504486 0.7674418687820435
-0.007751941215246916 0.19442148506641388 0.922480583190918
-0.007751941680908203 0.22380512952804565 -0.14728683233261108
-0.007751941680908203 0.21448421478271484 0.7829457521438599
-0.00775194214656949 0.21640172600746155 0.8449612855911255
-0.007751941680908203 0.22047120332717896 0.9069766998291016
-0.007751941680908203 0.22696323692798615 -0.14728683233261108
-0.007751941680908203 0.23744100332260132 -0.13178294897079468
-0.007751941215246916 0.2255384474992752 0.7984496355056763
-0.007751941680908203 0.22870002686977386 0.8139535188674927
-0.007751941680908203 0.2322860211133957 0.8294574022293091
-0.007751941680908203 0.23146897554397583 0.9069766998291016
-0.007751941680908203 0.23052522540092468 0.9379844665527344
-0.007751941680908203 0.25263577699661255 -0.13178294897079468
-0.007751941680908203 0.2556515038013458 -0.11627906560897827
-0.007751941680908203 0.24046097695827484 0.922480583190918
-0.007751941680908203 0.2819027900695801 -0.11627906560897827
-0.007751941680908203 0.28565359115600586 -0.10077518224716187
-0.007751941680908203 0.31953245401382446 -0.10077518224716187
0.007751941680908203 -0.3181026577949524 0.8294574022293091
0.007751941680908203 -0.30366250872612 0.8139535188674927
0.007751941680908203 -0.29095590114593506 0.7829457521438599
0.007751941680908203 -0.29671159386634827 0.7984496355056763
0.007751941680908203 -0.2939215898513794 0.8449612855911255
0.007751941215246916 -0.279771089553833 0.7674418687820435
0.007751941680908203 -0.2636702060699463 0.751937985420227
0.007751941680908203 -0.26242193579673767 0.8604651689529419
0.007751941680908203 -0.25684356689453125 0.8759689331054688
0.007751941680908203 -0.24157825112342834 0.3333333730697632
0.007751941680908203 -0.24177606403827667 0.7364341020584106
0.007751941680908203 -0.24190475046634674 0.8914728164672852
0.007751941680908203 -0.2270478755235672 0.3178294897079468
0.007751941680908203 -0.2393818199634552 0.3333333730697632
0.007751941680908203 -0.2104416787624359 0.30232560634613037
0.007751941680908203 -0.21897947788238525 0.3178294897079468
0.007751941680908203 -0.20785701274871826 0.7209302186965942
0.007751941680908203 -0.1849035620689392 0.28682172298431396
0.007751941215246916 -0.19300523400306702 0.30232560634613037
0.007751941680908203 -0.16417698562145233 0.27131783962249756
0.007751941680908203 -0.1741899847984314 0.28682172298431396
0.007751941680908203 -0.16329719126224518 0.7054263353347778
0.007751941680908203 -0.16550129652023315 0.9069766998291016
0.007751941680908203 -0.13206975162029266 0.25581395626068115
0.007751941680908203 -0.1367534101009369 0.27131783962249756
0.007751941680908203 -0.1349542886018753 0.922480583190918
0.007751941680908203 -0.12093863636255264 0.6899224519729614
0.007751941680908203 -0.10203012824058533 0.24031007289886475
0.007751941680908203 -0.08564723283052444 0.22480618953704834
0.007751941680908203 -0.09715007245540619 0.25581395626068115
0.007751941680908203 -0.09043151885271072 0.674418568611145
0.007751941680908203 -0.09801410883665085 0.922480583190918
0.007751941680908203 -0.06830894201993942 0.22480618953704834
0.007751941680908203 -0.06944172084331512 0.24031007289886475
0.007751941680908203 -0.05829229578375816 0.6589146852493286
0.007751941680908203 -0.023516874760389328 0.16279065608978271
0.007751941680908203 -0.024100806564092636 0.17829453945159912
0.007751941680908203 -0.024478837847709656 0.19379842281341553
0.007751941680908203 -0.024624476209282875 0.20930230617523193
0.007751941680908203 -0.02454100176692009 0.22480618953704834
0.007751941680908203 -0.02414417825639248 0.24031007289886475
0.007751941680908203 -0.023795612156391144 0.25581395626068115
0.007751941680908203 -0.023578431457281113 0.27131783962249756
0.007751941680908203 -0.023789221420884132 0.28682172298431396
0.007751941680908203 -0.024036595597863197 0.30232560634613037
0.007751941680908203 -0.02337229624390602 0.3178294897079468
0.007751941680908203 -0.03238550201058388 0.922480583190918
0.007751941680908203 -0.00978751853108406 0.06976747512817383
0.007751941680908203 -0.012527265585958958 0.08527135848999023
0.007751941680908203 -0.016155386343598366 0.10077524185180664
0.007751941680908203 -0.019306715577840805 0.11627913266420364
0.007751941680908203 -0.020647037774324417 0.1317828893661499
0.007751941680908203 -0.02202962152659893 0.1472867727279663
0.007751941680908203 0.004648884758353233 -0.30232560634613037
0.007751941680908203 0.002062421292066574 -0.28682172298431396
0.007751941680908203 -0.003533231792971492 0.06976747512817383
0.007751941680908203 -0.0021238448098301888 0.08527135848999023
0.007751941680908203 -0.0016997149214148521 0.10077524185180664
0.00775194214656949 -0.002120207529515028 0.11627912521362305
0.007751941680908203 -0.0027613642159849405 0.1317828893661499
0.007751941680908203 -0.003429071046411991 0.1472867727279663
0.007751941680908203 -0.003883994184434414 0.16279065608978271
0.007751941215246916 -0.004504063632339239 0.17829453945159912
0.007751941680908203 -0.005015837028622627 0.19379842281341553
0.007751941680908203 -0.005486634559929371 0.20930230617523193
0.00775194214656949 -0.005898530129343271 0.22480618953704834
0.007751941680908203 -0.006228959187865257 0.24031007289886475
0.007751941680908203 -0.00646298099309206 0.25581395626068115
0.007751941680908203 -0.006618047133088112 0.27131786942481995
0.007751941680908203 -0.006578877568244934 0.28682172298431396
0.007751941680908203 -0.006456315517425537 0.30232560634613037
0.007751941680908203 -0.006847401149570942 0.3178294897079468
0.007751941680908203 0.004077274352312088 0.6589146852493286
0.007751941680908203 0.01882288232445717 0.674418568611145
0.007751941215246916 0.007982781156897545 0.9224805235862732
0.007751941680908203 0.02981281466782093 -0.30232560634613037
0.00775194214656949 0.05696486309170723 -0.28682172298431396
0.007751941680908203 0.07443803548812866 0.6899224519729614
0.007751941680908203 0.10463155806064606 0.7054263353347778
0.007751941680908203 0.11206842958927155 0.922480583190918
0.007751941680908203 0.1274283230304718 0.7209302186965942
0.007751941680908203 0.1356056034564972 0.9379844665527344
0.007751941680908203 0.14995115995407104 0.7364341020584106
0.007751941680908203 0.17149944603443146 0.751937985420227
0.007751941680908203 0.17260956764221191 0.8604651689529419
0.007751941680908203 0.17471414804458618 0.8759689331054688
0.007751941680908203 0.1800593137741089 0.8914728164672852
0.007751941680908203 0.18156206607818604 0.9069766998291016
0.007751941680908203 0.186517596244812 0.922480583190918
0.007751941680908203 0.1884033977985382 0.9379844665527344
0.007751941680908203 0.1950550675392151 0.7674418687820435
0.007751941680908203 0.20597124099731445 0.8449612855911255
0.007751941680908203 0.2031426578760147 0.922480583190918
0.007751941680908203 0.2032289355993271 0.9379844665527344
0.007751941680908203 0.22307246923446655 -0.14728683233261108
0.007751941215246916 0.2135220170021057 0.7829457521438599
0.007751941680908203 0.21437203884124756 0.9379844665527344
0.007751941680908203 0.22632840275764465 -0.14728683233261108
0.007751941680908203 0.23676492273807526 -0.13178294897079468
0.007751941680908203 0.2254214584827423 0.7984495759010315
0.007751941680908203 0.22813667356967926 0.8139535784721375
0.007751941680908203 0.23157355189323425 0.8294574022293091
0.007751941680908203 0.2375650405883789 0.922480583190918
0.007751941680908203 0.2476552426815033 -0.13178294897079468
0.007751941680908203 0.2541872560977936 -0.11627906560897827
0.007751941680908203 0.274665504693985 -0.11627906560897827
0.007751941680908203 0.2857486605644226 -0.10077518224716187
0.007751941680908203 0.28743353486061096 -0.10077518224716187
0.02325582504272461 -0.30425623059272766 0.8139535188674927
0.02325582504272461 -0.3155217170715332 0.8294574022293091
0.02325582504272461 -0.3068671226501465 0.8449612855911255
0.02325582504272461 -0.2889340817928314 0.7829457521438599
0.02325582504272461 -0.2936699092388153 0.7984496355056763
0.02325582504272461 -0.27707991003990173 0.7674418687820435
0.02325582504272461 -0.26104098558425903 0.751937985420227
0.02325582504272461 -0.2587386965751648 0.8604651689529419
0.02325582504272461 -0.24408607184886932 0.3333333730697632
0.02325582504272461 -0.24057917296886444 0.7364341020584106
0.02325582318007946 -0.2509540617465973 0.8759689331054688
0.02325582504272461 -0.22754506766796112 0.3178294897079468
0.02325582690536976 -0.23768329620361328 0.3333333730697632
0.02325582504272461 -0.2333778738975525 0.8914728164672852
0.02325582504272461 -0.21091949939727783 0.30232560634613037
0.02325582504272461 -0.21998386085033417 0.3178294897079468
0.02325582504272461 -0.20492959022521973 0.7209302186965942
0.02325582504272461 -0.18978632986545563 0.28682172298431396
0.02325582318007946 -0.19359244406223297 0.302325576543808
0.02325582504272461 -0.16498225927352905 0.27131783962249756
0.02325582504272461 -0.17358118295669556 0.28682172298431396
0.02325582504272461 -0.16220681369304657 0.7054263353347778
0.02325582504272461 -0.15120714902877808 0.9069766998291016
0.02325582504272461 -0.1319269984960556 0.25581395626068115
0.02325582504272461 -0.13660602271556854 0.27131783962249756
0.02325582504272461 -0.12164806574583054 0.6899224519729614
0.02325582504272461 -0.1289665699005127 0.922480583190918
0.02325582504272461 -0.1017097607254982 0.24031007289886475
0.02325582504272461 -0.09700660407543182 0.25581395626068115
0.02325582504272461 -0.09206868708133698 0.674418568611145
0.02325582504272461 -0.09043368697166443 0.922480583190918
0.02325582504272461 -0.07583486288785934 0.24031007289886475
0.02325582504272461 -0.05969595909118652 0.6589146852493286
0.02325582504272461 -0.054438114166259766 0.922480583190918
0.02325582504272461 -0.02350444532930851 0.17829453945159912
0.02325582504272461 -0.023580284789204597 0.19379842281341553
0.02325582504272461 -0.02326676808297634 0.20930230617523193
0.02325582504272461 -0.007811096962541342 0.05426359176635742
0.02325582504272461 -0.011965489014983177 0.06976747512817383
0.02325582504272461 -0.01486963964998722 0.08527135848999023
0.02325582504272461 -0.018035411834716797 0.10077523440122604
0.02325582504272461 -0.019359545782208443 0.11627911776304245
0.02325582504272461 -0.018805257976055145 0.1317828893661499
0.02325582504272461 -0.018760252743959427 0.1472867727279663
0.02325582504272461 -0.021259106695652008 0.16279065608978271
0.02325582504272461 -0.011624944396317005 0.22480618953704834
0.02325582504272461 -0.010627381503582 0.6434108018875122
0.02325582504272461 0.0008292191196233034 -0.28682172298431396
0.02325582690536976 -0.007596742827445269 0.05426359176635742
0.02325582504272461 -0.0013964881654828787 0.06976747512817383
0.02325582504272461 -0.0017994123045355082 0.08527135848999023
0.02325582504272461 -0.0026947148144245148 0.10077524930238724
0.02325582504272461 -0.0037536011077463627 0.11627912521362305
0.02325582504272461 -0.004359632730484009 0.1317828893661499
0.02325582504272461 -0.004757082089781761 0.1472867727279663
0.02325582504272461 -0.004997064359486103 0.16279065608978271
0.02325582504272461 -0.005511865951120853 0.17829453945159912
0.02325582504272461 -0.005996326450258493 0.19379842281341553
0.02325582504272461 -0.006531166844069958 0.20930230617523193
0.02325582504272461 -0.007341356016695499 0.22480617463588715
0.02325582504272461 -0.0035942208487540483 0.6434108018875122
0.02325582504272461 0.0043360525742173195 0.922480583190918
0.02325582504272461 0.009123271331191063 0.6589146852493286
0.02325582504272461 0.02076166309416294 0.674418568611145
0.02325582504272461 0.04105070233345032 -0.28682172298431396
0.02325582504272461 0.054170165210962296 -0.27131783962249756
0.02325582318007946 0.05429704859852791 -0.27131783962249756
0.02325582504272461 0.07557254284620285 0.6899224519729614
0.02325582504272461 0.10599490255117416 0.7054263353347778
0.02325582504272461 0.10120938718318939 0.922480583190918
0.02325582504272461 0.12032005190849304 -0.22480618953704834
0.02325582504272461 0.1297154724597931 0.7209302186965942
0.02325582504272461 0.12542708218097687 0.9379844665527344
0.02325582504272461 0.137061208486557 -0.22480618953704834
0.02325582504272461 0.13631893694400787 -0.20930230617523193
0.02325582504272461 0.1558798849582672 -0.20930230617523193
0.02325582504272461 0.15910008549690247 -0.19379842281341553
0.02325582504272461 0.150863379240036 0.7364341020584106
0.02325582504272461 0.1687784343957901 -0.19379842281341553
0.02325582504272461 0.1721496880054474 0.751937985420227
0.02325582504272461 0.17056795954704285 0.8604651689529419
0.02325582504272461 0.1718481481075287 0.8759689331054688
0.02325582504272461 0.17971716821193695 0.8914728760719299
0.02325582504272461 0.18045814335346222 0.9069766998291016
0.02325582504272461 0.18110008537769318 0.922480583190918
0.02325582504272461 0.1809019148349762 0.9379844665527344
0.02325582504272461 0.19551877677440643 0.7674418091773987
0.02325582504272461 0.2031545639038086 0.8449612855911255
0.02325582504272461 0.21873611211776733 -0.14728683233261108
0.02325582504272461 0.2140456587076187 0.7829457521438599
0.02325582504272461 0.22629407048225403 -0.14728683233261108
0.02325582504272461 0.2314252257347107 -0.13178294897079468
0.02325582504272461 0.22570784389972687 0.798449695110321
0.02325582690536976 0.22860334813594818 0.8139535188674927
0.02325582504272461 0.23335838317871094 0.8294574022293091
0.02325582504272461 0.24579177796840668 -0.13178294897079468
0.02325582504272461 0.25184717774391174 -0.11627906560897827
0.02325582504272461 0.2696862816810608 -0.11627906560897827
0.038759708404541016 -0.3029651343822479 0.8294574022293091
0.038759708404541016 -0.28953856229782104 0.7984496355056763
0.038759708404541016 -0.29282161593437195 0.8139535188674927
0.038759708404541016 -0.27436959743499756 0.7674418687820435
0.038759708404541016 -0.28555727005004883 0.7829457521438599
0.038759708404541016 -0.274125337600708 0.8449612855911255
0.038759708404541016 -0.2593657076358795 0.751937985420227
0.038759708404541016 -0.2569139897823334 0.8604651689529419
0.038759708404541016 -0.2569878101348877 0.8759689331054688
0.038759708404541016 -0.24432653188705444 0.3333333730697632
0.038759708404541016 -0.24073031544685364 0.7364341020584106
0.038759708404541016 -0.22755089402198792 0.3178294897079468
0.038759708404541016 -0.23668888211250305 0.3333333730697632
0.038759708404541016 -0.23059004545211792 0.8914728164672852
0.038759708404541016 -0.21100595593452454 0.30232560634613037
0.038759708404541016 -0.2195529341697693 0.3178294897079468
0.038759708404541016 -0.19424214959144592 0.30232560634613037
0.038759708404541016 -0.20596589148044586 0.7209302186965942
0.038759708404541016 -0.1898830235004425 0.28682172298431396
0.038759708404541016 -0.16437968611717224 0.27131783962249756
0.038759708404541016 -0.1727907955646515 0.28682172298431396
0.038759708404541016 -0.16385099291801453 0.7054263353347778
0.038759708404541016 -0.14732259511947632 0.9069766998291016
0.038759708404541016 -0.14408543705940247 0.27131783962249756
0.038759708404541016 -0.12467704713344574 0.6899224519729614
0.038759708404541016 -0.12161965668201447 0.922480583190918
0.038759708404541016 -0.09648200124502182 0.674418568611145
0.038759708404541016 -0.06660349667072296 0.6589146852493286
0.038759708404541016 -0.026903711259365082 0.6589146852493286
0.038759708404541016 0.004749886691570282 -0.27131783962249756
0.038759708404541016 0.0031532368157058954 0.922480583190918
0.038759708404541016 0.0169175136834383 0.674418568611145
0.038759708404541016 0.042522627860307693 -0.27131783962249756
0.038759708404541016 0.04300026223063469 0.922480583190918
0.038759708404541016 0.07876701653003693 0.6899224519729614
0.038759708404541016 0.09803241491317749 -0.24031007289886475
0.038759708404541016 0.10052711516618729 -0.22480618953704834
0.038759708404541016 0.10123495757579803 -0.24031007289886475
0.038759708404541016 0.11598697304725647 -0.20930230617523193
0.038759708404541016 0.109017513692379 0.7054263353347778
0.038759708404541016 0.11071087419986725 0.9379844665527344
0.038759708404541016 0.12919072806835175 -0.22480618953704834
0.038759708404541016 0.1392379105091095 -0.19379842281341553
0.038759708404541016 0.13333207368850708 0.7209301590919495
0.038759708404541016 0.15048326551914215 -0.20930230617523193
0.038759708404541016 0.15245994925498962 0.7364341020584106
0.038759708404541016 0.16798269748687744 -0.19379842281341553
0.038759708404541016 0.17290134727954865 -0.1782945990562439
0.038759708404541016 0.17309215664863586 0.751937985420227
0.038759708404541016 0.1722927689552307 0.8604651689529419
0.038759708404541016 0.16927291452884674 0.8759689331054688
0.038759708404541016 0.17701099812984467 0.9379844665527344
0.038759708404541016 0.18210837244987488 -0.1782945990562439
0.038759708404541016 0.1784031242132187 0.8914728164672852
0.038759708404541016 0.1798018515110016 0.9069766998291016
0.038759708404541016 0.17970474064350128 0.922480583190918
0.038759708404541016 0.19662603735923767 0.7674418687820435
0.038759708404541016 0.20697557926177979 0.8449612855911255
0.038759708404541016 0.21485981345176697 0.7829457521438599
0.038759708404541016 0.23674319684505463 -0.13178294897079468
0.03875970467925072 0.226090669631958 0.7984495759010315
0.038759708404541016 0.22897781431674957 0.8139535188674927
0.038759708404541016 0.23077456653118134 0.8294574022293091
0.038759712129831314 0.24042601883411407 -0.13178294897079468
0.05426359176635742 -0.2872907221317291 0.7984496355056763
0.05426359176635742 -0.27266836166381836 0.7674418687820435
0.05426359176635742 -0.2813474237918854 0.7829457521438599
0.05426359176635742 -0.2844488024711609 0.8139535784721375
0.05426359176635742 -0.27501147985458374 0.8294574022293091
0.05426359176635742 -0.25828880071640015 0.751937985420227
0.05426359176635742 -0.261874794960022 0.8449612855911255
0.05426359176635742 -0.258667528629303 0.8604651689529419
0.05426359176635742 -0.2609981596469879 0.8759689331054688
0.05426359176635742 -0.24335427582263947 0.3333333730697632
0.05426359176635742 -0.24065931141376495 0.7364341020584106
0.05426359176635742 -0.2267802357673645 0.3178294897079468
0.05426359176635742 -0.23512540757656097 0.3333333730697632
0.05426359176635742 -0.21040143072605133 0.30232560634613037
0.05426359176635742 -0.21685750782489777 0.3178294897079468
0.05426359176635742 -0.20826692879199982 0.7209302186965942
0.05426359176635742 -0.19816383719444275 0.8914728164672852
0.05426359176635742 -0.18450862169265747 0.28682172298431396
0.05426358804106712 -0.19299200177192688 0.30232560634613037
0.05426359176635742 -0.17360162734985352 0.28682172298431396
0.05426359176635742 -0.16576974093914032 0.7054263353347778
0.05426359176635742 -0.14422369003295898 0.9069767594337463
0.05426359176635742 -0.12745869159698486 0.6899224519729614
0.05426359176635742 -0.11775030195713043 0.922480583190918
0.05426359549164772 -0.10057026892900467 0.674418568611145
0.05426359176635742 -0.07111209630966187 0.6589146852493286
0.05426359176635742 -0.030721493065357208 0.6589146852493286
0.05426359176635742 0.004761665128171444 -0.27131783962249756
0.05426359176635742 0.020148424431681633 -0.27131783962249756
0.05426359176635742 0.017885170876979828 0.674418568611145
0.05426359176635742 0.01710466295480728 0.922480583190918
0.05426359176635742 0.03501856327056885 -0.25581395626068115
0.05426359176635742 0.030135266482830048 0.922480583190918
0.05426359176635742 0.058110080659389496 -0.25581395626068115
0.05426359176635742 0.06222902983427048 -0.24031007289886475
0.05426359176635742 0.06269215047359467 0.9379844665527344
0.05426359176635742 0.08249343931674957 -0.22480618953704834
0.05426359176635742 0.0811169445514679 0.6899224519729614
0.05426359176635742 0.08868248760700226 -0.24031007289886475
0.05426359176635742 0.09926395118236542 -0.20930230617523193
0.05426359176635742 0.1152639165520668 -0.22480618953704834
0.05426359176635742 0.11039169132709503 0.7054263353347778
0.05426359176635742 0.12036243081092834 -0.19379842281341553
0.05426359176635742 0.13824138045310974 -0.20930230617523193
0.05426359176635742 0.13381390273571014 0.7209302186965942
0.05426359176635742 0.16174373030662537 -0.19379842281341553
0.05426359176635742 0.1557997614145279 -0.1782945990562439
0.05426359176635742 0.15248550474643707 0.7364341020584106
0.05426359176635742 0.17267057299613953 0.751937985420227
0.05426359176635742 0.17153379321098328 0.8604651689529419
0.05426359176635742 0.16600847244262695 0.8759689331054688
0.05426359176635742 0.1669965386390686 0.8914728164672852
0.05426359176635742 0.16977372765541077 0.9069766998291016
0.05426359176635742 0.16770116984844208 0.922480583190918
0.05426359176635742 0.164621502161026 0.9379844665527344
0.05426359176635742 0.17848269641399384 -0.1782945990562439
0.05426359176635742 0.1961868703365326 0.7674418687820435
0.05426359176635742 0.2138572335243225 0.7829457521438599
0.05426359176635742 0.20940929651260376 0.8449612259864807
0.05426359176635742 0.22578367590904236 0.7984496355056763
0.05426359176635742 0.2295418679714203 0.8139535188674927
0.05426359176635742 0.24075444042682648 0.8294574022293091
0.06976747512817383 -0.2717934548854828 0.7674418687820435
0.06976747512817383 -0.2794342041015625 0.7829457521438599
0.06976747512817383 -0.28488689661026 0.7984496355056763
0.06976747512817383 -0.28013986349105835 0.8139535188674927
0.06976747512817383 -0.2725714147090912 0.8294574022293091
0.06976747512817383 -0.2575291693210602 0.751937985420227
0.06976747512817383 -0.2611629068851471 0.8449612855911255
0.06976747512817383 -0.2589200735092163 0.8604651689529419
0.06976747512817383 -0.26109227538108826 0.8759689331054688
0.06976747512817383 -0.2419896125793457 0.3333333730697632
0.06976747512817383 -0.2406703233718872 0.7364341020584106
0.06976747512817383 -0.22545132040977478 0.3178294897079468
0.06976747512817383 -0.2312992364168167 0.3333333730697632
0.06976747512817383 -0.21077997982501984 0.7209302186965942
0.06976747512817383 -0.20146283507347107 0.30232560634613037
0.06976747512817383 -0.20930151641368866 0.3178294897079468
0.06976747512817383 -0.18085001409053802 0.28682172298431396
0.06976747512817383 -0.19238698482513428 0.30232560634613037
0.06976747512817383 -0.19251851737499237 0.8914728164672852
0.06976747512817383 -0.17551358044147491 0.28682172298431396
0.06976747512817383 -0.16764387488365173 0.7054263353347778
0.06976747512817383 -0.14248578250408173 0.9069766998291016
0.06976747512817383 -0.1290750503540039 0.6899224519729614
0.06976747512817383 -0.10205978155136108 0.674418568611145
0.06976747512817383 -0.11370468139648438 0.922480583190918
0.06976747512817383 -0.07017990201711655 0.6589146852493286
0.06976747512817383 -0.025231657549738884 0.17829453945159912
0.06976747512817383 -0.033812325447797775 0.6589146852493286
0.06976747512817383 -0.020126795396208763 0.17829453945159912
0.06976747512817383 0.003831590758636594 -0.25581395626068115
0.06976747512817383 0.03006790392100811 -0.25581395626068115
0.06976747512817383 0.03202758729457855 -0.24031007289886475
0.06976747512817383 0.024815857410430908 0.674418568611145
0.06976747512817383 0.052255779504776 0.9379844665527344
0.06976747512817383 0.0600474588572979 -0.22480618953704834
0.06976747512817383 0.07164522260427475 -0.24031007289886475
0.06976747512817383 0.08325358480215073 -0.20930230617523193
0.06976747512817383 0.08005143702030182 0.6899224519729614
0.06976747512817383 0.10095895081758499 -0.22480618953704834
0.06976747512817383 0.10693198442459106 -0.19379842281341553
0.06976747512817383 0.10849989950656891 0.7054263353347778
0.06976747512817383 0.1220247745513916 -0.20930230617523193
0.06976747512817383 0.14589466154575348 -0.19379842281341553
0.06976747512817383 0.1351093053817749 -0.1782945990562439
0.06976747512817383 0.13192740082740784 0.7209302186965942
0.06976747512817383 0.15993425250053406 -0.1782945990562439
0.06976747512817383 0.15014025568962097 0.7364341020584106
0.06976747512817383 0.16113083064556122 0.8759689331054688
0.06976747512817383 0.15166622400283813 0.9379844665527344
0.06976747512817383 0.1694314032793045 0.751937985420227
0.06976747512817383 0.16936379671096802 0.8604651689529419
0.06976747512817383 0.16465744376182556 0.8914728760719299
0.06976747512817383 0.16552747786045074 0.9069766998291016
0.06976747512817383 0.16494323313236237 0.9224805235862732
0.06976747512817383 0.19402694702148438 0.7674418687820435
0.06976747512817383 0.21176554262638092 0.7829457521438599
0.06976747512817383 0.22507193684577942 0.7984496355056763
0.06976747512817383 0.23316094279289246 0.8139535188674927
0.06976747512817383 0.2506010830402374 0.8294574022293091
0.06976747512817383 0.2444232702255249 0.8449612855911255
0.08527135848999023 -0.276803195476532 0.7829457521438599
0.08527135848999023 -0.28115904331207275 0.7984496355056763
0.08527135848999023 -0.2773394286632538 0.8139535188674927
0.08527135848999023 -0.2716802656650543 0.8294574022293091
0.08527135848999023 -0.26828789710998535 0.7674418687820435
0.08527135848999023 -0.2605608403682709 0.8449612855911255
0.08527135848999023 -0.25610068440437317 0.8604651689529419
0.08527135848999023 -0.25608599185943604 0.8759689331054688
0.08527135848999023 -0.24338531494140625 0.3488372564315796
0.08527135848999023 -0.25571563839912415 0.751937985420227
0.08527135848999023 -0.22716307640075684 0.3333333730697632
0.08527135848999023 -0.23888848721981049 0.3488372564315796
0.08527135848999023 -0.23745641112327576 0.7364341020584106
0.08527135848999023 -0.210157111287117 0.3178294897079468
0.08527135848999023 -0.2242857813835144 0.3333333730697632
0.08527135848999023 -0.20976005494594574 0.7209302186965942
0.08527135848999023 -0.19444307684898376 0.30232560634613037
0.08527135848999023 -0.20894919335842133 0.3178294897079468
0.08527135848999023 -0.1949523687362671 0.8914728164672852
0.08527135848999023 -0.1933620125055313 0.30232560634613037
0.08527135848999023 -0.16560150682926178 0.7054263353347778
0.08527135848999023 -0.14470896124839783 0.9069767594337463
0.08527135848999023 -0.12751753628253937 0.6899224519729614
0.08527135848999023 -0.11237522959709167 0.922480583190918
0.08527135848999023 -0.09929697960615158 0.674418568611145
0.08527135848999023 -0.02563420683145523 0.17829453945159912
0.08527135848999023 -0.008431782945990562 -0.24031007289886475
0.08527135848999023 -0.020289551466703415 0.17829453945159912
0.08527135848999023 0.02601052075624466 -0.22480618953704834
0.08527135103940964 0.02412988245487213 0.674418568611145
0.08527135848999023 0.03994688019156456 -0.24031008780002594
0.08527135848999023 0.051575034856796265 0.9379844665527344
0.08527135848999023 0.06359244138002396 -0.20930230617523193
0.08527135848999023 0.0828198716044426 -0.22480618953704834
0.08527135848999023 0.07483657449483871 0.6899224519729614
0.08527135848999023 0.0941266268491745 -0.19379842281341553
0.08527135848999023 0.09839317202568054 0.9379844665527344
0.08527135848999023 0.10702173411846161 -0.20930230617523193
0.08527135848999023 0.10391712188720703 0.7054263353347778
0.08527135848999023 0.12831078469753265 -0.19379842281341553
0.08527135103940964 0.11649580299854279 -0.1782945990562439
0.08527135848999023 0.1243746429681778 0.7209302186965942
0.08527135848999023 0.12477463483810425 0.9379844665527344
0.08527135848999023 0.13890936970710754 -0.1782945990562439
0.08527135848999023 0.14473170042037964 0.7364341020584106
0.08527135848999023 0.13928720355033875 0.9379844665527344
0.08527135848999023 0.15303374826908112 0.8759689331054688
0.08527135848999023 0.15846708416938782 0.8914728164672852
0.08527135848999023 0.16510668396949768 0.751937985420227
0.08527135848999023 0.17115241289138794 0.8604651689529419
0.08527135848999023 0.16420473158359528 0.9069766998291016
0.08527135848999023 0.16325832903385162 0.9224806427955627
0.08527135848999023 0.18743190169334412 0.7674418687820435
0.08527135848999023 0.20956411957740784 0.7829457521438599
0.08527135848999023 0.22211076319217682 0.7984496355056763
0.08527135848999023 0.23542839288711548 0.8139535188674927
0.08527135848999023 0.2515002489089966 0.8294574022293091
0.08527135848999023 0.24652692675590515 0.8449612855911255
0.10077524185180664 -0.2727735638618469 0.7829457521438599
0.10077524185180664 -0.2758115530014038 0.7984496355056763
0.10077524185180664 -0.27426978945732117 0.8139535188674927
0.10077524185180664 -0.26144132018089294 0.7674418687820435
0.10077524185180664 -0.26860755681991577 0.8294574022293091
0.10077524185180664 -0.259239137172699 0.8449612855911255
0.10077524185180664 -0.24746447801589966 0.751937985420227
0.10077524185180664 -0.2480768859386444 0.8604651689529419
0.10077524185180664 -0.24395155906677246 0.8759689331054688
0.10077524185180664 -0.22957822680473328 0.7364341020584106
0.10077524185180664 -0.20175424218177795 0.7209302186965942
0.10077524185180664 -0.19927456974983215 0.8914728164672852
0.10077524185180664 -0.15906724333763123 0.7054263353347778
0.10077524185180664 -0.14755146205425262 0.9069766998291016
0.10077524185180664 -0.12275151908397675 0.6899224519729614
0.10077524185180664 -0.11559402942657471 0.922480583190918
0.10077524185180664 -0.0922614112496376 0.674418568611145
0.10077524185180664 -0.025229306891560555 0.17829453945159912
0.10077524185180664 -0.009524304419755936 -0.22480618953704834
0.10077524185180664 -0.019786624237895012 0.17829453945159912
0.10077524185180664 0.006536607630550861 0.674418568611145
0.10077524185180664 0.027078159153461456 -0.20930230617523193
0.10077524185180664 0.049272164702415466 -0.22480618953704834
0.10077524185180664 0.04887239634990692 0.9379844665527344
0.10077524185180664 0.06733454763889313 0.6899224519729614
0.10077524185180664 0.07413147389888763 -0.19379842281341553
0.10077524185180664 0.09240573644638062 -0.20930230617523193
0.10077524185180664 0.09984719753265381 -0.1782945990562439
0.10077524185180664 0.09663188457489014 0.7054263353347778
0.10077524930238724 0.10460128635168076 0.9379844665527344
0.10077524185180664 0.11645391583442688 -0.19379842281341553
0.10077524185180664 0.1241883933544159 -0.1782945990562439
0.10077524185180664 0.11911271512508392 0.7209302186965942
0.10077524185180664 0.1371142566204071 0.7364341020584106
0.10077524185180664 0.15798446536064148 0.751937985420227
0.10077524185180664 0.14885243773460388 0.8759689331054688
0.10077523440122604 0.1520836055278778 0.8914728164672852
0.10077524185180664 0.16017191112041473 0.9069766998291016
0.10077524185180664 0.15586373209953308 0.922480583190918
0.10077524185180664 0.17102830111980438 0.8604651689529419
0.10077524185180664 0.18284279108047485 0.7674418687820435
0.10077524185180664 0.20307260751724243 0.7829457521438599
0.10077524185180664 0.21751467883586884 0.7984496355056763
0.10077524185180664 0.23138654232025146 0.8139535188674927
0.10077524185180664 0.24794583022594452 0.8294574022293091
0.10077524185180664 0.24205851554870605 0.8449612259864807
0.11627912521362305 -0.27159827947616577 0.7984496355056763
0.11627912521362305 -0.2727815508842468 0.8139535188674927
0.11627912521362305 -0.2721826434135437 0.8294574022293091
0.11627912521362305 -0.2628701329231262 0.7829457521438599
0.11627912521362305 -0.2611226439476013 0.8449612855911255
0.11627912521362305 -0.25245967507362366 0.7674418687820435
0.11627912521362305 -0.2450864315032959 0.8604651689529419
0.11627912521362305 -0.24084670841693878 0.8759689331054688
0.11627912521362305 -0.23692776262760162 0.751937985420227
0.11627912521362305 -0.21604129672050476 0.7364341020584106
0.11627912521362305 -0.20392128825187683 0.8914728164672852
0.11627912521362305 -0.18727357685565948 0.7209302186965942
0.11627912521362305 -0.14842045307159424 0.7054263353347778
0.11627912521362305 -0.1501920372247696 0.9069766998291016
0.11627912521362305 -0.11936428397893906 0.922480583190918
0.11627912521362305 -0.11455550044775009 0.6899224519729614
0.11627912521362305 -0.07777298986911774 0.674418568611145
0.11627912521362305 -0.05615822598338127 0.9379844665527344
0.11627912521362305 -0.024990785866975784 0.16279065608978271
0.11627912521362305 -0.02561800554394722 0.17829453945159912
0.11627912521362305 -0.026854339987039566 0.674418568611145
0.11627912521362305 -0.010466592386364937 -0.20930230617523193
0.11627912521362305 -0.017920764163136482 0.16279065608978271
0.11627912521362305 -0.013677975162863731 0.17829453945159912
0.11627912521362305 0.036499157547950745 -0.19379842281341553
0.11627912521362305 0.05607156828045845 0.6899224519729614
0.11627912521362305 0.07077576220035553 -0.20930230617523193
0.11627912521362305 0.08013863861560822 -0.1782945990562439
0.11627912521362305 0.08818143606185913 0.7054263353347778
0.11627912521362305 0.10202497243881226 -0.19379842281341553
0.11627912521362305 0.11419262737035751 -0.1782945990562439
0.11627912521362305 0.11198578774929047 0.7209302186965942
0.11627912521362305 0.1116543710231781 0.8914728164672852
0.11627912521362305 0.10797756910324097 0.9069766998291016
0.11627912521362305 0.11060754954814911 0.922480583190918
0.11627912521362305 0.10611428320407867 0.9379844665527344
0.11627912521362305 0.12085620313882828 0.8914728164672852
0.11627912521362305 0.12006020545959473 0.9069766998291016
0.11627912521362305 0.12146948277950287 0.922480583190918
0.11627911776304245 0.13289104402065277 0.7364340424537659
0.11627912521362305 0.13914412260055542 0.8759689331054688
0.11627912521362305 0.151768296957016 0.751937985420227
0.11627912521362305 0.14918486773967743 0.8914728164672852
0.11627912521362305 0.15286056697368622 0.9069766998291016
0.11627912521362305 0.15065670013427734 0.922480583190918
0.11627912521362305 0.1683734655380249 0.8604651689529419
0.11627912521362305 0.17882002890110016 0.7674419283866882
0.11627913266420364 0.19858373701572418 0.7829458117485046
0.11627911776304245 0.21342246234416962 0.7984496355056763
0.11627911776304245 0.2276192009449005 0.8139535188674927
0.11627912521362305 0.22802823781967163 0.8449612855911255
0.11627912521362305 0.24489553272724152 0.8294574022293091
0.1317828893661499 -0.2895534634590149 0.8294574022293091
0.1317828893661499 -0.2881074547767639 0.8449612855911255
0.1317828893661499 -0.2758655846118927 0.8139535188674927
0.1317828893661499 -0.2651818096637726 0.7984496355056763
0.1317828893661499 -0.2541334629058838 0.7829457521438599
0.1317828893661499 -0.2472289800643921 0.8604651689529419
0.1317828893661499 -0.23938266932964325 0.7674418687820435
0.1317828893661499 -0.2285788506269455 0.8759689331054688
0.1317828893661499 -0.2192004770040512 0.751937985420227
0.1317828893661499 -0.19495072960853577 0.7364341020584106
0.1317828893661499 -0.20792758464813232 0.8914728164672852
0.1317828893661499 -0.16598188877105713 0.7209302186965942
0.1317828893661499 -0.151100754737854 0.9069766998291016
0.1317828893661499 -0.13433122634887695 0.7054263353347778
0.1317828893661499 -0.12416358292102814 0.922480583190918
0.1317828893661499 -0.1019643172621727 0.6899224519729614
0.1317828893661499 -0.07396432757377625 0.9379844665527344
0.1317828893661499 -0.02416754700243473 0.1472867727279663
0.1317828893661499 -0.024287963286042213 0.16279065608978271
0.1317828893661499 -0.009416911751031876 -0.19379842281341553
0.1317828893661499 -0.009684341959655285 0.1472867727279663
0.1317828893661499 -0.0175408236682415 0.16279065608978271
0.1317828893661499 0.0017341012135148048 -0.20930230617523193
0.1317828893661499 -0.0003723509144037962 0.9534883499145508
0.1317828893661499 0.01259995810687542 -0.20930230617523193
0.1317828893661499 0.012895455583930016 -0.08527129888534546
0.1317828893661499 0.036858316510915756 0.6899224519729614
