-0.10077518224716187 -0.15427827835083008 0.7054263353347778
-0.10077518224716187 -0.14899319410324097 0.8914728164672852
-0.10077518224716187 -0.12557050585746765 0.6899224519729614
-0.10077518224716187 -0.11998158693313599 0.9069766998291016
-0.10077518224716187 -0.10058131814002991 0.674418568611145
-0.10077518224716187 -0.06708736717700958 0.9069766998291016
-0.10077518224716187 -0.04544169455766678 0.6589146852493286
-0.10077518224716187 -0.034137919545173645 0.8914728164672852
-0.10077518224716187 -0.021247684955596924 0.6589147448539734
-0.10077518224716187 0.00338746584020555 0.8914728164672852
-0.10077518224716187 0.02117306925356388 0.674418568611145
-0.10077518224716187 0.0506146103143692 0.1472867727279663
-0.10077518224716187 0.05887105315923691 0.16279065608978271
-0.10077518224716187 0.07272513210773468 0.1472867727279663
-0.10077517479658127 0.07375364005565643 0.6899224519729614
-0.10077518224716187 0.10920646786689758 0.7054263353347778
-0.10077518224716187 0.1185116320848465 0.8914727568626404
-0.10077518224716187 0.14555872976779938 0.16279065608978271
-0.10077518224716187 0.13504409790039062 0.7209302186965942
-0.10077518224716187 0.13593459129333496 0.8759689331054688
-0.10077518224716187 0.14898382127285004 0.17829453945159912
-0.10077518224716187 0.15832626819610596 0.7364341020584106
-0.10077518224716187 0.15774640440940857 0.8449612855911255
-0.10077518224716187 0.14896604418754578 0.8604651689529419
-0.10077518224716187 0.1719093918800354 0.751937985420227
-0.10077518224716187 0.1815740317106247 0.7674418687820435
-0.10077518224716187 0.18757066130638123 0.7829457521438599
-0.10077518224716187 0.19513294100761414 0.798449695110321
-0.10077518224716187 0.19638261198997498 0.8139535188674927
-0.10077518224716187 0.1969209611415863 0.8294574022293091
-0.10077517479658127 0.22824527323246002 0.17829453945159912
-0.10077518224716187 0.2516173720359802 0.19379842281341553
-0.10077518224716187 0.30180051922798157 0.19379842281341553
-0.10077518224716187 0.29986515641212463 0.20930230617523193
-0.10077518224716187 0.314207524061203 0.20930230617523193
-0.08527129888534546 -0.25829675793647766 0.751937985420227
-0.08527129888534546 -0.2694833278656006 0.7674419283866882
-0.08527129888534546 -0.26788130402565 0.7829457521438599
-0.08527129888534546 -0.2389431893825531 0.7364341020584106
-0.08527129888534546 -0.23947134613990784 0.7984496355056763
-0.08527129888534546 -0.1961374282836914 0.7209302186965942
-0.08527129888534546 -0.1996670514345169 0.8139535188674927
-0.08527129888534546 -0.19553779065608978 0.8294574022293091
-0.08527129888534546 -0.19507677853107452 0.8449612855911255
-0.08527129888534546 -0.1864553987979889 0.8604651689529419
-0.08527129888534546 -0.17833450436592102 0.8759689331054688
-0.08527129888534546 -0.16664433479309082 0.7054263353347778
-0.08527129888534546 -0.1616707295179367 0.8914728164672852
-0.08527129888534546 -0.14051954448223114 0.6899224519729614
-0.08527129888534546 -0.13553231954574585 0.9069766998291016
-0.08527129888534546 -0.11582765728235245 0.674418568611145
-0.08527129888534546 -0.08632271736860275 0.6589146852493286
-0.08527129888534546 -0.06796633452177048 0.9069766402244568
-0.08527129888534546 0.008095147088170052 0.6589146852493286
-0.08527129888534546 0.034081608057022095 0.1317828893661499
-0.08527129888534546 0.036978013813495636 0.1472867727279663
-0.08527129888534546 0.05288468673825264 0.16279065608978271
-0.08527129888534546 0.04506884142756462 0.674418568611145
-0.08527129888534546 0.06256397068500519 0.1317828893661499
-0.08527129888534546 0.08762724697589874 0.6899224519729614
-0.08527129888534546 0.10422792285680771 0.1472867727279663
-0.08527129888534546 0.12372927367687225 0.7054263353347778
-0.08527129888534546 0.12261747568845749 0.8914728164672852
-0.08527129888534546 0.143326535820961 0.8759689331054688
-0.08527129888534546 0.15120014548301697 0.7209302186965942
-0.08527129888534546 0.15100394189357758 0.8604651689529419
-0.08527130633592606 0.16658680140972137 0.16279065608978271
-0.08527129888534546 0.16810962557792664 0.17829453945159912
-0.08527129888534546 0.1685938835144043 0.7364341020584106
-0.08527129888534546 0.1721414029598236 0.8449612855911255
-0.08527129888534546 0.18049465119838715 0.751937985420227
-0.08527129888534546 0.18549099564552307 0.7674418687820435
-0.08527129888534546 0.19430679082870483 0.7829457521438599
-0.08527129888534546 0.19682122766971588 0.7984496355056763
-0.08527129888534546 0.19893188774585724 0.8139535188674927
-0.08527129888534546 0.19835218787193298 0.8449612855911255
-0.08527129888534546 0.2096007913351059 0.8294574022293091
-0.08527129888534546 0.2136923372745514 0.8449612259864807
-0.08527129888534546 0.2546890676021576 0.17829453945159912
-0.08527129888534546 0.2631729245185852 0.19379842281341553
-0.08527129888534546 0.30317091941833496 0.19379842281341553
-0.06976741552352905 -0.2753715515136719 0.7674418687820435
-0.06976741552352905 -0.2725910246372223 0.7829457521438599
-0.06976741552352905 -0.2666812539100647 0.751937985420227
-0.06976741552352905 -0.2478230595588684 0.7364341020584106
-0.06976741552352905 -0.2303605079650879 0.7984496355056763
-0.06976741552352905 -0.21455982327461243 0.7209302186965942
-0.06976741552352905 -0.20177684724330902 0.8139535188674927
-0.06976741552352905 -0.19693191349506378 0.8294574022293091
-0.06976741552352905 -0.19614753127098083 0.8449612855911255
-0.06976741552352905 -0.19425442814826965 0.8604651689529419
-0.06976741552352905 -0.18208397924900055 0.7054263353347778
-0.06976741552352905 -0.18216466903686523 0.8759689331054688
-0.06976741552352905 -0.16649281978607178 0.8914728164672852
-0.06976741552352905 -0.15883629024028778 0.6899224519729614
-0.06976741552352905 -0.14794526994228363 0.9069766998291016
-0.06976741552352905 -0.13563522696495056 0.674418568611145
-0.06976741552352905 -0.1246015876531601 0.9069766998291016
-0.06976741552352905 -0.10896939039230347 0.6589146852493286
-0.06976741552352905 -0.06660360097885132 0.6434108018875122
-0.06976741552352905 -0.038775842636823654 -0.06976741552352905
-0.06976741552352905 -0.03890029340982437 -0.05426359176635742
-0.06976741552352905 -0.03903070464730263 -0.038759708404541016
-0.06976741552352905 -0.03906302526593208 -0.02325582504272461
-0.06976741552352905 -0.03908902034163475 -0.007751941680908203
-0.06976741552352905 -0.039141591638326645 0.007751941680908203
-0.06976741552352905 -0.03918338939547539 0.02325582504272461
-0.06976741552352905 -0.039305973798036575 0.038759708404541016
-0.06976741552352905 -0.03949066251516342 0.05426359176635742
-0.06976741552352905 -0.039603497833013535 0.06976747512817383
-0.06976741552352905 -0.03953231871128082 0.08527135848999023
-0.06976741552352905 -0.03934147208929062 0.10077524185180664
-0.06976741552352905 -0.03903714939951897 0.11627912521362305
-0.06976741552352905 -0.02427496202290058 -0.20930230617523193
-0.06976741552352905 -0.02789165824651718 -0.19379842281341553
-0.06976741552352905 -0.031882621347904205 -0.1782945990562439
-0.06976741552352905 -0.03676167502999306 -0.1627907156944275
-0.06976741552352905 -0.03768881410360336 -0.14728683233261108
-0.06976742297410965 -0.038044825196266174 -0.13178294897079468
-0.06976741552352905 -0.03821273148059845 -0.11627906560897827
-0.06976741552352905 -0.03823057934641838 -0.10077518224716187
-0.06976741552352905 -0.03840124234557152 -0.08527129888534546
-0.06976741552352905 -0.035124123096466064 0.1317828893661499
-0.06976740807294846 -0.02289985492825508 -0.20930230617523193
-0.06976741552352905 -0.02184930443763733 -0.19379842281341553
-0.06976741552352905 -0.021277282387018204 -0.1782945990562439
-0.06976741552352905 -0.02084483578801155 -0.1627907156944275
-0.06976741552352905 -0.020268240943551064 -0.14728683233261108
-0.06976741552352905 -0.019770141690969467 -0.13178294897079468
-0.06976741552352905 -0.019341353327035904 -0.11627906560897827
-0.06976741552352905 -0.018802477046847343 -0.10077518224716187
-0.06976741552352905 -0.018063165247440338 -0.08527129888534546
-0.06976741552352905 -0.01713002286851406 -0.06976741552352905
-0.06976741552352905 -0.017216917127370834 -0.05426359176635742
-0.06976741552352905 -0.01840948686003685 -0.038759708404541016
-0.06976741552352905 -0.02004747837781906 -0.02325582504272461
-0.06976741552352905 -0.02100241743028164 -0.00775194214656949
-0.06976741552352905 -0.021396851167082787 0.007751941680908203
-0.06976741552352905 -0.02124336175620556 0.02325582504272461
-0.06976741552352905 -0.020685536786913872 0.038759708404541016
-0.06976741552352905 -0.019767649471759796 0.05426359176635742
-0.06976741552352905 -0.018680540844798088 0.06976747512817383
-0.06976741552352905 -0.017800865694880486 0.08527135848999023
-0.06976741552352905 -0.017173878848552704 0.10077524185180664
-0.06976741552352905 -0.017208265140652657 0.11627912521362305
-0.06976741552352905 -0.02135620266199112 0.1317828893661499
-0.06976741552352905 -0.012828524224460125 0.8914728164672852
-0.06976741552352905 -0.005041126161813736 0.6434108018875122
-0.06976741552352905 -0.0015227107796818018 0.8914728164672852
-0.06976741552352905 0.021312706172466278 0.11627912521362305
-0.06976741552352905 0.0223590899258852 0.1317828893661499
-0.06976741552352905 0.03616535663604736 0.1472867727279663
-0.06976741552352905 0.02900462970137596 0.6589146852493286
-0.06976741552352905 0.02994540147483349 0.9069766998291016
-0.06976741552352905 0.05351381003856659 0.9069766998291016
-0.06976741552352905 0.06482438743114471 0.11627912521362305
-0.06976741552352905 0.061768919229507446 0.674418568611145
-0.06976741552352905 0.09126859903335571 0.1317828893661499
-0.06976741552352905 0.10919882357120514 0.16279065608978271
-0.06976741552352905 0.1041339859366417 0.6899224519729614
-0.06976741552352905 0.13748721778392792 0.1472867727279663
-0.06976741552352905 0.14123520255088806 0.7054263353347778
-0.06976741552352905 0.13354499638080597 0.8914728164672852
-0.06976741552352905 0.16072694957256317 0.8604651689529419
-0.06976741552352905 0.14988766610622406 0.8759689331054688
-0.06976741552352905 0.16468235850334167 0.7209302186965942
-0.06976741552352905 0.177627831697464 0.7364341020584106
-0.06976741552352905 0.1838194876909256 0.751937985420227
-0.06976741552352905 0.19133687019348145 0.7674418687820435
-0.06976741552352905 0.19432087242603302 0.16279065608978271
-0.06976741552352905 0.2060573548078537 0.17829453945159912
-0.06976741552352905 0.19619563221931458 0.7829457521438599
-0.06976741552352905 0.19921600818634033 0.7984496355056763
-0.06976741552352905 0.20441517233848572 0.8139535188674927
-0.06976741552352905 0.2111658900976181 0.8294573426246643
-0.06976741552352905 0.22585798799991608 0.8449612855911255
-0.06976741552352905 0.26574376225471497 0.17829453945159912
-0.06976741552352905 0.27967900037765503 0.19379842281341553
-0.06976741552352905 0.28969359397888184 0.19379842281341553
-0.05426359176635742 -0.2756444215774536 0.751937985420227
-0.05426359176635742 -0.27992743253707886 0.7674418687820435
-0.05426359176635742 -0.2733994126319885 0.7829457521438599
-0.05426359176635742 -0.25900423526763916 0.7364341020584106
-0.05426359176635742 -0.23238351941108704 0.7209302186965942
-0.05426358804106712 -0.22238878905773163 0.7984496355056763
-0.05426359176635742 -0.20269165933132172 0.7054263353347778
-0.05426359176635742 -0.20088812708854675 0.8139535188674927
-0.05426359176635742 -0.19642294943332672 0.8294574022293091
-0.05426359176635742 -0.1954597532749176 0.8449612855911255
-0.05426359176635742 -0.19565552473068237 0.8604651689529419
-0.05426359176635742 -0.19544851779937744 0.8759689331054688
-0.05426359176635742 -0.18099936842918396 0.8914728164672852
-0.05426359549164772 -0.17690423130989075 0.6899224519729614
-0.05426359176635742 -0.15638311207294464 0.674418568611145
-0.05426359176635742 -0.13479594886302948 0.6589146852493286
-0.05426358804106712 -0.11441681534051895 0.6434107422828674
-0.05426359176635742 -0.038767412304878235 -0.751937985420227
-0.05426359176635742 -0.039030659943819046 -0.7364341020584106
-0.05426359176635742 -0.039279755204916 -0.7209302186965942
-0.05426359176635742 -0.03960450366139412 -0.7054263353347778
-0.05426359176635742 -0.03996078297495842 -0.6899224519729614
-0.05426359176635742 -0.04026028513908386 -0.674418568611145
-0.05426359176635742 -0.040535420179367065 -0.6589146852493286
-0.05426359176635742 -0.04070506617426872 -0.643410861492157
-0.05426359176635742 -0.04093184322118759 -0.6279069781303406
-0.05426359176635742 -0.04099290072917938 -0.6124030947685242
-0.05426359176635742 -0.04109350964426994 -0.5968992710113525
-0.05426359176635742 -0.04112796485424042 -0.5813953876495361
-0.05426359176635742 -0.04103503376245499 -0.5658915042877197
-0.05426359176635742 -0.04087723791599274 -0.5503876209259033
-0.05426359176635742 -0.04066711291670799 -0.5348837375640869
-0.05426359176635742 -0.04053575545549393 -0.5193798542022705
-0.05426359176635742 -0.04030904173851013 -0.5038759708404541
-0.05426359176635742 -0.04015157371759415 -0.4883720874786377
-0.05426359176635742 -0.03997288644313812 -0.4728682041168213
-0.05426359176635742 -0.03978000208735466 -0.4573643207550049
-0.05426359176635742 -0.03958750143647194 -0.4418604373931885
-0.05426359176635742 -0.0393800213932991 -0.42635661363601685
-0.05426359176635742 -0.039289284497499466 -0.41085273027420044
-0.05426359176635742 -0.03937488794326782 -0.39534884691238403
-0.05426359176635742 -0.03916608542203903 -0.3798449635505676
-0.05426359176635742 -0.038801971822977066 0.06976747512817383
-0.05426359176635742 -0.03891674056649208 0.08527135848999023
-0.05426359176635742 -0.039125557988882065 0.10077524185180664
-0.05426359176635742 -0.03947000578045845 0.11627912521362305
-0.05426359176635742 -0.03998446464538574 0.1317828893661499
-0.05426359176635742 -0.040661148726940155 0.1472867727279663
-0.05426359176635742 -0.04163798689842224 0.16279065608978271
-0.05426359176635742 -0.04243326932191849 0.17829453945159912
-0.05426359176635742 -0.04272947460412979 0.19379842281341553
-0.05426359176635742 -0.04115355759859085 0.20930230617523193
-0.05426359176635742 -0.04897131025791168 0.6279069185256958
-0.05426359176635742 -0.02995644323527813 -0.9844961166381836
-0.05426359176635742 -0.02602139487862587 -0.9689922332763672
-0.05426359176635742 -0.02630920708179474 -0.9534883499145508
-0.05426359176635742 -0.026708871126174927 -0.9379844665527344
-0.05426359176635742 -0.0271321851760149 -0.922480583190918
-0.05426359176635742 -0.028477802872657776 -0.9069767594337463
-0.05426359176635742 -0.029899876564741135 -0.8914728760719299
-0.05426359176635742 -0.03147461265325546 -0.8759689927101135
-0.05426359176635742 -0.032921742647886276 -0.8604651093482971
-0.05426359176635742 -0.03481844440102577 -0.8449612259864807
-0.05426359176635742 -0.035884108394384384 -0.8294573426246643
-0.05426359176635742 -0.03611379116773605 -0.8139535188674927
-0.05426359176635742 -0.03620342165231705 -0.7984496355056763
-0.05426359176635742 -0.0360683873295784 -0.7829457521438599
-0.05426358804106712 -0.036978207528591156 -0.7674418687820435
-0.05426359176635742 -0.023262349888682365 -0.4418604373931885
-0.05426359176635742 -0.02945603057742119 -0.42635661363601685
-0.05426359176635742 -0.03133222833275795 -0.41085273027420044
-0.05426359176635742 -0.031963225454092026 -0.39534884691238403
-0.05426359176635742 -0.03598443418741226 -0.3798449635505676
-0.05426359176635742 -0.03246331587433815 -0.27131783962249756
-0.05426359176635742 -0.03048495389521122 -0.25581395626068115
-0.05426359176635742 -0.02936195209622383 -0.24031007289886475
-0.05426359176635742 -0.028529807925224304 -0.22480618953704834
-0.05426359176635742 -0.02824689820408821 -0.20930230617523193
-0.05426359176635742 -0.029247034341096878 -0.19379842281341553
-0.05426359176635742 -0.028770338743925095 -0.1782945990562439
-0.05426359176635742 -0.026863722130656242 -0.1627907156944275
-0.05426359176635742 -0.02549145743250847 -0.14728683233261108
-0.05426359176635742 -0.02700100839138031 -0.13178294897079468
-0.05426359176635742 -0.028067801147699356 -0.11627906560897827
-0.05426359176635742 -0.028391215950250626 -0.10077518224716187
-0.05426359176635742 -0.029404345899820328 -0.08527129888534546
-0.05426359176635742 -0.030154341831803322 -0.06976741552352905
-0.05426359176635742 -0.030525820329785347 -0.05426359176635742
-0.05426359176635742 -0.03022313490509987 -0.038759708404541016
-0.05426359176635742 -0.028099622577428818 -0.02325582504272461
-0.05426359176635742 -0.024707941338419914 -0.007751941680908203
-0.05426359176635742 -0.02562926709651947 0.007751941680908203
-0.05426359176635742 -0.030530963093042374 0.02325582504272461
-0.05426359176635742 -0.03455353155732155 0.038759708404541016
-0.05426359176635742 -0.03748206049203873 0.05426359176635742
-0.05426359176635742 -0.03057676926255226 0.20930230617523193
-0.05426359176635742 -0.0335673950612545 0.8914728164672852
-0.05426359176635742 -0.017013169825077057 -0.9844961166381836
-0.05426358804106712 -0.021222412586212158 -0.9689922332763672
-0.05426359176635742 -0.021220514550805092 -0.9534883499145508
-0.05426359176635742 -0.0211972426623106 -0.9379844665527344
-0.05426358804106712 -0.021253840997815132 -0.922480583190918
-0.05426359176635742 -0.020989365875720978 -0.9069767594337463
-0.05426359176635742 -0.020678574219346046 -0.8914728164672852
-0.05426359176635742 -0.02037821337580681 -0.8759689927101135
-0.05426359176635742 -0.02029281109571457 -0.8604651689529419
-0.05426359176635742 -0.020185435190796852 -0.8449612855911255
-0.05426359176635742 -0.02034452185034752 -0.8294573426246643
-0.05426359176635742 -0.020561156794428825 -0.8139535188674927
-0.05426359176635742 -0.02105128765106201 -0.7984495759010315
-0.05426358804106712 -0.02162083238363266 -0.7829456925392151
-0.05426359176635742 -0.022159941494464874 -0.7674418687820435
-0.05426359176635742 -0.022564535960555077 -0.751937985420227
-0.05426359176635742 -0.022721370682120323 -0.7364341020584106
-0.05426359176635742 -0.022655902430415154 -0.7209302186965942
-0.05426359549164772 -0.02224845625460148 -0.7054263353347778
-0.05426359176635742 -0.02150566130876541 -0.6899224519729614
-0.05426358804106712 -0.020368926227092743 -0.674418568611145
-0.05426359176635742 -0.019381197169423103 -0.6589146852493286
-0.05426359176635742 -0.01898481324315071 -0.643410861492157
-0.05426359176635742 -0.01902385987341404 -0.6279069781303406
-0.05426359176635742 -0.01935221068561077 -0.6124030947685242
-0.05426358804106712 -0.019871752709150314 -0.5968992114067078
-0.05426359176635742 -0.020433811470866203 -0.5813953876495361
-0.05426359176635742 -0.021247029304504395 -0.5658915042877197
-0.05426359176635742 -0.021959172561764717 -0.5503876209259033
-0.05426359176635742 -0.022425856441259384 -0.5348837375640869
-0.05426359176635742 -0.022706041112542152 -0.5193798542022705
-0.05426359549164772 -0.022888243198394775 -0.5038759708404541
-0.05426359176635742 -0.02296762727200985 -0.4883720874786377
-0.05426359176635742 -0.022983646020293236 -0.4728682041168213
-0.05426359176635742 -0.023078840225934982 -0.4573643207550049
-0.05426359176635742 -0.022140903398394585 -0.27131783962249756
-0.05426359176635742 -0.02115287445485592 -0.25581395626068115
-0.05426359176635742 -0.021056821569800377 -0.24031007289886475
-0.05426359176635742 -0.021547233685851097 -0.22480618953704834
-0.05426359176635742 -0.021959912031888962 -0.20930230617523193
-0.05426359176635742 -0.022159764543175697 -0.19379840791225433
-0.05426359549164772 -0.022626968100667 -0.1782946139574051
-0.05426358804106712 -0.02298199199140072 -0.1627907156944275
-0.05426359176635742 -0.023129524663090706 -0.14728683233261108
-0.05426359176635742 -0.02300412580370903 -0.13178296387195587
-0.05426359176635742 -0.022860964760184288 -0.11627906560897827
-0.05426359176635742 -0.022760847583413124 -0.10077518224716187
-0.05426359176635742 -0.022451596334576607 -0.08527129888534546
-0.05426359176635742 -0.022039329633116722 -0.06976742297410965
-0.05426358804106712 -0.021805046126246452 -0.05426358804106712
-0.05426359176635742 -0.02203967235982418 -0.038759708404541016
-0.05426359176635742 -0.022675147280097008 -0.02325582504272461
-0.05426358804106712 -0.023137910291552544 -0.007751941215246916
-0.05426359176635742 -0.023078180849552155 0.007751941680908203
-0.05426359176635742 -0.02251255139708519 0.02325582690536976
-0.05426359176635742 -0.021620741114020348 0.038759708404541016
-0.05426359176635742 -0.020618170499801636 0.05426359176635742
-0.05426359176635742 -0.019608162343502045 0.06976747512817383
-0.05426359176635742 -0.018888426944613457 0.08527135848999023
-0.05426359176635742 -0.01853482611477375 0.10077524185180664
-0.05426359176635742 -0.018024960532784462 0.11627912521362305
-0.05426359176635742 -0.019565535709261894 0.1317828893661499
-0.05426358804106712 -0.021074172109365463 0.1472867727279663
-0.05426359176635742 -0.021984228864312172 0.16279065608978271
-0.05426358804106712 -0.022655392065644264 0.17829452455043793
-0.05426359549164772 -0.023211615160107613 0.19379842281341553
-0.05426359176635742 -0.007555801421403885 0.6279069185256958
-0.05426359176635742 0.022413061931729317 0.10077524185180664
-0.05426359176635742 0.021521126851439476 0.11627912521362305
-0.05426359176635742 0.013274198397994041 0.6434108018875122
-0.05426359176635742 0.013164539821445942 0.8914728164672852
-0.05426359176635742 0.03804641216993332 0.08527135848999023
-0.05426359176635742 0.030338607728481293 0.1317828893661499
-0.05426359176635742 0.028819315135478973 0.9069766998291016
-0.05426359176635742 0.05219992995262146 0.1472867727279663
-0.05426359176635742 0.04405751824378967 0.6589146852493286
-0.05426359176635742 0.056322187185287476 0.08527135848999023
-0.05426359176635742 0.06631316989660263 0.9069766998291016
-0.05426359176635742 0.0781586617231369 0.10077524185180664
-0.05426359176635742 0.0843997597694397 0.1472867727279663
-0.05426359176635742 0.07728040218353271 0.674418568611145
-0.05426359176635742 0.08941622078418732 0.11627912521362305
-0.05426359176635742 0.09501847624778748 0.1317828893661499
-0.05426359176635742 0.1136653795838356 0.1472867727279663
-0.05426359176635742 0.12072205543518066 0.6899224519729614
-0.05426359176635742 0.14581871032714844 0.16279065608978271
-0.05426359176635742 0.14375436305999756 0.8914728164672852
-0.05426359176635742 0.15507785975933075 0.7054263353347778
-0.05426359176635742 0.16819137334823608 0.1472867727279663
-0.05426359176635742 0.171707421541214 0.7209302186965942
-0.05426359176635742 0.1666366010904312 0.8604651689529419
-0.05426359176635742 0.16287676990032196 0.8759689331054688
-0.05426359176635742 0.18215632438659668 0.7364341616630554
-0.05426359176635742 0.18797990679740906 0.751937985420227
-0.05426358804106712 0.19528131186962128 0.7674418091773987
-0.05426359176635742 0.19817718863487244 0.7829457521438599
-0.05426359176635742 0.20234116911888123 0.7984496355056763
-0.05426359176635742 0.21524469554424286 0.16279065608978271
-0.05426359176635742 0.20940206944942474 0.8139535188674927
-0.05426359176635742 0.21101230382919312 0.8294574022293091
-0.05426359176635742 0.22706620395183563 0.8449612855911255
-0.05426359176635742 0.24685737490653992 0.17829453945159912
-0.05426359176635742 0.2563055455684662 0.17829453945159912
-0.038759708404541016 -0.28110411763191223 0.751937985420227
-0.038759708404541016 -0.2833942174911499 0.7674418687820435
-0.038759708404541016 -0.2714521288871765 0.7829457521438599
-0.038759708404541016 -0.26832860708236694 0.7364341020584106
-0.038759708404541016 -0.24763281643390656 0.7209302186965942
-0.038759708404541016 -0.22463485598564148 0.7054263949394226
-0.038759708404541016 -0.21573150157928467 0.7984496355056763
-0.038759708404541016 -0.19666433334350586 0.6899224519729614
-0.038759708404541016 -0.19744721055030823 0.8139535188674927
-0.038759708404541016 -0.19587790966033936 0.8604651689529419
-0.038759708404541016 -0.19742178916931152 0.8759689331054688
-0.038759708404541016 -0.19373954832553864 0.8294574022293091
-0.038759708404541016 -0.19283854961395264 0.8449612855911255
-0.038759708404541016 -0.19038575887680054 0.8914728760719299
-0.038759708404541016 -0.17435884475708008 0.674418568611145
-0.038759708404541016 -0.1561155617237091 0.6589146852493286
-0.038759708404541016 -0.13944941759109497 0.6434108018875122
-0.038759708404541016 -0.12750005722045898 0.6279069185256958
-0.038759708404541016 -0.10480745881795883 0.612403154373169
-0.038759708404541016 -0.09581629186868668 0.612403154373169
-0.038759708404541016 -0.08322849869728088 0.8914728164672852
-0.038759708404541016 -0.03891489654779434 -0.6124030947685242
-0.038759708404541016 -0.03887322172522545 -0.5968992114067078
-0.038759708404541016 -0.03897509351372719 0.22480618953704834
-0.038759708404541016 -0.039906468242406845 0.24031007289886475
-0.038759708404541016 -0.039704468101263046 0.25581395626068115
-0.038759708404541016 -0.039093177765607834 0.27131783962249756
-0.038759708404541016 -0.041671983897686005 0.612403154373169
-0.038759708404541016 -0.04744211584329605 0.8914728164672852
-0.038759708404541016 -0.03525378555059433 -0.6124030947685242
-0.038759708404541016 -0.03718497231602669 -0.5968992114067078
-0.038759708404541016 -0.03855856880545616 0.22480620443820953
-0.038759708404541016 -0.03721239045262337 0.24031007289886475
-0.038759708404541016 -0.0364467091858387 0.25581395626068115
-0.038759708404541016 -0.037197522819042206 0.27131783962249756
-0.038759708404541016 -0.013147789984941483 0.612403154373169
-0.038759708404541016 -0.01685466803610325 0.8914728164672852
-0.038759708404541016 0.006383876316249371 0.6279069185256958
-0.038759708404541016 0.023181315511465073 0.6434108018875122
-0.038759708404541016 0.014312811195850372 0.8914728164672852
-0.038759708404541016 0.03615810349583626 0.10077524185180664
-0.038759708404541016 0.03874038904905319 0.11627912521362305
-0.038759708404541016 0.03151299059391022 0.9069766998291016
-0.038759708404541016 0.04378095269203186 0.08527135848999023
-0.038759708404541016 0.05062561854720116 0.6589146852493286
-0.038759708404541016 0.06830032169818878 0.9069766998291016
-0.038759708404541016 0.08476145565509796 0.674418568611145
-0.038759708404541016 0.09834729135036469 0.08527135848999023
-0.03875970467925072 0.11792626231908798 0.10077523440122604
-0.038759708404541016 0.1298528015613556 0.11627912521362305
-0.038759708404541016 0.12694287300109863 0.6899224519729614
-0.038759708404541016 0.1591838151216507 0.7054263353347778
-0.038759708404541016 0.1494402140378952 0.8914728164672852
-0.038759708404541016 0.1758670210838318 0.1472867727279663
-0.038759708404541016 0.17519769072532654 0.7209302186965942
-0.038759708404541016 0.1684393733739853 0.8604651689529419
-0.038759708404541016 0.16531269252300262 0.8759689331054688
-0.038759708404541016 0.1792251616716385 0.1472867727279663
-0.038759708404541016 0.18416212499141693 0.7364341020584106
-0.038759708404541016 0.19227638840675354 0.751937985420227
-0.038759708404541016 0.19684556126594543 0.7674418687820435
-0.038759708404541016 0.19964514672756195 0.7829457521438599
-0.038759708404541016 0.2055801898241043 0.7984496355056763
-0.038759708404541016 0.20976704359054565 0.8139535188674927
-0.038759708404541016 0.21039701998233795 0.8294574022293091
-0.038759708404541016 0.22694048285484314 0.8449612855911255
-0.02325582504272461 -0.2716740667819977 0.7364341020584106
-0.02325582504272461 -0.27908194065093994 0.751937985420227
-0.02325582504272461 -0.2769622802734375 0.7674418687820435
-0.02325582504272461 -0.25777339935302734 0.7209302186965942
-0.02325582504272461 -0.24039702117443085 0.7054263353347778
-0.02325582504272461 -0.2540714740753174 0.7829457521438599
-0.02325582504272461 -0.21477572619915009 0.6899224519729614
-0.02325582504272461 -0.213731050491333 0.7984496355056763
-0.02325582504272461 -0.19525355100631714 0.8139535188674927
-0.02325582504272461 -0.19565343856811523 0.8759689331054688
-0.02325582504272461 -0.19078613817691803 0.674418568611145
-0.02325582504272461 -0.18678894639015198 0.8294574022293091
-0.02325582504272461 -0.18507248163223267 0.8449612855911255
-0.02325582690536976 -0.19159048795700073 0.8604651689529419
-0.02325582504272461 -0.18730783462524414 0.8914728164672852
-0.02325582504272461 -0.17210620641708374 0.6589146852493286
-0.02325582504272461 -0.15448522567749023 0.6434108018875122
-0.02325582504272461 -0.1550689935684204 0.9069766998291016
-0.02325582504272461 -0.13185369968414307 0.612403154373169
-0.02325582504272461 -0.14281406998634338 0.6279069185256958
-0.02325582504272461 -0.12032847106456757 0.9069766998291016
-0.02325582504272461 -0.08171048015356064 0.8914728164672852
-0.02325582504272461 -0.010207929648458958 0.612403154373169
-0.02325582504272461 0.007070096209645271 0.6279069185256958
-0.02325582504272461 0.021058913320302963 0.6434108018875122
-0.02325582504272461 0.017490854486823082 0.8914728164672852
-0.02325582504272461 0.03278273344039917 0.9069766998291016
-0.02325582504272461 0.04980725049972534 -0.28682172298431396
-0.02325582504272461 0.045838020741939545 0.6589146852493286
-0.02325582504272461 0.05665283650159836 -0.28682172298431396
-0.02325582504272461 0.05954728275537491 -0.27131783962249756
-0.02325582504272461 0.06811365485191345 0.08527135848999023
-0.02325582504272461 0.06554904580116272 0.10077524185180664
-0.02325582504272461 0.07935010641813278 0.674418568611145
-0.02325582504272461 0.08576828241348267 -0.27131783962249756
-0.02325582504272461 0.0970458909869194 0.9069766998291016
-0.02325582504272461 0.103115014731884 0.11627912521362305
-0.02325582504272461 0.10157949477434158 0.9069766998291016
-0.02325582318007946 0.12027814984321594 0.08527135848999023
-0.02325582504272461 0.11834653466939926 0.6899224519729614
-0.02325582504272461 0.1351492553949356 0.10077524185180664
-0.02325582504272461 0.13510474562644958 0.9069766998291016
-0.02325582504272461 0.14840537309646606 0.11627912521362305
-0.02325582504272461 0.15510091185569763 0.7054263353347778
-0.02325582504272461 0.1501087099313736 0.8914728164672852
-0.02325582504272461 0.17344307899475098 0.7209302186965942
-0.02325582504272461 0.16959112882614136 0.8604651689529419
-0.02325582504272461 0.16549524664878845 0.8759689331054688
-0.02325582504272461 0.18387116491794586 0.7364341020584106
-0.02325582504272461 0.1929033398628235 0.751937985420227
-0.02325582504272461 0.1971290111541748 0.7674418687820435
-0.02325582504272461 0.20009353756904602 0.7829457521438599
-0.02325582504272461 0.2064179629087448 0.7984496355056763
-0.02325582504272461 0.2096339762210846 0.8139534592628479
-0.02325582504272461 0.20960751175880432 0.8294574618339539
-0.02325582504272461 0.22627806663513184 0.8449612855911255
-0.007751941680908203 -0.2734189033508301 0.751937985420227
-0.007751941680908203 -0.25940588116645813 0.7209302186965942
-0.007751941680908203 -0.2692829668521881 0.7364341020584106
-0.007751941680908203 -0.2691176235675812 0.7674418687820435
-0.007751941680908203 -0.2462543249130249 0.7054263353347778
-0.007751941680908203 -0.2507803440093994 0.7829457521438599
-0.007751941680908203 -0.2269647717475891 0.6899224519729614
-0.007751941680908203 -0.22545190155506134 0.7984496355056763
-0.00775194214656949 -0.2056017369031906 0.674418568611145
-0.007751941680908203 -0.19734497368335724 0.8139535188674927
-0.007751941680908203 -0.18568702042102814 0.6589146852493286
-0.007751941215246916 -0.18743938207626343 0.8294574022293091
-0.007751941680908203 -0.1845707893371582 0.8449612855911255
-0.007751941680908203 -0.18339408934116364 0.8604651689529419
-0.007751941680908203 -0.1825627088546753 0.8759689331054688
-0.007751941680908203 -0.16574999690055847 0.6434108018875122
-0.00775194214656949 -0.1768188774585724 0.8914728164672852
-0.007751941680908203 -0.16288593411445618 0.9069766998291016
-0.007751941680908203 -0.14856167137622833 0.6279069185256958
-0.007751941680908203 -0.1327083855867386 0.612403154373169
-0.007751941680908203 -0.08907472342252731 0.9069766998291016
-0.007751941680908203 -0.07195089012384415 0.8914728164672852
-0.007751941680908203 -0.015333777293562889 0.612403154373169
-0.007751941680908203 0.0029139872640371323 0.6279069185256958
-0.007751941680908203 0.017253680154681206 0.6434108018875122
-0.007751941680908203 0.013254383578896523 0.8914728164672852
-0.007751941680908203 0.031006786972284317 0.9069766998291016
-0.007751941680908203 0.03987221419811249 0.6589146256446838
-0.007751941680908203 0.0721057802438736 -0.27131783962249756
-0.007751941680908203 0.07190854847431183 0.674418568611145
-0.00775194214656949 0.09081216156482697 -0.27131783962249756
-0.007751941680908203 0.0999586433172226 0.10077524185180664
-0.00775194214656949 0.10525059700012207 0.6899224519729614
-0.007751941215246916 0.12214230746030807 0.10077524185180664
-0.007751941680908203 0.1351986676454544 0.9069766998291016
-0.00775194214656949 0.14849546551704407 0.7054263353347778
-0.007751941680908203 0.14999455213546753 0.8914728164672852
-0.007751941680908203 0.16938738524913788 0.7209302186965942
-0.007751941680908203 0.17179200053215027 0.8604651689529419
-0.007751941680908203 0.1650104522705078 0.875968873500824
-0.007751941680908203 0.18234871327877045 0.7364341020584106
-0.007751941680908203 0.1899198740720749 0.751937985420227
-0.007751941215246916 0.19651076197624207 0.7674418687820435
-0.007751941215246916 0.19932734966278076 0.7829457521438599
-0.007751941680908203 0.20370638370513916 0.7984496355056763
-0.007751941680908203 0.2055937647819519 0.8139535188674927
-0.007751941680908203 0.2045237272977829 0.8294574022293091
-0.00775194214656949 0.22495338320732117 0.8449612855911255
0.007751941680908203 -0.25839802622795105 0.7209302186965942
0.007751941680908203 -0.26502612233161926 0.7364341020584106
0.007751941680908203 -0.26852232217788696 0.751937985420227
0.007751941680908203 -0.26127076148986816 0.7674418687820435
0.007751941680908203 -0.24750761687755585 0.7054263353347778
0.007751941680908203 -0.24739104509353638 0.7829457521438599
0.007751941680908203 -0.2320423126220703 0.6899224519729614
0.007751941680908203 -0.22650496661663055 0.7984496355056763
0.007751941680908203 -0.2150111198425293 0.674418568611145
0.007751941680908203 -0.19624243676662445 0.6589146852493286
0.007751941680908203 -0.1968635618686676 0.8139535188674927
0.007751941680908203 -0.18641020357608795 0.8294574022293091
0.007751941680908203 -0.18378573656082153 0.8449612855911255
0.007751941680908203 -0.18181690573692322 0.8604651689529419
0.007751941680908203 -0.1797466278076172 0.8759689331054688
0.007751941680908203 -0.172682985663414 0.6434108018875122
0.007751941680908203 -0.16835279762744904 0.8914728164672852
0.007751941680908203 -0.14755482971668243 0.6279069185256958
0.007751941680908203 -0.15815071761608124 0.9069766998291016
0.007751941680908203 -0.14855149388313293 0.922480583190918
0.007751941680908203 -0.12561526894569397 0.612403154373169
0.007751941680908203 -0.07267571985721588 0.8914728164672852
0.007751941680908203 -0.07627147436141968 0.9069766998291016
0.007751941680908203 -0.07668279111385345 0.922480583190918
0.007751941680908203 -0.05480556935071945 0.3178294897079468
0.007751941680908203 -0.05509957671165466 0.3333333730697632
0.007751941680908203 -0.045762814581394196 0.30232560634613037
0.007751941680908203 -0.037718430161476135 0.30232560634613037
0.007751941215246916 -0.036928724497556686 0.3178294897079468
0.007751941680908203 -0.03770531341433525 0.3333333730697632
0.007751941680908203 -0.011811490170657635 -0.30232560634613037
0.007751941680908203 -0.021553512662649155 0.612403154373169
0.007751941680908203 -0.009520484134554863 0.8759689331054688
0.00775194214656949 -0.0047759716399014 -0.30232560634613037
0.007751941680908203 -0.0006431818474084139 0.6279069185256958
0.007751941680908203 -0.006679595448076725 0.8759689331054688
0.007751941680908203 0.01493535004556179 0.6434108018875122
0.007751941680908203 0.01672317460179329 0.8914728164672852
0.007751941680908203 0.038648586720228195 0.6589146852493286
0.007751941680908203 0.03365299850702286 0.9069766998291016
0.007751941680908203 0.06744983792304993 0.674418568611145
0.007751941680908203 0.07825896143913269 -0.27131783962249756
0.007751941680908203 0.09338217228651047 -0.27131783962249756
0.007751941680908203 0.09656429290771484 0.6899224519729614
0.007751941680908203 0.13791802525520325 0.7054263353347778
0.007751941680908203 0.13562317192554474 0.9069766998291016
0.007751941680908203 0.1503678858280182 0.8914728164672852
0.007751941680908203 0.16580718755722046 0.7209302186965942
0.007751941680908203 0.1723989099264145 0.8604651689529419
0.007751941215246916 0.16513068974018097 0.875968873500824
0.007751941680908203 0.18039470911026 0.7364341020584106
0.007751941680908203 0.18707489967346191 0.751937985420227
0.007751941680908203 0.19524800777435303 0.7674418091773987
0.007751941680908203 0.198074609041214 0.7829457521438599
0.007751941680908203 0.2000594437122345 0.7984496355056763
0.007751941680908203 0.19965101778507233 0.8139535188674927
0.007751941680908203 0.19908639788627625 0.8294574022293091
0.007751941680908203 0.20659002661705017 0.8604651689529419
0.007751941680908203 0.21808603405952454 0.8449612855911255
0.00775194214656949 0.2110094279050827 0.8604652285575867
0.02325582504272461 -0.25675439834594727 0.7209302186965942
0.02325582504272461 -0.26224902272224426 0.7364341020584106
0.02325582504272461 -0.26386773586273193 0.751937985420227
0.02325582504272461 -0.2575795352458954 0.7674418687820435
0.02325582504272461 -0.2449011355638504 0.7054263353347778
0.02325582504272461 -0.24191787838935852 0.7829457521438599
0.02325582504272461 -0.23285028338432312 0.6899224519729614
0.02325582504272461 -0.22035007178783417 0.674418568611145
0.02325582504272461 -0.22079136967658997 0.7984496355056763
0.02325582504272461 -0.2053103893995285 0.6589146852493286
0.02325582504272461 -0.19747358560562134 0.8139535188674927
0.02325582504272461 -0.18100886046886444 0.6434108018875122
0.02325582504272461 -0.18701724708080292 0.8294574022293091
0.02325582504272461 -0.18358570337295532 0.8449612855911255
0.02325582504272461 -0.18081432580947876 0.8604651689529419
0.02325582504272461 -0.1761593371629715 0.8759689331054688
0.02325582504272461 -0.1652776449918747 0.8914728164672852
0.02325582504272461 -0.15368755161762238 0.9069766998291016
0.02325582504272461 -0.14848044514656067 0.922480583190918
0.02325582504272461 -0.1455095112323761 0.6279069185256958
0.02325582504272461 -0.10964100807905197 0.612403154373169
0.02325582504272461 -0.11199448257684708 0.9379844665527344
0.02325582318007946 -0.09838888049125671 0.612403154373169
0.02325582504272461 -0.07258886843919754 0.8914728164672852
0.02325582504272461 -0.07165897637605667 0.9379844665527344
0.02325582504272461 -0.05472012981772423 0.3178294897079468
0.02325582690536976 -0.06845775246620178 0.9069766998291016
0.02325582504272461 -0.06745648384094238 0.922480583190918
0.02325582504272461 -0.024856429547071457 -0.30232560634613037
0.02325582504272461 -0.03856072202324867 0.3178294897079468
0.02325582504272461 -0.008275274187326431 -0.28682172298431396
0.02325582504272461 -0.015462820418179035 0.8759689331054688
0.02325582504272461 0.0027574896812438965 -0.30232560634613037
0.02325582504272461 -0.0019929681438952684 0.6279069185256958
0.02325582504272461 -0.00032670004293322563 0.8759689331054688
0.02325582504272461 0.02189386449754238 -0.28682172298431396
0.02325582504272461 0.016531692817807198 0.6434108018875122
0.02325582504272461 0.020103730261325836 0.8914728164672852
0.02325582504272461 0.03501977026462555 0.9069766998291016
0.02325582504272461 0.043079860508441925 0.6589146852493286
0.02325582504272461 0.0694870874285698 0.922480583190918
0.02325582504272461 0.07638707011938095 -0.27131783962249756
0.02325582504272461 0.07022888213396072 0.6744185090065002
0.02325582690536976 0.089127317070961 -0.27131783962249756
0.02325582504272461 0.09803350269794464 -0.25581395626068115
0.02325582504272461 0.09584374725818634 0.6899224519729614
0.02325582504272461 0.09959366917610168 0.922480583190918
0.02325582504272461 0.10729170590639114 -0.25581395626068115
0.02325582504272461 0.10108054429292679 0.922480583190918
0.02325582504272461 0.12148652970790863 0.922480583190918
0.02325582504272461 0.1339910924434662 0.7054263353347778
0.02325582504272461 0.1368979811668396 0.9069766998291016
0.02325582690536976 0.15167292952537537 0.8914728164672852
0.02325582504272461 0.1634969413280487 0.7209302186965942
0.02325582504272461 0.1753622442483902 0.8604651689529419
0.02325582690536976 0.1659252643585205 0.8759689331054688
0.02325582504272461 0.17883309721946716 0.7364341020584106
0.02325582504272461 0.18573126196861267 0.751937985420227
0.02325582504272461 0.1941021829843521 0.7674418687820435
0.02325582504272461 0.19702571630477905 0.7829457521438599
0.02325582504272461 0.19820323586463928 0.7984496355056763
0.02325582504272461 0.19750262796878815 0.8139535188674927
0.02325582504272461 0.19680500030517578 0.8294574022293091
0.02325582504272461 0.19717425107955933 0.8604651689529419
0.02325582504272461 0.21889600157737732 0.8449612855911255
0.02325582504272461 0.21859654784202576 0.8604651689529419
0.038759708404541016 -0.2582496106624603 0.7364341020584106
0.038759708404541016 -0.26105207204818726 0.751937985420227
0.038759708404541016 -0.256472110748291 0.7674418687820435
0.038759708404541016 -0.24861524999141693 0.7209302186965942
0.038759708404541016 -0.24084502458572388 0.7829457521438599
0.038759708404541016 -0.22767840325832367 0.6899224519729614
0.038759708404541016 -0.23688866198062897 0.7054263353347778
0.038759708404541016 -0.22493204474449158 0.7984496355056763
0.038759708404541016 -0.21018095314502716 0.6589146852493286
0.038759708404541016 -0.21913447976112366 0.674418568611145
0.038759708404541016 -0.20305223762989044 0.8139535188674927
0.038759708404541016 -0.18971459567546844 0.6434108018875122
0.038759708404541016 -0.19302861392498016 0.8294574022293091
0.038759708404541016 -0.1854274421930313 0.8449612855911255
0.038759708404541016 -0.180186927318573 0.8604651689529419
0.038759708404541016 -0.16975967586040497 0.8759689331054688
0.038759708404541016 -0.16389137506484985 0.8914728164672852
0.038759708404541016 -0.15181618928909302 0.9069766998291016
0.038759708404541016 -0.1487857699394226 0.922480583190918
0.038759708404541016 -0.14480601251125336 0.6279069185256958
0.038759708404541016 -0.12104758620262146 0.9379844665527344
0.038759708404541016 -0.0693976953625679 0.8914728164672852
0.038759708404541016 -0.06944329291582108 0.9069766998291016
0.038759708404541016 -0.06809723377227783 0.9224805235862732
0.038759708404541016 -0.06887659430503845 0.9379844665527344
0.038759708404541016 -0.025769539177417755 -0.30232560634613037
0.038759708404541016 -0.013748567551374435 -0.28682172298431396
0.038759708404541016 -0.002506040735170245 -0.30232560634613037
0.038759708404541016 -0.001881621778011322 0.6279069185256958
0.038759708404541016 0.017238566651940346 0.8914728164672852
0.038759708404541016 0.024447454139590263 -0.28682172298431396
0.038759708404541016 0.023351939395070076 0.6434107422828674
0.038759708404541016 0.03480471670627594 0.9069766998291016
0.038759708404541016 0.048415571451187134 0.6589146852493286
0.038759708404541016 0.06801088154315948 -0.27131783962249756
0.038759708404541016 0.0715293139219284 -0.27131783962249756
0.038759708404541016 0.07440240681171417 0.674418568611145
0.038759708404541016 0.0884576141834259 -0.25581395626068115
0.038759708404541016 0.09828706085681915 0.6899224519729614
0.038759708404541016 0.10704825073480606 -0.25581395626068115
0.038759708404541016 0.10723607242107391 0.9224805235862732
0.038759708404541016 0.12039946019649506 0.922480583190918
0.038759708404541016 0.13287228345870972 0.7054263353347778
0.038759708404541016 0.13713093101978302 0.9069767594337463
0.038759708404541016 0.1603991836309433 0.7209302186965942
0.038759708404541016 0.1520082950592041 0.8914728164672852
0.038759708404541016 0.1767101138830185 0.7364341020584106
0.038759708404541016 0.16656020283699036 0.8759689331054688
0.038759708404541016 0.18486273288726807 0.751937985420227
0.038759708404541016 0.19222111999988556 0.7674418687820435
0.038759708404541016 0.1961672306060791 0.7829457521438599
0.038759708404541016 0.1971832513809204 0.7984496355056763
0.038759708404541016 0.1967698633670807 0.8139535188674927
0.038759708404541016 0.19652040302753448 0.8294574022293091
0.038759708404541016 0.2229534089565277 0.8449612855911255
0.038759708404541016 0.22482262551784515 0.8604651689529419
0.05426359176635742 -0.2577492892742157 0.751937985420227
0.05426359176635742 -0.25100600719451904 0.7364341020584106
0.05426359176635742 -0.2549290060997009 0.7674418687820435
0.05426359176635742 -0.24071785807609558 0.7829457521438599
0.05426359176635742 -0.22722779214382172 0.7054263353347778
0.05426358804106712 -0.23744547367095947 0.7209302186965942
0.05426359176635742 -0.22516445815563202 0.7984496355056763
0.05426359176635742 -0.20975366234779358 0.42635655403137207
0.05426359176635742 -0.21463856101036072 0.674418568611145
0.05426359176635742 -0.21990978717803955 0.6899224519729614
0.05426359176635742 -0.1949683427810669 0.6434108018875122
0.05426358804106712 -0.2091902196407318 0.6589146852493286
0.05426358804106712 -0.20847736299037933 0.8139534592628479
0.05426359176635742 -0.1966119408607483 0.8294574022293091
0.05426359176635742 -0.19283637404441833 0.42635658383369446
0.05426359176635742 -0.1875646412372589 0.8449612855911255
0.05426359176635742 -0.17933067679405212 0.8604651689529419
0.05426359176635742 -0.16597490012645721 0.8759689331054688
0.05426359176635742 -0.14815546572208405 0.6279069185256958
0.05426359176635742 -0.15919679403305054 0.8914728164672852
0.05426359176635742 -0.15015771985054016 0.9069766998291016
0.05426359176635742 -0.14895537495613098 0.922480583190918
0.05426359176635742 -0.12804430723190308 0.9379844665527344
0.05426359176635742 -0.08595497906208038 0.9534883499145508
0.05426359176635742 -0.07454690337181091 0.9069766998291016
0.05426359176635742 -0.0638413205742836 0.8914728164672852
0.05426359176635742 -0.06890780478715897 0.922480583190918
0.05426359176635742 -0.06788141280412674 0.9379844665527344
0.05426359176635742 -0.06609874963760376 0.9534883499145508
0.05426359176635742 -0.017451215535402298 -0.28682172298431396
0.05426359176635742 -0.005455661565065384 0.6279069185256958
0.05426359176635742 0.014138352125883102 -0.28682172298431396
0.05426359176635742 0.008071438409388065 0.8914728164672852
0.05426359176635742 0.03416507691144943 -0.27131783962249756
0.05426359176635742 0.026753168553113937 0.6434108018875122
0.05426359176635742 0.028080467134714127 0.9069766998291016
0.05426359176635742 0.04425344616174698 -0.27131783962249756
0.05426359176635742 0.05147545412182808 0.6589146852493286
0.05426359176635742 0.0734974667429924 -0.25581395626068115
0.05426359176635742 0.07635030150413513 0.674418568611145
0.05426359176635742 0.09890209138393402 0.6899224519729614
0.05426359176635742 0.10273066908121109 -0.25581395626068115
0.05426359176635742 0.1271653175354004 0.7054263353347778
0.05426359176635742 0.1356683373451233 0.9069766998291016
0.05426359176635742 0.1552487015724182 0.7209302186965942
0.05426359176635742 0.15043196082115173 0.8914728164672852
0.05426359176635742 0.17321085929870605 0.7364341020584106
0.05426359549164772 0.1664416640996933 0.8759689927101135
0.05426359176635742 0.18353071808815002 0.751937985420227
0.05426359176635742 0.19032615423202515 0.7674418687820435
0.05426359176635742 0.19548596441745758 0.7829457521438599
0.05426359176635742 0.19668523967266083 0.7984496355056763
0.05426359176635742 0.1965664029121399 0.8139535188674927
0.05426359176635742 0.19748716056346893 0.8294574022293091
0.05426359176635742 0.22469349205493927 0.8604651689529419
0.05426359176635742 0.2258579432964325 0.8449612259864807
