-0.038759708404541016 -0.024032095447182655 0.007751941680908203
-0.038759708404541016 -0.02409474179148674 0.02325582504272461
-0.038759708404541016 -0.023693064227700233 0.038759708404541016
-0.038759708404541016 -0.037686411291360855 0.5813953876495361
-0.038759708404541016 -0.03621625155210495 0.5968992710113525
-0.038759708404541016 -0.037171620875597 0.612403154373169
-0.038759708404541016 -0.021203238517045975 -0.30232560634613037
-0.038759708404541016 -0.016820497810840607 -0.28682172298431396
-0.038759708404541016 -0.014405449852347374 -0.27131783962249756
-0.038759708404541016 -0.01292024552822113 -0.25581395626068115
-0.038759708404541016 -0.011268340051174164 -0.24031007289886475
-0.038759708404541016 -0.01078367605805397 -0.22480618953704834
-0.038759708404541016 -0.011002513580024242 -0.20930230617523193
-0.038759708404541016 -0.012189596891403198 -0.19379842281341553
-0.038759708404541016 -0.014121751300990582 -0.1782945990562439
-0.038759708404541016 -0.016376348212361336 -0.1627907156944275
-0.038759708404541016 -0.01897106133401394 -0.14728683233261108
-0.038759708404541016 -0.02070745825767517 -0.13178294897079468
-0.038759708404541016 -0.021833453327417374 -0.11627906560897827
-0.038759708404541016 -0.02249964326620102 -0.10077518224716187
-0.038759708404541016 -0.022921038791537285 -0.08527129888534546
-0.038759708404541016 -0.022850196808576584 0.05426359176635742
-0.038759712129831314 -0.022138210013508797 0.06976747512817383
-0.038759708404541016 -0.022606391459703445 0.08527135848999023
-0.038759708404541016 -0.012477918528020382 0.6279069185256958
-0.038759708404541016 0.029272720217704773 0.6434108018875122
-0.038759708404541016 0.06188647821545601 0.6589146852493286
-0.038759708404541016 0.060917485505342484 0.9069766998291016
-0.038759708404541016 0.09720808267593384 0.7829457521438599
-0.038759708404541016 0.10562978684902191 0.7674418687820435
-0.038759708404541016 0.12686434388160706 0.674418568611145
-0.038759708404541016 0.1428583562374115 0.7829457521438599
-0.038759708404541016 0.15454241633415222 0.751937985420227
-0.038759708404541016 0.1604364514350891 0.7674418687820435
-0.038759708404541016 0.16621854901313782 0.6899224519729614
-0.038759708404541016 0.17003180086612701 0.751937985420227
-0.038759708404541016 0.16507287323474884 0.8914728164672852
-0.038759708404541016 0.17842191457748413 0.7054263353347778
-0.038759708404541016 0.18016278743743896 0.7209302186965942
-0.038759708404541016 0.1813642382621765 0.7364341020584106
-0.038759708404541016 0.19262975454330444 0.8759689331054688
-0.038759708404541016 0.23073710501194 0.751937985420227
-0.038759708404541016 0.23294684290885925 0.7674418687820435
-0.038759708404541016 0.23302701115608215 0.7829457521438599
-0.038759708404541016 0.24002262949943542 0.7984496355056763
-0.038759708404541016 0.24317452311515808 0.8139535188674927
-0.038759708404541016 0.2519068717956543 0.8294574022293091
-0.038759708404541016 0.2754327654838562 0.8449612855911255
-0.038759708404541016 0.27786707878112793 0.8604651689529419
-0.02325582504272461 -0.21060346066951752 0.6589146852493286
-0.02325582504272461 -0.20997574925422668 0.674418568611145
-0.02325582504272461 -0.21104216575622559 0.7984496355056763
-0.02325582504272461 -0.21377813816070557 0.8139535188674927
-0.02325582504272461 -0.21741428971290588 0.8294574022293091
-0.02325582504272461 -0.21690019965171814 0.8449612855911255
-0.02325582504272461 -0.211225226521492 0.8604651689529419
-0.02325582504272461 -0.1941734105348587 0.6899224519729614
-0.02325582504272461 -0.19397565722465515 0.7209302186965942
-0.02325582504272461 -0.19642814993858337 0.7364341020584106
-0.02325582504272461 -0.19950051605701447 0.751937985420227
-0.02325582504272461 -0.202458918094635 0.7674418687820435
-0.02325582504272461 -0.20801424980163574 0.7829457521438599
-0.02325582504272461 -0.18765875697135925 0.7054263353347778
-0.02325582504272461 -0.19232261180877686 0.8759689331054688
-0.02325582504272461 -0.16556167602539062 -0.22480618953704834
-0.02325582504272461 -0.16134744882583618 0.6589146852493286
-0.02325582504272461 -0.14655835926532745 -0.24031007289886475
-0.02325582504272461 -0.1465212106704712 0.674418568611145
-0.02325582504272461 -0.1305248886346817 -0.22480617463588715
-0.02325582504272461 -0.12502892315387726 0.674418568611145
-0.02325582504272461 -0.10439960658550262 -0.24031007289886475
-0.02325582504272461 -0.09613045305013657 0.6589146852493286
-0.02325582504272461 -0.09733732044696808 0.8914728164672852
-0.02325582504272461 -0.054548971354961395 -0.13178294897079468
-0.02325582504272461 -0.054880883544683456 -0.11627906560897827
-0.02325582504272461 -0.05513140559196472 -0.10077518224716187
-0.02325582504272461 -0.05525795370340347 -0.08527129888534546
-0.02325582504272461 -0.05514445900917053 -0.06976741552352905
-0.02325582504272461 -0.054992206394672394 -0.05426359176635742
-0.02325582504272461 -0.05463768169283867 -0.038759708404541016
-0.02325582504272461 -0.06672327220439911 0.6434108018875122
-0.02325582504272461 -0.06010108441114426 0.9069766998291016
-0.02325582504272461 -0.039053697139024734 -0.42635661363601685
-0.02325582504272461 -0.03936372697353363 -0.41085273027420044
-0.02325582504272461 -0.03970065340399742 -0.39534884691238403
-0.02325582504272461 -0.03991357237100601 -0.3798449635505676
-0.02325582504272461 -0.040346015244722366 -0.3643410801887512
-0.02325582504272461 -0.041068185120821 -0.3488371968269348
-0.02325582504272461 -0.042302876710891724 -0.3333333134651184
-0.02325582504272461 -0.0441068634390831 -0.317829430103302
-0.02325582504272461 -0.047348715364933014 -0.30232560634613037
-0.02325582504272461 -0.050975751131772995 -0.28682172298431396
-0.02325582504272461 -0.05343698710203171 -0.27131783962249756
-0.02325582504272461 -0.05299612879753113 -0.25581395626068115
-0.02325582504272461 -0.05191224068403244 -0.24031007289886475
-0.02325582504272461 -0.05180777609348297 -0.22480618953704834
-0.02325582504272461 -0.05225266143679619 -0.20930230617523193
-0.02325582504272461 -0.0528627410531044 -0.19379842281341553
-0.02325582504272461 -0.052650123834609985 -0.1782945990562439
-0.02325582504272461 -0.05303485319018364 -0.1627907156944275
-0.02325582690536976 -0.05375293269753456 -0.14728683233261108
-0.02325582504272461 -0.053645599633455276 -0.02325582504272461
-0.02325582504272461 -0.04849755018949509 -0.007751941680908203
-0.02325582504272461 -0.04054813086986542 0.007751941680908203
-0.02325582504272461 -0.038949839770793915 0.4418604373931885
-0.02325582504272461 -0.039390794932842255 0.4573643207550049
-0.02325582504272461 -0.039904169738292694 0.4728682041168213
-0.02325582504272461 -0.04053013026714325 0.4883720874786377
-0.02325582504272461 -0.04095637798309326 0.5038759708404541
-0.02325582504272461 -0.04107768088579178 0.5193798542022705
-0.02325582504272461 -0.04062434658408165 0.5348837375640869
-0.02325582504272461 -0.04015062004327774 0.5503876209259033
-0.02325582504272461 -0.04016325995326042 0.5658915042877197
-0.02325582504272461 -0.04078994318842888 0.5813953876495361
-0.02325582504272461 -0.041063375771045685 0.5968992710113525
-0.02325582504272461 -0.04106924682855606 0.612403154373169
-0.02325582504272461 -0.04735056310892105 0.6279069185256958
-0.02325582504272461 -0.029390782117843628 -0.5813953876495361
-0.02325582504272461 -0.031747207045555115 -0.5658915042877197
-0.02325582504272461 -0.031976744532585144 -0.5503876209259033
-0.02325582504272461 -0.03283103182911873 -0.5348837375640869
-0.02325582504272461 -0.032593827694654465 -0.5193798542022705
-0.02325582504272461 -0.03291218355298042 -0.5038759708404541
-0.02325582504272461 -0.034039609134197235 -0.4883720874786377
-0.02325582504272461 -0.035304877907037735 -0.4728681743144989
-0.02325582318007946 -0.0366535484790802 -0.4573642909526825
-0.02325582504272461 -0.03843099623918533 -0.44186046719551086
-0.02325582504272461 -0.02473243698477745 -0.10077518224716187
-0.02325582504272461 -0.02623291313648224 -0.08527129888534546
-0.02325582504272461 -0.027601726353168488 -0.06976741552352905
-0.02325582504272461 -0.028466109186410904 -0.05426359176635742
-0.02325582504272461 -0.029447054490447044 -0.038759708404541016
-0.02325582504272461 -0.03127510845661163 -0.02325582504272461
-0.02325582504272461 -0.03391719236969948 -0.007751941215246916
-0.02325582690536976 -0.03715559467673302 0.007751941680908203
-0.02325582504272461 -0.03819826990365982 0.4418604373931885
-0.02325582504272461 -0.03638700395822525 0.4573643207550049
-0.02325582504272461 -0.0336143858730793 0.4728682041168213
-0.02325582504272461 -0.030489031225442886 0.4883720874786377
-0.02325582504272461 -0.029484068974852562 0.5038759708404541
-0.02325582504272461 -0.030714809894561768 0.5193798542022705
-0.02325582504272461 -0.03339914605021477 0.5348837375640869
-0.02325582690536976 -0.035408806055784225 0.5503876209259033
-0.02325582504272461 -0.035568319261074066 0.5658915042877197
-0.02325582504272461 -0.033831894397735596 0.5813953876495361
-0.02325582504272461 -0.032352276146411896 0.5968992710113525
-0.02325582504272461 -0.03163446858525276 0.612403154373169
-0.02325582504272461 -0.020270569249987602 -0.5813953876495361
-0.02325582504272461 -0.018247254192829132 -0.5658915042877197
-0.02325582504272461 -0.01729009486734867 -0.5503876209259033
-0.02325582504272461 -0.01636652834713459 -0.5348837375640869
-0.02325582504272461 -0.016009332612156868 -0.5193798542022705
-0.02325582504272461 -0.015490087680518627 -0.5038759708404541
-0.02325582504272461 -0.014807432889938354 -0.4883720874786377
-0.02325582504272461 -0.014016181230545044 -0.4728682041168213
-0.02325582504272461 -0.013036149553954601 -0.4573643207550049
-0.02325582504272461 -0.011659543961286545 -0.4418604373931885
-0.02325582504272461 -0.01034755352884531 -0.42635661363601685
-0.02325582504272461 -0.008836164139211178 -0.41085273027420044
-0.02325582504272461 -0.010445304214954376 -0.20930230617523193
-0.02325582504272461 -0.013078823685646057 -0.19379842281341553
-0.02325582504272461 -0.015391883440315723 -0.1782945990562439
-0.02325582504272461 -0.018106874078512192 -0.1627907156944275
-0.02325582504272461 -0.020349053665995598 -0.14728683233261108
-0.02325582504272461 -0.02204439975321293 -0.13178294897079468
-0.02325582504272461 -0.023041309788823128 -0.11627906560897827
-0.02325582504272461 -0.01947196014225483 0.6279069185256958
-0.02325582504272461 -0.007682683877646923 -0.39534884691238403
-0.02325582504272461 -0.00727415643632412 -0.3798449635505676
-0.02325582504272461 -0.007004167418926954 -0.36434105038642883
-0.02325582504272461 -0.006674238480627537 -0.3488371968269348
-0.02325582504272461 -0.006462225690484047 -0.333333283662796
-0.02325582318007946 -0.0062335217371582985 -0.317829430103302
-0.02325582504272461 -0.006056137848645449 -0.30232563614845276
-0.02325582504272461 -0.006150770001113415 -0.28682172298431396
-0.02325582504272461 -0.0063064987771213055 -0.27131783962249756
-0.02325582318007946 -0.006596417166292667 -0.25581395626068115
-0.02325582504272461 -0.006991737522184849 -0.24031007289886475
-0.02325582504272461 -0.0077294595539569855 -0.22480618953704834
-0.02325582504272461 0.02021164260804653 0.6434108018875122
-0.02325582504272461 0.019042668864130974 0.9069766998291016
-0.02325582504272461 0.05029485374689102 0.6589146852493286
-0.02325582504272461 0.0957484319806099 0.674418568611145
-0.02325582504272461 0.09930623322725296 0.7674418687820435
-0.02325582504272461 0.1012038141489029 0.7829457521438599
-0.02325582504272461 0.1279440075159073 0.751937985420227
-0.02325582504272461 0.14354687929153442 0.7829457521438599
-0.02325582504272461 0.16813623905181885 0.6899224519729614
-0.02325582504272461 0.17673292756080627 0.7209302186965942
-0.02325582504272461 0.16665658354759216 0.7364341020584106
-0.02325582504272461 0.1740373969078064 0.7674418687820435
-0.02325582504272461 0.1784103810787201 0.7054262757301331
-0.02325582504272461 0.17948929965496063 0.8914728164672852
-0.02325582504272461 0.19845104217529297 0.8759689331054688
-0.02325582504272461 0.2255248874425888 0.7674418687820435
-0.02325582504272461 0.22846201062202454 0.7829457521438599
-0.02325582504272461 0.2385806292295456 0.7984496355056763
-0.02325582504272461 0.24300430715084076 0.8139535188674927
-0.02325582504272461 0.24803388118743896 0.8294574022293091
-0.02325582504272461 0.2718814015388489 0.8449612855911255
-0.02325582504272461 0.2728928327560425 0.8604651689529419
-0.007751941680908203 -0.21146735548973083 0.7984496355056763
-0.007751941680908203 -0.21371471881866455 0.8139535188674927
-0.007751941680908203 -0.21656139194965363 0.8294574022293091
-0.007751941680908203 -0.21449518203735352 0.8449612855911255
-0.007751941680908203 -0.20944426953792572 0.8604651689529419
-0.007751941680908203 -0.20102009177207947 0.6589146852493286
-0.007751941680908203 -0.2002907544374466 0.674418568611145
-0.007751941680908203 -0.1950220763683319 0.7364341020584106
-0.007751941680908203 -0.1977047622203827 0.751937985420227
-0.007751941680908203 -0.20000895857810974 0.7674418687820435
-0.007751941680908203 -0.20625141263008118 0.7829458117485046
-0.007751941680908203 -0.18268471956253052 0.7054263353347778
-0.007751941680908203 -0.1907886564731598 0.7209302186965942
-0.007751941680908203 -0.17678280174732208 0.6589146852493286
-0.007751941680908203 -0.1691405177116394 0.674418568611145
-0.007751941680908203 -0.15163248777389526 -0.22480618953704834
-0.007751941680908203 -0.13624761998653412 -0.24031007289886475
-0.007751941680908203 -0.14098268747329712 -0.22480618953704834
-0.007751941680908203 -0.14631986618041992 0.6899224519729614
-0.007751941680908203 -0.1274949461221695 0.8759689927101135
-0.007751941680908203 -0.11301744729280472 -0.24031007289886475
-0.007751941680908203 -0.10690774023532867 0.674418568611145
-0.007751941680908203 -0.09143304824829102 0.8914728164672852
-0.007751941680908203 -0.08404780179262161 0.6589146852493286
-0.007751941680908203 -0.05843912810087204 0.9069766998291016
-0.007751941680908203 -0.03977042809128761 -0.7054263353347778
-0.007751941680908203 -0.04136409983038902 -0.6899224519729614
-0.007751941680908203 -0.04286357760429382 -0.674418568611145
-0.007751941680908203 -0.04385199770331383 -0.6589146852493286
-0.007751941680908203 -0.044488199055194855 -0.643410861492157
-0.007751941680908203 -0.04495298117399216 -0.6279069781303406
-0.007751941680908203 -0.04505749046802521 -0.6124030947685242
-0.007751941680908203 -0.044918905943632126 -0.5968992114067078
-0.007751941680908203 -0.044598013162612915 -0.5813953876495361
-0.007751941680908203 -0.044113852083683014 -0.5658915042877197
-0.007751941680908203 -0.04352463781833649 -0.5503876209259033
-0.007751941680908203 -0.043058350682258606 -0.5348837375640869
-0.007751941680908203 -0.04247349873185158 -0.5193798542022705
-0.007751941680908203 -0.04197734221816063 -0.5038759708404541
-0.007751941680908203 -0.04186280816793442 -0.4883720874786377
-0.007751941680908203 -0.041766997426748276 -0.4728682041168213
-0.007751941680908203 -0.04161525145173073 -0.4573643207550049
-0.007751941680908203 -0.04150940477848053 -0.4418604373931885
-0.007751941680908203 -0.04144325107336044 -0.42635661363601685
-0.007751941680908203 -0.04132191836833954 -0.41085273027420044
-0.007751941680908203 -0.04130007326602936 -0.39534884691238403
-0.007751941680908203 -0.04118666052818298 -0.3798449635505676
-0.007751941680908203 -0.041378434747457504 -0.3643410801887512
-0.007751941680908203 -0.04189703240990639 -0.3488371968269348
-0.007751941680908203 -0.04279673844575882 -0.3333333134651184
-0.007751941680908203 -0.043920040130615234 -0.317829430103302
-0.007751941680908203 -0.04524679481983185 -0.30232560634613037
-0.007751941680908203 -0.0458199679851532 -0.28682172298431396
-0.007751941680908203 -0.04528573900461197 -0.27131783962249756
-0.007751941680908203 -0.04335746914148331 -0.25581395626068115
-0.007751941680908203 -0.040481530129909515 -0.24031007289886475
-0.007751941680908203 -0.03883729875087738 0.4728682041168213
-0.007751941680908203 -0.03905245289206505 0.4883720874786377
-0.007751941680908203 -0.039061758667230606 0.5038759708404541
-0.007751941680908203 -0.05309855565428734 0.6434108018875122
-0.007751941680908203 -0.023672087118029594 -0.751937985420227
-0.007751941680908203 -0.029778286814689636 -0.7364341020584106
-0.007751941680908203 -0.03598324954509735 -0.7209302186965942
-0.007751941680908203 -0.028296584263443947 -0.22480618953704834
-0.007751941680908203 -0.038506846874952316 0.4728682041168213
-0.007751941680908203 -0.03774399682879448 0.4883720874786377
-0.007751941680908203 -0.03787059336900711 0.5038759708404541
-0.007751941680908203 -0.023128049448132515 -0.751937985420227
-0.007751941680908203 -0.020981788635253906 -0.7364341020584106
-0.007751941680908203 -0.019117441028356552 -0.7209302186965942
-0.007751941680908203 -0.017485862597823143 -0.7054263353347778
-0.007751941680908203 -0.016017908230423927 -0.6899224519729614
-0.007751941680908203 -0.01458333432674408 -0.674418568611145
-0.007751941680908203 -0.013521330431103706 -0.6589146852493286
-0.007751941680908203 -0.012301221489906311 -0.643410861492157
-0.007751941680908203 -0.010999267920851707 -0.6279069781303406
-0.007751941680908203 -0.009486538358032703 -0.6124030947685242
-0.007751941680908203 -0.00804741121828556 -0.5968992114067078
-0.007751941680908203 -0.009728007018566132 -0.27131783962249756
-0.007751941680908203 -0.012982452288269997 -0.25581395626068115
-0.007751941680908203 -0.017079221084713936 -0.24031007289886475
-0.007751941680908203 -0.022009864449501038 -0.22480620443820953
-0.007751941680908203 -0.008634022437036037 0.6434108018875122
-0.007751941680908203 -0.007359897717833519 -0.5813954472541809
-0.007751941215246916 -0.007129095960408449 -0.5658915042877197
-0.007751941680908203 -0.0070688435807824135 -0.5503876209259033
-0.00775194214656949 -0.006932501215487719 -0.5348837375640869
-0.007751941215246916 -0.0069173662923276424 -0.5193798542022705
-0.007751941680908203 -0.0069307489320635796 -0.5038759708404541
-0.007751941680908203 -0.006863890215754509 -0.4883720874786377
-0.007751941680908203 -0.006706658750772476 -0.4728682041168213
-0.007751941680908203 -0.006536940112709999 -0.4573643207550049
-0.007751941680908203 -0.0063297804445028305 -0.4418604373931885
-0.007751941215246916 -0.006181343924254179 -0.42635661363601685
-0.007751941680908203 -0.0062101734802126884 -0.41085273027420044
-0.007751941680908203 -0.006451506167650223 -0.39534884691238403
-0.007751941680908203 -0.006807390600442886 -0.37984493374824524
-0.007751941680908203 -0.007197351194918156 -0.3643410801887512
-0.007751941215246916 -0.007356695365160704 -0.3488371968269348
-0.007751941680908203 -0.00746724009513855 -0.3333333432674408
-0.007751941680908203 -0.007410434074699879 -0.317829430103302
-0.00775194214656949 -0.007434372324496508 -0.30232560634613037
-0.007751941680908203 -0.00772501528263092 -0.28682172298431396
-0.007751941680908203 -0.0035072534810751677 0.9069766998291016
-0.00775194214656949 0.039736635982990265 0.6589146852493286
-0.007751941680908203 0.07266703248023987 0.674418568611145
-0.00775194214656949 0.08969640731811523 0.7674418687820435
-0.007751941680908203 0.09700631350278854 0.7829457521438599
-0.007751941680908203 0.10804189741611481 0.751937985420227
-0.007751941680908203 0.1277710646390915 0.674418568611145
-0.007751941680908203 0.14711932837963104 0.7829457521438599
-0.007751941680908203 0.14829322695732117 0.674418568611145
-0.007751941680908203 0.15202964842319489 0.7364341020584106
-0.007751941680908203 0.1664268970489502 0.6899224519729614
-0.007751941680908203 0.17260247468948364 0.7054263353347778
-0.007751941680908203 0.1690516173839569 0.7209302186965942
-0.007751941680908203 0.18421640992164612 0.8914728760719299
-0.007751941680908203 0.19833344221115112 0.8759689331054688
-0.007751941680908203 0.2104974389076233 0.7829457521438599
-0.007751941680908203 0.22733238339424133 0.7984496355056763
-0.007751941680908203 0.23651175200939178 0.8139535188674927
-0.007751941680908203 0.24085822701454163 0.8294574022293091
-0.007751941680908203 0.24825851619243622 0.8449612855911255
-0.007751941680908203 0.25216636061668396 0.8604651689529419
0.007751941680908203 -0.21187838912010193 0.7984496355056763
0.007751941680908203 -0.21406115591526031 0.8139535188674927
0.007751941680908203 -0.2228255569934845 0.8294574022293091
0.007751941680908203 -0.21594035625457764 0.8449612855911255
0.007751941680908203 -0.19571000337600708 0.7364341020584106
0.007751941680908203 -0.19814492762088776 0.751937985420227
0.007751941680908203 -0.19983455538749695 0.7674418687820435
0.007751941680908203 -0.2068059891462326 0.7829457521438599
0.007751941680908203 -0.19965660572052002 0.8604651689529419
0.007751941680908203 -0.17990702390670776 0.7054263353347778
0.007751941680908203 -0.19151198863983154 0.7209302186965942
0.007751941680908203 -0.1174677312374115 0.6899224519729614
0.007751941680908203 -0.12599918246269226 0.8759689331054688
0.007751941680908203 -0.09167516231536865 0.674418568611145
0.007751941680908203 -0.09263287484645844 0.8914728164672852
0.007751941680908203 -0.07089240103960037 0.6589146852493286
0.007751941680908203 -0.05950291454792023 0.9069766998291016
0.007751941680908203 -0.038964830338954926 -0.9069767594337463
0.007751941680908203 -0.039771098643541336 -0.8914728164672852
0.007751941680908203 -0.04044918715953827 -0.8759689927101135
0.007751941680908203 -0.04109890013933182 -0.8604651093482971
0.007751941680908203 -0.04150824621319771 -0.8449612259864807
0.007751941680908203 -0.041792888194322586 -0.8294572830200195
0.007751941680908203 -0.041850000619888306 -0.8139535188674927
0.007751941680908203 -0.04185391217470169 -0.7984496355056763
0.007751941680908203 -0.04184472933411598 -0.7829457521438599
0.007751941680908203 -0.042078182101249695 -0.7674418687820435
0.007751941680908203 -0.04239563271403313 -0.751937985420227
0.007751941680908203 -0.04286859184503555 -0.7364341020584106
0.007751941680908203 -0.04331395775079727 -0.7209302186965942
0.007751941680908203 -0.043897487223148346 -0.7054263353347778
0.007751941680908203 -0.04447311908006668 -0.6899224519729614
0.007751941680908203 -0.04500444978475571 -0.674418568611145
0.007751941680908203 -0.045433998107910156 -0.6589146852493286
0.007751941680908203 -0.04553471505641937 -0.643410861492157
0.007751941680908203 -0.04542868584394455 -0.6279069781303406
0.007751941680908203 -0.04500920698046684 -0.6124030947685242
0.007751941680908203 -0.044534988701343536 -0.5968992114067078
0.007751941680908203 -0.04394068568944931 -0.5813953876495361
0.007751941680908203 -0.04326016455888748 -0.5658915042877197
0.007751941680908203 -0.042465973645448685 -0.5503876209259033
0.007751941680908203 -0.04170854017138481 -0.5348837375640869
0.007751941680908203 -0.04070856049656868 -0.5193798542022705
0.007751941680908203 -0.039807695895433426 -0.5038759708404541
0.007751941680908203 -0.0392674095928669 -0.4883720874786377
0.007751941680908203 -0.02533508464694023 -0.9689922332763672
0.007751941680908203 -0.025431927293539047 -0.9534883499145508
0.00775194214656949 -0.03217208385467529 -0.9379844665527344
0.007751941680908203 -0.035112254321575165 -0.9224807024002075
0.007751941680908203 -0.038699328899383545 -0.4728682339191437
0.007751941680908203 -0.03663629665970802 -0.4573643207550049
0.007751941680908203 -0.03518162667751312 -0.4418604373931885
0.007751941680908203 -0.03401002660393715 -0.42635661363601685
0.007751941680908203 -0.03251487761735916 -0.41085273027420044
0.007751941680908203 -0.031031910330057144 -0.39534884691238403
0.007751941680908203 -0.028586633503437042 -0.3798449635505676
0.007751941680908203 -0.02465762197971344 -0.3643410801887512
0.007751941680908203 -0.023098863661289215 -0.9689922332763672
0.007751941680908203 -0.02307998761534691 -0.9534883499145508
0.007751941680908203 -0.022316759452223778 -0.9379844665527344
0.007751941680908203 -0.02167726866900921 -0.9224806427955627
0.007751941215246916 -0.02069096639752388 -0.9069766998291016
0.007751941215246916 -0.0195668525993824 -0.8914728760719299
0.007751941680908203 -0.018757643178105354 -0.8759689331054688
0.007751941680908203 -0.018066691234707832 -0.8604651689529419
0.007751941680908203 -0.017591342329978943 -0.8449612259864807
0.007751941680908203 -0.01716148853302002 -0.8294572830200195
0.007751941680908203 -0.016818851232528687 -0.8139535188674927
0.007751941680908203 -0.016676049679517746 -0.7984496355056763
0.007751941680908203 -0.01641787774860859 -0.7829457521438599
0.007751941680908203 -0.016140049323439598 -0.7674418687820435
0.007751941680908203 -0.015610361471772194 -0.751937985420227
0.007751941680908203 -0.014941228553652763 -0.7364341020584106
0.007751941680908203 -0.014287404716014862 -0.7209302186965942
0.007751941680908203 -0.013745486736297607 -0.7054263353347778
0.007751941680908203 -0.013291332870721817 -0.6899224519729614
0.007751941680908203 -0.012750627472996712 -0.674418568611145
0.007751941680908203 -0.01212624367326498 -0.6589146852493286
0.007751941680908203 -0.011143377050757408 -0.6434109210968018
0.007751941680908203 -0.010354898869991302 -0.6279070377349854
0.007751941680908203 -0.009492650628089905 -0.6124030947685242
0.007751941680908203 -0.008665012195706367 -0.5968992114067078
0.007751941680908203 -0.007939144037663937 -0.5813953876495361
0.007751941680908203 -0.008189699612557888 -0.5658915042877197
0.007751941680908203 -0.0088283596560359 -0.5503876209259033
0.007751941680908203 -0.009178021922707558 -0.5348837375640869
0.007751941680908203 -0.009762073867022991 -0.5193798542022705
0.007751941680908203 -0.010385699570178986 -0.5038759708404541
0.007751941680908203 -0.010920409113168716 -0.4883720874786377
0.007751941680908203 -0.01127702184021473 -0.4728682041168213
0.007751941680908203 -0.011846045032143593 -0.4573643207550049
0.007751941680908203 -0.012510448694229126 -0.4418604373931885
0.007751941680908203 -0.013401104137301445 -0.42635661363601685
0.007751941680908203 -0.014855308458209038 -0.41085273027420044
0.007751941680908203 -0.01661507599055767 -0.39534884691238403
0.007751941215246916 -0.018957890570163727 -0.3798449635505676
0.007751941680908203 -0.022292671725153923 -0.3643410801887512
0.007751941680908203 -0.0010956532787531614 0.9069766998291016
0.007751941680908203 0.02929161675274372 0.6589146852493286
0.007751941680908203 0.06182615086436272 0.674418568611145
0.007751941680908203 0.07719190418720245 0.7674418687820435
0.007751941680908203 0.08326923847198486 0.7829457521438599
0.007751941680908203 0.09161923825740814 0.751937985420227
0.007751941680908203 0.09572115540504456 0.7984496355056763
0.007751941680908203 0.11158910393714905 0.674418568611145
0.007751941680908203 0.1360139101743698 0.7364341616630554
0.007751941680908203 0.1363912671804428 0.798449695110321
0.007751941680908203 0.15570104122161865 0.674418568611145
0.007751941680908203 0.15895181894302368 0.7829457521438599
0.007751941680908203 0.16725192964076996 0.6899224519729614
0.007751941215246916 0.1700277477502823 0.7054263353347778
0.00775194214656949 0.1655956506729126 0.7209302186965942
0.007751941680908203 0.19057396054267883 0.8914728164672852
0.007751941680908203 0.19758939743041992 0.7829457521438599
0.007751941680908203 0.19916385412216187 0.8604651689529419
0.00775194214656949 0.19988366961479187 0.8759689331054688
0.007751941680908203 0.21950295567512512 0.7984496355056763
0.007751941680908203 0.2136204093694687 0.8449612259864807
0.007751941680908203 0.22690384089946747 0.8139535188674927
0.007751941680908203 0.22708745300769806 0.8294574022293091
0.02325582504272461 -0.26110732555389404 0.8294574022293091
0.02325582504272461 -0.22513025999069214 0.8139535188674927
0.02325582504272461 -0.23977793753147125 0.8449612855911255
0.02325582504272461 -0.20943626761436462 0.7829457521438599
0.02325582504272461 -0.212661474943161 0.7984496355056763
0.02325582504272461 -0.1947271078824997 0.7209302186965942
0.02325582504272461 -0.1984136551618576 0.7364341020584106
0.02325582504272461 -0.2010919749736786 0.751937985420227
0.02325582504272461 -0.20213626325130463 0.7674418687820435
0.02325582504272461 -0.1946602463722229 0.8604651689529419
0.02325582504272461 -0.17969903349876404 0.7054263353347778
0.02325582504272461 -0.133222296833992 0.8759689331054688
0.02325582504272461 -0.10889323055744171 0.6899224519729614
0.02325582504272461 -0.08917096257209778 0.674418568611145
0.02325582504272461 -0.09646378457546234 0.8914728164672852
0.02325582504272461 -0.07208391278982162 0.6589146852493286
0.02325582504272461 -0.05863862857222557 0.9069766998291016
0.02325582504272461 -0.03970387950539589 -0.9844961166381836
0.02325582504272461 -0.0391421876847744 -0.9689922332763672
0.02325582504272461 -0.038804300129413605 -0.9534883499145508
0.02325582504272461 -0.03893196955323219 -0.9379844665527344
0.02325582504272461 -0.03879504278302193 -0.9224806427955627
0.02325582504272461 -0.038876622915267944 -0.9069767594337463
0.02325582504272461 -0.03944462537765503 -0.8914728760719299
0.02325582504272461 -0.04002028703689575 -0.8759689927101135
0.02325582504272461 -0.040151454508304596 -0.8604651093482971
0.02325582504272461 -0.04004322737455368 -0.8449611663818359
0.02325582504272461 -0.040031954646110535 -0.8294573426246643
0.02325582504272461 -0.039927419275045395 -0.8139535188674927
0.02325582504272461 -0.039618656039237976 -0.7984496355056763
0.02325582504272461 -0.03939971327781677 -0.7829457521438599
0.02325582504272461 -0.03954745829105377 -0.7674418687820435
0.02325582504272461 -0.03961808234453201 -0.751937985420227
0.02325582504272461 -0.03992656618356705 -0.7364341020584106
0.02325582504272461 -0.04007178172469139 -0.7209302186965942
0.02325582504272461 -0.04026740416884422 -0.7054263353347778
0.02325582504272461 -0.040149327367544174 -0.6899224519729614
0.02325582504272461 -0.039871200919151306 -0.674418568611145
0.02325582504272461 -0.039617668837308884 -0.6589146852493286
0.02325582504272461 -0.03920569643378258 -0.643410861492157
0.02325582504272461 -0.03583501651883125 -0.6279069781303406
0.02325582504272461 -0.02844248339533806 -0.6124030947685242
0.02325582504272461 -0.025227926671504974 -0.5968992114067078
0.02325582504272461 -0.023218326270580292 -0.9844961166381836
0.02325582504272461 -0.02243599109351635 -0.9689922332763672
0.02325582504272461 -0.022617170587182045 -0.9534883499145508
0.02325582504272461 -0.022239407524466515 -0.9379844665527344
0.02325582504272461 -0.02226923033595085 -0.9224806427955627
0.02325582504272461 -0.022141719236969948 -0.9069767594337463
0.02325582690536976 -0.021555062383413315 -0.8914729356765747
0.02325582504272461 -0.020979350432753563 -0.8759689927101135
0.02325582504272461 -0.020795335993170738 -0.8604650497436523
0.02325582504272461 -0.02090703882277012 -0.8449612855911255
0.02325582504272461 -0.02089747227728367 -0.8294574022293091
0.02325582504272461 -0.020875992253422737 -0.8139535188674927
0.02325582690536976 -0.021285168826580048 -0.7984496355056763
0.02325582504272461 -0.021621042862534523 -0.7829457521438599
0.02325582504272461 -0.021635297685861588 -0.7674418687820435
0.02325582504272461 -0.021781325340270996 -0.751937985420227
0.02325582504272461 -0.02138020657002926 -0.7364341020584106
0.02325582504272461 -0.02101157419383526 -0.7209302186965942
0.02325582690536976 -0.0207420215010643 -0.7054263353347778
0.02325582504272461 -0.020700445398688316 -0.6899224519729614
0.02325582318007946 -0.020786866545677185 -0.674418568611145
0.02325582504272461 -0.020777253434062004 -0.6589146852493286
0.02325582504272461 -0.020804105326533318 -0.6434109210968018
0.02325582504272461 -0.021473802626132965 -0.6279069781303406
0.02325582504272461 -0.022229161113500595 -0.6124030947685242
0.02325582690536976 -0.022684641182422638 -0.5968992114067078
0.02325582504272461 0.009167017415165901 0.9069766998291016
0.02325582504272461 0.027332132682204247 0.6589146852493286
0.02325582504272461 0.06180546432733536 0.674418568611145
0.02325582504272461 0.07146807014942169 0.7674419283866882
0.02325582504272461 0.07542373985052109 0.7829457521438599
0.02325582504272461 0.09273294359445572 0.674418568611145
0.02325582504272461 0.08636707067489624 0.751937985420227
0.02325582504272461 0.08608651906251907 0.7984496355056763
0.02325582504272461 0.09681589901447296 0.8139535188674927
0.02325582504272461 0.11259201914072037 0.6589146852493286
0.02325582504272461 0.11875145882368088 0.8139535188674927
0.02325582504272461 0.13969190418720245 0.6589146852493286
0.02325582690536976 0.133575439453125 0.7364341020584106
0.02325582504272461 0.1399141252040863 0.7984496355056763
0.02325582504272461 0.14947588741779327 0.7829457521438599
0.02325582504272461 0.16395339369773865 0.6744186282157898
0.02325582504272461 0.17042170464992523 0.6899224519729614
0.02325582504272461 0.17110386490821838 0.7054263353347778
0.02325582504272461 0.1654992699623108 0.7209302186965942
0.02325582504272461 0.18414947390556335 0.8914728164672852
0.02325582504272461 0.20495057106018066 0.7829457521438599
0.02325582504272461 0.20617395639419556 0.8449612855911255
0.02325582504272461 0.19749121367931366 0.8604651689529419
0.02325582504272461 0.198036327958107 0.8759689331054688
0.02325582504272461 0.22361961007118225 0.7984496355056763
0.02325582504272461 0.22775983810424805 0.8139535188674927
0.02325582504272461 0.22609896957874298 0.8294574022293091
0.038759708404541016 -0.2741861939430237 0.8294574022293091
0.038759708404541016 -0.2562033534049988 0.8139535188674927
0.038759708404541016 -0.23372021317481995 0.8449612855911255
0.038759708404541016 -0.209943950176239 0.7829457521438599
0.038759708404541016 -0.21401464939117432 0.7984496355056763
0.038759708404541016 -0.19557088613510132 0.7209302186965942
0.038759708404541016 -0.20112520456314087 0.7364341020584106
0.038759708404541016 -0.2044716775417328 0.751937985420227
0.038759708404541016 -0.20459339022636414 0.7674418687820435
0.038759708404541016 -0.17843779921531677 0.7054263353347778
0.038759708404541016 -0.18354323506355286 0.8604651689529419
0.038759708404541016 -0.14808335900306702 0.8759689331054688
0.038759708404541016 -0.1082540974020958 0.6899224519729614
0.038759708404541016 -0.10173548758029938 0.8914728164672852
0.038759708404541016 -0.09081816673278809 0.674418568611145
0.038759708404541016 -0.07527493685483932 0.6589146852493286
0.038759708404541016 -0.05543021857738495 0.9069766998291016
0.038759708404541016 -0.04601234570145607 0.6434108018875122
0.038759708404541016 -0.010741167701780796 0.6434108018875122
0.038759708404541016 0.030526846647262573 0.6589146852493286
0.038759708404541016 0.02641298994421959 0.9069767594337463
0.038759708404541016 0.06610141694545746 0.674418568611145
0.038759708404541016 0.06972183287143707 0.7674418687820435
0.038759708404541016 0.07377822697162628 0.7829457521438599
0.038759708404541016 0.08348962664604187 0.7984496355056763
0.038759708404541016 0.08720090240240097 0.674418568611145
0.038759708404541016 0.08695076406002045 0.751937985420227
0.038759708404541016 0.09208127111196518 0.8139535188674927
0.038759708404541016 0.11048442125320435 0.6589146852493286
0.038759708404541016 0.13149584829807281 0.7984496355056763
0.038759708404541016 0.12254971265792847 0.8139535188674927
0.038759708404541016 0.1390736699104309 0.6589146852493286
0.038759708404541016 0.13674409687519073 0.7364341020584106
0.038759708404541016 0.1373952031135559 0.7829457521438599
0.038759708404541016 0.16178245842456818 0.674418568611145
0.038759708404541016 0.16815239191055298 0.6899224519729614
0.038759708404541016 0.16858214139938354 0.7054263353347778
0.038759708404541016 0.16383150219917297 0.7209301590919495
0.038759708404541016 0.16825059056282043 0.8914727568626404
0.038759708404541016 0.19599777460098267 0.8604651689529419
0.038759712129831314 0.19556868076324463 0.8759689331054688
0.038759708404541016 0.21338646113872528 0.7829457521438599
0.038759708404541016 0.21075108647346497 0.8449612855911255
0.038759712129831314 0.22727641463279724 0.7984496355056763
0.038759708404541016 0.23544557392597198 0.8139535188674927
0.038759708404541016 0.22885079681873322 0.8294574022293091
0.05426359176635742 -0.27711203694343567 0.8294574022293091
0.05426359549164772 -0.26837149262428284 0.8139535188674927
0.05426359176635742 -0.21129882335662842 0.7829457521438599
0.05426359176635742 -0.21724262833595276 0.7984496355056763
0.05426359176635742 -0.22289712727069855 0.8449612855911255
0.05426359176635742 -0.19415175914764404 0.7209302186965942
0.05426359176635742 -0.20072688162326813 0.7364341020584106
0.05426359176635742 -0.20381003618240356 0.751937985420227
0.05426359176635742 -0.20533031225204468 0.7674418687820435
0.05426359176635742 -0.16892287135124207 0.7054263353347778
0.05426359176635742 -0.17798182368278503 0.8604651689529419
0.05426359176635742 -0.14963743090629578 0.8759689331054688
0.05426359176635742 -0.10784788429737091 0.6899224519729614
0.05426359176635742 -0.10405807197093964 0.8914728164672852
0.05426359176635742 -0.08572398126125336 0.08527135848999023
0.05426359176635742 -0.09157503396272659 0.674418568611145
0.05426359176635742 -0.07180266082286835 0.06976747512817383
0.05426359176635742 -0.07650966197252274 0.6589146852493286
0.05426359176635742 -0.05459268018603325 0.6434108018875122
0.05426359176635742 -0.05310332402586937 0.08527135848999023
0.05426359176635742 -0.038739003241062164 0.06976747512817383
0.05426359176635742 -0.03326576203107834 0.9069766998291016
0.05426359176635742 0.0033130310475826263 0.6434108018875122
0.05426359176635742 0.03433317318558693 0.6589146852493286
0.05426359176635742 0.06646721810102463 0.674418568611145
0.05426359176635742 0.06854705512523651 0.7674418687820435
0.05426359176635742 0.05536247417330742 0.9069766998291016
0.05426359176635742 0.07377198338508606 0.7829457521438599
0.05426359176635742 0.08284388482570648 0.7984496355056763
0.05426359176635742 0.08347752690315247 0.8604651689529419
0.05426359176635742 0.08921857178211212 0.751937985420227
0.05426359176635742 0.08868870884180069 0.8139535784721375
0.05426359176635742 0.09754855930805206 0.8759689331054688
0.05426359176635742 0.09141336381435394 0.8914728760719299
0.05426359176635742 0.10092636197805405 0.674418568611145
0.05426359176635742 0.10605189204216003 0.8604651689529419
0.05426359176635742 0.10264654457569122 0.8759689331054688
0.05426359176635742 0.12852171063423157 0.7829457521438599
0.05426359176635742 0.12610718607902527 0.7984496355056763
0.05426359176635742 0.12212610244750977 0.8139535188674927
0.05426359176635742 0.13157065212726593 0.8914728164672852
0.05426359176635742 0.13773180544376373 0.7364341020584106
0.05426359176635742 0.13240444660186768 0.8914727568626404
0.05426359176635742 0.15042194724082947 0.674418568611145
0.05426359176635742 0.1605972945690155 0.6899224519729614
0.05426359176635742 0.15569078922271729 0.7209302186965942
0.05426359176635742 0.15369047224521637 0.7674418687820435
0.05426359176635742 0.16289110481739044 0.7054262757301331
0.05426359176635742 0.18592342734336853 0.7674418687820435
0.05426359176635742 0.1893593966960907 0.8604651689529419
0.05426359176635742 0.18299832940101624 0.8759689331054688
0.05426359176635742 0.21744903922080994 0.7829457521438599
0.05426359549164772 0.2109972983598709 0.8449612855911255
0.05426359176635742 0.2295772135257721 0.7984496355056763
0.05426359176635742 0.23751670122146606 0.8139535188674927
0.05426359549164772 0.2280067503452301 0.8294574618339539
0.06976747512817383 -0.27307313680648804 0.8139535188674927
0.06976747512817383 -0.2769831418991089 0.8294574022293091
0.06976747512817383 -0.21611148118972778 0.7829457521438599
0.06976747512817383 -0.22041115164756775 0.7984496355056763
0.06976747512817383 -0.21619874238967896 0.8449612855911255
0.06976747512817383 -0.19841018319129944 0.7364341020584106
0.06976747512817383 -0.2018805891275406 0.751937985420227
0.06976747512817383 -0.2069346010684967 0.7674418687820435
0.06976747512817383 -0.18898403644561768 0.7209302186965942
0.06976747512817383 -0.17411547899246216 0.8604651093482971
0.06976747512817383 -0.1624412089586258 0.7054263353347778
0.06976747512817383 -0.14652082324028015 0.8759689331054688
0.06976747512817383 -0.11745031177997589 0.08527135848999023
0.06976747512817383 -0.10139260441064835 0.06976747512817383
0.06976747512817383 -0.10941866040229797 0.6899224519729614
0.06976747512817383 -0.09375458210706711 0.674418568611145
0.06976747512817383 -0.09956870228052139 0.8914728164672852
0.06976747512817383 -0.07906240969896317 0.6589146852493286
0.06976747512817383 -0.05778925120830536 0.6434108018875122
0.06976747512817383 -0.034777089953422546 0.06976747512817383
0.06976747512817383 -0.023088883608579636 0.08527135103940964
0.06976747512817383 -0.0031328625045716763 0.9069766998291016
0.06976747512817383 0.009286722168326378 0.6434108018875122
0.06976747512817383 0.039208464324474335 0.6589146852493286
0.06976747512817383 0.05745171010494232 0.9069766998291016
0.06976747512817383 0.07030539959669113 0.674418568611145
0.06976747512817383 0.07158879190683365 0.7674418687820435
0.06976747512817383 0.07802923023700714 0.7829457521438599
0.06976747512817383 0.08132222294807434 0.8449612855911255
0.06976747512817383 0.07332722842693329 0.8604651093482971
0.06976747512817383 0.0763845145702362 0.8759689331054688
0.06976747512817383 0.07803057134151459 0.8914728164672852
0.06976747512817383 0.09536392241716385 0.751937985420227
0.06976747512817383 0.08666276186704636 0.7984496355056763
0.06976747512817383 0.08782968670129776 0.8139535188674927
0.06976747512817383 0.10004236549139023 0.8294574022293091
0.06976748257875443 0.10103849321603775 0.8294574022293091
0.06976747512817383 0.105923593044281 0.8449612855911255
0.06976747512817383 0.11581062525510788 0.8604651689529419
0.06976747512817383 0.11794140189886093 0.7829457521438599
0.06976747512817383 0.11927726119756699 0.7984496355056763
0.06976747512817383 0.12415233254432678 0.8139535188674927
0.06976747512817383 0.1194288432598114 0.8759689331054688
0.06976747512817383 0.13880735635757446 0.6899224519729614
0.06976747512817383 0.13907039165496826 0.7364341020584106
0.06976747512817383 0.13417939841747284 0.7674418687820435
0.06976747512817383 0.1498771458864212 0.7054263353347778
0.06976747512817383 0.15079151093959808 0.720930278301239
0.06976747512817383 0.1739313155412674 0.8759689331054688
0.06976747512817383 0.18579375743865967 0.7674418687820435
0.06976747512817383 0.17982541024684906 0.8604651689529419
0.06976747512817383 0.20733901858329773 0.8449612855911255
0.06976747512817383 0.2161649465560913 0.7829457521438599
0.06976747512817383 0.227929949760437 0.7984496355056763
0.06976747512817383 0.23031169176101685 0.8139535188674927
0.06976747512817383 0.22637885808944702 0.8294574022293091
0.08527135848999023 -0.2732163965702057 0.8139535188674927
0.08527135848999023 -0.2734396159648895 0.8294574022293091
0.08527135848999023 -0.2145436853170395 0.7829457521438599
0.08527135848999023 -0.21708634495735168 0.7984496355056763
0.08527135848999023 -0.21125781536102295 0.8449612855911255
0.08527135848999023 -0.19708849489688873 0.7364341020584106
0.08527135848999023 -0.20072901248931885 0.751937985420227
0.08527135848999023 -0.20452919602394104 0.7674418687820435
0.08527135848999023 -0.1859055608510971 0.7209302186965942
0.08527135848999023 -0.1704792082309723 0.8604651689529419
0.08527135848999023 -0.1594548225402832 0.7054263353347778
0.08527135848999023 -0.14119501411914825 0.8759689331054688
0.08527135848999023 -0.12131738662719727 0.08527135848999023
0.08527135848999023 -0.10250885784626007 0.06976747512817383
0.08527135848999023 -0.11428608000278473 0.6899224519729614
0.08527135848999023 -0.08960594236850739 0.10077524185180664
0.08527135848999023 -0.09760046005249023 0.674418568611145
0.08527135848999023 -0.09180667251348495 0.8914728164672852
0.08527135848999023 -0.08377105742692947 0.10077524185180664
0.08527135848999023 -0.08268995583057404 0.6589146852493286
0.08527135848999023 -0.06142834201455116 0.6434108018875122
0.08527135848999023 -0.03002174198627472 0.06976747512817383
0.08527135848999023 -0.012745561078190804 0.08527135848999023
0.08527135848999023 0.004324556328356266 0.9069766998291016
0.08527135848999023 0.013791532255709171 0.6434108018875122
0.08527135848999023 0.045183636248111725 0.6589146852493286
0.08527135848999023 0.05447626858949661 0.9069766998291016
0.08527135848999023 0.07611732184886932 0.674418568611145
0.08527135848999023 0.08174541592597961 0.7674418687820435
0.08527135848999023 0.08188995718955994 0.8449612855911255
0.08527136594057083 0.0725996196269989 0.8604651689529419
0.08527135848999023 0.07215246558189392 0.8759689331054688
0.08527136594057083 0.07361175119876862 0.8914728164672852
0.08527135848999023 0.0927065759897232 0.8139535188674927
0.08527135848999023 0.09372951835393906 0.8294574022293091
0.08527135848999023 0.10531763732433319 0.751937985420227
0.08527135848999023 0.10767115652561188 0.8294574022293091
0.08527135848999023 0.11162621527910233 0.8449612855911255
0.08527135848999023 0.12356014549732208 0.6899224519729614
0.08527135848999023 0.12157884240150452 0.7674418687820435
0.08527135848999023 0.12285274267196655 0.8139535188674927
0.08527135848999023 0.12613585591316223 0.8604651689529419
0.08527135848999023 0.14346452057361603 0.7054263353347778
0.08527135848999023 0.13942734897136688 0.7364341020584106
0.08527135848999023 0.14460469782352448 0.8759689331054688
0.08527135848999023 0.1480933278799057 0.7209302186965942
0.08527136594057083 0.14781734347343445 0.8759689331054688
0.08527135848999023 0.16532288491725922 0.8604651689529419
0.08527135848999023 0.1823781132698059 0.7674418687820435
0.08527135848999023 0.19748805463314056 0.8449612855911255
0.08527135848999023 0.2116105854511261 0.7829457521438599
0.08527135848999023 0.21904896199703217 0.8294574022293091
0.08527135848999023 0.2253335416316986 0.798449695110321
0.08527135848999023 0.22639065980911255 0.8139535188674927
0.10077524185180664 -0.27158576250076294 0.8139535188674927
0.10077524185180664 -0.26203206181526184 0.8294574022293091
0.10077524185180664 -0.2349628210067749 0.8139535188674927
0.10077524185180664 -0.21007831394672394 0.7829457521438599
0.10077524185180664 -0.2135721743106842 0.7984496355056763
0.10077524185180664 -0.21973568201065063 0.8139535188674927
0.10077524185180664 -0.19655980169773102 0.7364341020584106
0.10077524185180664 -0.2002551555633545 0.751937985420227
0.10077524185180664 -0.20141533017158508 0.7674418687820435
0.10077524185180664 -0.2043216973543167 0.8449612855911255
0.10077524185180664 -0.18501630425453186 0.7209302186965942
0.10077524185180664 -0.16355390846729279 0.7054263353347778
0.10077524185180664 -0.16847878694534302 0.8604651689529419
0.10077524185180664 -0.13791589438915253 0.8759689331054688
0.10077524185180664 -0.12838110327720642 0.08527135848999023
0.10077524185180664 -0.12342983484268188 0.6899224519729614
0.10077524185180664 -0.10370320081710815 0.06976747512817383
0.10077524185180664 -0.10298874229192734 0.674418568611145
0.10077524185180664 -0.09813674539327621 0.10077524185180664
0.10077524185180664 -0.08670831471681595 0.6589146852493286
0.10077524185180664 -0.08750869333744049 0.8914728164672852
0.10077524185180664 -0.06745146960020065 0.10077524185180664
0.10077524185180664 -0.06601014733314514 0.6434108018875122
0.10077524185180664 -0.02219168283045292 0.06976747512817383
0.10077523440122604 -0.0025500247720628977 0.08527135848999023
0.10077524185180664 0.0206327885389328 0.6434108018875122
0.10077524185180664 0.009669923223555088 0.9069766402244568
0.10077524185180664 0.04655645042657852 0.9069766998291016
0.10077524185180664 0.055211883038282394 0.6589146852493286
0.10077524185180664 0.08312645554542542 0.674418568611145
0.10077524185180664 0.08500155061483383 0.8449612855911255
0.10077523440122604 0.0733264684677124 0.8604651093482971
