0.28682172298431396 0.2110934853553772 0.25581395626068115
0.28682172298431396 0.2126092165708542 0.27131783962249756
0.28682172298431396 0.2140321582555771 0.28682172298431396
0.28682172298431396 0.21398024260997772 0.30232560634613037
0.28682172298431396 0.21317730844020844 0.3178294897079468
0.28682172298431396 0.21148502826690674 0.3333333730697632
0.28682172298431396 0.21035808324813843 0.3488372266292572
0.28682175278663635 0.2101038247346878 0.364341139793396
0.28682172298431396 0.21047770977020264 0.37984490394592285
0.28682172298431396 0.210809588432312 0.39534881711006165
0.28682172298431396 0.20974741876125336 0.41085267066955566
0.30232560634613037 -0.1783571094274521 0.007751941680908203
0.30232560634613037 -0.17927798628807068 0.02325582504272461
0.30232560634613037 -0.17994637787342072 0.038759708404541016
0.30232560634613037 -0.17997267842292786 0.05426359176635742
0.30232560634613037 -0.18027013540267944 0.06976747512817383
0.30232560634613037 -0.18055906891822815 0.08527135848999023
0.30232560634613037 -0.18108120560646057 0.10077524185180664
0.30232560634613037 -0.1829947680234909 0.11627912521362305
0.30232560634613037 -0.18443576991558075 0.1317828893661499
0.30232560634613037 -0.18361252546310425 0.1472867727279663
0.30232560634613037 -0.18185296654701233 0.16279065608978271
0.30232560634613037 -0.18126040697097778 0.17829453945159912
0.30232560634613037 -0.18154945969581604 0.19379842281341553
0.30232560634613037 -0.18189066648483276 0.20930230617523193
0.30232560634613037 -0.18149180710315704 0.22480618953704834
0.30232560634613037 -0.18121841549873352 0.24031007289886475
0.30232560634613037 -0.1814727783203125 0.25581395626068115
0.30232560634613037 -0.18187588453292847 0.27131783962249756
0.30232560634613037 -0.18296818435192108 0.28682172298431396
0.30232560634613037 -0.18364843726158142 0.30232560634613037
0.30232560634613037 -0.1839536428451538 0.3178294897079468
0.30232560634613037 -0.18359071016311646 0.3333333730697632
0.30232560634613037 -0.18284454941749573 0.3488372564315796
0.30232560634613037 -0.18239891529083252 0.364341139793396
0.30232560634613037 -0.1822264939546585 0.37984490394592285
0.30232560634613037 -0.18132883310317993 0.39534878730773926
0.30232560634613037 -0.18025636672973633 0.41085267066955566
0.30232560634613037 -0.17915135622024536 0.42635655403137207
0.30232560634613037 -0.16492655873298645 -0.08527129888534546
0.30232560634613037 -0.16880035400390625 -0.06976741552352905
0.30232560634613037 -0.1720263659954071 -0.05426359176635742
0.30232560634613037 -0.1741534173488617 -0.038759708404541016
0.30232560634613037 -0.1754392683506012 -0.02325582504272461
0.30232560634613037 -0.17675448954105377 -0.007751941680908203
0.30232563614845276 -0.1775318831205368 0.4418604373931885
0.30232560634613037 -0.17531026899814606 0.4573643207550049
0.30232560634613037 -0.17317622900009155 0.4728681743144989
0.30232560634613037 -0.17112420499324799 0.4883720874786377
0.30232560634613037 -0.16887348890304565 0.5038759708404541
0.30232560634613037 -0.16578392684459686 0.5193798542022705
0.30232560634613037 -0.15038463473320007 -0.1627907156944275
0.30232560634613037 -0.1525765210390091 -0.14728683233261108
0.30232560634613037 -0.15530142188072205 -0.13178294897079468
0.30232560634613037 -0.15841010212898254 -0.11627906560897827
0.30232560634613037 -0.16197793185710907 -0.10077518224716187
0.30232560634613037 -0.1611974686384201 0.5348837375640869
0.30232560634613037 -0.1558387577533722 0.5503876209259033
0.30232560634613037 -0.15199288725852966 0.5658915042877197
0.30232560634613037 -0.13271686434745789 -0.22480618953704834
0.30232560634613037 -0.13732627034187317 -0.20930230617523193
0.30232560634613037 -0.14195069670677185 -0.19379842281341553
0.30232560634613037 -0.14708147943019867 -0.1782945990562439
0.30232560634613037 -0.14569123089313507 0.5813953876495361
0.30232560634613037 -0.13721361756324768 0.5968992710113525
0.30232560634613037 -0.12107468396425247 -0.30232560634613037
0.30232560634613037 -0.12369963526725769 -0.28682172298431396
0.30232560634613037 -0.12449166178703308 -0.27131783962249756
0.30232560634613037 -0.12659911811351776 -0.25581395626068115
0.30232563614845276 -0.1297527402639389 -0.24031007289886475
0.30232560634613037 -0.12814301252365112 0.612403154373169
0.30232560634613037 -0.11941595375537872 0.6279069185256958
0.30232560634613037 -0.10125423967838287 -0.3333333134651184
0.30232560634613037 -0.11218306422233582 -0.317829430103302
0.30232560634613037 -0.10604758560657501 0.6434108018875122
0.30232560634613037 -0.08915247023105621 -0.3488371968269348
0.30232560634613037 -0.0857868418097496 0.6589146852493286
0.30232560634613037 -0.07748936116695404 -0.3643410801887512
0.30232560634613037 -0.06471139192581177 -0.3798449635505676
0.30232560634613037 -0.05646546185016632 0.674418568611145
0.30232560634613037 -0.050071291625499725 -0.39534884691238403
0.30232560634613037 -0.028467651456594467 -0.41085273027420044
0.30232560634613037 0.032767198979854584 -0.41085273027420044
0.30232560634613037 0.05403605103492737 -0.39534884691238403
0.30232560634613037 0.067337766289711 -0.3798449635505676
0.30232560634613037 0.05651221051812172 0.674418568611145
0.30232560634613037 0.07885551452636719 -0.3643410801887512
0.30232560634613037 0.08283308893442154 0.6589146852493286
0.30232560634613037 0.08904173225164413 -0.3488371968269348
0.30232560634613037 0.09974119067192078 -0.3333333134651184
0.30232560634613037 0.10852935910224915 -0.317829430103302
0.30232560634613037 0.10334977507591248 0.6434108018875122
0.30232560634613037 0.11749940365552902 -0.30232560634613037
0.30232560634613037 0.12086524069309235 -0.28682172298431396
0.30232560634613037 0.12362585961818695 -0.27131783962249756
0.30232560634613037 0.12717631459236145 -0.25581395626068115
0.30232560634613037 0.1269320547580719 0.612403154373169
0.30232560634613037 0.11700856685638428 0.6279069185256958
0.30232563614845276 0.13226573169231415 -0.24031008780002594
0.30232560634613037 0.13488762080669403 -0.22480618953704834
0.30232560634613037 0.13733723759651184 -0.20930230617523193
0.30232560634613037 0.14100220799446106 -0.19379842281341553
0.30232560634613037 0.14669369161128998 -0.1782945990562439
0.30232560634613037 0.14698801934719086 0.5813953876495361
0.30232560634613037 0.1375049352645874 0.5968992710113525
0.30232560634613037 0.15104423463344574 -0.1627907156944275
0.30232560634613037 0.15386351943016052 -0.14728683233261108
0.30232560634613037 0.1574706733226776 -0.13178294897079468
0.30232560634613037 0.16252820193767548 -0.11627906560897827
0.30232560634613037 0.15781331062316895 0.5503876209259033
0.30232560634613037 0.15407322347164154 0.5658915042877197
0.30232560634613037 0.16591526567935944 -0.10077518224716187
0.30232560634613037 0.16856162250041962 -0.08527129888534546
0.30232560634613037 0.17109414935112 -0.06976741552352905
0.30232560634613037 0.174603670835495 -0.05426359176635742
0.30232560634613037 0.1754065454006195 0.4883720874786377
0.30232560634613037 0.17240218818187714 0.5038759708404541
0.30232560634613037 0.16890454292297363 0.5193798542022705
0.30232560634613037 0.1636199951171875 0.5348837375640869
0.30232563614845276 0.17855143547058105 -0.038759712129831314
0.30232563614845276 0.1795787811279297 -0.02325582504272461
0.30232560634613037 0.181415393948555 -0.007751941680908203
0.30232560634613037 0.1846177726984024 0.007751941680908203
0.30232560634613037 0.18787740170955658 0.02325582504272461
0.30232560634613037 0.1898432970046997 0.038759708404541016
0.30232560634613037 0.18936687707901 0.05426359176635742
0.30232560634613037 0.18970178067684174 0.06976747512817383
0.30232560634613037 0.19088931381702423 0.08527135848999023
0.30232560634613037 0.1915629804134369 0.10077524185180664
0.30232560634613037 0.19224974513053894 0.11627912521362305
0.30232560634613037 0.1920139491558075 0.1317828893661499
0.30232560634613037 0.19031217694282532 0.1472867727279663
0.30232560634613037 0.18780171871185303 0.16279065608978271
0.30232560634613037 0.18820834159851074 0.17829453945159912
0.30232560634613037 0.19095858931541443 0.19379842281341553
0.30232560634613037 0.1936030387878418 0.20930230617523193
0.30232560634613037 0.19307178258895874 0.3488372564315796
0.30232560634613037 0.19236204028129578 0.364341139793396
0.30232560634613037 0.19229485094547272 0.37984490394592285
0.30232560634613037 0.19140279293060303 0.39534878730773926
0.30232560634613037 0.18952985107898712 0.41085267066955566
0.30232560634613037 0.18766871094703674 0.42635655403137207
0.30232560634613037 0.18499502539634705 0.4418604373931885
0.30232560634613037 0.18171356618404388 0.4573643207550049
0.30232560634613037 0.17876480519771576 0.4728682041168213
0.30232560634613037 0.19421517848968506 0.22480618953704834
0.30232560634613037 0.19421187043190002 0.24031007289886475
0.30232560634613037 0.19438780844211578 0.25581395626068115
0.30232560634613037 0.19500049948692322 0.27131783962249756
0.30232560634613037 0.1957845240831375 0.28682172298431396
0.30232560634613037 0.19573597609996796 0.30232560634613037
0.30232560634613037 0.1950586438179016 0.3178294897079468
0.30232560634613037 0.19406501948833466 0.3333333730697632
0.3178294897079468 -0.16326183080673218 0.28682172298431396
0.3178294897079468 -0.16367346048355103 0.30232560634613037
0.3178294897079468 -0.16386468708515167 0.3178294897079468
0.3178294897079468 -0.16353698074817657 0.3333333730697632
0.3178294897079468 -0.16284574568271637 0.3488372564315796
0.3178294897079468 -0.14872653782367706 -0.05426359176635742
0.3178294897079468 -0.15205290913581848 -0.038759708404541016
0.3178294897079468 -0.1536308228969574 -0.02325582504272461
0.3178294897079468 -0.15489822626113892 -0.007751941680908203
0.3178294897079468 -0.15661408007144928 0.007751941680908203
0.3178294897079468 -0.15846358239650726 0.02325582504272461
0.3178294897079468 -0.1595054566860199 0.038759708404541016
0.3178294897079468 -0.15937498211860657 0.05426359176635742
0.3178294897079468 -0.15952683985233307 0.06976747512817383
0.3178294897079468 -0.15962161123752594 0.08527135848999023
0.3178294897079468 -0.15986594557762146 0.10077524185180664
0.3178294897079468 -0.161409392952919 0.11627913266420364
0.3178294897079468 -0.16275225579738617 0.1317828893661499
0.3178294897079468 -0.1622898429632187 0.1472867727279663
0.3178294897079468 -0.16075745224952698 0.16279065608978271
0.3178294897079468 -0.15993382036685944 0.17829453945159912
0.3178294897079468 -0.16035997867584229 0.19379842281341553
0.3178294897079468 -0.16092169284820557 0.20930230617523193
0.3178294897079468 -0.160891592502594 0.22480618953704834
0.3178294897079468 -0.16103363037109375 0.24031007289886475
0.3178294897079468 -0.16183634102344513 0.25581395626068115
0.3178294599056244 -0.16261187195777893 0.27131783962249756
0.3178294897079468 -0.16197220981121063 0.364341139793396
0.3178294897079468 -0.16094395518302917 0.37984490394592285
0.3178294897079468 -0.15926587581634521 0.39534878730773926
0.3178294897079468 -0.1575413942337036 0.41085270047187805
0.3178294897079468 -0.1562516987323761 0.42635655403137207
0.3178294897079468 -0.15512484312057495 0.4418604373931885
0.3178294897079468 -0.15360914170742035 0.4573643207550049
0.3178294897079468 -0.15091665089130402 0.4728682041168213
0.3178294897079468 -0.14804324507713318 0.4883720874786377
0.3178294897079468 -0.13407276570796967 -0.10077518224716187
0.3178294897079468 -0.13894499838352203 -0.08527129888534546
0.3178294897079468 -0.14423462748527527 -0.06976741552352905
0.3178294897079468 -0.1437721997499466 0.5038759708404541
0.3178294897079468 -0.13967077434062958 0.5193798542022705
0.3178294897079468 -0.1359541416168213 0.5348837375640869
0.3178294897079468 -0.11877966672182083 -0.1627907156944275
0.3178294897079468 -0.12251095473766327 -0.14728683233261108
0.3178294897079468 -0.12637624144554138 -0.13178294897079468
0.31782951951026917 -0.12984797358512878 -0.11627906560897827
0.3178294897079468 -0.13049592077732086 0.5503876209259033
0.3178294897079468 -0.12424890697002411 0.5658915042877197
0.3178294897079468 -0.11844173818826675 0.5813953876495361
0.3178294897079468 -0.10812506079673767 -0.19379842281341553
0.3178294897079468 -0.1136188879609108 -0.1782945990562439
0.3178294897079468 -0.1071564331650734 0.5968992710113525
0.3178294897079468 -0.08959949016571045 -0.24031007289886475
0.3178294897079468 -0.09405665099620819 -0.22480618953704834
0.3178294897079468 -0.09968527406454086 -0.20930230617523193
0.3178294897079468 -0.0954102873802185 0.612403154373169
0.3178294897079468 -0.06991592049598694 -0.30232560634613037
0.3178294897079468 -0.07516665756702423 -0.28682172298431396
0.3178294897079468 -0.07858672738075256 -0.27131783962249756
0.31782951951026917 -0.08345995098352432 -0.25581395626068115
0.3178294897079468 -0.08095332980155945 0.6279069185256958
0.3178294897079468 -0.05584578588604927 -0.317829430103302
0.3178294897079468 -0.05941507965326309 0.6434108018875122
0.3178294897079468 -0.03220764920115471 -0.3333333134651184
0.3178294897079468 0.0015296286437660456 -0.3488371968269348
0.3178294897079468 0.01144920103251934 -0.3488371670246124
0.3178294897079468 0.04223353788256645 -0.3333333134651184
0.3178294897079468 0.060728318989276886 -0.317829430103302
0.3178294599056244 0.055225569754838943 0.6434108018875122
0.3178294897079468 0.07320472598075867 -0.30232560634613037
0.3178294897079468 0.07831519842147827 -0.28682172298431396
0.3178294897079468 0.08439859002828598 -0.27131783962249756
0.3178294897079468 0.0759131908416748 0.6279069185256958
0.3178294897079468 0.08997777849435806 -0.25581395626068115
0.3178294897079468 0.09463275969028473 -0.24031007289886475
0.3178294897079468 0.09890883415937424 -0.22480618953704834
0.3178294897079468 0.09039352834224701 0.612403154373169
0.3178294897079468 0.10370888561010361 -0.20930229127407074
0.3178294897079468 0.10915759205818176 -0.19379842281341553
0.3178294897079468 0.11361806094646454 -0.1782945990562439
0.3178294897079468 0.11344286054372787 0.5813953876495361
0.3178294897079468 0.10198024660348892 0.5968992710113525
0.3178294897079468 0.11900942027568817 -0.1627907156944275
0.3178294897079468 0.12256722152233124 -0.14728683233261108
0.3178294897079468 0.12608927488327026 -0.13178294897079468
0.3178294897079468 0.12971021234989166 -0.11627906560897827
0.3178294897079468 0.1262894570827484 0.5503876209259033
0.3178294897079468 0.12247049808502197 0.5658915042877197
0.3178294897079468 0.13484038412570953 -0.10077518224716187
0.3178294897079468 0.13939687609672546 -0.08527129888534546
0.3178294897079468 0.14465248584747314 -0.06976741552352905
0.3178294897079468 0.14329379796981812 0.5038759708404541
0.3178294897079468 0.1389216184616089 0.5193798542022705
0.3178294897079468 0.13216452300548553 0.5348837375640869
0.31782951951026917 0.15048541128635406 -0.05426359549164772
0.3178294897079468 0.1539049744606018 -0.038759708404541016
0.3178294897079468 0.1552337259054184 -0.02325582504272461
0.3178294897079468 0.15722805261611938 -0.007751941680908203
0.3178294897079468 0.16047526895999908 0.007751941680908203
0.3178294897079468 0.16225692629814148 0.42635655403137207
0.3178294897079468 0.15962819755077362 0.4418604373931885
0.3178294897079468 0.15654152631759644 0.4573643207550049
0.3178294897079468 0.15217867493629456 0.4728682041168213
0.3178294599056244 0.14759007096290588 0.4883720874786377
0.3178294897079468 0.16387858986854553 0.02325582318007946
0.3178294897079468 0.16509298980236053 0.03875970467925072
0.3178294897079468 0.16464781761169434 0.05426359176635742
0.3178294897079468 0.16510780155658722 0.06976747512817383
0.3178294897079468 0.16669103503227234 0.08527135848999023
0.3178294897079468 0.16902294754981995 0.10077524185180664
0.3178294897079468 0.17114302515983582 0.11627912521362305
0.3178294897079468 0.17187121510505676 0.1317828893661499
0.3178294897079468 0.17084121704101562 0.1472867727279663
0.3178294897079468 0.16749463975429535 0.16279065608978271
0.3178294897079468 0.16693362593650818 0.17829453945159912
0.3178294897079468 0.16923730075359344 0.19379842281341553
0.3178294897079468 0.1713884472846985 0.20930230617523193
0.3178294897079468 0.1719282567501068 0.22480618953704834
0.3178294897079468 0.17164163291454315 0.24031007289886475
0.3178294897079468 0.17203959822654724 0.25581395626068115
0.3178294897079468 0.17337331175804138 0.27131783962249756
0.3178294897079468 0.17343729734420776 0.28682172298431396
0.3178294897079468 0.17295008897781372 0.30232560634613037
0.3178294897079468 0.17251481115818024 0.3178294897079468
0.3178294897079468 0.1718215048313141 0.3333333730697632
0.3178294897079468 0.17016935348510742 0.3488372564315796
0.3178294897079468 0.16866886615753174 0.364341139793396
0.3178294897079468 0.16812261939048767 0.37984490394592285
0.3178294897079468 0.1670915186405182 0.39534875750541687
0.3178294897079468 0.16492855548858643 0.41085267066955566
0.3333333730697632 -0.13201777637004852 0.11627912521362305
0.3333333730697632 -0.13444571197032928 0.1317828893661499
0.3333333730697632 -0.1343780755996704 0.1472867727279663
0.3333333730697632 -0.1325562298297882 0.16279065608978271
0.3333333730697632 -0.13200509548187256 0.17829453945159912
0.3333333730697632 -0.13250643014907837 0.19379842281341553
0.3333333730697632 -0.13295795023441315 0.20930230617523193
0.3333333730697632 -0.13276277482509613 0.22480618953704834
0.3333333730697632 -0.13257037103176117 0.24031007289886475
0.3333333730697632 -0.13300512731075287 0.25581395626068115
0.3333333730697632 -0.13385871052742004 0.27131783962249756
0.3333333730697632 -0.1359272301197052 0.28682172298431396
0.3333333730697632 -0.13748690485954285 0.30232560634613037
0.3333333730697632 -0.13808518648147583 0.3178294897079468
0.3333333730697632 -0.1371421068906784 0.3333333730697632
0.3333333730697632 -0.1352553814649582 0.3488372564315796
0.3333333730697632 -0.1339162290096283 0.364341139793396
0.3333333730697632 -0.13294368982315063 0.37984490394592285
0.3333333730697632 -0.11801962554454803 -0.05426359176635742
0.3333333730697632 -0.12270720303058624 -0.038759708404541016
0.3333333730697632 -0.12472349405288696 -0.02325582504272461
0.3333333730697632 -0.12595193088054657 -0.007751941680908203
0.3333333730697632 -0.1279802769422531 0.007751941680908203
0.3333333730697632 -0.13002388179302216 0.02325582504272461
0.3333333730697632 -0.130965918302536 0.038759708404541016
0.3333333730697632 -0.13038522005081177 0.05426359176635742
0.3333333730697632 -0.1298699975013733 0.06976747512817383
0.3333333432674408 -0.12908701598644257 0.08527135848999023
0.3333333432674408 -0.1291763186454773 0.10077523440122604
0.3333333730697632 -0.1315804272890091 0.39534875750541687
0.3333333730697632 -0.12923172116279602 0.41085267066955566
0.3333333730697632 -0.12725280225276947 0.42635655403137207
0.3333333730697632 -0.1253478229045868 0.4418604373931885
0.3333333730697632 -0.12282194197177887 0.4573643207550049
0.3333333730697632 -0.11935313045978546 0.4728682041168213
0.3333333730697632 -0.10182555019855499 -0.08527129888534546
0.3333333730697632 -0.1112160012125969 -0.06976741552352905
0.3333333730697632 -0.11584917455911636 0.4883720576763153
0.3333333730697632 -0.11133390665054321 0.5038759708404541
0.3333333730697632 -0.10678699612617493 0.5193798542022705
0.3333333730697632 -0.08698619902133942 -0.11627906560897827
0.3333333730697632 -0.09460020810365677 -0.10077518224716187
0.3333333730697632 -0.1004306972026825 0.5348837375640869
0.3333333730697632 -0.09281538426876068 0.5503876209259033
0.3333333730697632 -0.08702808618545532 0.5658915042877197
0.3333333730697632 -0.0759550929069519 -0.14728683233261108
0.3333333730697632 -0.08256202191114426 -0.13178294897079468
0.3333333730697632 -0.0750671774148941 0.5813953876495361
0.3333333730697632 -0.060224488377571106 -0.1782945990562439
0.3333333730697632 -0.06764346361160278 -0.1627907156944275
0.3333333730697632 -0.05501206964254379 0.5968992710113525
0.3333333730697632 -0.049177609384059906 -0.19379842281341553
0.3333333730697632 -0.03372163325548172 -0.20930230617523193
0.3333333730697632 -0.028693992644548416 0.612403154373169
0.3333333730697632 -0.013580216094851494 -0.22480618953704834
0.3333333730697632 0.027885962277650833 -0.22480618953704834
0.3333333730697632 0.023908492177724838 0.612403154373169
0.3333333730697632 0.046719152480363846 -0.20930230617523193
0.3333333730697632 0.045469433069229126 0.5968992710113525
0.3333333730697632 0.059661492705345154 -0.19379842281341553
0.3333333730697632 0.06712882965803146 -0.1782945990562439
0.3333333730697632 0.0644034743309021 0.5813953876495361
0.3333333730697632 0.07389696687459946 -0.1627907156944275
0.3333333730697632 0.0782657191157341 -0.14728683233261108
0.3333333730697632 0.08323149383068085 -0.13178294897079468
0.3333333730697632 0.08220303058624268 0.5503876209259033
0.3333333730697632 0.07665145397186279 0.5658915042877197
0.3333333730697632 0.08702675998210907 -0.11627906560897827
0.3333333730697632 0.09359043836593628 -0.10077518224716187
0.3333333730697632 0.10048899799585342 -0.08527129888534546
0.3333333730697632 0.0980997234582901 0.5193798542022705
0.3333333730697632 0.09065564721822739 0.5348837375640869
0.3333333730697632 0.1089269295334816 -0.06976741552352905
0.3333333730697632 0.11577650904655457 0.4728682041168213
0.3333333730697632 0.1109708622097969 0.4883720874786377
0.3333333730697632 0.10491685569286346 0.5038759708404541
0.3333333730697632 0.11676625162363052 -0.05426359176635742
0.3333333730697632 0.12234742194414139 -0.038759708404541016
0.3333333730697632 0.124636709690094 -0.02325582504272461
0.3333333730697632 0.1269543468952179 -0.007751941680908203
0.3333333730697632 0.13010847568511963 0.007751941680908203
0.3333333730697632 0.12922097742557526 0.42635655403137207
0.3333333730697632 0.12559574842453003 0.4418604373931885
0.3333333730697632 0.12047713994979858 0.4573643207550049
0.3333333730697632 0.13308756053447723 0.02325582504272461
0.3333333730697632 0.13427239656448364 0.038759708404541016
0.3333333730697632 0.1339605301618576 0.05426359176635742
0.3333333730697632 0.13427753746509552 0.06976747512817383
0.3333333730697632 0.13598540425300598 0.08527135848999023
0.3333333730697632 0.13957500457763672 0.10077524185180664
0.3333333730697632 0.14300858974456787 0.11627912521362305
0.3333333730697632 0.14486724138259888 0.1317828893661499
0.3333333730697632 0.14506958425045013 0.1472867727279663
0.3333333730697632 0.14275985956192017 0.16279065608978271
0.3333333730697632 0.14110130071640015 0.17829453945159912
0.3333333730697632 0.14235416054725647 0.19379842281341553
0.3333333730697632 0.14363360404968262 0.20930230617523193
0.3333333730697632 0.14375263452529907 0.22480618953704834
0.3333333730697632 0.14316943287849426 0.24031007289886475
0.3333333730697632 0.1430269032716751 0.25581395626068115
0.3333333730697632 0.14370407164096832 0.27131783962249756
0.3333333730697632 0.14364096522331238 0.28682172298431396
0.3333333730697632 0.14278340339660645 0.30232560634613037
0.3333333730697632 0.14205965399742126 0.3178294897079468
0.3333333730697632 0.14110299944877625 0.3333333730697632
0.3333333730697632 0.1390169858932495 0.3488372564315796
0.3333333730697632 0.13703131675720215 0.364341139793396
0.3333333730697632 0.13603545725345612 0.37984490394592285
0.3333333730697632 0.13441558182239532 0.39534878730773926
0.3333333730697632 0.13203513622283936 0.41085267066955566
0.3488372564315796 -0.10102678090333939 0.1317828893661499
0.3488372564315796 -0.10173095762729645 0.1472867727279663
0.3488372564315796 -0.10092382878065109 0.19379842281341553
0.3488372564315796 -0.10157822072505951 0.20930230617523193
0.3488372564315796 -0.10155016928911209 0.22480618953704834
0.3488372564315796 -0.10115032643079758 0.24031007289886475
0.3488372564315796 -0.10104025900363922 0.25581395626068115
0.3488372564315796 -0.10104016214609146 0.27131783962249756
0.3488372564315796 -0.10181894898414612 0.28682172298431396
0.3488372564315796 -0.1021701842546463 0.30232560634613037
0.3488372564315796 -0.10207478702068329 0.3178294897079468
0.3488372564315796 -0.10122761875391006 0.3333333730697632
0.3488372564315796 -0.08691338449716568 0.007751941680908203
0.3488372564315796 -0.08951622247695923 0.02325582504272461
0.3488372564315796 -0.09134985506534576 0.038759708404541016
0.3488372564315796 -0.09087721258401871 0.05426359176635742
0.3488372564315796 -0.08994941413402557 0.06976747512817383
0.3488372564315796 -0.08831214904785156 0.08527135848999023
0.3488372564315796 -0.08853927999734879 0.10077524185180664
0.3488372564315796 -0.09459076821804047 0.11627912521362305
0.3488372564315796 -0.10014817863702774 0.16279064118862152
0.3488372564315796 -0.09949760138988495 0.17829453945159912
0.3488372564315796 -0.09978421777486801 0.3488372564315796
0.3488372564315796 -0.09828471392393112 0.364341139793396
0.3488372564315796 -0.09684309363365173 0.37984490394592285
0.3488372564315796 -0.09380249679088593 0.39534878730773926
0.3488372564315796 -0.08888654410839081 0.41085267066955566
0.3488372564315796 -0.0706474632024765 -0.05426359176635742
0.3488372564315796 -0.07945886254310608 -0.038759708404541016
0.3488372564315796 -0.08350933343172073 -0.02325582504272461
0.3488372564315796 -0.08519598841667175 -0.007751941680908203
0.3488372564315796 -0.08516993373632431 0.42635655403137207
0.3488372564315796 -0.08121708780527115 0.4418604373931885
0.3488372564315796 -0.0756940245628357 0.4573643207550049
0.3488372564315796 -0.055761225521564484 -0.06976741552352905
0.3488372564315796 -0.06893783807754517 0.4728681743144989
0.3488372564315796 -0.05927376449108124 0.4883720874786377
0.3488372564315796 -0.04675108939409256 0.5038759708404541
0.3488372564315796 -0.02975064516067505 0.5193798542022705
0.3488372564315796 0.018918918445706367 0.5193798542022705
0.3488372564315796 0.031146107241511345 -0.06976741552352905
0.3488372564315796 0.035736262798309326 0.5038759708404541
0.3488372564315796 0.04966220632195473 0.4883720874786377
0.3488372564315796 0.06344199180603027 -0.05426359176635742
0.3488372564315796 0.06088301166892052 0.4728682041168213
0.3488372564315796 0.07575182616710663 -0.038759708404541016
0.3488372564315796 0.08090146631002426 -0.02325582504272461
0.3488372564315796 0.08493060618638992 -0.007751941680908203
0.3488372564315796 0.08411850035190582 0.42635655403137207
0.3488372564315796 0.07763121277093887 0.4418604373931885
0.3488372266292572 0.0702613815665245 0.4573642909526825
0.3488372564315796 0.0884944349527359 0.007751941680908203
0.3488372564315796 0.09188871830701828 0.02325582504272461
0.3488372564315796 0.09367567300796509 0.038759708404541016
0.3488372564315796 0.09367658197879791 0.05426359176635742
0.3488372564315796 0.09371410310268402 0.06976747512817383
0.3488372564315796 0.09533727169036865 0.08527135848999023
0.3488372564315796 0.09951918572187424 0.10077524185180664
0.3488372564315796 0.09929649531841278 0.3488372564315796
0.3488372564315796 0.09722684323787689 0.364341139793396
0.3488372564315796 0.09571059048175812 0.37984490394592285
0.3488372564315796 0.0928913950920105 0.39534878730773926
0.3488372564315796 0.08882618695497513 0.41085267066955566
0.3488372564315796 0.10378476977348328 0.11627912521362305
0.3488372564315796 0.10840164124965668 0.1317828893661499
0.3488372564315796 0.10930787026882172 0.1472867727279663
0.3488372564315796 0.10597716271877289 0.16279065608978271
0.3488372564315796 0.10445567220449448 0.17829453945159912
0.3488372564315796 0.10539539158344269 0.19379842281341553
0.3488372564315796 0.10614031553268433 0.20930229127407074
0.3488372564315796 0.10566069930791855 0.22480618953704834
0.3488372564315796 0.10458549112081528 0.24031007289886475
0.3488372266292572 0.10394477844238281 0.25581395626068115
0.3488372564315796 0.10388502478599548 0.27131783962249756
0.3488372564315796 0.10429507493972778 0.28682172298431396
0.3488372266292572 0.10342207551002502 0.30232560634613037
0.3488372564315796 0.10217873007059097 0.3178294897079468
0.3488372564315796 0.10106345266103745 0.3333333730697632
0.364341139793396 -0.059636879712343216 0.1317828893661499
0.364341139793396 -0.06363934278488159 0.1472867727279663
0.364341139793396 -0.062124766409397125 0.16279065608978271
0.364341139793396 -0.060394447296857834 0.17829453945159912
0.364341139793396 -0.05978350713849068 0.19379842281341553
0.364341139793396 -0.05902041867375374 0.20930230617523193
0.364341139793396 -0.05757855623960495 0.22480618953704834
0.364341139793396 -0.05524447560310364 0.24031007289886475
0.364341139793396 -0.039023809134960175 0.10077524185180664
0.3643411695957184 -0.05386978015303612 0.11627913266420364
0.364341139793396 -0.049797140061855316 0.25581395626068115
0.364341139793396 -0.041360706090927124 0.27131783962249756
0.364341139793396 -0.036568544805049896 0.28682172298431396
0.364341139793396 -0.031937871128320694 0.30232560634613037
0.364341139793396 -0.026252474635839462 0.3178294897079468
0.364341139793396 -0.00860926229506731 0.3333333730697632
0.364341139793396 -0.0043359072878956795 0.3333333730697632
0.364341139793396 0.019390568137168884 0.27131783962249756
0.364341139793396 0.01852867566049099 0.3178294897079468
0.364341139793396 0.02561330236494541 0.10077524185180664
0.364341139793396 0.03355134278535843 0.25581395626068115
0.364341139793396 0.025619830936193466 0.28682172298431396
0.364341139793396 0.025056229904294014 0.302325576543808
0.364341139793396 0.04527399688959122 0.11627912521362305
0.364341139793396 0.05345887318253517 0.1317828893661499
0.364341139793396 0.05289250239729881 0.16279065608978271
0.364341139793396 0.04994627833366394 0.17829453945159912
0.364341139793396 0.0532209649682045 0.19379842281341553
0.364341139793396 0.051656246185302734 0.22480618953704834
0.364341139793396 0.04409857094287872 0.24031007289886475
0.364341139793396 0.05600684881210327 0.1472867727279663
0.364341139793396 0.05468421429395676 0.20930230617523193
-0.3643410801887512 -0.06976741552352905 0.19004759192466736
-0.3643410801887512 -0.06976741552352905 0.26677238941192627
-0.3643410801887512 -0.05426359176635742 0.03801080211997032
-0.3643411099910736 -0.05426359549164772 0.07150398194789886
-0.3643410801887512 -0.05426359176635742 0.12449749559164047
-0.3643410801887512 -0.05426359176635742 0.42067110538482666
-0.3643410801887512 -0.038759708404541016 0.018692784011363983
-0.36434105038642883 -0.038759708404541016 0.44365131855010986
-0.3643410801887512 -0.02325582504272461 0.012141821905970573
-0.3643410801887512 -0.02325582504272461 0.45412635803222656
-0.3643410801887512 -0.007751941680908203 0.009899523109197617
-0.3643411099910736 -0.007751941680908203 0.4582675099372864
-0.3643410801887512 0.007751941680908203 0.009092969819903374
-0.3643410801887512 0.007751941680908203 0.45694369077682495
-0.3643410801887512 0.02325582504272461 0.014755075797438622
-0.3643410801887512 0.02325582504272461 0.44930899143218994
-0.3643410801887512 0.038759708404541016 0.023019829764962196
-0.3643410801887512 0.038759708404541016 0.4341646432876587
-0.3643410801887512 0.05426359176635742 0.048720333725214005
-0.3643410801887512 0.05426359176635742 0.061140358448028564
-0.3643410801887512 0.05426359176635742 0.10101673007011414
-0.3643410801887512 0.05426359176635742 0.34416425228118896
-0.3643410801887512 0.05426359176635742 0.3678358793258667
-0.3643410801887512 0.05426359176635742 0.38338786363601685
-0.3643410801887512 0.06976747512817383 0.1861550360918045
-0.3643410801887512 0.06976747512817383 0.2645713686943054
-0.3488371968269348 -0.11627906560897827 0.12556853890419006
-0.3488371968269348 -0.11627906560897827 0.3874503970146179
-0.3488371968269348 -0.10077518224716187 0.012743478640913963
-0.3488371968269348 -0.10077518224716187 0.46659934520721436
-0.3488371968269348 -0.08527129888534546 -0.01924915984272957
-0.3488371968269348 -0.08527129888534546 0.5015225410461426
-0.3488371968269348 -0.06976741552352905 -0.05937841907143593
-0.3488371968269348 -0.06976741552352905 0.5271850824356079
-0.3488371968269348 -0.05426359176635742 -0.07838599383831024
-0.3488371968269348 -0.05426359176635742 0.5460533499717712
-0.3488371968269348 -0.038759708404541016 -0.0961063951253891
-0.3488371968269348 -0.038759712129831314 0.5673915147781372
-0.3488371968269348 -0.02325582504272461 -0.10962207615375519
-0.3488371968269348 -0.02325582504272461 0.5760749578475952
-0.3488371968269348 -0.007751941680908203 -0.1113191545009613
-0.3488371968269348 -0.007751941680908203 0.5795900225639343
-0.3488371968269348 0.007751941680908203 -0.10892656445503235
-0.3488371968269348 0.007751941680908203 0.57683926820755
-0.3488371968269348 0.02325582690536976 -0.10062766820192337
-0.3488371968269348 0.02325582504272461 0.566909909248352
-0.3488371968269348 0.038759708404541016 -0.08999355882406235
-0.3488371968269348 0.038759708404541016 0.5437561273574829
-0.3488371968269348 0.05426359176635742 -0.07393970340490341
-0.3488371968269348 0.05426359176635742 0.5261426568031311
-0.3488371968269348 0.06976747512817383 -0.05264582112431526
-0.3488371968269348 0.06976747512817383 0.5072940587997437
-0.3488371968269348 0.08527135848999023 -0.01675015687942505
-0.3488371968269348 0.08527135848999023 0.4805266559123993
-0.3488371968269348 0.10077524185180664 0.020153159275650978
-0.3488371968269348 0.10077524185180664 0.44743287563323975
-0.3488371968269348 0.11627912521362305 0.17383301258087158
-0.3488371968269348 0.11627912521362305 0.31479042768478394
-0.3333333134651184 -0.14728683233261108 0.11544935405254364
-0.3333333134651184 -0.14728683233261108 0.3942682445049286
-0.3333333134651184 -0.13178294897079468 -0.018910882994532585
-0.3333333134651184 -0.13178294897079468 0.48951455950737
-0.3333333134651184 -0.11627907305955887 -0.07825667411088943
-0.3333333134651184 -0.11627906560897827 0.5412575602531433
-0.3333333134651184 -0.10077518224716187 -0.11885619163513184
-0.3333333134651184 -0.10077518224716187 0.5809673070907593
-0.3333333134651184 -0.08527129888534546 -0.1513620913028717
-0.3333333134651184 -0.08527129888534546 0.5948535203933716
-0.3333333134651184 -0.06976741552352905 -0.178129181265831
-0.3333333134651184 -0.06976741552352905 0.6083605289459229
-0.3333333134651184 -0.05426359176635742 -0.2064506858587265
-0.3333333134651184 -0.05426359176635742 0.621238648891449
-0.3333333134651184 -0.038759708404541016 -0.22681182622909546
-0.3333333134651184 -0.038759708404541016 0.6315085887908936
-0.3333333432674408 -0.02325582504272461 -0.23996590077877045
-0.3333333134651184 -0.02325582504272461 0.6362075805664062
-0.3333333134651184 -0.007751941680908203 -0.24744081497192383
-0.3333333134651184 -0.007751941680908203 0.6388997435569763
-0.3333333134651184 0.007751941680908203 -0.25014156103134155
-0.3333333134651184 0.007751941680908203 0.6377243995666504
-0.3333333134651184 0.02325582504272461 -0.24525108933448792
-0.3333333134651184 0.02325582504272461 0.6323142051696777
-0.3333333134651184 0.038759708404541016 -0.232522651553154
-0.3333333134651184 0.038759708404541016 0.6214326620101929
-0.3333333134651184 0.05426359176635742 -0.2127368003129959
-0.3333333134651184 0.05426359176635742 0.6073386669158936
-0.3333333134651184 0.06976747512817383 -0.1637279987335205
-0.3333333134651184 0.06976747512817383 0.5941370129585266
-0.3333333134651184 0.08527135848999023 -0.13721822202205658
-0.3333333134651184 0.08527135848999023 0.5818922519683838
-0.3333333134651184 0.10077524185180664 -0.10624025762081146
-0.3333333134651184 0.10077524185180664 0.5516370534896851
-0.3333333134651184 0.11627912521362305 -0.061905503273010254
-0.3333333134651184 0.11627912521362305 0.5176262855529785
-0.3333333134651184 0.1317828893661499 -0.007239348720759153
-0.3333333134651184 0.1317828893661499 0.47082990407943726
-0.3333333134651184 0.1472867727279663 0.09397642314434052
-0.3333333134651184 0.1472867727279663 0.40269529819488525
-0.317829430103302 -0.1627907156944275 -0.0008814230095595121
-0.317829430103302 -0.1627907156944275 0.47551077604293823
-0.317829430103302 -0.14728683233261108 -0.0806453675031662
-0.317829430103302 -0.14728683233261108 0.545164167881012
-0.317829430103302 -0.13178294897079468 -0.13481126725673676
-0.317829430103302 -0.13178294897079468 0.5871158838272095
-0.317829430103302 -0.11627906560897827 -0.18313553929328918
-0.317829430103302 -0.11627906560897827 0.6069161891937256
-0.317829430103302 -0.10077518224716187 -0.23521572351455688
-0.317829430103302 -0.10077518224716187 0.6259430646896362
-0.317829430103302 -0.08527129888534546 -0.2658558785915375
-0.317829430103302 -0.08527129888534546 0.6389877796173096
-0.317829430103302 -0.06976741552352905 -0.31233200430870056
-0.317829430103302 -0.06976741552352905 0.6500115990638733
-0.317829430103302 -0.05426359176635742 -0.32332804799079895
-0.317829430103302 -0.05426359176635742 0.6567919254302979
-0.317829430103302 -0.038759708404541016 -0.33143487572669983
-0.317829430103302 -0.038759708404541016 0.6640661954879761
-0.317829430103302 -0.02325582504272461 -0.33808988332748413
-0.317829430103302 -0.02325582504272461 0.6672142744064331
-0.317829430103302 -0.00775194214656949 -0.34162846207618713
-0.317829430103302 -0.007751941680908203 0.6688711047172546
-0.317829430103302 0.007751941680908203 -0.3424622416496277
-0.317829430103302 0.007751941680908203 0.6682988405227661
-0.317829430103302 0.02325582504272461 -0.3392277956008911
-0.317829430103302 0.02325582504272461 0.6652982234954834
-0.317829430103302 0.038759708404541016 -0.3322013318538666
-0.317829430103302 0.038759708404541016 0.6592889428138733
-0.317829430103302 0.05426359176635742 -0.3232407569885254
-0.317829430103302 0.05426359176635742 0.6507789492607117
-0.317829430103302 0.06976747512817383 -0.30945777893066406
-0.317829430103302 0.06976747512817383 0.6413694620132446
-0.317829430103302 0.08527135848999023 -0.26823315024375916
-0.317829430103302 0.08527135848999023 0.6297748684883118
-0.317829430103302 0.10077524185180664 -0.23597538471221924
-0.317829430103302 0.10077524185180664 0.6121432781219482
-0.317829430103302 0.11627912521362305 -0.16595372557640076
-0.317829430103302 0.11627912521362305 0.5938861966133118
-0.317829430103302 0.1317828893661499 -0.11983411014080048
-0.317829430103302 0.1317828893661499 0.5697008371353149
-0.317829430103302 0.1472867727279663 -0.06733766198158264
-0.317829430103302 0.1472867727279663 0.5229960083961487
-0.317829430103302 0.16279065608978271 -0.0066907163709402084
-0.317829430103302 0.16279065608978271 0.46725162863731384
-0.317829430103302 0.17829453945159912 0.20220477879047394
-0.317829430103302 0.17829453945159912 0.2945675253868103
-0.30232560634613037 -0.1782945990562439 -0.02956560254096985
-0.30232560634613037 -0.1782945990562439 0.5108014345169067
-0.30232560634613037 -0.1627907156944275 -0.1142989918589592
-0.30232560634613037 -0.1627907156944275 0.5742945671081543
-0.30232560634613037 -0.14728683233261108 -0.18380679190158844
-0.30232560634613037 -0.14728683233261108 0.6023154854774475
-0.30232560634613037 -0.13178294897079468 -0.25007450580596924
-0.30232560634613037 -0.13178294897079468 0.6262087225914001
-0.30232560634613037 -0.11627906560897827 -0.31510040163993835
-0.30232560634613037 -0.11627906560897827 0.6438565254211426
-0.30232560634613037 -0.10077518224716187 -0.3333670496940613
-0.30232560634613037 -0.10077518224716187 0.6561741232872009
-0.30232560634613037 -0.08527129888534546 -0.35084640979766846
-0.30232560634613037 -0.08527129888534546 0.6678310632705688
-0.30232560634613037 -0.06976741552352905 -0.3669971823692322
-0.30232560634613037 -0.06976741552352905 0.6769660115242004
-0.30232560634613037 -0.05426359176635742 -0.3802441656589508
-0.30232560634613037 -0.05426359176635742 0.683771014213562
-0.30232560634613037 -0.038759708404541016 -0.391160249710083
-0.30232560634613037 -0.038759708404541016 0.6892397403717041
-0.30232560634613037 -0.02325582504272461 -0.3992226719856262
-0.30232560634613037 -0.02325582504272461 0.6939487457275391
-0.30232560634613037 -0.007751941680908203 -0.403855562210083
-0.30232560634613037 -0.007751941680908203 0.6958125233650208
-0.30232560634613037 0.007751941680908203 -0.40500661730766296
-0.30232560634613037 0.007751941680908203 0.6951992511749268
-0.30232560634613037 0.02325582504272461 -0.4021768569946289
-0.30232560634613037 0.02325582504272461 0.6913344860076904
-0.302325576543808 0.038759708404541016 -0.39521682262420654
-0.30232560634613037 0.038759708404541016 0.6851332187652588
-0.30232560634613037 0.05426359176635742 -0.3827611207962036
-0.30232560634613037 0.05426358804106712 0.6800198554992676
-0.30232560634613037 0.06976747512817383 -0.3658021092414856
-0.30232560634613037 0.06976747512817383 0.6707862615585327
-0.30232560634613037 0.08527135848999023 -0.34691381454467773
-0.30232560634613037 0.08527135848999023 0.6627622246742249
-0.30232560634613037 0.10077524185180664 -0.3278957009315491
-0.30232560634613037 0.10077524185180664 0.6512951850891113
-0.30232560634613037 0.11627912521362305 -0.3060246706008911
-0.30232560634613037 0.11627912521362305 0.6365140676498413
-0.30232560634613037 0.1317828893661499 -0.24482011795043945
-0.30232560634613037 0.1317828893661499 0.6152440309524536
-0.30232560634613037 0.1472867727279663 -0.19671642780303955
-0.30232560634613037 0.1472867727279663 0.5915886163711548
-0.30232560634613037 0.16279065608978271 -0.10946999490261078
-0.30232560634613037 0.16279065608978271 0.5540797710418701
-0.30232560634613037 0.17829453945159912 -0.0380556583404541
-0.30232560634613037 0.17829453945159912 0.4980832040309906
-0.30232560634613037 0.19379842281341553 0.02801796793937683
-0.30232560634613037 0.19379842281341553 0.07890939712524414
-0.30232560634613037 0.19379842281341553 0.08967777341604233
-0.30232560634613037 0.19379842281341553 0.14724604785442352
-0.30232560634613037 0.19379842281341553 0.1781664490699768
-0.30232560634613037 0.19379842281341553 0.42362016439437866
-0.28682172298431396 -0.19379842281341553 -0.04782465845346451
-0.28682172298431396 -0.19379842281341553 0.5269612073898315
-0.28682172298431396 -0.1782945990562439 -0.14252588152885437
-0.28682172298431396 -0.1782945841550827 0.5856661200523376
-0.28682172298431396 -0.1627907156944275 -0.23316690325737
-0.28682172298431396 -0.1627907156944275 0.6132394075393677
-0.28682172298431396 -0.14728683233261108 -0.3155383765697479
-0.28682172298431396 -0.14728683233261108 0.6373888254165649
-0.28682172298431396 -0.13178294897079468 -0.3420870304107666
-0.28682172298431396 -0.13178294897079468 0.6552303433418274
-0.28682172298431396 -0.11627906560897827 -0.3704218566417694
-0.28682172298431396 -0.11627906560897827 0.6712996959686279
-0.28682172298431396 -0.10077518224716187 -0.39447617530822754
-0.28682172298431396 -0.10077518224716187 0.6852346062660217
-0.28682172298431396 -0.08527129888534546 -0.41331106424331665
-0.28682172298431396 -0.08527129888534546 0.6970001459121704
-0.28682172298431396 -0.06976741552352905 -0.43001243472099304
-0.28682172298431396 -0.06976741552352905 0.7041819095611572
-0.28682172298431396 -0.05426359176635742 -0.44365400075912476
-0.28682172298431396 -0.05426359176635742 0.7122988700866699
-0.28682172298431396 -0.038759708404541016 -0.45335716009140015
-0.28682172298431396 -0.038759708404541016 0.7163179516792297
-0.28682172298431396 -0.02325582504272461 -0.46019992232322693
-0.28682172298431396 -0.02325582504272461 0.7204279899597168
-0.28682172298431396 -0.007751941680908203 -0.4631323516368866
-0.28682172298431396 -0.007751941680908203 0.7227005958557129
-0.28682172298431396 0.007751941680908203 -0.46332141757011414
-0.28682172298431396 0.007751941680908203 0.7221839427947998
-0.28682172298431396 0.02325582504272461 -0.46077993512153625
-0.28682172298431396 0.02325582504272461 0.7183586955070496
-0.28682172298431396 0.038759708404541016 -0.4534885287284851
-0.28682172298431396 0.038759708404541016 0.713901698589325
-0.28682172298431396 0.05426359176635742 -0.44264522194862366
-0.28682172298431396 0.05426359176635742 0.7087581753730774
-0.28682172298431396 0.06976747512817383 -0.42709195613861084
-0.28682172298431396 0.06976747512817383 0.7002222537994385
-0.28682175278663635 0.08527135848999023 -0.41012006998062134
-0.28682172298431396 0.08527135103940964 0.6926864385604858
-0.28682172298431396 0.10077524185180664 -0.38970330357551575
-0.28682172298431396 0.10077524185180664 0.6819834113121033
-0.28682172298431396 0.11627912521362305 -0.35936710238456726
-0.28682172298431396 0.11627912521362305 0.6683988571166992
-0.28682172298431396 0.1317828893661499 -0.33257707953453064
-0.28682172298431396 0.1317828893661499 0.6520439386367798
-0.28682172298431396 0.1472867727279663 -0.30295491218566895
-0.28682172298431396 0.1472867727279663 0.631509006023407
-0.28682172298431396 0.16279065608978271 -0.2340318262577057
-0.28682172298431396 0.16279065608978271 0.6046038866043091
-0.28682172298431396 0.17829453945159912 -0.13297995924949646
-0.28682172298431396 0.17829453945159912 0.5738812685012817
-0.28682172298431396 0.19379842281341553 -0.0499446839094162
-0.28682172298431396 0.19379842281341553 0.5159426927566528
-0.28682172298431396 0.20930230617523193 0.014840845949947834
-0.28682172298431396 0.20930230617523193 0.07423987984657288
-0.28682172298431396 0.20930230617523193 0.09041042625904083
-0.28682172298431396 0.20930230617523193 0.14585033059120178
-0.28682172298431396 0.20930230617523193 0.18382301926612854
-0.28682172298431396 0.20930230617523193 0.4331517815589905
-0.27131783962249756 -0.20930230617523193 -0.041809797286987305
-0.27131783962249756 -0.20930230617523193 0.5282919406890869
-0.27131783962249756 -0.19379842281341553 -0.16289742290973663
-0.27131783962249756 -0.19379842281341553 0.5888960361480713
-0.27131783962249756 -0.1782945990562439 -0.2629495859146118
-0.27131783962249756 -0.1782945990562439 0.6185241937637329
-0.27131783962249756 -0.1627907156944275 -0.33174213767051697
-0.27131783962249756 -0.1627907156944275 0.6448432207107544
-0.27131783962249756 -0.14728683233261108 -0.36761975288391113
-0.27131783962249756 -0.14728683233261108 0.66579270362854
-0.27131783962249756 -0.13178294897079468 -0.40191781520843506
-0.27131783962249756 -0.13178294897079468 0.6844642162322998
-0.27131783962249756 -0.11627906560897827 -0.4327353835105896
-0.27131783962249756 -0.11627906560897827 0.7003118395805359
-0.27131783962249756 -0.10077518224716187 -0.45559000968933105
-0.27131783962249756 -0.10077518224716187 0.7137869596481323
-0.27131783962249756 -0.08527129888534546 -0.4690224826335907
-0.27131783962249756 -0.08527129888534546 0.7242112755775452
-0.27131783962249756 -0.06976741552352905 -0.47986119985580444
-0.27131783962249756 -0.06976741552352905 0.7311300039291382
-0.27131783962249756 -0.05426359176635742 -0.49007537961006165
-0.27131783962249756 -0.05426359176635742 0.7384236454963684
-0.27131783962249756 -0.038759708404541016 -0.4984111785888672
-0.27131783962249756 -0.038759708404541016 0.7437515258789062
-0.27131783962249756 -0.02325582504272461 -0.5051591992378235
-0.27131783962249756 -0.02325582504272461 0.7461848258972168
-0.27131783962249756 -0.007751941680908203 -0.5077171325683594
-0.27131783962249756 -0.007751941680908203 0.7473212480545044
-0.27131783962249756 0.007751941680908203 -0.5074107646942139
-0.27131783962249756 0.007751941680908203 0.7470324039459229
-0.27131783962249756 0.02325582504272461 -0.5046374797821045
-0.27131783962249756 0.02325582504272461 0.7451063394546509
-0.27131783962249756 0.038759708404541016 -0.4968219995498657
-0.27131783962249756 0.038759708404541016 0.7415789365768433
-0.27131783962249756 0.05426359549164772 -0.48808977007865906
-0.27131783962249756 0.05426359176635742 0.7354502081871033
-0.27131783962249756 0.06976747512817383 -0.47534093260765076
-0.27131783962249756 0.06976747512817383 0.7286035418510437
-0.27131783962249756 0.08527135848999023 -0.46097615361213684
-0.27131783962249756 0.08527135848999023 0.7197193503379822
-0.27131783962249756 0.10077524185180664 -0.4435954689979553
