0.17829453945159912 -0.3196110129356384 0.42635655403137207
0.17829453945159912 -0.3035987317562103 -0.3333333134651184
0.17829453945159912 -0.3059177100658417 -0.317829430103302
0.17829453945159912 -0.30885589122772217 -0.30232560634613037
0.17829453945159912 -0.3115385174751282 -0.28682172298431396
0.17829453945159912 -0.31446167826652527 -0.27131783962249756
0.17829453945159912 -0.317755788564682 -0.25581395626068115
0.17829453945159912 -0.31723302602767944 0.4418604373931885
0.17829453945159912 -0.31297367811203003 0.4573643207550049
0.17829453945159912 -0.3089972138404846 0.4728682041168213
0.17829453945159912 -0.3063352704048157 0.4883720874786377
0.17829453945159912 -0.303439199924469 0.5038759708404541
0.17829453945159912 -0.2869088649749756 -0.41085273027420044
0.17829453945159912 -0.2896285355091095 -0.39534884691238403
0.17829453945159912 -0.29339689016342163 -0.3798449635505676
0.17829453945159912 -0.2966747581958771 -0.3643410801887512
0.17829453945159912 -0.3007141053676605 -0.3488371968269348
0.17829453945159912 -0.29814547300338745 0.5193798542022705
0.17829453945159912 -0.29090067744255066 0.5348837375640869
0.17829453945159912 -0.2724531292915344 -0.4573643207550049
0.17829453945159912 -0.2765578031539917 -0.4418604373931885
0.17829453945159912 -0.2813100218772888 -0.42635661363601685
0.17829453945159912 -0.2838438153266907 0.5503876209259033
0.17829453945159912 -0.27566438913345337 0.5658915042877197
0.17829453945159912 -0.2574431002140045 -0.5038759708404541
0.17829453945159912 -0.26170679926872253 -0.4883720874786377
0.17829453945159912 -0.26662176847457886 -0.4728682041168213
0.17829455435276031 -0.27046680450439453 0.5813953876495361
0.17829453945159912 -0.262664258480072 0.5968992710113525
0.17829453945159912 -0.257160484790802 0.612403154373169
0.17829453945159912 -0.24333064258098602 -0.5503876209259033
0.17829453945159912 -0.24780172109603882 -0.5348837375640869
0.17829453945159912 -0.2526179850101471 -0.5193798542022705
0.17829453945159912 -0.2403736412525177 0.08527135848999023
0.17829453945159912 -0.24364319443702698 0.10077524185180664
0.17829453945159912 -0.2460172176361084 0.11627912521362305
0.17829453945159912 -0.24612876772880554 0.1317828893661499
0.17829453945159912 -0.24353057146072388 0.1472867727279663
0.17829453945159912 -0.24513979256153107 0.27131783962249756
0.17829453945159912 -0.24891990423202515 0.28682172298431396
0.17829453945159912 -0.25042885541915894 0.30232560634613037
0.17829453945159912 -0.2506355345249176 0.3178294897079468
0.17829453945159912 -0.2491072714328766 0.3333333730697632
0.17829453945159912 -0.24427716434001923 0.3488372564315796
0.17829453945159912 -0.24978435039520264 0.6279069185256958
0.17829453945159912 -0.2431924045085907 0.6434108018875122
0.17829453945159912 -0.2281503528356552 -0.5968992114067078
0.17829453945159912 -0.23324203491210938 -0.5813953876495361
0.17829453945159912 -0.23969963192939758 -0.5658915042877197
0.17829453945159912 -0.22666814923286438 -0.41085273027420044
0.17829453945159912 -0.23012179136276245 -0.39534884691238403
0.17829453945159912 -0.2326899766921997 -0.3798449635505676
0.17829453945159912 -0.234031543135643 -0.3643410801887512
0.17829453945159912 -0.23360705375671387 -0.3488371968269348
0.17829453945159912 -0.23202550411224365 -0.3333333134651184
0.17829453945159912 -0.23055130243301392 -0.317829430103302
0.17829453945159912 -0.22983868420124054 -0.30232560634613037
0.17829453945159912 -0.22918608784675598 -0.28682172298431396
0.17829453945159912 -0.22816908359527588 -0.27131783962249756
0.17829453945159912 -0.22609367966651917 -0.25581395626068115
0.17829453945159912 -0.22892507910728455 -0.10077518224716187
0.17829453945159912 -0.23198391497135162 -0.08527129888534546
0.17829453945159912 -0.23255306482315063 -0.06976741552352905
0.17829453945159912 -0.23129728436470032 -0.05426359176635742
0.17829453945159912 -0.22962498664855957 -0.038759708404541016
0.17829453945159912 -0.2273324429988861 -0.02325582504272461
0.17829453945159912 -0.22569610178470612 -0.007751941680908203
0.17829453945159912 -0.22543759644031525 0.007751941680908203
0.17829453945159912 -0.22699318826198578 0.02325582504272461
0.17829453945159912 -0.23000165820121765 0.038759708404541016
0.17829453945159912 -0.23252353072166443 0.05426359176635742
0.17829453945159912 -0.23628759384155273 0.06976747512817383
0.17829453945159912 -0.23929080367088318 0.16279065608978271
0.17829453945159912 -0.23415473103523254 0.17829453945159912
0.17829453945159912 -0.228900745511055 0.19379842281341553
0.17829453945159912 -0.22712421417236328 0.20930230617523193
0.17829453945159912 -0.22900943458080292 0.22480618953704834
0.17829453945159912 -0.23384356498718262 0.24031007289886475
0.17829453945159912 -0.23975107073783875 0.25581395626068115
0.17829453945159912 -0.23826389014720917 0.364341139793396
0.17829453945159912 -0.23468643426895142 0.37984490394592285
0.17829453945159912 -0.23135118186473846 0.39534878730773926
0.17829453945159912 -0.22869646549224854 0.41085267066955566
0.17829453945159912 -0.2269521951675415 0.42635655403137207
0.17829453945159912 -0.23627826571464539 0.6589146852493286
0.17829453945159912 -0.22937066853046417 0.674418568611145
0.17829453945159912 -0.20957130193710327 -0.643410861492157
0.17829453945159912 -0.21549339592456818 -0.6279069781303406
0.17829453945159912 -0.22219301760196686 -0.612403154373169
0.17829453945159912 -0.21373654901981354 -0.4573643207550049
0.17829453945159912 -0.21843397617340088 -0.4418604373931885
0.17829453945159912 -0.2229601889848709 -0.42635661363601685
0.17829453945159912 -0.2217245101928711 -0.24031007289886475
0.17829453945159912 -0.2172187864780426 -0.22480618953704834
0.17829453945159912 -0.21347525715827942 -0.20930230617523193
0.17829453945159912 -0.21074172854423523 -0.19379842281341553
0.17829453945159912 -0.21102890372276306 -0.1782945990562439
0.17829453945159912 -0.21278822422027588 -0.1627907156944275
0.17829453945159912 -0.21701249480247498 -0.14728683233261108
0.17829453945159912 -0.22103416919708252 -0.13178294897079468
0.17829452455043793 -0.22442859411239624 -0.11627906560897827
0.17829453945159912 -0.22437487542629242 0.4418604373931885
0.17829453945159912 -0.2199150025844574 0.4573643207550049
0.17829453945159912 -0.21379134058952332 0.4728682041168213
0.17829453945159912 -0.22318501770496368 0.6899224519729614
0.17829453945159912 -0.21093635261058807 0.7054263353347778
0.17829453945159912 -0.19466014206409454 -0.674418568611145
0.17829453945159912 -0.20120011270046234 -0.6589146852493286
0.17829453945159912 -0.1973990648984909 -0.5038759708404541
0.17829453945159912 -0.20339706540107727 -0.4883720874786377
0.17829452455043793 -0.20923680067062378 -0.4728682041168213
0.17829453945159912 -0.20502395927906036 0.4883720874786377
0.17829453945159912 -0.17843149602413177 -0.7054263353347778
0.17829453945159912 -0.18600565195083618 -0.6899224519729614
0.17829453945159912 -0.1803968846797943 -0.5348837375640869
0.17829453945159912 -0.19028908014297485 -0.5193798542022705
0.17829453945159912 -0.19148720800876617 0.5038759708404541
0.17829453945159912 -0.18228447437286377 0.5193798542022705
0.17829453945159912 -0.1931064873933792 0.7209301590919495
0.17829453945159912 -0.1818808764219284 0.7364341020584106
0.17829453945159912 -0.16904714703559875 -0.7209302186965942
0.17829453945159912 -0.168374165892601 -0.5503876209259033
0.17829453945159912 -0.1720232367515564 0.5348837375640869
0.17829453945159912 -0.16504840552806854 0.5503876209259033
0.17829453945159912 -0.1743246614933014 0.751937985420227
0.17829453945159912 -0.16801398992538452 0.7674418687820435
0.17829453945159912 -0.16412630677223206 0.7829457521438599
0.17829453945159912 -0.15256115794181824 -0.751937985420227
0.17829453945159912 -0.1606076955795288 -0.7364341020584106
0.17829453945159912 -0.15338125824928284 -0.5658915042877197
0.17829453945159912 -0.1489843875169754 0.5658915042877197
0.17829453945159912 -0.1544879674911499 0.7984496355056763
0.17829453945159912 -0.14212410151958466 -0.7674418687820435
0.17829453945159912 -0.13982082903385162 -0.5813953876495361
0.17829453945159912 -0.13752803206443787 0.5813953876495361
0.17829453945159912 -0.13808172941207886 0.8139535188674927
0.17829453945159912 -0.12992826104164124 -0.7829457521438599
0.17829453945159912 -0.11965338885784149 -0.6279069781303406
0.17829453945159912 -0.12414968758821487 -0.6124030947685242
0.17829453945159912 -0.13123425841331482 -0.5968992114067078
0.17829453945159912 -0.1306375414133072 0.5968993306159973
0.17829453945159912 -0.12581868469715118 0.612403154373169
0.17829453945159912 -0.12401540577411652 0.6279069185256958
0.17829453945159912 -0.12009158730506897 0.6434108018875122
0.17829453945159912 -0.11734377592802048 0.6589146852493286
0.17829453945159912 -0.11525105684995651 -0.7984496355056763
0.17829453945159912 -0.10121491551399231 -0.6589146852493286
0.17829453945159912 -0.11080034077167511 -0.643410861492157
0.17829453945159912 -0.11006613075733185 0.674418568611145
0.17829453945159912 -0.10430103540420532 0.6899224519729614
0.17829453945159912 -0.11160118132829666 0.8294574022293091
0.17829453945159912 -0.09466534852981567 -0.8139535188674927
0.17829453945159912 -0.08586469292640686 -0.674418568611145
0.17829453945159912 -0.09276610612869263 0.7054263353347778
0.17829453945159912 -0.09354884922504425 0.8449612855911255
0.17829453945159912 -0.07059487700462341 -0.6899224519729614
0.17829453945159912 -0.07216213643550873 0.7209302186965942
0.17829453945159912 -0.06373283267021179 -0.8294573426246643
0.17829453945159912 -0.06549015641212463 0.8604651689529419
0.17829453945159912 -0.05244598537683487 -0.7054263949394226
0.17829453945159912 -0.030545156449079514 -0.8449612259864807
0.17829453945159912 -0.03291972354054451 -0.7209302186965942
0.17829453945159912 -0.024629728868603706 0.7209302186965942
0.17829453945159912 -0.012363642454147339 0.7054263353347778
0.17829453945159912 0.019659776240587234 -0.7209302186965942
0.17829453945159912 0.013838296756148338 0.7054263353347778
0.17829453945159912 0.024014506489038467 -0.8449612259864807
0.17829453945159912 0.029481535777449608 0.7209302186965942
0.17829453945159912 0.036143142729997635 0.8604651689529419
0.17829453945159912 0.041826266795396805 -0.7054263353347778
0.17829453945159912 0.058987636119127274 -0.8294572830200195
0.17829453945159912 0.061420515179634094 -0.6899224519729614
0.17829453945159912 0.08117429167032242 -0.8139535188674927
0.17829453945159912 0.07376174628734589 -0.674418568611145
0.17829453945159912 0.08362100273370743 -0.6589146852493286
0.17829453945159912 0.07339254766702652 0.8449612855911255
0.17829453945159912 0.0906955748796463 -0.643410861492157
0.17829453945159912 0.0992349311709404 -0.6279069781303406
0.17829453945159912 0.0921182632446289 0.7209302186965942
0.17829453945159912 0.09776746481657028 0.8294574022293091
0.17829453945159912 0.10325875133275986 -0.7984496355056763
0.17829453945159912 0.10782456398010254 -0.6124030947685242
0.17829453945159912 0.11611589044332504 0.6899224519729614
0.17829453945159912 0.10463283956050873 0.7054263353347778
0.17829453945159912 0.12341363728046417 -0.7829457521438599
0.17829453945159912 0.12120039761066437 -0.596899151802063
0.17829453945159912 0.12493139505386353 0.674418568611145
0.17829453945159912 0.11794295161962509 0.8139534592628479
0.17829453945159912 0.14088015258312225 -0.7674418687820435
0.17829453945159912 0.14321401715278625 0.6434108018875122
0.17829452455043793 0.1345830261707306 0.6589146852493286
0.17829453945159912 0.14025835692882538 0.7984496355056763
0.17829453945159912 0.156220942735672 -0.751937985420227
0.17829453945159912 0.15871867537498474 -0.5813953876495361
0.17829453945159912 0.16188211739063263 0.5968992710113525
0.17829453945159912 0.157491534948349 0.612403154373169
0.17829453945159912 0.15187004208564758 0.6279069185256958
0.17829453945159912 0.15909677743911743 0.7829457521438599
0.17829453945159912 0.1686612367630005 -0.7364341020584106
0.17829453945159912 0.17692580819129944 -0.5658915042877197
0.17829453945159912 0.1763133555650711 0.5348837375640869
0.17829453945159912 0.17466892302036285 0.5503876209259033
0.17829453945159912 0.17043831944465637 0.5658915042877197
0.17829453945159912 0.16598719358444214 0.5813953876495361
0.17829453945159912 0.1700677126646042 0.7674418687820435
0.17829453945159912 0.17832712829113007 -0.7209302186965942
0.17829453945159912 0.1871955394744873 -0.7054263353347778
0.17829453945159912 0.1855490803718567 -0.5503876209259033
0.17829453945159912 0.19328626990318298 -0.5348837375640869
0.17829453945159912 0.1894981861114502 0.4573643207550049
0.17829453945159912 0.18648214638233185 0.4728682041168213
0.17829453945159912 0.18468615412712097 0.4883720874786377
0.17829453945159912 0.18185913562774658 0.5038759708404541
0.17829453945159912 0.17889878153800964 0.5193798542022705
0.17829453945159912 0.18988505005836487 0.7209302186965942
0.17829453945159912 0.18349722027778625 0.7364341020584106
0.17829453945159912 0.1790444701910019 0.751937985420227
0.17829453945159912 0.19604551792144775 -0.6899224519729614
0.17829453945159912 0.20290982723236084 -0.674418568611145
0.17829453945159912 0.19755031168460846 -0.5193798542022705
0.17829453945159912 0.20098865032196045 -0.5038759708404541
0.17829453945159912 0.2052842378616333 -0.4883720874786377
0.17829453945159912 0.20651167631149292 0.42635655403137207
0.17829453945159912 0.19438442587852478 0.44186046719551086
0.17829453945159912 0.2039930522441864 0.6899224519729614
0.17829455435276031 0.19637809693813324 0.7054263353347778
0.17829453945159912 0.21067115664482117 -0.6589146852493286
0.17829453945159912 0.2166314423084259 -0.643410861492157
0.17829453945159912 0.2229044884443283 -0.6279069781303406
0.17829453945159912 0.20967544615268707 -0.4728682041168213
0.17829453945159912 0.21254637837409973 -0.4573643207550049
0.17829453945159912 0.21579255163669586 -0.4418604373931885
0.17829453945159912 0.21910399198532104 -0.42635661363601685
0.17829453945159912 0.22211392223834991 -0.41085273027420044
0.17829453945159912 0.22459043562412262 -0.39534884691238403
0.17829453945159912 0.22439739108085632 -0.19379842281341553
0.17829453945159912 0.22370509803295135 -0.1782945990562439
0.17829453945159912 0.22348354756832123 -0.1627907156944275
0.17829453945159912 0.22474436461925507 -0.14728683233261108
0.17829453945159912 0.22256305813789368 0.39534878730773926
0.17829453945159912 0.21538636088371277 0.41085267066955566
0.17829453945159912 0.2202564775943756 0.6589146852493286
0.17829455435276031 0.21254263818264008 0.674418568611145
0.17829453945159912 0.22925391793251038 -0.6124030947685242
0.17829453945159912 0.2345026135444641 -0.5968992114067078
0.17829453945159912 0.2260347306728363 -0.3798449635505676
0.17829453945159912 0.22726184129714966 -0.3643410801887512
0.17829453945159912 0.22796747088432312 -0.3488371968269348
0.17829453945159912 0.22846965491771698 -0.3333333134651184
0.17829453945159912 0.22957532107830048 -0.317829430103302
0.17829453945159912 0.23087894916534424 -0.30232560634613037
0.17829453945159912 0.23184065520763397 -0.28682172298431396
0.17829453945159912 0.23223264515399933 -0.27131783962249756
0.17829453945159912 0.23195257782936096 -0.25581395626068115
0.17829453945159912 0.22996732592582703 -0.24031007289886475
0.17829453945159912 0.2274678349494934 -0.22480618953704834
0.17829453945159912 0.2256539762020111 -0.20930230617523193
0.17829453945159912 0.2259170114994049 -0.13178294897079468
0.17829453945159912 0.2277894914150238 -0.11627906560897827
0.17829453945159912 0.2312641441822052 -0.10077518224716187
0.17829453945159912 0.23436009883880615 -0.08527129888534546
0.17829453945159912 0.23656965792179108 -0.06976741552352905
0.17829453945159912 0.2376803159713745 -0.05426359176635742
0.17829453945159912 0.23820510506629944 -0.038759708404541016
0.17829453945159912 0.2380942702293396 -0.02325582504272461
0.17829453945159912 0.2376992553472519 -0.007751941680908203
0.17829453945159912 0.23711459338665009 0.007751941680908203
0.17829453945159912 0.23722657561302185 0.02325582504272461
0.17829453945159912 0.23799417912960052 0.038759708404541016
0.17829453945159912 0.2390318661928177 0.05426359176635742
0.17829453945159912 0.23650942742824554 0.364341139793396
0.17829453945159912 0.2295508086681366 0.37984490394592285
0.17829453945159912 0.23561470210552216 0.6279069185256958
0.17829453945159912 0.228409081697464 0.6434108018875122
0.17829453945159912 0.24194136261940002 -0.5813953876495361
0.17829453945159912 0.24686826765537262 -0.5658915042877197
0.17829453945159912 0.2521890699863434 -0.5503876209259033
0.17829453945159912 0.2424125373363495 0.06976747512817383
0.17829453945159912 0.24710486829280853 0.08527135848999023
0.17829453945159912 0.2509904205799103 0.10077524185180664
0.17829453945159912 0.2547304928302765 0.11627912521362305
0.17829453945159912 0.2554458677768707 0.16279065608978271
0.17829453945159912 0.2516315281391144 0.17829453945159912
0.17829453945159912 0.24711672961711884 0.19379842281341553
0.17829453945159912 0.24310988187789917 0.20930230617523193
0.17829453945159912 0.2404501885175705 0.22480618953704834
0.17829453945159912 0.24151787161827087 0.24031005799770355
0.17829453945159912 0.24514400959014893 0.25581395626068115
0.17829453945159912 0.2486773431301117 0.27131783962249756
0.17829453945159912 0.25145334005355835 0.28682172298431396
0.17829453945159912 0.25210124254226685 0.30232560634613037
0.17829453945159912 0.2515278458595276 0.3178294897079468
0.17829453945159912 0.2492223083972931 0.3333333730697632
0.17829453945159912 0.2439369559288025 0.3488372564315796
0.17829453945159912 0.25213995575904846 0.5968992710113525
0.17829453945159912 0.24354714155197144 0.612403154373169
0.17829453945159912 0.2585125267505646 -0.5348837375640869
0.17829453945159912 0.2629060745239258 -0.5193798542022705
0.17829453945159912 0.2680923640727997 -0.5038759708404541
0.17829453945159912 0.2576269805431366 0.1317828893661499
0.17829455435276031 0.25800469517707825 0.1472867727279663
0.17829453945159912 0.2625895142555237 0.5813953876495361
0.17829453945159912 0.2736798822879791 -0.4883720874786377
0.17829453945159912 0.2775989770889282 -0.4728682041168213
0.17829453945159912 0.28188765048980713 -0.4573643207550049
0.17829453945159912 0.28062766790390015 0.5503876209259033
0.17829453945159912 0.27289506793022156 0.5658915042877197
0.17829453945159912 0.28772082924842834 -0.4418604075908661
0.17829453945159912 0.29080331325531006 -0.42635661363601685
0.17829453945159912 0.2945898771286011 -0.41085273027420044
0.17829453945159912 0.29844343662261963 -0.39534884691238403
0.17829453945159912 0.2955111861228943 0.5193798542022705
0.17829453945159912 0.2887228727340698 0.5348837375640869
0.17829453945159912 0.3032701313495636 -0.3798449635505676
0.17829453945159912 0.3057476282119751 -0.3643410801887512
0.17829453945159912 0.3083476424217224 -0.3488371968269348
0.17829453945159912 0.3110939562320709 -0.3333333134651184
0.17829453945159912 0.31401994824409485 -0.317829430103302
0.17829453945159912 0.3164439797401428 0.41085267066955566
0.17829453945159912 0.3147056996822357 0.42635655403137207
0.17829453945159912 0.3119160532951355 0.4418604373931885
0.17829453945159912 0.3095887005329132 0.4573643207550049
0.17829453945159912 0.30739083886146545 0.4728682041168213
0.17829452455043793 0.3053625822067261 0.4883720874786377
0.17829453945159912 0.3026634156703949 0.5038759708404541
0.17829453945159912 0.31814688444137573 -0.30232560634613037
0.17829453945159912 0.32025933265686035 -0.28682172298431396
0.17829453945159912 0.3223932981491089 -0.27131783962249756
0.17829453945159912 0.3248717188835144 -0.25581395626068115
0.17829453945159912 0.32728856801986694 -0.24031007289886475
0.17829453945159912 0.3297681212425232 -0.22480618953704834
0.17829453945159912 0.3330634832382202 -0.20930230617523193
0.17829453945159912 0.33330997824668884 0.3333333730697632
0.17829453945159912 0.33005818724632263 0.3488372564315796
0.17829453945159912 0.3263559341430664 0.364341139793396
0.17829453945159912 0.3217628598213196 0.37984490394592285
0.17829453945159912 0.3187612295150757 0.39534878730773926
0.17829453945159912 0.3348069190979004 -0.19379842281341553
0.17829453945159912 0.336255818605423 -0.1782945990562439
0.17829453945159912 0.33722665905952454 -0.1627907156944275
0.17829453945159912 0.33828577399253845 -0.14728683233261108
0.17829453945159912 0.3394150137901306 -0.13178294897079468
0.17829453945159912 0.34101247787475586 -0.11627906560897827
0.17829453945159912 0.3428618907928467 -0.10077518224716187
0.17829453945159912 0.34437817335128784 -0.08527129888534546
0.17829453945159912 0.34586775302886963 -0.06976741552352905
0.17829453945159912 0.3472398519515991 -0.05426359176635742
0.17829453945159912 0.347787082195282 0.20930230617523193
0.17829453945159912 0.3453871011734009 0.22480618953704834
0.17829453945159912 0.34311622381210327 0.24031007289886475
0.17829453945159912 0.34092020988464355 0.25581395626068115
0.17829453945159912 0.3387579023838043 0.27131783962249756
0.17829453945159912 0.3375281095504761 0.28682172298431396
0.17829453945159912 0.3360807001590729 0.30232560634613037
0.17829455435276031 0.33485814929008484 0.3178294897079468
0.17829455435276031 0.348965585231781 -0.038759708404541016
0.17829453945159912 0.34971803426742554 -0.02325582504272461
0.17829453945159912 0.35049521923065186 -0.007751941680908203
0.17829453945159912 0.35109415650367737 0.007751941680908203
0.17829453945159912 0.35162973403930664 0.02325582504272461
0.17829453945159912 0.35211044549942017 0.038759708404541016
0.17829453945159912 0.3524554967880249 0.05426359176635742
0.17829453945159912 0.3529362082481384 0.06976747512817383
0.17829453945159912 0.353249192237854 0.08527135848999023
0.17829453945159912 0.3533767759799957 0.10077524185180664
0.17829453945159912 0.353338360786438 0.11627912521362305
0.17829453945159912 0.35302120447158813 0.1317828893661499
0.17829453945159912 0.35234370827674866 0.1472867727279663
0.17829453945159912 0.35137805342674255 0.16279065608978271
0.17829453945159912 0.35032251477241516 0.17829453945159912
0.17829453945159912 0.34923669695854187 0.19379842281341553
0.19379842281341553 -0.3340289890766144 -0.038759708404541016
0.19379842281341553 -0.3347806930541992 -0.02325582504272461
0.19379842281341553 -0.3356420397758484 -0.007751941680908203
0.19379842281341553 -0.33655083179473877 0.007751941680908203
0.19379842281341553 -0.33733218908309937 0.02325582504272461
0.19379842281341553 -0.3381240963935852 0.038759708404541016
0.19379842281341553 -0.33887022733688354 0.05426359176635742
0.19379842281341553 -0.33965447545051575 0.06976747512817383
0.19379842281341553 -0.3401855230331421 0.08527135848999023
0.19379842281341553 -0.340545654296875 0.10077524185180664
0.19379842281341553 -0.3409150242805481 0.11627912521362305
0.19379842281341553 -0.3406497836112976 0.1317828893661499
0.19379842281341553 -0.3400542736053467 0.1472867727279663
0.19379842281341553 -0.33919912576675415 0.16279065608978271
0.19379842281341553 -0.3381737470626831 0.17829453945159912
0.19379842281341553 -0.3372248113155365 0.19379842281341553
0.19379842281341553 -0.3363090753555298 0.20930230617523193
0.19379842281341553 -0.33520185947418213 0.22480618953704834
0.19379842281341553 -0.33404600620269775 0.24031007289886475
0.19379842281341553 -0.318109393119812 -0.1782945990562439
0.19379842281341553 -0.3195638358592987 -0.1627907156944275
0.19379842281341553 -0.3210016191005707 -0.14728683233261108
0.19379842281341553 -0.32284650206565857 -0.13178294897079468
0.19379842281341553 -0.32496702671051025 -0.11627906560897827
0.19379842281341553 -0.3269003629684448 -0.10077518224716187
0.19379842281341553 -0.32890039682388306 -0.08527129888534546
0.19379843771457672 -0.33091700077056885 -0.06976741552352905
0.19379842281341553 -0.33331626653671265 -0.05426359549164772
0.19379840791225433 -0.3323627710342407 0.25581395626068115
0.19379842281341553 -0.32994508743286133 0.27131783962249756
0.19379842281341553 -0.32814574241638184 0.28682172298431396
0.19379842281341553 -0.3264235258102417 0.30232560634613037
0.19379842281341553 -0.3243643045425415 0.3178294897079468
0.19379842281341553 -0.3225669264793396 0.3333333730697632
0.19379842281341553 -0.32117944955825806 0.3488372564315796
0.19379842281341553 -0.3195910155773163 0.364341139793396
0.19379842281341553 -0.318129301071167 0.37984490394592285
0.19379842281341553 -0.3034924268722534 -0.28682172298431396
0.19379842281341553 -0.3054223656654358 -0.27131783962249756
0.19379842281341553 -0.30751702189445496 -0.25581395626068115
0.19379842281341553 -0.30939385294914246 -0.24031007289886475
0.19379842281341553 -0.3111104965209961 -0.22480618953704834
0.19379842281341553 -0.31292787194252014 -0.20930230617523193
0.19379842281341553 -0.31530138850212097 -0.19379842281341553
0.19379840791225433 -0.31487494707107544 0.39534878730773926
0.19379842281341553 -0.3126462399959564 0.41085267066955566
0.19379842281341553 -0.30951905250549316 0.42635655403137207
0.19379842281341553 -0.3064863085746765 0.4418604373931885
0.19379842281341553 -0.3039047420024872 0.4573643207550049
0.19379842281341553 -0.2869243621826172 -0.3798449635505676
0.19379842281341553 -0.28906330466270447 -0.3643410801887512
0.19379842281341553 -0.2916277348995209 -0.3488371968269348
0.19379842281341553 -0.294498085975647 -0.3333333134651184
0.19379842281341553 -0.29735931754112244 -0.317829430103302
0.19379842281341553 -0.30094751715660095 -0.30232560634613037
0.19379842281341553 -0.30063897371292114 0.4728681743144989
0.19379842281341553 -0.296114057302475 0.4883720874786377
0.19379842281341553 -0.2912667393684387 0.5038759708404541
0.19379842281341553 -0.28710508346557617 0.5193798542022705
0.19379842281341553 -0.27353599667549133 -0.42635661363601685
0.19379842281341553 -0.277385413646698 -0.41085273027420044
0.19379842281341553 -0.28152012825012207 -0.39534884691238403
0.19379842281341553 -0.2787148058414459 0.5348837375640869
0.19379842281341553 -0.2724626064300537 0.5503876209259033
0.19379842281341553 -0.2583104968070984 -0.4728682041168213
0.19379842281341553 -0.263195276260376 -0.4573643207550049
0.19379842281341553 -0.2689247131347656 -0.4418604075908661
0.19379842281341553 -0.26504403352737427 0.5658915042877197
0.19379842281341553 -0.258555144071579 0.5813953876495361
0.19379842281341553 -0.24324531853199005 -0.5193798542022705
0.19379842281341553 -0.2479262351989746 -0.5038759708404541
0.19379842281341553 -0.2537038326263428 -0.4883720874786377
0.19379842281341553 -0.2516128718852997 0.5968992710113525
0.19379842281341553 -0.24464161694049835 0.612403154373169
0.19379842281341553 -0.22863075137138367 -0.5658915042877197
0.19379842281341553 -0.23318880796432495 -0.5503876209259033
0.19379842281341553 -0.23942705988883972 -0.5348837375640869
0.19379842281341553 -0.22516639530658722 0.08527135848999023
0.19379842281341553 -0.22842344641685486 0.10077524185180664
0.19379842281341553 -0.2309418022632599 0.11627912521362305
0.19379842281341553 -0.23181134462356567 0.1317828893661499
0.19379842281341553 -0.22982162237167358 0.1472867727279663
0.19379842281341553 -0.2251843363046646 0.16279065608978271
0.19379842281341553 -0.22595816850662231 0.25581395626068115
0.19379842281341553 -0.23190751671791077 0.27131783962249756
0.19379842281341553 -0.2363017499446869 0.28682172298431396
0.19379842281341553 -0.23841063678264618 0.30232560634613037
0.19379842281341553 -0.23922790586948395 0.3178294897079468
0.19379842281341553 -0.23819312453269958 0.3333333730697632
0.19379842281341553 -0.2338653951883316 0.3488372564315796
0.19379842281341553 -0.22829948365688324 0.364341139793396
0.19379842281341553 -0.22495689988136292 0.37984490394592285
0.19379842281341553 -0.2395591139793396 0.6279069185256958
0.19379842281341553 -0.2317834347486496 0.6434108018875122
0.19379842281341553 -0.2271239459514618 0.6589146852493286
0.19379842281341553 -0.21154314279556274 -0.6124030947685242
0.19379842281341553 -0.21694639325141907 -0.5968992114067078
0.19379842281341553 -0.22374989092350006 -0.5813953876495361
0.19379842281341553 -0.21131183207035065 -0.42635661363601685
0.19379842281341553 -0.21486201882362366 -0.41085273027420044
0.19379842281341553 -0.2187606543302536 -0.39534884691238403
0.19379842281341553 -0.22177661955356598 -0.3798449635505676
0.19379842281341553 -0.2235296070575714 -0.3643410801887512
0.19379842281341553 -0.2231806516647339 -0.3488371968269348
0.19379842281341553 -0.2215990126132965 -0.3333333134651184
0.19379842281341553 -0.22018557786941528 -0.317829430103302
0.19379842281341553 -0.21940460801124573 -0.30232560634613037
0.19379842281341553 -0.21872955560684204 -0.28682172298431396
0.19379842281341553 -0.21734456717967987 -0.27131783962249756
0.19379842281341553 -0.21495190262794495 -0.25581395626068115
0.19379842281341553 -0.20962849259376526 -0.24031007289886475
0.19379842281341553 -0.21146538853645325 -0.13178294897079468
0.19379842281341553 -0.2146894335746765 -0.11627906560897827
0.19379842281341553 -0.21847599744796753 -0.10077518224716187
0.19379842281341553 -0.22042065858840942 -0.08527129888534546
0.19379842281341553 -0.2205933928489685 -0.06976741552352905
0.19379842281341553 -0.21908670663833618 -0.05426359176635742
0.19379842281341553 -0.2177891731262207 -0.038759708404541016
0.19379842281341553 -0.21570229530334473 -0.02325582504272461
0.19379842281341553 -0.2143421173095703 -0.007751941680908203
0.19379842281341553 -0.2136974334716797 0.007751941680908203
0.19379842281341553 -0.2145041823387146 0.02325582504272461
0.19379842281341553 -0.2166496068239212 0.038759708404541016
0.19379842281341553 -0.21799293160438538 0.05426359176635742
0.19379842281341553 -0.2211574912071228 0.06976747512817383
0.19379842281341553 -0.2173120081424713 0.17829453945159912
0.19379842281341553 -0.20934292674064636 0.22480618953704834
0.19379842281341553 -0.2169640213251114 0.24031007289886475
0.19379842281341553 -0.22082877159118652 0.39534875750541687
0.19379842281341553 -0.2173086702823639 0.41085267066955566
0.19379842281341553 -0.21554651856422424 0.42635655403137207
0.19379842281341553 -0.21212199330329895 0.4418604373931885
0.19379842281341553 -0.21972420811653137 0.674418568611145
0.19379842281341553 -0.20999981462955475 0.6899224519729614
0.19379842281341553 -0.19737370312213898 -0.643410861492157
0.19379842281341553 -0.20363834500312805 -0.6279069781303406
0.19379842281341553 -0.19718170166015625 -0.4728682041168213
0.19379842281341553 -0.20195798575878143 -0.4573643207550049
0.19379842281341553 -0.20690032839775085 -0.4418604373931885
0.19379842281341553 -0.20503798127174377 -0.22480620443820953
0.19379842281341553 -0.20136529207229614 -0.20930230617523193
0.19379842281341553 -0.19899339973926544 -0.19379842281341553
0.19379842281341553 -0.1998203545808792 -0.1782945990562439
0.19379842281341553 -0.20203666388988495 -0.1627907156944275
0.19379842281341553 -0.2069413959980011 -0.14728683233261108
0.19379842281341553 -0.20856688916683197 0.19379842281341553
0.19379842281341553 -0.20424817502498627 0.20930230617523193
0.19379842281341553 -0.20659837126731873 0.4573643207550049
0.19379842281341553 -0.18194705247879028 -0.674418568611145
0.19379842281341553 -0.18894243240356445 -0.6589146852493286
0.19379842281341553 -0.18327149748802185 -0.5038759708404541
0.19379842281341553 -0.19099529087543488 -0.4883720874786377
0.19379842281341553 -0.19100378453731537 0.4728682041168213
0.19379842281341553 -0.18262101709842682 0.4883720874786377
0.19379842281341553 -0.18625083565711975 0.7054263353347778
0.19379842281341553 -0.16530409455299377 -0.7054263353347778
0.19379842281341553 -0.17293016612529755 -0.6899224519729614
0.19379842281341553 -0.1636350303888321 -0.5348837375640869
0.19379842281341553 -0.1748305708169937 -0.5193798542022705
0.19379842281341553 -0.17273864150047302 0.5038759708404541
0.19379842281341553 -0.16315539181232452 0.5193798542022705
0.19379842281341553 -0.17490079998970032 0.7209302186965942
0.19379842281341553 -0.16721892356872559 0.7364341020584106
0.19379842281341553 -0.16340893507003784 0.751937985420227
0.19379842281341553 -0.1487070620059967 -0.7364341020584106
0.19379842281341553 -0.15657223761081696 -0.7209302186965942
0.19379842281341553 -0.14970338344573975 -0.5503876209259033
0.19379842281341553 -0.1557738482952118 0.7674418687820435
0.19379842281341553 -0.14765745401382446 0.7829457521438599
0.19379842281341553 -0.13899828493595123 -0.751937985420227
0.19379842281341553 -0.13194391131401062 -0.5658915042877197
0.19379842281341553 -0.13886138796806335 0.5348837375640869
0.19379842281341553 -0.12641417980194092 -0.7674418687820435
0.19379842281341553 -0.12377902865409851 0.5503876209259033
0.19379842281341553 -0.12216439843177795 0.7984496355056763
0.19379842281341553 -0.11114863306283951 -0.7829457521438599
0.19379842281341553 -0.10568353533744812 -0.5968992114067078
0.19379842281341553 -0.1160300076007843 -0.5813953876495361
0.19379843771457672 -0.1120515912771225 0.5658915042877197
0.19379842281341553 -0.1092190146446228 0.5813953876495361
0.19379842281341553 -0.10956636071205139 0.5968992710113525
0.19379842281341553 -0.108114093542099 0.612403154373169
0.19379842281341553 -0.10685025155544281 0.6279069185256958
0.19379842281341553 -0.10221526771783829 0.6434108018875122
0.19379842281341553 -0.08883169293403625 -0.7984496355056763
0.19379842281341553 -0.09427547454833984 -0.6279069781303406
0.19379842281341553 -0.0989416316151619 -0.6124030947685242
0.19379842281341553 -0.0965396910905838 0.6589146852493286
0.19379842281341553 -0.08602769672870636 0.674418568611145
0.19379840791225433 -0.10049133002758026 0.8139535188674927
0.19379842281341553 -0.07650643587112427 -0.6589146852493286
0.19379842281341553 -0.08465814590454102 -0.643410861492157
0.19379842281341553 -0.08147908747196198 0.8294574022293091
0.19379842281341553 -0.05834978446364403 -0.8139535188674927
0.19379842281341553 -0.06375092267990112 -0.674418568611145
0.19379840791225433 -0.06658817827701569 0.6899224519729614
0.19379842281341553 -0.04995647817850113 -0.6899224519729614
0.19379842281341553 -0.04192620515823364 0.7054263353347778
0.19379842281341553 -0.05048748105764389 0.8449613451957703
0.19379842281341553 -0.02962413802742958 -0.7054263353347778
0.19379842281341553 -0.022067775949835777 0.7054263949394226
0.19379842281341553 -0.005119092762470245 0.6899224519729614
0.19379842281341553 0.013434793800115585 -0.7054263353347778
0.19379842281341553 0.010901078581809998 0.6899224519729614
0.19379842281341553 0.014714036136865616 0.8449612855911255
0.19379842281341553 0.03458261862397194 0.7054263353347778
0.19379842281341553 0.050347935408353806 -0.8139535188674927
0.19379842281341553 0.03891337662935257 -0.6899224519729614
0.19379842281341553 0.05426395311951637 -0.6744186282157898
0.19379842281341553 0.06872845441102982 -0.6589146852493286
0.19379842281341553 0.059697333723306656 0.8294574022293091
0.19379842281341553 0.07732497155666351 -0.7984496355056763
0.19379842281341553 0.07744552195072174 -0.643410861492157
0.19379842281341553 0.09651137888431549 -0.7829457521438599
0.19379842281341553 0.08739131689071655 -0.6279069781303406
0.19379842281341553 0.09405305236577988 -0.6124030947685242
0.19379842281341553 0.1007583737373352 -0.5968992114067078
0.19379840791225433 0.08742805570363998 0.7054263353347778
0.19379842281341553 0.08827945590019226 0.8139535188674927
0.19379842281341553 0.11618171632289886 -0.7674418687820435
0.19379842281341553 0.11268442124128342 -0.5813953876495361
0.19379842281341553 0.11290913820266724 0.674418568611145
0.19379840791225433 0.1027093157172203 0.6899223923683167
0.19379842281341553 0.1082255020737648 0.7984496355056763
0.19379842281341553 0.13021934032440186 0.6434108018875122
0.19379842281341553 0.12257428467273712 0.6589146852493286
0.19379842281341553 0.12510263919830322 0.7829457521438599
0.19379843771457672 0.13565117120742798 -0.7519380450248718
0.19379842281341553 0.14436034858226776 -0.5658915042877197
0.19379842281341553 0.14489483833312988 0.612403154373169
0.19379842281341553 0.13868644833564758 0.6279069185256958
0.19379842281341553 0.14099781215190887 0.7674418687820435
0.19379842281341553 0.1509799212217331 -0.7364341020584106
0.19379842281341553 0.161978080868721 0.5658915042877197
0.19379842281341553 0.15606558322906494 0.5813953876495361
0.19379840791225433 0.15076231956481934 0.5968992710113525
0.19379842281341553 0.15583693981170654 0.751937985420227
0.19379842281341553 0.1632143259048462 -0.7209302186965942
0.19379842281341553 0.1734505444765091 -0.7054263353347778
0.19379842281341553 0.16753681004047394 -0.5503876209259033
0.19379842281341553 0.1782543659210205 -0.5348837375640869
0.19379842281341553 0.17807359993457794 0.4883720874786377
0.19379842281341553 0.1757815033197403 0.5038759708404541
0.19379842281341553 0.17318157851696014 0.5193798542022705
0.19379842281341553 0.1700495481491089 0.5348837375640869
0.19379842281341553 0.1673680692911148 0.5503876209259033
0.19379842281341553 0.17434079945087433 0.7209302186965942
0.19379842281341553 0.16631172597408295 0.7364341020584106
0.19379842281341553 0.18390300869941711 -0.6899224519729614
0.19379842281341553 0.19139251112937927 -0.674418568611145
0.19379842281341553 0.1830502152442932 -0.5193798542022705
0.19379842281341553 0.1873878389596939 -0.5038759708404541
0.19379842281341553 0.193240225315094 -0.4883720874786377
0.19379842281341553 0.18977698683738708 0.42635655403137207
0.19379842281341553 0.18443694710731506 0.4418604075908661
0.19379842281341553 0.18140985071659088 0.4573643207550049
0.19379842281341553 0.17932119965553284 0.4728682041168213
0.19379842281341553 0.19015544652938843 0.6899224519729614
0.19379842281341553 0.18150179088115692 0.7054263353347778
0.19379842281341553 0.19946742057800293 -0.6589146852493286
0.19379842281341553 0.20579329133033752 -0.643410861492157
0.19379842281341553 0.19703921675682068 -0.4728682041168213
0.19379842281341553 0.20031766593456268 -0.4573643207550049
0.19379842281341553 0.2040485292673111 -0.4418604373931885
0.19379842281341553 0.20778848230838776 -0.42635661363601685
0.19379842281341553 0.20497162640094757 0.39534878730773926
0.19379842281341553 0.19583077728748322 0.41085267066955566
0.19379842281341553 0.20678238570690155 0.6589146852493286
0.19379840791225433 0.19835028052330017 0.674418568611145
0.19379842281341553 0.21299272775650024 -0.6279069781303406
0.19379842281341553 0.21850177645683289 -0.6124030947685242
0.19379842281341553 0.21076816320419312 -0.41085273027420044
0.19379842281341553 0.2135123759508133 -0.39534884691238403
0.19379842281341553 0.21539974212646484 -0.3798449635505676
0.19379842281341553 0.21713271737098694 -0.3643410801887512
0.19379842281341553 0.21798667311668396 -0.3488371968269348
0.19379842281341553 0.21853134036064148 -0.3333333134651184
0.19379842281341553 0.21960073709487915 -0.317829430103302
0.19379842281341553 0.22087235748767853 -0.30232560634613037
0.19379842281341553 0.22182737290859222 -0.28682172298431396
0.19379842281341553 0.22217121720314026 -0.27131783962249756
0.19379842281341553 0.22190670669078827 -0.25581395626068115
0.19379842281341553 0.21980950236320496 -0.24031007289886475
0.19379842281341553 0.21707022190093994 -0.22480618953704834
0.19379842281341553 0.21504391729831696 -0.20930230617523193
0.19379840791225433 0.21365323662757874 -0.19379840791225433
0.19379842281341553 0.21294239163398743 -0.1782945990562439
0.19379843771457672 0.21243512630462646 -0.16279073059558868
0.19379842281341553 0.21333013474941254 -0.14728683233261108
0.19379842281341553 0.21421585977077484 -0.13178294897079468
0.19379842281341553 0.21594080328941345 -0.11627906560897827
0.19379842281341553 0.21986791491508484 -0.10077518224716187
0.19379842281341553 0.22334109246730804 -0.08527129888534546
0.19379842281341553 0.21521836519241333 0.37984490394592285
0.19379842281341553 0.22293077409267426 0.6279069185256958
0.19379842281341553 0.21462595462799072 0.6434108018875122
0.19379842281341553 0.2259061634540558 -0.5968992114067078
0.19379842281341553 0.23112162947654724 -0.5813953876495361
0.19379842281341553 0.23701901733875275 -0.5658915042877197
0.19379842281341553 0.2259838879108429 -0.06976741552352905
0.19379842281341553 0.22708472609519958 -0.05426358804106712
0.19379842281341553 0.22776097059249878 -0.038759708404541016
0.19379842281341553 0.22737543284893036 -0.02325582504272461
0.19379842281341553 0.22724425792694092 -0.007751941680908203
0.19379842281341553 0.22690649330615997 0.007751941680908203
0.19379840791225433 0.22730523347854614 0.02325582318007946
0.19379842281341553 0.22829070687294006 0.038759708404541016
0.19379842281341553 0.22909462451934814 0.05426359176635742
0.19379842281341553 0.23232045769691467 0.06976747512817383
0.19379842281341553 0.23666465282440186 0.08527135848999023
0.19379842281341553 0.2347847819328308 0.19379842281341553
0.19379842281341553 0.23022812604904175 0.20930230617523193
0.19379842281341553 0.2273690104484558 0.22480618953704834
0.19379842281341553 0.2292744219303131 0.24031007289886475
0.19379842281341553 0.23465704917907715 0.25581395626068115
0.19379842281341553 0.2397671341896057 0.27131783962249756
0.19379842281341553 0.2341025173664093 0.3488372564315796
0.19379842281341553 0.22510601580142975 0.364341139793396
0.19379842281341553 0.23986706137657166 0.5968992710113525
0.19379840791225433 0.23018351197242737 0.612403154373169
0.19379842281341553 0.24375687539577484 -0.5503876209259033
0.19379842281341553 0.24847666919231415 -0.5348837375640869
0.19379842281341553 0.2405945062637329 0.10077523440122604
0.19379842281341553 0.24470119178295135 0.11627912521362305
0.19379842281341553 0.2473299503326416 0.1317828893661499
0.19379842281341553 0.24751746654510498 0.1472867727279663
0.19379842281341553 0.24503177404403687 0.16279065608978271
0.19379842281341553 0.2403416633605957 0.17829453945159912
0.19379842281341553 0.24346402287483215 0.28682172298431396
0.19379840791225433 0.24437564611434937 0.30232560634613037
0.19379842281341553 0.2437180131673813 0.3178294897079468
0.19379842281341553 0.24095894396305084 0.3333333730697632
0.19379842281341553 0.2488129734992981 0.5813953876495361
0.19379842281341553 0.2558309733867645 -0.5193798542022705
0.19379842281341553 0.26004815101623535 -0.5038759708404541
0.19379842281341553 0.2643928527832031 -0.4883720874786377
0.19379842281341553 0.27121180295944214 -0.4728682041168213
0.19379842281341553 0.2666322886943817 0.5503876209259033
0.19379842281341553 0.25904253125190735 0.5658915042877197
0.19379842281341553 0.27487462759017944 -0.4573643207550049
0.19379842281341553 0.27873170375823975 -0.4418604373931885
0.19379842281341553 0.28304627537727356 -0.42635661363601685
0.19379842281341553 0.2784724235534668 0.5193798542022705
0.19379842281341553 0.2725120782852173 0.5348837375640869
0.19379842281341553 0.2883248031139374 -0.41085273027420044
0.19379842281341553 0.2913099527359009 -0.39534884691238403
0.19379842281341553 0.29485851526260376 -0.3798449635505676
0.19379842281341553 0.29834094643592834 -0.3643410801887512
0.19379842281341553 0.3007037043571472 0.4573643207550049
0.19379842281341553 0.2952224612236023 0.4728682041168213
0.19379842281341553 0.2903115153312683 0.4883720874786377
0.19379842281341553 0.2868936061859131 0.5038759708404541
0.19379842281341553 0.3027855157852173 -0.3488371968269348
0.19379842281341553 0.30471503734588623 -0.3333333134651184
0.19379842281341553 0.30689364671707153 -0.317829430103302
0.19379842281341553 0.30953434109687805 -0.30232560634613037
0.19379842281341553 0.31205469369888306 -0.28682172298431396
0.19379842281341553 0.31500986218452454 -0.27131783962249756
0.19379842281341553 0.31615495681762695 0.364341139793396
0.19379842281341553 0.31178730726242065 0.37984490394592285
0.19379842281341553 0.30765289068222046 0.39534878730773926
0.19379842281341553 0.30525442957878113 0.41085267066955566
0.19379842281341553 0.30421897768974304 0.42635655403137207
0.19379842281341553 0.3030755817890167 0.4418604373931885
0.19379842281341553 0.31844598054885864 -0.25581395626068115
0.19379842281341553 0.3202700912952423 -0.24031007289886475
0.19379842281341553 0.3219849765300751 -0.22480618953704834
0.19379842281341553 0.3238569498062134 -0.20930230617523193
0.19379842281341553 0.3261029124259949 -0.19379842281341553
0.19379842281341553 0.3280465304851532 -0.1782945990562439
0.19379842281341553 0.3294684886932373 -0.1627907156944275
0.19379842281341553 0.3311339020729065 -0.14728683233261108
0.19379842281341553 0.33305779099464417 -0.13178294897079468
0.19379842281341553 0.332759827375412 0.25581395626068115
0.19379842281341553 0.3304348289966583 0.27131783962249756
0.19379842281341553 0.3287428617477417 0.28682172298431396
0.19379842281341553 0.3263614773750305 0.30232560634613037
0.19379842281341553 0.32420891523361206 0.3178294897079468
0.19379842281341553 0.3216000199317932 0.3333333730697632
0.19379842281341553 0.3193593919277191 0.3488372564315796
0.19379840791225433 0.3342166841030121 -0.11627906560897827
0.19379843771457672 0.33549368381500244 -0.10077518224716187
0.19379842281341553 0.3366907835006714 -0.08527129888534546
0.19379842281341553 0.3377317786216736 -0.06976741552352905
0.19379842281341553 0.3385768234729767 -0.05426359549164772
0.19379842281341553 0.3397424817085266 -0.038759708404541016
0.19379842281341553 0.3410094976425171 -0.02325582504272461
0.19379842281341553 0.34235548973083496 -0.007751941680908203
0.19379842281341553 0.3433672785758972 0.007751941680908203
0.19379842281341553 0.34431150555610657 0.02325582504272461
0.19379842281341553 0.34515780210494995 0.038759708404541016
0.19379842281341553 0.34569549560546875 0.05426359176635742
0.19379842281341553 0.34637004137039185 0.06976747512817383
0.19379842281341553 0.3466443717479706 0.08527135848999023
0.19379842281341553 0.34664231538772583 0.10077524185180664
0.19379842281341553 0.346391886472702 0.11627912521362305
0.19379842281341553 0.3457379937171936 0.1317828893661499
0.19379842281341553 0.34460559487342834 0.1472867727279663
0.19379842281341553 0.34297993779182434 0.16279065608978271
0.19379842281341553 0.34084492921829224 0.17829453945159912
0.19379842281341553 0.3384830951690674 0.19379842281341553
0.19379842281341553 0.3368501365184784 0.20930230617523193
0.19379840791225433 0.3352205455303192 0.22480617463588715
0.19379842281341553 0.33396899700164795 0.24031007289886475
0.20930230617523193 -0.3194364905357361 -0.08527129888534546
0.20930230617523193 -0.32095247507095337 -0.06976741552352905
0.20930230617523193 -0.32230818271636963 -0.05426359176635742
0.20930230617523193 -0.32334738969802856 -0.038759708404541016
0.20930230617523193 -0.3243716061115265 -0.02325582504272461
0.20930230617523193 -0.32543301582336426 -0.007751941680908203
0.20930230617523193 -0.32652604579925537 0.007751941680908203
0.20930230617523193 -0.32748302817344666 0.02325582504272461
0.20930230617523193 -0.32838112115859985 0.038759708404541016
0.20930230617523193 -0.32922792434692383 0.05426359176635742
0.20930230617523193 -0.33006882667541504 0.06976747512817383
0.20930230617523193 -0.33058246970176697 0.08527135848999023
0.20930232107639313 -0.33100274205207825 0.10077524930238724
0.20930230617523193 -0.3314965069293976 0.11627912521362305
0.20930230617523193 -0.3313228487968445 0.1317828893661499
0.20930230617523193 -0.33070987462997437 0.1472867727279663
0.20930230617523193 -0.3296750783920288 0.16279065608978271
0.20930230617523193 -0.3283848166465759 0.17829453945159912
0.20930230617523193 -0.32718074321746826 0.19379842281341553
0.20930230617523193 -0.32593441009521484 0.20930230617523193
0.20930230617523193 -0.3244175910949707 0.22480618953704834
0.20930230617523193 -0.32283055782318115 0.24031007289886475
0.20930230617523193 -0.3214855194091797 0.25581395626068115
0.20930230617523193 -0.32037436962127686 0.27131783962249756
0.20930230617523193 -0.319397509098053 0.28682172298431396
