0.28633496165275574 0.25581395626068115 0.06976747512817383
0.28551730513572693 0.25581395626068115 0.11627912521362305
0.28355520963668823 0.25581395626068115 0.1317828893661499
0.282100111246109 0.25581395626068115 0.1472867727279663
0.2809496521949768 0.25581395626068115 0.16279065608978271
0.27995091676712036 0.25581395626068115 0.17829453945159912
0.27899906039237976 0.25581395626068115 0.19379842281341553
0.2778804302215576 0.25581395626068115 0.20930230617523193
0.27639952301979065 0.25581395626068115 0.22480618953704834
0.27525264024734497 0.25581395626068115 0.24031007289886475
0.2745347321033478 0.25581395626068115 0.25581395626068115
0.27359628677368164 0.25581395626068115 0.27131783962249756
0.2725377380847931 0.25581395626068115 0.28682172298431396
0.2728826403617859 0.27131783962249756 -0.02325582504272461
0.27248454093933105 0.27131783962249756 -0.007751941680908203
0.271327942609787 0.27131783962249756 0.06976747512817383
0.2720504403114319 0.27131783962249756 0.08527135848999023
0.27164915204048157 0.27131783962249756 0.10077524185180664
0.2880667448043823 -0.24031007289886475 -0.25581395626068115
0.2893727123737335 -0.24031007289886475 -0.24031007289886475
0.2905464768409729 -0.24031007289886475 -0.22480618953704834
0.2915862798690796 -0.24031007289886475 -0.20930230617523193
0.2922915816307068 -0.24031007289886475 -0.19379842281341553
0.29153627157211304 -0.24031007289886475 -0.1782945990562439
0.2886553108692169 -0.24031005799770355 -0.1627907007932663
0.28773704171180725 -0.24031007289886475 -0.05426359176635742
0.29378533363342285 -0.24031007289886475 -0.038759708404541016
0.2989654541015625 -0.24031007289886475 -0.02325582504272461
0.3008570373058319 -0.24031007289886475 -0.007751941680908203
0.3009195029735565 -0.24031007289886475 0.007751941680908203
0.3000297248363495 -0.24031007289886475 0.02325582504272461
0.2962370812892914 -0.24031007289886475 0.038759708404541016
0.2918521463871002 -0.24031007289886475 0.05426359549164772
0.29344499111175537 -0.24031007289886475 0.06976747512817383
0.2946590781211853 -0.24031007289886475 0.08527135848999023
0.2941652536392212 -0.24031005799770355 0.10077524185180664
0.2931842505931854 -0.24031007289886475 0.11627912521362305
0.2918069362640381 -0.24031007289886475 0.1317828893661499
0.29083868861198425 -0.24031008780002594 0.1472867727279663
0.29033640027046204 -0.24031007289886475 0.16279065608978271
0.28979089856147766 -0.24031005799770355 0.17829452455043793
0.2893228828907013 -0.24031007289886475 0.19379842281341553
0.2887793481349945 -0.24031005799770355 0.20930230617523193
0.2878386080265045 -0.24031005799770355 0.22480618953704834
0.28711310029029846 -0.24031007289886475 0.24031007289886475
0.2869488596916199 -0.24031007289886475 0.25581395626068115
0.28821805119514465 -0.22480617463588715 -0.3488371968269348
0.2909098267555237 -0.22480618953704834 -0.3333333134651184
0.2932347357273102 -0.22480618953704834 -0.317829430103302
0.2951279282569885 -0.22480618953704834 -0.30232560634613037
0.29675084352493286 -0.22480618953704834 -0.28682172298431396
0.29872140288352966 -0.22480618953704834 -0.27131783962249756
0.30101799964904785 -0.22480618953704834 -0.25581395626068115
0.29903310537338257 -0.22480618953704834 -0.14728683233261108
0.2962063252925873 -0.22480618953704834 -0.13178294897079468
0.2936244606971741 -0.22480618953704834 -0.11627906560897827
0.29334089159965515 -0.22480618953704834 -0.10077518224716187
0.2951293885707855 -0.22480618953704834 -0.08527129888534546
0.29967382550239563 -0.22480618953704834 -0.06976741552352905
0.3018554151058197 -0.22480618953704834 0.24031007289886475
0.2999786138534546 -0.22480618953704834 0.25581395626068115
0.29819291830062866 -0.22480618953704834 0.27131783962249756
0.2957236170768738 -0.22480618953704834 0.28682172298431396
0.2923698425292969 -0.22480618953704834 0.30232560634613037
0.28999775648117065 -0.22480618953704834 0.3178294897079468
0.2877795696258545 -0.22480618953704834 0.3333333730697632
0.28832390904426575 -0.20930230617523193 -0.41085273027420044
0.2921372950077057 -0.20930230617523193 -0.39534884691238403
0.2952984571456909 -0.20930230617523193 -0.3798449635505676
0.29817184805870056 -0.20930230617523193 -0.3643410801887512
0.3011992275714874 -0.20930230617523193 -0.3488371968269348
0.298315167427063 -0.20930230617523193 0.3333333730697632
0.29524165391921997 -0.20930230617523193 0.3488372564315796
0.2933308482170105 -0.20930230617523193 0.364341139793396
0.29206767678260803 -0.20930230617523193 0.37984490394592285
0.2908656597137451 -0.20930229127407074 0.39534878730773926
0.2895018458366394 -0.20930230617523193 0.41085267066955566
0.2875550389289856 -0.20930229127407074 0.4263565242290497
0.2898586094379425 -0.19379842281341553 -0.4573643207550049
0.2937828302383423 -0.19379842281341553 -0.4418604373931885
0.29720908403396606 -0.19379842281341553 -0.42635661363601685
0.3013884127140045 -0.19379842281341553 -0.41085273027420044
0.3000706732273102 -0.19379842281341553 0.41085267066955566
0.2964024543762207 -0.19379842281341553 0.42635655403137207
0.2926276922225952 -0.19379842281341553 0.4418604373931885
0.2897140383720398 -0.19379840791225433 0.4573642909526825
0.28713637590408325 -0.19379842281341553 0.4728682041168213
0.2888554036617279 -0.1782945990562439 -0.5038759708404541
0.2932678461074829 -0.1782945990562439 -0.4883720874786377
0.2970287799835205 -0.1782945990562439 -0.4728682041168213
0.3018028438091278 -0.1782945990562439 -0.4573643207550049
0.298995703458786 -0.1782945990562439 0.4573643207550049
0.29348263144493103 -0.1782945990562439 0.4728681743144989
0.29036110639572144 -0.1782945990562439 0.4883720874786377
0.28997835516929626 -0.1782945990562439 0.5038759708404541
0.2883470058441162 -0.1782945990562439 0.5193798542022705
0.2898130714893341 -0.1627907156944275 -0.5348837375640869
0.29462558031082153 -0.1627907156944275 -0.5193798542022705
0.2984551787376404 -0.1627907156944275 -0.5038759708404541
0.2993631064891815 -0.1627907156944275 0.4883720874786377
0.2973848283290863 -0.1627907156944275 0.5038759708404541
0.2940922975540161 -0.1627907156944275 0.5193798542022705
0.29101109504699707 -0.1627907156944275 0.5348837375640869
0.2880084812641144 -0.14728683233261108 -0.5658915042877197
0.2932780385017395 -0.14728683233261108 -0.5503876209259033
0.2976946234703064 -0.14728683233261108 -0.5348837375640869
0.29623183608055115 -0.14728683233261108 0.5348837375640869
0.2904352843761444 -0.14728683233261108 0.5503876209259033
0.2892363965511322 -0.13178294897079468 -0.5813953876495361
0.2953227758407593 -0.13178294897079468 -0.5658915042877197
0.29958152770996094 -0.13178294897079468 -0.5503876209259033
0.2943219542503357 -0.13178294897079468 0.5503876209259033
0.289386123418808 -0.11627906560897827 -0.5968992114067078
0.29577386379241943 -0.11627906560897827 -0.5813953876495361
0.3007168173789978 -0.11627906560897827 -0.5658915042877197
0.30041077733039856 -0.11627906560897827 0.5503876209259033
0.28954166173934937 -0.11627906560897827 0.5658915042877197
0.28864309191703796 -0.10077518224716187 -0.6124030947685242
0.2952519953250885 -0.10077518224716187 -0.5968992114067078
0.30025514960289 -0.10077518224716187 -0.5813953876495361
0.2917756736278534 -0.10077518969774246 0.5658915042877197
0.287089079618454 -0.08527129888534546 -0.6279069781303406
0.29360494017601013 -0.08527129888534546 -0.6124030947685242
0.2988210916519165 -0.08527129888534546 -0.5968992114067078
0.2943587899208069 -0.08527129888534546 0.5658915042877197
0.291227787733078 -0.06976741552352905 -0.6279069781303406
0.2975063621997833 -0.06976741552352905 -0.6124030947685242
0.29859381914138794 -0.06976741552352905 0.5658915042877197
0.2889261543750763 -0.06976741552352905 0.5813953876495361
0.28845909237861633 -0.05426359176635742 -0.643410861492157
0.2955790162086487 -0.05426359176635742 -0.6279069781303406
0.3006806969642639 -0.05426359176635742 -0.612403154373169
0.29149502515792847 -0.05426359176635742 0.5813953876495361
0.29141753911972046 -0.038759708404541016 -0.643410861492157
0.29737454652786255 -0.038759708404541016 -0.6279069781303406
0.2933701276779175 -0.038759708404541016 0.5813953876495361
0.29384100437164307 -0.02325582504272461 -0.6434109210968018
0.29883524775505066 -0.02325582504272461 -0.6279069781303406
0.2888292074203491 -0.02325582504272461 0.25581395626068115
0.28762170672416687 -0.02325582504272461 0.27131783962249756
0.29466134309768677 -0.02325582504272461 0.5813953876495361
0.2873660922050476 -0.02325582504272461 0.5968993306159973
0.28726261854171753 -0.007751941215246916 -0.6589146256446838
0.29481759667396545 -0.007751941680908203 -0.643410861492157
0.2998577356338501 -0.007751941680908203 -0.6279069781303406
0.2907608151435852 -0.007751941680908203 0.25581395626068115
0.29263487458229065 -0.007751941680908203 0.27131783962249756
0.29487842321395874 -0.007751941680908203 0.5813953876495361
0.2875983417034149 -0.007751941215246916 0.5968992710113525
0.28718626499176025 0.007751941680908203 -0.6589146256446838
0.2946718633174896 0.007751941680908203 -0.643410861492157
0.29972392320632935 0.007751941680908203 -0.6279069781303406
0.29318761825561523 0.00775194214656949 0.5813953876495361
0.29306843876838684 0.02325582504272461 -0.643410861492157
0.2978697717189789 0.02325582504272461 -0.6279069781303406
0.2913234829902649 0.02325582504272461 0.5813953876495361
0.2903858423233032 0.038759708404541016 -0.643410861492157
0.29606205224990845 0.038759708404541016 -0.6279069781303406
0.2903628945350647 0.038759708404541016 0.5813953876495361
0.2872294783592224 0.05426359176635742 -0.643410861492157
0.29381805658340454 0.05426359176635742 -0.6279069781303406
0.2983866333961487 0.05426359176635742 -0.6124030947685242
0.28959107398986816 0.05426359176635742 0.5813953876495361
0.2895320653915405 0.06976747512817383 -0.6279069781303406
0.29543644189834595 0.06976747512817383 -0.6124030947685242
0.30101025104522705 0.06976747512817383 -0.5968992114067078
0.2888398766517639 0.06976747512817383 0.5813953876495361
0.29118889570236206 0.08527135848999023 -0.6124030947685242
0.2960628271102905 0.08527135848999023 -0.5968992114067078
0.2998580038547516 0.08527135848999023 0.5658915042877197
0.2874968945980072 0.08527135848999023 0.5813954472541809
0.29201939702033997 0.10077524185180664 -0.5968992114067078
0.2963261604309082 0.10077524185180664 -0.5813953876495361
0.29654717445373535 0.10077524185180664 0.5658915042877197
0.2920316159725189 0.11627912521362305 -0.5813953876495361
0.29613009095191956 0.11627912521362305 -0.5658915042877197
0.29297930002212524 0.11627912521362305 0.5658915042877197
0.29146748781204224 0.1317828893661499 -0.5658915042877197
0.2953982651233673 0.1317828893661499 -0.5503876209259033
0.3019562065601349 0.1317828893661499 -0.5348837375640869
0.2986874282360077 0.1317828893661499 0.5503876209259033
0.2899155914783478 0.1317828893661499 0.5658915042877197
0.29009467363357544 0.1472867727279663 -0.5503876209259033
0.29449018836021423 0.1472867727279663 -0.5348837375640869
0.2992008328437805 0.1472867727279663 -0.5193798542022705
0.30157482624053955 0.1472867727279663 0.5348837375640869
0.2932426631450653 0.1472867727279663 0.5503876209259033
0.2879266142845154 0.16279065608978271 -0.5348837375640869
0.2926812767982483 0.16279065608978271 -0.5193798542022705
0.29594558477401733 0.16279065608978271 -0.5038759708404541
0.2994489073753357 0.16279065608978271 0.5193798542022705
0.2935694456100464 0.16279065608978271 0.5348837375640869
0.2888911962509155 0.1627906709909439 0.5503876209259033
0.28927886486053467 0.17829453945159912 -0.5038759708404541
0.2932721972465515 0.17829453945159912 -0.4883720874786377
0.29606226086616516 0.17829453945159912 -0.4728682041168213
0.3014543950557709 0.17829453945159912 -0.4573643207550049
0.2983130216598511 0.17829453945159912 0.4883720874786377
0.2942656874656677 0.17829453945159912 0.5038759708404541
0.2913894057273865 0.17829453945159912 0.5193798542022705
0.2882721722126007 0.17829453945159912 0.5348837375640869
0.28824254870414734 0.19379842281341553 -0.4728682041168213
0.29157647490501404 0.19379842281341553 -0.4573643207550049
0.29434120655059814 0.19379842281341553 -0.4418604373931885
0.29735705256462097 0.19379842281341553 -0.42635661363601685
0.3021603524684906 0.19379842281341553 -0.41085273027420044
0.30210691690444946 0.19379842281341553 0.42635655403137207
0.2977864146232605 0.19379842281341553 0.4418604373931885
0.2941194772720337 0.19379842281341553 0.4573643207550049
0.2911386787891388 0.19379842281341553 0.4728682041168213
0.28934425115585327 0.19379842281341553 0.4883720874786377
0.2875140309333801 0.19379840791225433 0.5038759708404541
0.28820258378982544 0.20930230617523193 -0.42635664343833923
0.2907152771949768 0.20930229127407074 -0.41085273027420044
0.2933443784713745 0.20930230617523193 -0.39534884691238403
0.29525014758110046 0.20930230617523193 -0.3798449635505676
0.29837360978126526 0.20930230617523193 -0.3643410801887512
0.3023153841495514 0.20930230617523193 -0.3488371968269348
0.3018844723701477 0.20930230617523193 0.3488372564315796
0.29810428619384766 0.20930230617523193 0.364341139793396
0.2955288589000702 0.20930230617523193 0.37984490394592285
0.29302990436553955 0.20930230617523193 0.39534878730773926
0.2911756932735443 0.20930230617523193 0.41085267066955566
0.28981921076774597 0.20930230617523193 0.42635655403137207
0.2881908714771271 0.20930230617523193 0.4418604373931885
0.2880811393260956 0.22480620443820953 -0.3643410801887512
0.28990066051483154 0.22480618953704834 -0.3488371968269348
0.29187673330307007 0.22480618953704834 -0.3333333134651184
0.293558269739151 0.22480618953704834 -0.317829430103302
0.29459428787231445 0.22480618953704834 -0.30232560634613037
0.2956126928329468 0.22480618953704834 -0.28682172298431396
0.2971749007701874 0.22480618953704834 -0.27131783962249756
0.29850709438323975 0.22480618953704834 -0.25581395626068115
0.3001297414302826 0.22480618953704834 -0.24031007289886475
0.30216333270072937 0.22480618953704834 -0.22480618953704834
0.3017774522304535 0.22480618953704834 0.007751941680908203
0.2983822226524353 0.22480618953704834 0.02325582504272461
0.3010026812553406 0.22480618953704834 0.038759708404541016
0.2988368272781372 0.22480618953704834 0.28682172298431396
0.2953798472881317 0.22480618953704834 0.30232560634613037
0.29280412197113037 0.22480617463588715 0.3178294897079468
0.2910105586051941 0.22480618953704834 0.3333333730697632
0.28973251581192017 0.22480618953704834 0.3488372564315796
0.2882492244243622 0.22480620443820953 0.364341139793396
0.2868465781211853 0.22480618953704834 0.37984490394592285
0.28689268231391907 0.24031007289886475 -0.25581395626068115
0.2877192199230194 0.24031007289886475 -0.24031007289886475
0.2885883152484894 0.24031007289886475 -0.22480618953704834
0.2895525097846985 0.24031007289886475 -0.20930230617523193
0.29065051674842834 0.24031007289886475 -0.19379842281341553
0.29089096188545227 0.24031005799770355 -0.1782945990562439
0.28984957933425903 0.24031007289886475 -0.1627907156944275
0.28990909457206726 0.24031007289886475 -0.14728683233261108
0.28999435901641846 0.24031007289886475 -0.13178294897079468
0.28972214460372925 0.24031007289886475 -0.11627906560897827
0.28908979892730713 0.24031005799770355 -0.10077518224716187
0.28929972648620605 0.24031007289886475 -0.08527129888534546
0.29064714908599854 0.24031005799770355 -0.06976741552352905
0.2899724543094635 0.24031007289886475 -0.05426359176635742
0.2958623468875885 0.24031007289886475 -0.038759708404541016
0.3005576431751251 0.24031007289886475 -0.02325582504272461
0.29646438360214233 0.24031007289886475 -0.007751941680908203
0.28953665494918823 0.24031007289886475 0.007751941680908203
0.28754863142967224 0.24031007289886475 0.038759708404541016
0.2910338044166565 0.24031007289886475 0.05426359176635742
0.29803431034088135 0.24031007289886475 0.06976747512817383
0.30004990100860596 0.24031007289886475 0.08527135848999023
0.29942697286605835 0.24031007289886475 0.10077524185180664
0.29804208874702454 0.24031007289886475 0.11627912521362305
0.2966131269931793 0.24031007289886475 0.1317828893661499
0.2954193949699402 0.24031007289886475 0.1472867727279663
0.2943728566169739 0.24031007289886475 0.16279065608978271
0.29334306716918945 0.24031007289886475 0.17829453945159912
0.2924843430519104 0.24031007289886475 0.19379842281341553
0.2918064594268799 0.24031007289886475 0.20930230617523193
0.2911209762096405 0.24031007289886475 0.22480618953704834
0.29056668281555176 0.24031007289886475 0.24031007289886475
0.2899053692817688 0.24031007289886475 0.25581395626068115
0.2887260913848877 0.24031007289886475 0.27131783962249756
0.2874934673309326 0.24031007289886475 0.28682172298431396
0.2869322896003723 0.25581395626068115 -0.038759708404541016
0.2884596288204193 0.25581395626068115 -0.02325582504272461
0.2877967953681946 0.25581395626068115 -0.007751941680908203
0.2873416841030121 0.25581395626068115 0.08527135848999023
0.287070095539093 0.25581395626068115 0.10077524185180664
0.30269768834114075 -0.22480618953704834 -0.24031008780002594
0.30359509587287903 -0.22480618953704834 -0.22480618953704834
0.30443719029426575 -0.22480618953704834 -0.20930230617523193
0.30510827898979187 -0.22480618953704834 -0.19379842281341553
0.3047337234020233 -0.22480620443820953 -0.1782946139574051
0.30246222019195557 -0.22480618953704834 -0.1627907156944275
0.30309179425239563 -0.22480620443820953 -0.05426359176635742
0.3095187544822693 -0.22480618953704834 -0.038759708404541016
0.3139066994190216 -0.22480618953704834 -0.02325582504272461
0.31535235047340393 -0.22480618953704834 -0.007751941680908203
0.3151736855506897 -0.22480618953704834 0.007751941680908203
0.3141808807849884 -0.22480618953704834 0.02325582504272461
0.3111223578453064 -0.22480618953704834 0.038759708404541016
0.30729785561561584 -0.22480618953704834 0.05426359176635742
0.30754098296165466 -0.22480618953704834 0.06976747512817383
0.3079686164855957 -0.22480618953704834 0.08527135848999023
0.30733609199523926 -0.22480620443820953 0.10077524185180664
0.3066020607948303 -0.22480620443820953 0.11627912521362305
0.30563610792160034 -0.22480618953704834 0.1317828893661499
0.3047572672367096 -0.22480618953704834 0.1472867727279663
0.3043188750743866 -0.22480618953704834 0.16279065608978271
0.30382823944091797 -0.22480618953704834 0.17829453945159912
0.30348607897758484 -0.22480618953704834 0.19379842281341553
0.3031338155269623 -0.22480618953704834 0.20930230617523193
0.30264896154403687 -0.22480618953704834 0.22480618953704834
0.3036153018474579 -0.20930230617523193 -0.333333283662796
0.30569615960121155 -0.20930230617523193 -0.317829430103302
0.3079158067703247 -0.20930230617523193 -0.30232560634613037
0.3095371723175049 -0.20930230617523193 -0.28682172298431396
0.310884952545166 -0.20930230617523193 -0.27131783962249756
0.312039852142334 -0.20930230617523193 -0.25581395626068115
0.31312790513038635 -0.20930230617523193 -0.24031007289886475
0.3142249286174774 -0.20930230617523193 -0.22480618953704834
0.315454363822937 -0.20930230617523193 -0.20930230617523193
0.31671416759490967 -0.20930230617523193 -0.19379842281341553
0.3161681890487671 -0.20930230617523193 -0.1782945990562439
0.31335458159446716 -0.20930230617523193 -0.1627907156944275
0.3100665211677551 -0.20930230617523193 -0.14728683233261108
0.30635908246040344 -0.20930230617523193 -0.13178294897079468
0.3044441342353821 -0.20930230617523193 -0.11627906560897827
0.30440038442611694 -0.20930230617523193 -0.10077518969774246
0.30572256445884705 -0.20930230617523193 -0.08527129888534546
0.3100888133049011 -0.20930230617523193 -0.06976741552352905
0.3159305155277252 -0.20930230617523193 -0.05426359176635742
0.31659838557243347 -0.20930230617523193 0.1472867727279663
0.31579139828681946 -0.20930230617523193 0.16279065608978271
0.31496116518974304 -0.20930230617523193 0.17829453945159912
0.3144768476486206 -0.20930230617523193 0.19379842281341553
0.3140072524547577 -0.20930230617523193 0.20930230617523193
0.31334859132766724 -0.20930230617523193 0.22480618953704834
0.31223583221435547 -0.20930230617523193 0.24031007289886475
0.31087028980255127 -0.20930230617523193 0.25581395626068115
0.3088937997817993 -0.20930230617523193 0.27131783962249756
0.30693483352661133 -0.20930230617523193 0.28682172298431396
0.3048326373100281 -0.20930230617523193 0.30232560634613037
0.30255720019340515 -0.20930229127407074 0.3178294897079468
0.3047466576099396 -0.19379842281341553 -0.39534884691238403
0.30829179286956787 -0.19379842281341553 -0.3798449635505676
0.31061941385269165 -0.19379842281341553 -0.3643410801887512
0.3123798370361328 -0.19379842281341553 -0.3488371968269348
0.31462234258651733 -0.19379842281341553 -0.3333333134651184
0.3171781599521637 -0.19379842281341553 -0.317829430103302
0.31623438000679016 -0.19379842281341553 -0.13178294897079468
0.3139122724533081 -0.19379842281341553 -0.11627906560897827
0.3137584328651428 -0.19379842281341553 -0.10077518224716187
0.31511011719703674 -0.19379842281341553 -0.08527129888534546
0.3145584762096405 -0.19379842281341553 0.30232560634613037
0.31084102392196655 -0.19379842281341553 0.3178294897079468
0.30825531482696533 -0.19379842281341553 0.3333333730697632
0.3064025044441223 -0.19379842281341553 0.3488372564315796
0.30539441108703613 -0.19379842281341553 0.364341139793396
0.3044348359107971 -0.19379843771457672 0.37984490394592285
0.3030950725078583 -0.19379842281341553 0.39534881711006165
0.3053373098373413 -0.1782945990562439 -0.4418604373931885
0.3093165159225464 -0.1782945990562439 -0.42635661363601685
0.3119935989379883 -0.1782945990562439 -0.41085273027420044
0.31545692682266235 -0.1782945990562439 -0.39534884691238403
0.3148609697818756 -0.1782945990562439 0.364341139793396
0.3125309348106384 -0.1782945990562439 0.37984490394592285
0.31034815311431885 -0.1782945990562439 0.39534878730773926
0.3079417943954468 -0.1782945990562439 0.41085267066955566
0.30592209100723267 -0.1782945990562439 0.42635655403137207
0.3036417067050934 -0.1782945990562439 0.4418604373931885
0.30353787541389465 -0.1627907156944275 -0.4883720874786377
0.30763310194015503 -0.1627907156944275 -0.4728682041168213
0.3114510774612427 -0.1627907156944275 -0.4573643207550049
0.31504026055336 -0.1627907156944275 -0.4418604373931885
0.313545286655426 -0.1627907156944275 0.42635655403137207
0.3090541362762451 -0.1627907156944275 0.4418604373931885
0.3055536150932312 -0.1627907156944275 0.4573643207550049
0.3030484616756439 -0.1627907156944275 0.4728682041168213
0.303005188703537 -0.14728683233261108 -0.5193798542022705
0.30736881494522095 -0.14728683233261108 -0.5038759708404541
0.3116893768310547 -0.14728683233261108 -0.4883720874786377
0.31576085090637207 -0.14728683233261108 -0.4728682041168213
0.3116391897201538 -0.14728683233261108 0.4573643207550049
0.3061595857143402 -0.14728683233261108 0.4728682041168213
0.30481964349746704 -0.14728683233261108 0.4883720874786377
0.3054238557815552 -0.14728683233261108 0.5038759708404541
0.3036467134952545 -0.14728683233261108 0.5193798542022705
0.30512699484825134 -0.13178294897079468 -0.5348837375640869
0.3101581931114197 -0.13178294897079468 -0.5193798542022705
0.31374314427375793 -0.13178294897079468 -0.5038759708404541
0.31121692061424255 -0.13178294897079468 0.4728682041168213
0.3090159296989441 -0.13178294897079468 0.4883720874786377
0.3096734881401062 -0.13178294897079468 0.5038759708404541
0.307948499917984 -0.13178294897079468 0.5193798542022705
0.30450358986854553 -0.13178294897079468 0.5348837375640869
0.30611416697502136 -0.11627907305955887 -0.5503876209259033
0.3115200996398926 -0.11627906560897827 -0.5348837375640869
0.31526800990104675 -0.11627906560897827 -0.5193798542022705
0.31601932644844055 -0.11627906560897827 0.4728682041168213
0.31480732560157776 -0.11627906560897827 0.4883720874786377
0.31757888197898865 -0.11627906560897827 0.5038759708404541
0.3125554323196411 -0.11627906560897827 0.5193798542022705
0.30835744738578796 -0.11627906560897827 0.5348837375640869
0.3063163161277771 -0.10077517479658127 -0.5658915042877197
0.31174319982528687 -0.10077518224716187 -0.5503876209259033
0.31577056646347046 -0.10077518224716187 -0.5348837375640869
0.31178370118141174 -0.10077518224716187 0.5348837375640869
0.3052605390548706 -0.10077518224716187 0.5503876209259033
0.3051610291004181 -0.08527129888534546 -0.5813953876495361
0.31122562289237976 -0.08527129888534546 -0.5658915042877197
0.31479740142822266 -0.08527129888534546 -0.5503876209259033
0.31747597455978394 -0.08527129888534546 0.5348837375640869
0.30756792426109314 -0.08527129888534546 0.5503876209259033
0.3034060001373291 -0.06976741552352905 -0.5968992114067078
0.30937206745147705 -0.06976741552352905 -0.5813953876495361
0.31367331743240356 -0.06976741552352905 -0.5658915042877197
0.30924487113952637 -0.06976741552352905 0.5503876209259033
0.3068508207798004 -0.05426359176635742 -0.5968992114067078
0.31251344084739685 -0.05426359176635742 -0.5813953876495361
0.31744056940078735 -0.05426359176635742 -0.5658915042877197
0.31119781732559204 -0.05426359176635742 0.5503876209259033
0.3035508394241333 -0.05426359176635742 0.5658915042877197
0.3036535382270813 -0.038759708404541016 -0.6124030351638794
0.30984318256378174 -0.038759708404541016 -0.596899151802063
0.31398844718933105 -0.038759708404541016 -0.5813953876495361
0.3142170011997223 -0.038759708404541016 0.5503876209259033
0.3052270710468292 -0.038759708404541016 0.5658915042877197
0.3055447041988373 -0.02325582504272461 -0.6124030947685242
0.31160756945610046 -0.02325582504272461 -0.5968992114067078
0.31616243720054626 -0.02325582504272461 -0.5813953876495361
0.31746041774749756 -0.02325582504272461 0.5503876209259033
0.3062227964401245 -0.02325582504272461 0.5658915042877197
0.3066129982471466 -0.007751941680908203 -0.6124030947685242
0.31187283992767334 -0.007751941680908203 -0.5968992114067078
0.31746238470077515 -0.007751941680908203 -0.5813953876495361
0.3064289391040802 -0.007751941680908203 0.5658915042877197
0.3065749406814575 0.00775194214656949 -0.612403154373169
0.3116856515407562 0.007751941680908203 -0.5968992114067078
0.31748199462890625 0.007751941680908203 -0.5813953876495361
0.30576860904693604 0.007751941680908203 0.5658915042877197
0.30494987964630127 0.02325582504272461 -0.6124030947685242
0.3107871413230896 0.02325582504272461 -0.5968992114067078
0.31549155712127686 0.02325582504272461 -0.5813953876495361
0.30462872982025146 0.02325582690536976 0.5658915042877197
0.30268195271492004 0.038759708404541016 -0.6124030947685242
0.30875229835510254 0.038759708404541016 -0.5968992710113525
0.3128383457660675 0.038759708404541016 -0.5813953876495361
0.3040406107902527 0.038759708404541016 0.5658915042877197
0.3053798973560333 0.05426359176635742 -0.5968992114067078
0.31089094281196594 0.05426359176635742 -0.5813953876495361
0.3157427906990051 0.05426359176635742 -0.5658915042877197
0.3163653314113617 0.05426359176635742 0.5503876209259033
0.3034825921058655 0.05426359176635742 0.5658915042877197
0.30734241008758545 0.06976747512817383 -0.5813953876495361
0.3116986155509949 0.06976747512817383 -0.5658915042877197
0.31774699687957764 0.06976747512817383 -0.5503876209259033
0.31304237246513367 0.06976747512817383 0.5503876209259033
0.30264389514923096 0.06976747512817383 0.5658915042877197
0.30283400416374207 0.08527135848999023 -0.5813953876495361
0.30860257148742676 0.08527135848999023 -0.5658915042877197
0.3121362328529358 0.08527135848999023 -0.5503876209259033
0.31030434370040894 0.08527135848999023 0.5503876209259033
0.30344563722610474 0.10077524930238724 -0.5658915042877197
0.308758020401001 0.10077524185180664 -0.5503876209259033
0.3123053312301636 0.10077524185180664 -0.5348837375640869
0.3151627779006958 0.10077524185180664 0.5348837375640869
0.30766087770462036 0.10077524185180664 0.5503876209259033
0.30303359031677246 0.11627912521362305 -0.5503876209259033
0.3082652986049652 0.11627912521362305 -0.5348837375640869
0.3116036057472229 0.11627912521362305 -0.5193798542022705
0.3165644407272339 0.11627912521362305 0.5193798542022705
0.3101264238357544 0.11627912521362305 0.5348837375640869
0.30456793308258057 0.11627912521362305 0.5503876209259033
0.30700916051864624 0.1317828893661499 -0.5193798542022705
0.310546875 0.1317828893661499 -0.5038759708404541
0.31526461243629456 0.1317828893661499 -0.4883720874786377
0.31413692235946655 0.1317828893661499 0.5038759708404541
0.3101099729537964 0.1317828893661499 0.5193798542022705
0.3064157962799072 0.1317828893661499 0.5348837375640869
0.30505669116973877 0.1472867727279663 -0.5038759708404541
0.3090936839580536 0.1472867727279663 -0.4883720874786377
0.3118402361869812 0.1472867727279663 -0.4728682041168213
0.31707194447517395 0.1472867727279663 -0.4573643207550049
0.31451883912086487 0.1472867727279663 0.4728682041168213
0.3109855055809021 0.1472867727279663 0.4883720874786377
0.30809706449508667 0.1472867727279663 0.5038759708404541
0.3058730363845825 0.1472867727279663 0.5193798542022705
0.30233293771743774 0.16279065608978271 -0.4883720874786377
0.30594712495803833 0.16279065608978271 -0.4728682041168213
0.30923956632614136 0.16279065608978271 -0.4573643207550049
0.311770498752594 0.16279065608978271 -0.4418604373931885
0.31627845764160156 0.16279065608978271 -0.42635661363601685
0.3139287531375885 0.16279065608978271 0.4418604373931885
0.31031104922294617 0.16279065608978271 0.4573643207550049
0.3073577880859375 0.16279065608978271 0.4728682041168213
0.3057205080986023 0.16279065608978271 0.4883721172809601
0.30391836166381836 0.16279065608978271 0.5038759708404541
0.3049643337726593 0.17829453945159912 -0.4418604373931885
0.3079290986061096 0.17829453945159912 -0.42635661363601685
0.31003257632255554 0.17829453945159912 -0.41085273027420044
0.3127460777759552 0.17829453945159912 -0.39534884691238403
0.31671056151390076 0.17829453945159912 -0.3798449635505676
0.31600138545036316 0.17829453945159912 0.37984490394592285
0.3130047917366028 0.17829453945159912 0.39534878730773926
0.310188353061676 0.17829453945159912 0.41085267066955566
0.307711660861969 0.17829453945159912 0.42635655403137207
0.30610913038253784 0.17829453945159912 0.4418604075908661
0.3046151399612427 0.17829453945159912 0.4573643207550049
0.30275657773017883 0.17829453945159912 0.4728682041168213
0.30464938282966614 0.19379842281341553 -0.39534884691238403
0.307005912065506 0.19379842281341553 -0.3798449635505676
0.30919700860977173 0.19379842281341553 -0.3643410801887512
0.3107411563396454 0.19379842281341553 -0.3488371968269348
0.313184529542923 0.19379842281341553 -0.3333333134651184
0.3162388503551483 0.19379842281341553 -0.317829430103302
0.31516000628471375 0.19379842281341553 0.3178294897079468
0.31171897053718567 0.19379842281341553 0.3333333730697632
0.30933353304862976 0.19379842281341553 0.3488372564315796
0.3071919083595276 0.19379842281341553 0.364341139793396
0.30598878860473633 0.19379840791225433 0.37984490394592285
0.30487489700317383 0.19379842281341553 0.39534878730773926
0.30353492498397827 0.19379842281341553 0.41085267066955566
0.30412474274635315 0.20930230617523193 -0.3333333134651184
0.30564993619918823 0.20930230617523193 -0.317829430103302
0.30707991123199463 0.20930230617523193 -0.30232560634613037
0.30829593539237976 0.20930230617523193 -0.28682172298431396
0.30940067768096924 0.20930230617523193 -0.27131783962249756
0.3099631071090698 0.20930230617523193 -0.25581395626068115
0.31069451570510864 0.20930230617523193 -0.24031007289886475
0.31173861026763916 0.20930230617523193 -0.22480618953704834
0.3130291700363159 0.20930230617523193 -0.20930230617523193
0.3147786259651184 0.20930230617523193 -0.19379842281341553
0.3154764473438263 0.20930230617523193 -0.1782945990562439
0.3147575259208679 0.20930230617523193 -0.1627907156944275
0.3149815499782562 0.20930230617523193 -0.14728683233261108
0.3153550624847412 0.20930230617523193 -0.13178294897079468
0.31468918919563293 0.20930230617523193 -0.11627906560897827
0.3134270906448364 0.20930230617523193 -0.10077518224716187
0.31312018632888794 0.20930230617523193 -0.08527129888534546
0.31453996896743774 0.20930230617523193 -0.06976741552352905
0.31375569105148315 0.20930230617523193 -0.05426359176635742
0.31760063767433167 0.20930230617523193 -0.038759708404541016
0.31321829557418823 0.20930230617523193 -0.007751941680908203
0.3092151880264282 0.20930230617523193 0.007751941680908203
0.3075149953365326 0.20930230617523193 0.02325582504272461
0.30978912115097046 0.20930230617523193 0.038759708404541016
0.3158121407032013 0.20930230617523193 0.05426359176635742
0.31782910227775574 0.20930230617523193 0.22480618953704834
0.31676504015922546 0.20930230617523193 0.24031007289886475
0.3146100640296936 0.20930230617523193 0.25581395626068115
0.31180888414382935 0.20930230617523193 0.27131783962249756
0.3088538646697998 0.20930230617523193 0.28682172298431396
0.30661308765411377 0.20930230617523193 0.30232560634613037
0.30526453256607056 0.20930230617523193 0.3178294897079468
0.30382388830184937 0.20930230617523193 0.3333333730697632
0.3031887710094452 0.22480618953704834 -0.20930230617523193
0.30422133207321167 0.22480618953704834 -0.19379842281341553
0.3045034408569336 0.22480618953704834 -0.1782945990562439
0.30377137660980225 0.22480618953704834 -0.1627907156944275
0.3037482500076294 0.22480618953704834 -0.14728683233261108
0.30378642678260803 0.22480618953704834 -0.13178294897079468
0.3035080134868622 0.22480617463588715 -0.11627905815839767
0.30300062894821167 0.22480618953704834 -0.10077518224716187
0.3029657304286957 0.22480618953704834 -0.08527129888534546
0.30370602011680603 0.22480618953704834 -0.06976741552352905
0.30318647623062134 0.22480618953704834 -0.05426359176635742
0.30562546849250793 0.22480617463588715 -0.038759708404541016
0.30693987011909485 0.22480618953704834 -0.02325582504272461
0.3041895031929016 0.22480618953704834 -0.007751941680908203
0.30406007170677185 0.22480618953704834 0.05426359176635742
0.30853527784347534 0.22480618953704834 0.06976747512817383
0.310684472322464 0.22480618953704834 0.08527135848999023
0.31047871708869934 0.22480618953704834 0.10077524185180664
0.3095303475856781 0.22480618953704834 0.11627912521362305
0.30835023522377014 0.22480618953704834 0.1317828893661499
0.3073629140853882 0.22480618953704834 0.1472867727279663
0.3066989779472351 0.22480618953704834 0.16279065608978271
0.30617281794548035 0.22480618953704834 0.17829453945159912
0.30574050545692444 0.22480618953704834 0.19379842281341553
0.30535635352134705 0.22480618953704834 0.20930230617523193
0.30501821637153625 0.22480617463588715 0.22480617463588715
0.30469754338264465 0.22480618953704834 0.24031007289886475
0.30394411087036133 0.22480617463588715 0.25581395626068115
0.30261704325675964 0.22480617463588715 0.27131783962249756
0.32130885124206543 -0.20930230617523193 -0.038759708404541016
0.32470816373825073 -0.20930230617523193 -0.02325582504272461
0.3262177109718323 -0.20930230617523193 -0.007751941680908203
0.32610613107681274 -0.20930230617523193 0.007751941680908203
0.32481950521469116 -0.20930230617523193 0.02325582504272461
0.3226415812969208 -0.20930230617523193 0.038759708404541016
0.3204285204410553 -0.20930230617523193 0.05426359176635742
0.3202383518218994 -0.20930230617523193 0.06976747512817383
0.32046592235565186 -0.20930230617523193 0.08527135848999023
0.31989866495132446 -0.20930230617523193 0.10077524185180664
0.31912311911582947 -0.20930230617523193 0.11627912521362305
0.3181242048740387 -0.20930230617523193 0.1317828893661499
0.31894651055336 -0.19379842281341553 -0.30232560634613037
0.3203337788581848 -0.19379842281341553 -0.28682172298431396
0.32181939482688904 -0.19379842281341553 -0.27131783962249756
0.3234248161315918 -0.19379842281341553 -0.25581395626068115
0.32483550906181335 -0.19379842281341553 -0.24031005799770355
0.32567712664604187 -0.19379842281341553 -0.22480618953704834
0.3263096809387207 -0.19379842281341553 -0.20930230617523193
0.3268706202507019 -0.19379842281341553 -0.19379842281341553
0.3268583416938782 -0.19379842281341553 -0.1782945990562439
0.32431137561798096 -0.19379842281341553 -0.1627907156944275
0.31968390941619873 -0.19379842281341553 -0.14728683233261108
0.3186505138874054 -0.19379840791225433 -0.06976741552352905
0.3233126997947693 -0.19379842281341553 -0.05426359176635742
0.33302193880081177 -0.19379842281341553 0.05426359176635742
0.33203813433647156 -0.19379842281341553 0.06976747512817383
0.3316781520843506 -0.19379842281341553 0.08527135848999023
0.33021265268325806 -0.19379842281341553 0.10077524185180664
0.3288533389568329 -0.19379842281341553 0.11627912521362305
0.3275275230407715 -0.19379842281341553 0.1317828893661499
0.3265104591846466 -0.19379842281341553 0.1472867727279663
0.325968861579895 -0.19379842281341553 0.16279065608978271
0.325359582901001 -0.19379842281341553 0.17829453945159912
0.32487207651138306 -0.19379842281341553 0.19379842281341553
0.3241810202598572 -0.19379842281341553 0.20930230617523193
0.32350364327430725 -0.19379842281341553 0.22480618953704834
0.3230460286140442 -0.19379842281341553 0.24031007289886475
0.32245832681655884 -0.19379842281341553 0.25581395626068115
0.32111167907714844 -0.19379840791225433 0.27131783962249756
0.3189444839954376 -0.19379842281341553 0.28682172298431396
0.3186940848827362 -0.1782945990562439 -0.3798449635505676
0.3210844397544861 -0.1782945990562439 -0.3643410801887512
0.32353535294532776 -0.1782945990562439 -0.3488371968269348
0.32550719380378723 -0.1782945990562439 -0.3333333134651184
0.3266656696796417 -0.1782945990562439 -0.317829430103302
0.3278365135192871 -0.1782945990562439 -0.30232560634613037
0.329243540763855 -0.1782945990562439 -0.28682172298431396
0.3312090337276459 -0.1782945990562439 -0.27131783962249756
0.33327579498291016 -0.1782945990562439 -0.25581395626068115
0.3308503329753876 -0.1782945990562439 -0.14728683233261108
0.32523196935653687 -0.1782945990562439 -0.13178294897079468
0.3220427334308624 -0.1782945990562439 -0.11627906560897827
0.3217011094093323 -0.1782945990562439 -0.10077518224716187
0.32239457964897156 -0.1782945990562439 -0.08527129888534546
0.3254186809062958 -0.1782945990562439 -0.06976741552352905
0.3294713795185089 -0.1782945990562439 -0.05426359176635742
0.33057376742362976 -0.1782945990562439 0.27131783962249756
0.32659146189689636 -0.1782945990562439 0.28682172298431396
0.32291799783706665 -0.1782945990562439 0.30232560634613037
0.3209836483001709 -0.1782945990562439 0.3178294897079468
0.3194701075553894 -0.1782945990562439 0.3333333730697632
0.31800317764282227 -0.1782945990562439 0.3488372564315796
0.319100022315979 -0.1627907156944275 -0.42635658383369446
0.3220491111278534 -0.1627907156944275 -0.41085273027420044
0.3254867196083069 -0.1627907156944275 -0.39534884691238403
0.3272407352924347 -0.1627907156944275 -0.3798449635505676
0.3292062282562256 -0.1627907156944275 -0.3643410801887512
0.33190569281578064 -0.1627907156944275 -0.3488371968269348
0.3308843970298767 -0.1627907156944275 -0.11627906560897827
0.3301486074924469 -0.1627907156944275 -0.10077518224716187
0.330702006816864 -0.1627907156944275 -0.08527129888534546
0.32826507091522217 -0.1627907156944275 0.3178294897079468
0.32544994354248047 -0.1627907156944275 0.3333333730697632
0.3233393430709839 -0.1627907156944275 0.3488372564315796
0.322206974029541 -0.1627907156944275 0.364341139793396
0.3211824297904968 -0.1627907156944275 0.37984490394592285
0.3198567032814026 -0.1627907156944275 0.39534878730773926
0.3182517886161804 -0.1627907156944275 0.4108526408672333
0.3197934627532959 -0.14728683233261108 -0.4573643207550049
0.3234833776950836 -0.14728683233261108 -0.4418604373931885
0.32688790559768677 -0.14728683233261108 -0.42635661363601685
0.32912856340408325 -0.14728683233261108 -0.41085273027420044
0.33297669887542725 -0.14728683233261108 -0.39534884691238403
0.3329044580459595 -0.14728683233261108 0.3488372564315796
0.32934218645095825 -0.14728683233261108 0.364341139793396
0.32681983709335327 -0.14728683233261108 0.37984490394592285
0.3244250416755676 -0.14728683233261108 0.39534878730773926
0.32254597544670105 -0.14728683233261108 0.41085267066955566
0.3206407427787781 -0.14728683233261108 0.42635655403137207
0.31818902492523193 -0.14728683233261108 0.4418604373931885
0.3187790513038635 -0.13178294897079468 -0.4883721172809601
0.3226972818374634 -0.13178294897079468 -0.4728681743144989
0.32684698700904846 -0.13178294897079468 -0.4573643207550049
0.32948243618011475 -0.13178294897079468 -0.4418604373931885
0.3325391113758087 -0.13178294897079468 0.39534878730773926
0.32813894748687744 -0.13178294897079468 0.41085267066955566
0.32445454597473145 -0.13178294897079468 0.42635655403137207
0.32136666774749756 -0.13178294897079468 0.4418604373931885
0.3185288608074188 -0.13178294897079468 0.4573643207550049
0.3200256824493408 -0.11627906560897827 -0.5038759708404541
0.3245706558227539 -0.11627906560897827 -0.4883720874786377
0.3280014991760254 -0.11627906560897827 -0.4728682041168213
0.3321884572505951 -0.11627906560897827 -0.4573643207550049
0.3303688168525696 -0.11627906560897827 0.42635655403137207
0.3247406482696533 -0.11627905815839767 0.4418604373931885
0.32038283348083496 -0.11627906560897827 0.4573643207550049
0.32044732570648193 -0.10077518224716187 -0.5193798542022705
0.3254467248916626 -0.10077518224716187 -0.5038759708404541
0.3285377621650696 -0.10077518224716187 -0.4883720874786377
0.3284263610839844 -0.10077518224716187 0.4418604373931885
0.32186010479927063 -0.10077518224716187 0.4573643207550049
0.3185022473335266 -0.10077518224716187 0.4728682041168213
0.31867125630378723 -0.10077518224716187 0.4883720874786377
0.32056480646133423 -0.10077518224716187 0.5038759708404541
0.31901735067367554 -0.10077518224716187 0.5193798542022705
0.32003164291381836 -0.08527129888534546 -0.5348837375640869
0.3251098692417145 -0.08527129888534546 -0.5193798542022705
0.3284545838832855 -0.08527129888534546 -0.5038759708404541
0.33331698179244995 -0.08527129888534546 -0.4883720874786377
0.3315862715244293 -0.08527129888534546 0.4418604373931885
0.3238671123981476 -0.08527129888534546 0.4573643207550049
0.3204006254673004 -0.08527129888534546 0.4728682041168213
0.3205435574054718 -0.08527129143476486 0.4883720576763153
0.3222317695617676 -0.08527129888534546 0.5038759708404541
0.3213436007499695 -0.08527129888534546 0.5193798542022705
0.3188721239566803 -0.06976741552352905 -0.5503876209259033
0.3240238428115845 -0.06976741552352905 -0.5348837375640869
0.3279561400413513 -0.06976741552352905 -0.5193798542022705
0.3323107063770294 -0.06976741552352905 -0.5038759708404541
0.32954075932502747 -0.06976741552352905 0.4573643207550049
0.3244853913784027 -0.06976741552352905 0.4728682041168213
0.3230806589126587 -0.06976741552352905 0.4883720874786377
0.3231126666069031 -0.06976741552352905 0.5038759708404541
0.3222232758998871 -0.06976741552352905 0.5193798542022705
0.3195841312408447 -0.06976741552352905 0.5348837375640869
0.3220428228378296 -0.05426359176635742 -0.5503876209259033
0.3273206651210785 -0.05426359176635742 -0.5348837375640869
0.3306109607219696 -0.05426359176635742 -0.5193798542022705
0.32941216230392456 -0.05426359176635742 0.4728682041168213
0.3258121609687805 -0.05426359176635742 0.4883720874786377
0.324129581451416 -0.05426359176635742 0.5038759708404541
0.3227251172065735 -0.05426359176635742 0.5193798542022705
0.3205873966217041 -0.05426359176635742 0.5348837375640869
0.31969600915908813 -0.038759708404541016 -0.5658915042877197
0.325017511844635 -0.038759708404541016 -0.5503876209259033
0.32860732078552246 -0.038759708404541016 -0.5348837375640869
0.328921377658844 -0.038759708404541016 0.4883720874786377
0.3260108232498169 -0.038759708404541016 0.5038759708404541
0.32382363080978394 -0.038759708404541016 0.5193798542022705
0.3215102553367615 -0.038759708404541016 0.5348837375640869
0.32171982526779175 -0.02325582318007946 -0.5658915042877197
0.32694676518440247 -0.02325582504272461 -0.5503876209259033
0.33052101731300354 -0.02325582504272461 -0.5348837375640869
0.3318515121936798 -0.02325582504272461 0.4883720874786377
0.3280442953109741 -0.02325582504272461 0.5038759708404541
0.3252364993095398 -0.02325582504272461 0.5193798542022705
0.32235997915267944 -0.02325582504272461 0.5348837375640869
0.32297056913375854 -0.007751941680908203 -0.5658915042877197
0.32734251022338867 -0.007751941680908203 -0.5503876209259033
0.3318687081336975 -0.007751941680908203 -0.5348837375640869
0.33072665333747864 -0.007751941680908203 0.5038759708404541
0.32726380228996277 -0.007751941680908203 0.5193798542022705
0.3232730031013489 -0.007751941680908203 0.5348837375640869
0.31877440214157104 -0.007751941680908203 0.5503876209259033
0.3230758607387543 0.007751941680908203 -0.5658915042877197
0.32724711298942566 0.007751941680908203 -0.5503876209259033
0.33207157254219055 0.007751941680908203 -0.5348837375640869
0.3300545811653137 0.007751941680908203 0.5193798542022705
0.3246283531188965 0.007751941680908203 0.5348837375640869
0.31964021921157837 0.007751941680908203 0.5503876209259033
0.32148605585098267 0.02325582690536976 -0.5658915042877197
0.3264433741569519 0.02325582504272461 -0.5503876209259033
0.33049216866493225 0.02325582504272461 -0.5348837375640869
0.3303355872631073 0.02325582504272461 0.5193798542022705
0.32474905252456665 0.02325582504272461 0.5348837375640869
0.3193831443786621 0.02325582504272461 0.5503876209259033
0.31925255060195923 0.038759708404541016 -0.5658915042877197
0.32459038496017456 0.038759708404541016 -0.5503876209259033
0.3281545042991638 0.038759708404541016 -0.5348837375640869
0.3291298747062683 0.038759708404541016 0.5193798542022705
0.32418376207351685 0.038759708404541016 0.5348837375640869
0.31862151622772217 0.038759708404541016 0.5503876209259033
0.3212241530418396 0.05426359176635742 -0.5503876209259033
0.3261949419975281 0.05426359176635742 -0.5348837375640869
0.33005183935165405 0.05426359176635742 -0.5193798542022705
0.3313400447368622 0.05426359176635742 0.5038759708404541
0.3269815444946289 0.05426359176635742 0.5193798542022705
0.3230265974998474 0.05426359176635742 0.5348837375640869
0.3228260576725006 0.06976747512817383 -0.5348837375640869
0.3266041874885559 0.06976747512817383 -0.5193798542022705
0.3314219117164612 0.06976747512817383 -0.5038759708404541
0.33158811926841736 0.06976747512817383 0.4883720874786377
0.3280421197414398 0.06976747512817383 0.5038759708404541
0.3249083161354065 0.06976747512817383 0.5193798542022705
0.32153886556625366 0.06976747512817383 0.5348837375640869
0.3185344338417053 0.08527135848999023 -0.5348837375640869
0.3234446048736572 0.08527135848999023 -0.5193798542022705
0.32677584886550903 0.08527135848999023 -0.5038759708404541
0.3315378725528717 0.08527135848999023 -0.4883720874786377
0.33102133870124817 0.08527135848999023 0.4728682041168213
0.3275177776813507 0.08527135848999023 0.4883720874786377
0.32509952783584595 0.08527135848999023 0.5038759708404541
0.32289546728134155 0.08527135848999023 0.5193798542022705
0.31942853331565857 0.08527135848999023 0.5348837375640869
0.31860312819480896 0.10077524185180664 -0.5193798542022705
0.3232734203338623 0.10077524185180664 -0.5038759708404541
0.32629573345184326 0.10077524185180664 -0.4883720874786377
0.33041664958000183 0.10077524185180664 -0.4728682041168213
0.33014386892318726 0.10077524185180664 0.4573643207550049
0.3266501724720001 0.10077524185180664 0.4728682041168213
0.3242471218109131 0.10077524185180664 0.4883720874786377
0.3225841820240021 0.10077524185180664 0.5038759708404541
0.32041892409324646 0.10077524185180664 0.5193798542022705
0.3179926574230194 0.11627911776304245 -0.5038759708404541
0.3219186067581177 0.11627912521362305 -0.4883720576763153
0.3253149390220642 0.11627912521362305 -0.4728682041168213
0.3280417323112488 0.11627912521362305 -0.4573643207550049
0.3329010307788849 0.11627912521362305 -0.4418604373931885
0.33318275213241577 0.11627912521362305 0.42635655403137207
