-0.24031007289886475 -0.08527129888534546 0.8672583103179932
-0.24031005799770355 -0.06976741552352905 -0.7980973124504089
-0.24031007289886475 -0.06976741552352905 -0.5580790042877197
-0.24031007289886475 -0.06976741552352905 0.6955076456069946
-0.24031007289886475 -0.06976741552352905 0.874875545501709
-0.24031007289886475 -0.05426359176635742 -0.8050090074539185
-0.24031007289886475 -0.05426359176635742 -0.5733487606048584
-0.24031007289886475 -0.05426359176635742 0.702767014503479
-0.24031007289886475 -0.05426359176635742 0.8805090188980103
-0.24031007289886475 -0.038759708404541016 -0.8101576566696167
-0.24031007289886475 -0.038759708404541016 -0.5938441157341003
-0.24031007289886475 -0.038759708404541016 0.7101256847381592
-0.24031007289886475 -0.038759708404541016 0.8860458135604858
-0.24031007289886475 -0.02325582504272461 -0.8160507678985596
-0.24031007289886475 -0.02325582504272461 -0.6303268671035767
-0.24031007289886475 -0.02325582504272461 0.7196468710899353
-0.24031007289886475 -0.02325582504272461 0.8895201683044434
-0.24031007289886475 -0.007751941680908203 -0.8206965923309326
-0.24031007289886475 -0.007751941680908203 -0.6625174283981323
-0.24031005799770355 -0.007751941680908203 0.7246106266975403
-0.24031007289886475 -0.007751941680908203 0.8903349041938782
-0.24031007289886475 0.007751941680908203 -0.8225144147872925
-0.24031007289886475 0.007751941680908203 -0.6843264102935791
-0.24031007289886475 0.007751941680908203 0.7248566150665283
-0.24031007289886475 0.007751941680908203 0.8882388472557068
-0.24031007289886475 0.02325582504272461 -0.8210698962211609
-0.24031007289886475 0.02325582504272461 -0.6899964213371277
-0.24031007289886475 0.02325582504272461 0.7175683379173279
-0.24031007289886475 0.02325582504272461 0.8838707804679871
-0.24031007289886475 0.038759708404541016 -0.8160884976387024
-0.24031007289886475 0.038759708404541016 -0.6825799942016602
-0.24031007289886475 0.038759708404541016 0.7067124843597412
-0.24031007289886475 0.038759708404541016 0.8791701197624207
-0.24031007289886475 0.05426359176635742 -0.8101063370704651
-0.24031007289886475 0.05426359176635742 -0.666000485420227
-0.24031007289886475 0.05426359176635742 0.6970942616462708
-0.24031007289886475 0.05426359176635742 0.8741952776908875
-0.24031007289886475 0.06976747512817383 -0.8030071258544922
-0.24031007289886475 0.06976747512817383 -0.6465389728546143
-0.24031007289886475 0.06976747512817383 0.6888274550437927
-0.24031007289886475 0.06976747512817383 0.8677058219909668
-0.24031008780002594 0.08527135848999023 -0.7940232753753662
-0.24031007289886475 0.08527135848999023 -0.6316852569580078
-0.24031007289886475 0.08527135848999023 0.6777809262275696
-0.24031008780002594 0.08527135848999023 0.8616217970848083
-0.24031007289886475 0.10077524185180664 -0.7842187285423279
-0.24031007289886475 0.10077524185180664 -0.6152456998825073
-0.24031007289886475 0.10077524185180664 0.6657630801200867
-0.24031007289886475 0.10077524185180664 0.8540167808532715
-0.24031007289886475 0.11627912521362305 -0.7740771770477295
-0.24031007289886475 0.11627912521362305 -0.601382315158844
-0.24031007289886475 0.11627912521362305 0.6486521363258362
-0.24031007289886475 0.11627911776304245 0.8459080457687378
-0.24031007289886475 0.1317828893661499 -0.7617730498313904
-0.24031007289886475 0.1317828893661499 -0.5826632976531982
-0.24031007289886475 0.1317828893661499 0.6275643110275269
-0.24031007289886475 0.1317828893661499 0.8354179263114929
-0.24031007289886475 0.1472867727279663 -0.7485180497169495
-0.24031007289886475 0.1472867727279663 -0.5629149675369263
-0.24031007289886475 0.1472867727279663 0.6046372652053833
-0.24031007289886475 0.1472867727279663 0.8237212300300598
-0.24031008780002594 0.16279065608978271 -0.7344584465026855
-0.24031007289886475 0.16279065608978271 -0.53985595703125
-0.24031007289886475 0.16279065608978271 0.5856149792671204
-0.24031007289886475 0.16279065608978271 0.8103456497192383
-0.24031005799770355 0.17829453945159912 -0.7173280715942383
-0.24031007289886475 0.17829453945159912 -0.398723304271698
-0.24031007289886475 0.17829453945159912 -0.15624083578586578
-0.24031007289886475 0.17829453945159912 -0.09823913872241974
-0.24031005799770355 0.17829453945159912 0.5231003165245056
-0.24031007289886475 0.17829453945159912 0.7938972115516663
-0.24031007289886475 0.19379842281341553 -0.6974620223045349
-0.24031007289886475 0.19379842281341553 -0.3543403446674347
-0.24031007289886475 0.19379842281341553 -0.1537635326385498
-0.24031007289886475 0.19379842281341553 -0.08249398320913315
-0.24031007289886475 0.19379842281341553 0.46507203578948975
-0.24031007289886475 0.19379842281341553 0.774661660194397
-0.24031007289886475 0.20930230617523193 -0.6700436472892761
-0.24031007289886475 0.20930230617523193 -0.30389976501464844
-0.24031007289886475 0.20930230617523193 -0.24533861875534058
-0.24031005799770355 0.20930230617523193 -0.06467308849096298
-0.24031007289886475 0.20930230617523193 -0.024539630860090256
-0.24031005799770355 0.20930230617523193 0.02676701918244362
-0.24031007289886475 0.20930230617523193 0.42750585079193115
-0.24031007289886475 0.20930230617523193 0.7536027431488037
-0.24031007289886475 0.22480618953704834 -0.639350414276123
-0.24031007289886475 0.22480618953704834 0.05596392601728439
-0.24031007289886475 0.22480618953704834 0.20662091672420502
-0.24031007289886475 0.22480617463588715 0.24034416675567627
-0.24031007289886475 0.22480618953704834 0.39782536029815674
-0.24031007289886475 0.22480618953704834 0.7312227487564087
-0.24031007289886475 0.24031007289886475 -0.6056231260299683
-0.24031007289886475 0.24031007289886475 0.06749305874109268
-0.24031007289886475 0.24031007289886475 0.18321099877357483
-0.24031007289886475 0.24031007289886475 0.26512137055397034
-0.24031007289886475 0.24031007289886475 0.3648337721824646
-0.24031007289886475 0.24031007289886475 0.7061158418655396
-0.24031007289886475 0.25581395626068115 -0.5718346834182739
-0.24031007289886475 0.25581395626068115 0.110697440803051
-0.24031007289886475 0.25581395626068115 0.15010467171669006
-0.24031007289886475 0.25581395626068115 0.678289532661438
-0.24031007289886475 0.27131783962249756 -0.5357083082199097
-0.24031007289886475 0.27131783962249756 0.647620677947998
-0.24031007289886475 0.28682172298431396 -0.4960063695907593
-0.24031007289886475 0.28682172298431396 0.615618884563446
-0.24031007289886475 0.30232560634613037 -0.45221948623657227
-0.24031007289886475 0.30232560634613037 0.5844389796257019
-0.24031007289886475 0.3178294897079468 -0.40449607372283936
-0.24031007289886475 0.3178294897079468 0.5528883934020996
-0.24031007289886475 0.3333333730697632 -0.3501736521720886
-0.24031007289886475 0.3333333730697632 0.521091103553772
-0.24031007289886475 0.3488372564315796 -0.2749307155609131
-0.24031007289886475 0.3488372564315796 0.48336806893348694
-0.24031007289886475 0.364341139793396 -0.19561879336833954
-0.24031007289886475 0.364341139793396 0.4349760413169861
-0.24031007289886475 0.37984490394592285 -0.07918817549943924
-0.24031007289886475 0.37984490394592285 0.3790535628795624
-0.24031007289886475 0.39534878730773926 0.09251831471920013
-0.24031007289886475 0.39534878730773926 0.2501009702682495
-0.22480618953704834 -0.39534884691238403 0.07834784686565399
-0.22480618953704834 -0.39534884691238403 0.38070619106292725
-0.22480618953704834 -0.3798449635505676 -0.08384127914905548
-0.22480618953704834 -0.3798449635505676 0.4480300545692444
-0.22480618953704834 -0.3643410801887512 -0.16704626381397247
-0.22480618953704834 -0.3643410801887512 0.493394672870636
-0.22480618953704834 -0.3488371968269348 -0.26192712783813477
-0.22480618953704834 -0.3488371968269348 0.5278170108795166
-0.22480618953704834 -0.3333333134651184 -0.3306266963481903
-0.22480618953704834 -0.3333333134651184 0.5596104264259338
-0.22480618953704834 -0.317829430103302 -0.3897135257720947
-0.22480618953704834 -0.317829430103302 0.5940893888473511
-0.22480618953704834 -0.30232560634613037 -0.44641977548599243
-0.22480618953704834 -0.30232560634613037 0.2647828161716461
-0.22480618953704834 -0.30232560634613037 0.3438175320625305
-0.22480617463588715 -0.30232560634613037 0.6306295394897461
-0.22480618953704834 -0.28682172298431396 -0.49416643381118774
-0.22480618953704834 -0.28682172298431396 0.10022847354412079
-0.22480618953704834 -0.28682172298431396 0.380424439907074
-0.22480618953704834 -0.28682172298431396 0.6657909154891968
-0.22480618953704834 -0.27131783962249756 -0.5429459810256958
-0.22480618953704834 -0.27131783962249756 0.06872197240591049
-0.22480618953704834 -0.27131783962249756 0.420900821685791
-0.22480618953704834 -0.27131783962249756 0.6991876363754272
-0.22480618953704834 -0.25581395626068115 -0.5894861221313477
-0.22480618953704834 -0.25581395626068115 0.05105377733707428
-0.22480618953704834 -0.25581395626068115 0.4742644429206848
-0.22480618953704834 -0.25581395626068115 0.7299129366874695
-0.22480618953704834 -0.24031007289886475 -0.6313050985336304
-0.22480618953704834 -0.24031007289886475 0.03333386778831482
-0.22480618953704834 -0.24031007289886475 0.5417667627334595
-0.22480618953704834 -0.24031005799770355 0.7564272284507751
-0.22480618953704834 -0.22480618953704834 -0.6663509607315063
-0.22480618953704834 -0.22480618953704834 -0.1990211308002472
-0.22480618953704834 -0.22480618953704834 -0.1364281326532364
-0.22480618953704834 -0.22480618953704834 -0.08106639236211777
-0.22480618953704834 -0.22480618953704834 0.5818517804145813
-0.22480618953704834 -0.22480618953704834 0.7787184715270996
-0.22480618953704834 -0.20930230617523193 -0.6964473128318787
-0.22480618953704834 -0.20930230617523193 -0.25803956389427185
-0.22480618953704834 -0.20930230617523193 -0.10654415190219879
-0.22480618953704834 -0.20930230617523193 -0.09783574938774109
-0.22480618953704834 -0.20930230617523193 0.6022905707359314
-0.22480620443820953 -0.20930230617523193 0.7988547086715698
-0.22480618953704834 -0.19379842281341553 -0.7215929627418518
-0.22480618953704834 -0.19379842281341553 -0.3041737377643585
-0.22480618953704834 -0.19379842281341553 -0.11635590344667435
-0.22480618953704834 -0.19379842281341553 -0.08791396021842957
-0.22480618953704834 -0.19379842281341553 0.6174564361572266
-0.22480618953704834 -0.19379842281341553 0.8158237934112549
-0.22480618953704834 -0.1782945990562439 -0.7425156831741333
-0.22480618953704834 -0.1782945990562439 -0.35116317868232727
-0.22480618953704834 -0.1782945990562439 -0.1363365650177002
-0.22480618953704834 -0.1782945990562439 -0.06360988318920135
-0.22480618953704834 -0.1782945990562439 0.014537150040268898
-0.22480618953704834 -0.1782945990562439 0.0419280044734478
-0.22480618953704834 -0.1782945990562439 0.6264550685882568
-0.22480618953704834 -0.1782945990562439 0.8282485604286194
-0.22480618953704834 -0.1627907156944275 -0.7595813274383545
-0.22480618953704834 -0.1627907156944275 -0.3766494691371918
-0.22480618953704834 -0.1627907156944275 -0.15904635190963745
-0.22480618953704834 -0.1627907156944275 -0.042024821043014526
-0.22480618953704834 -0.1627907156944275 -0.014340163208544254
-0.22480618953704834 -0.1627907156944275 0.030219171196222305
-0.22480618953704834 -0.1627907156944275 0.6340878009796143
-0.22480618953704834 -0.1627907156944275 0.8398950099945068
-0.22480618953704834 -0.14728683233261108 -0.7738196849822998
-0.22480618953704834 -0.14728683233261108 -0.42033660411834717
-0.22480618953704834 -0.14728683233261108 -0.16047883033752441
-0.22480620443820953 -0.14728683233261108 -0.0943913608789444
-0.22480618953704834 -0.14728683233261108 0.6462402939796448
-0.22480618953704834 -0.14728683233261108 0.8502728939056396
-0.22480618953704834 -0.13178294897079468 -0.7856158018112183
-0.22480618953704834 -0.13178294897079468 -0.46619847416877747
-0.22480618953704834 -0.13178294897079468 0.6658948659896851
-0.22480618953704834 -0.13178294897079468 0.8587574362754822
-0.22480618953704834 -0.11627906560897827 -0.7950860857963562
-0.22480618953704834 -0.11627906560897827 -0.5377182364463806
-0.22480618953704834 -0.11627906560897827 0.6890731453895569
-0.22480618953704834 -0.11627906560897827 0.8678891062736511
-0.22480618953704834 -0.10077518224716187 -0.8037701845169067
-0.22480618953704834 -0.10077518224716187 -0.5683013796806335
-0.22480618953704834 -0.10077518224716187 0.7053388357162476
-0.22480618953704834 -0.10077518224716187 0.8757463097572327
-0.22480618953704834 -0.08527129888534546 -0.8100932836532593
-0.22480618953704834 -0.08527129888534546 -0.5855346322059631
-0.22480618953704834 -0.08527129888534546 0.7167177200317383
-0.22480618953704834 -0.08527129888534546 0.883423924446106
-0.22480618953704834 -0.06976741552352905 -0.8167386651039124
-0.22480618953704834 -0.06976741552352905 -0.5988618731498718
-0.22480618953704834 -0.06976741552352905 0.7247276902198792
-0.22480618953704834 -0.06976741552352905 0.8907293677330017
-0.22480618953704834 -0.05426359176635742 -0.8225756287574768
-0.22480618953704834 -0.05426359176635742 -0.6154835820198059
-0.22480618953704834 -0.05426359176635742 0.7310619950294495
-0.22480618953704834 -0.05426359176635742 0.8965129852294922
-0.22480618953704834 -0.038759708404541016 -0.8276544213294983
-0.22480618953704834 -0.038759708404541016 -0.6347913146018982
-0.22480620443820953 -0.038759708404541016 0.7365682721138
-0.22480618953704834 -0.038759708404541016 0.9021402597427368
-0.22480618953704834 -0.02325582504272461 -0.8334382772445679
-0.22480618953704834 -0.02325582504272461 -0.663968026638031
-0.22480618953704834 -0.02325582504272461 0.7453751564025879
-0.22480618953704834 -0.02325582504272461 0.905886173248291
-0.22480618953704834 -0.007751941680908203 -0.8374927043914795
-0.22480618953704834 -0.007751941680908203 -0.6922950744628906
-0.22480618953704834 -0.007751941680908203 0.7504550814628601
-0.22480618953704834 -0.007751941215246916 0.9069823622703552
-0.22480618953704834 0.007751941680908203 -0.8392243385314941
-0.22480618953704834 0.007751941680908203 -0.7101595401763916
-0.22480618953704834 0.007751941680908203 0.7513821721076965
-0.22480618953704834 0.007751941680908203 0.9047746658325195
-0.22480618953704834 0.02325582504272461 -0.8379437923431396
-0.22480618953704834 0.02325582504272461 -0.7141107320785522
-0.22480618953704834 0.02325582504272461 0.7451101541519165
-0.22480618953704834 0.02325582504272461 0.9003201723098755
-0.22480618953704834 0.038759708404541016 -0.8338338136672974
-0.22480618953704834 0.038759708404541016 -0.7070794701576233
-0.22480618953704834 0.038759708404541016 0.7363559603691101
-0.22480618953704834 0.038759708404541016 0.8957240581512451
-0.22480618953704834 0.05426359176635742 -0.8275629281997681
-0.22480618953704834 0.05426359176635742 -0.6916851997375488
-0.22480618953704834 0.05426359176635742 0.7279514074325562
-0.22480618953704834 0.05426359176635742 0.890728771686554
-0.22480618953704834 0.06976747512817383 -0.8216654062271118
-0.22480618953704834 0.06976747512817383 -0.6730050444602966
-0.22480618953704834 0.06976747512817383 0.7187325954437256
-0.22480618953704834 0.06976747512817383 0.8841274976730347
-0.22480620443820953 0.08527136594057083 -0.8126705884933472
-0.22480618953704834 0.08527135848999023 -0.6559427976608276
-0.22480618953704834 0.08527135848999023 0.7033090591430664
-0.22480620443820953 0.08527135848999023 0.8780201077461243
-0.22480618953704834 0.10077524185180664 -0.8044654726982117
-0.22480618953704834 0.10077524185180664 -0.6394890546798706
-0.22480618953704834 0.10077524185180664 0.6862902045249939
-0.22480618953704834 0.10077524185180664 0.8703140616416931
-0.22480618953704834 0.11627913266420364 -0.7934739589691162
-0.22480618953704834 0.11627912521362305 -0.6287785172462463
-0.22480618953704834 0.11627912521362305 0.6654599905014038
-0.22480618953704834 0.11627911776304245 0.8620326519012451
-0.22480618953704834 0.1317828893661499 -0.7814797163009644
-0.22480618953704834 0.1317828893661499 -0.6116452813148499
-0.22480618953704834 0.1317828893661499 0.6398229598999023
-0.22480620443820953 0.1317828893661499 0.8515822291374207
-0.22480618953704834 0.1472867727279663 -0.7707098126411438
-0.22480618953704834 0.1472867727279663 -0.59146648645401
-0.22480618953704834 0.1472867727279663 0.6228291988372803
-0.22480618953704834 0.1472867727279663 0.8398083448410034
-0.22480618953704834 0.16279065608978271 -0.7578145265579224
-0.22480618953704834 0.16279065608978271 -0.5691730976104736
-0.22480618953704834 0.16279065608978271 0.6083871126174927
-0.22480618953704834 0.16279065608978271 0.8265218138694763
-0.22480618953704834 0.17829453945159912 -0.7422734498977661
-0.22480618953704834 0.17829453945159912 -0.5289930105209351
-0.22480618953704834 0.17829453945159912 0.5831326842308044
-0.22480618953704834 0.17829453945159912 0.8098855018615723
-0.22480618953704834 0.19379842281341553 -0.7223231196403503
-0.22480617463588715 0.19379842281341553 -0.3737527132034302
-0.22480618953704834 0.19379842281341553 -0.16377034783363342
-0.22480618953704834 0.19379842281341553 -0.11679023504257202
-0.22480618953704834 0.19379842281341553 0.5302069783210754
-0.22480618953704834 0.19379842281341553 0.7904284596443176
-0.22480618953704834 0.20930230617523193 -0.6980283856391907
-0.22480618953704834 0.20930230617523193 -0.3423091769218445
-0.22480618953704834 0.20930230617523193 -0.16562530398368835
-0.22480618953704834 0.20930230617523193 -0.09726635366678238
-0.22480618953704834 0.20930230617523193 0.4782898724079132
-0.22480618953704834 0.20930230617523193 0.7692475914955139
-0.22480618953704834 0.22480618953704834 -0.668682873249054
-0.22480618953704834 0.22480618953704834 -0.27721357345581055
-0.22480618953704834 0.22480618953704834 -0.2466644048690796
-0.22480618953704834 0.22480618953704834 -0.07627180218696594
-0.22480618953704834 0.22480618953704834 0.4390525817871094
-0.22480618953704834 0.22480618953704834 0.7458709478378296
-0.22480618953704834 0.24031007289886475 -0.6363965272903442
-0.22480618953704834 0.24031007289886475 0.052278053015470505
-0.22480618953704834 0.24031007289886475 0.19767780601978302
-0.22480618953704834 0.24031007289886475 0.24375487864017487
-0.22480618953704834 0.24031007289886475 0.40502628684043884
-0.22480618953704834 0.24031008780002594 0.7214045524597168
-0.22480618953704834 0.25581395626068115 -0.6028867959976196
-0.22480618953704834 0.25581395626068115 0.08563549071550369
-0.22480618953704834 0.25581395626068115 0.16689170897006989
-0.22480618953704834 0.25581395626068115 0.27044835686683655
-0.22480618953704834 0.25581395626068115 0.36469027400016785
-0.22480618953704834 0.25581395626068115 0.6933124661445618
-0.22480618953704834 0.27131783962249756 -0.5686455368995667
-0.22480618953704834 0.27131783962249756 0.30421948432922363
-0.22480618953704834 0.27131783962249756 0.32605108618736267
-0.22480618953704834 0.27131783962249756 0.6625243425369263
-0.22480618953704834 0.28682172298431396 -0.5278804302215576
-0.22480618953704834 0.28682172298431396 0.6299291849136353
-0.22480618953704834 0.30232560634613037 -0.48418474197387695
-0.22480620443820953 0.30232563614845276 0.598885715007782
-0.22480618953704834 0.3178294897079468 -0.4358643889427185
-0.22480618953704834 0.3178294897079468 0.569210410118103
-0.22480618953704834 0.3333333730697632 -0.3846486508846283
-0.22480618953704834 0.3333333730697632 0.5391230583190918
-0.22480618953704834 0.3488372564315796 -0.3209882974624634
-0.22480617463588715 0.3488372564315796 0.5058678984642029
-0.22480618953704834 0.364341139793396 -0.24605581164360046
-0.22480618953704834 0.364341139793396 0.4649870991706848
-0.22480618953704834 0.37984490394592285 -0.1545705795288086
-0.22480618953704834 0.37984490394592285 0.41490983963012695
-0.22480618953704834 0.39534878730773926 -0.03013937547802925
-0.22480618953704834 0.39534878730773926 0.35314005613327026
-0.20930230617523193 -0.41085273027420044 0.14400793612003326
-0.20930230617523193 -0.41085273027420044 0.3257811367511749
-0.20930230617523193 -0.39534884691238403 -0.06387481093406677
-0.20930230617523193 -0.39534884691238403 0.42209362983703613
-0.20930230617523193 -0.3798449635505676 -0.14553454518318176
-0.20930230617523193 -0.37984493374824524 0.4739920496940613
-0.20930230617523193 -0.3643410801887512 -0.24201910197734833
-0.20930230617523193 -0.3643410801887512 0.5123835206031799
-0.20930230617523193 -0.3488371968269348 -0.31236279010772705
-0.20930230617523193 -0.3488371968269348 0.5446062684059143
-0.20930230617523193 -0.3333333134651184 -0.37493789196014404
-0.20930230617523193 -0.3333333134651184 0.5777095556259155
-0.20930230617523193 -0.317829430103302 -0.43284714221954346
-0.20930230617523193 -0.317829430103302 0.61396324634552
-0.20930230617523193 -0.30232560634613037 -0.4816838502883911
-0.20930230617523193 -0.30232560634613037 0.11467529833316803
-0.20930230617523193 -0.30232560634613037 0.36756983399391174
-0.20930230617523193 -0.30232560634613037 0.6505619287490845
-0.20930230617523193 -0.28682172298431396 -0.5299388766288757
-0.20930230617523193 -0.28682172298431396 0.07225935161113739
-0.20930230617523193 -0.28682172298431396 0.4084952771663666
-0.20930230617523193 -0.28682172298431396 0.685131847858429
-0.20930230617523193 -0.27131783962249756 -0.5787721872329712
-0.20930230617523193 -0.27131783962249756 0.031026244163513184
-0.20930232107639313 -0.27131783962249756 0.46152549982070923
-0.20930230617523193 -0.27131783962249756 0.7172343134880066
-0.20930230617523193 -0.25581395626068115 -0.6242164969444275
-0.20930230617523193 -0.25581395626068115 -0.009919915348291397
-0.20930230617523193 -0.25581395626068115 0.5254791378974915
-0.20930230617523193 -0.25581395626068115 0.746027946472168
-0.20930230617523193 -0.24031007289886475 -0.6626360416412354
-0.20930230617523193 -0.24031005799770355 -0.06369030475616455
-0.20930230617523193 -0.24031007289886475 0.5729021430015564
-0.20930230617523193 -0.24031007289886475 0.7716155052185059
-0.20930230617523193 -0.22480618953704834 -0.6951801776885986
-0.20930230617523193 -0.22480618953704834 -0.25248655676841736
-0.20930230617523193 -0.22480618953704834 -0.12072382867336273
-0.20930230617523193 -0.22480618953704834 -0.09244965016841888
-0.20930230617523193 -0.22480618953704834 0.6100549101829529
-0.20930230617523193 -0.22480618953704834 0.7929661273956299
-0.20930230617523193 -0.20930230617523193 -0.7220664024353027
-0.20930232107639313 -0.20930232107639313 -0.2686746418476105
-0.20930230617523193 -0.20930230617523193 -0.11846257001161575
-0.20930230617523193 -0.20930230617523193 -0.09522175788879395
-0.20930230617523193 -0.20930230617523193 0.6317892670631409
-0.20930230617523193 -0.20930230617523193 0.8126465082168579
-0.20930230617523193 -0.19379842281341553 -0.7444079518318176
-0.20930230617523193 -0.19379842281341553 -0.29103800654411316
-0.20930230617523193 -0.19379842281341553 -0.12295987457036972
-0.20930230617523193 -0.19379842281341553 -0.09682296961545944
-0.20930230617523193 -0.19379842281341553 0.6484459638595581
-0.20930232107639313 -0.19379842281341553 0.8299161791801453
-0.20930230617523193 -0.1782945990562439 -0.7636901140213013
-0.20930230617523193 -0.1782945990562439 -0.3585459589958191
-0.20930230617523193 -0.1782945990562439 -0.14551082253456116
-0.20930230617523193 -0.1782945990562439 -0.0963374525308609
-0.20930230617523193 -0.1782945990562439 0.6620061993598938
-0.20930230617523193 -0.1782945990562439 0.8425976037979126
-0.20930230617523193 -0.1627907156944275 -0.7796734571456909
-0.20930230617523193 -0.1627907156944275 -0.39706486463546753
-0.20930230617523193 -0.1627907156944275 -0.31153810024261475
-0.20930230617523193 -0.1627907156944275 -0.2418574094772339
-0.20930230617523193 -0.1627907156944275 -0.17915098369121552
-0.20930230617523193 -0.1627907156944275 -0.13157625496387482
-0.20930230617523193 -0.1627907156944275 0.6713763475418091
-0.20930230617523193 -0.1627907156944275 0.8543148636817932
-0.20930230617523193 -0.14728683233261108 -0.792930006980896
-0.20930230617523193 -0.14728683233261108 -0.4505392909049988
-0.20930230617523193 -0.14728683233261108 0.6858822107315063
-0.20930230617523193 -0.14728683233261108 0.8644731044769287
-0.20930230617523193 -0.13178294897079468 -0.804471492767334
-0.20930230617523193 -0.13178294897079468 -0.5391949415206909
-0.20930230617523193 -0.13178294897079468 0.7023216485977173
-0.20930230617523193 -0.13178294897079468 0.8731966614723206
-0.20930230617523193 -0.11627906560897827 -0.8135945200920105
-0.20930230617523193 -0.11627906560897827 -0.584621787071228
-0.20930230617523193 -0.11627906560897827 0.7230030298233032
-0.20930230617523193 -0.11627906560897827 0.8818551898002625
-0.20930230617523193 -0.10077518224716187 -0.8216114640235901
-0.20930230617523193 -0.10077518224716187 -0.6087361574172974
-0.20930230617523193 -0.10077518224716187 0.7356322407722473
-0.20930230617523193 -0.10077518224716187 0.8897148966789246
-0.20930230617523193 -0.08527129888534546 -0.8277947306632996
-0.20930230617523193 -0.08527129888534546 -0.6256413459777832
-0.20930230617523193 -0.08527129888534546 0.7449166774749756
-0.20930230617523193 -0.08527129888534546 0.8970934152603149
-0.20930230617523193 -0.06976741552352905 -0.8343505859375
-0.20930230617523193 -0.06976741552352905 -0.6368210911750793
-0.20930230617523193 -0.06976741552352905 0.7516330480575562
-0.20930230617523193 -0.06976741552352905 0.904486894607544
-0.20930230617523193 -0.05426359176635742 -0.8398202657699585
-0.20930230617523193 -0.05426359176635742 -0.6524661183357239
-0.20930232107639313 -0.05426359176635742 0.7576552629470825
-0.20930230617523193 -0.05426359176635742 0.9101724624633789
-0.20930230617523193 -0.038759708404541016 -0.8459895253181458
-0.20930229127407074 -0.038759708404541016 -0.6695655584335327
-0.20930230617523193 -0.038759708404541016 0.7629802823066711
-0.20930230617523193 -0.038759708404541016 0.9159383773803711
-0.20930230617523193 -0.02325582504272461 -0.8510620594024658
-0.20930230617523193 -0.02325582504272461 -0.6960592269897461
-0.20930230617523193 -0.02325582504272461 0.771567165851593
-0.20930230617523193 -0.02325582504272461 0.9201792478561401
-0.20930230617523193 -0.007751941680908203 -0.8549303412437439
-0.20930232107639313 -0.007751941680908203 -0.7207211256027222
-0.20930230617523193 -0.007751941680908203 0.7765743136405945
-0.20930230617523193 -0.007751941680908203 0.9215502142906189
-0.20930230617523193 0.007751941215246916 -0.8564907312393188
-0.20930230617523193 0.007751941680908203 -0.7315410375595093
-0.20930230617523193 0.007751941680908203 0.7779166102409363
-0.20930230617523193 0.007751941680908203 0.9191892147064209
-0.20930230617523193 0.02325582504272461 -0.8555117249488831
-0.20930230617523193 0.02325582504272461 -0.7337933778762817
-0.20930230617523193 0.02325582504272461 0.7731449604034424
-0.20930230617523193 0.02325582504272461 0.9147067070007324
-0.20930230617523193 0.038759708404541016 -0.8517194390296936
-0.20930230617523193 0.038759708404541016 -0.7293401956558228
-0.20930230617523193 0.038759708404541016 0.7665726542472839
-0.20930230617523193 0.038759708404541016 0.9097700715065002
-0.20930230617523193 0.05426359176635742 -0.8461387157440186
-0.20930230617523193 0.05426359176635742 -0.7177740931510925
-0.20930230617523193 0.05426359176635742 0.7585139274597168
-0.20930230617523193 0.05426359176635742 0.9039810299873352
-0.20930230617523193 0.06976747512817383 -0.8399636745452881
-0.20930230617523193 0.06976747512817383 -0.6995943784713745
-0.20930230617523193 0.06976747512817383 0.7501058578491211
-0.20930230617523193 0.06976747512817383 0.897965669631958
-0.20930230617523193 0.08527135848999023 -0.8317371606826782
-0.20930230617523193 0.08527135848999023 -0.6814660429954529
-0.20930230617523193 0.08527135848999023 0.738706648349762
-0.20930230617523193 0.08527135848999023 0.8916669487953186
-0.20930230617523193 0.10077524185180664 -0.822691798210144
-0.20930230617523193 0.10077524185180664 -0.6650483012199402
-0.20930230617523193 0.10077524185180664 0.7246562838554382
-0.20930230617523193 0.10077524185180664 0.883585512638092
-0.20930230617523193 0.11627912521362305 -0.811435878276825
-0.20930230617523193 0.11627912521362305 -0.6524507999420166
-0.20930230617523193 0.11627912521362305 0.6992939114570618
-0.20930230617523193 0.11627912521362305 0.8756722211837769
-0.20930230617523193 0.1317828893661499 -0.8011223077774048
-0.20930230617523193 0.1317828893661499 -0.6384114027023315
-0.20930230617523193 0.1317828893661499 0.6652137041091919
-0.20930230617523193 0.1317828893661499 0.8651235103607178
-0.20930230617523193 0.1472867727279663 -0.7895050644874573
-0.20930230617523193 0.1472867727279663 -0.6221603751182556
-0.20930230617523193 0.1472867727279663 0.642448902130127
-0.20930230617523193 0.1472867727279663 0.852994441986084
-0.20930230617523193 0.16279065608978271 -0.7763358950614929
-0.20930230617523193 0.16279065608978271 -0.5995173454284668
-0.20930230617523193 0.16279065608978271 0.6306878328323364
-0.20930230617523193 0.16279065608978271 0.8397095203399658
-0.20930230617523193 0.17829453945159912 -0.7611480951309204
-0.20930230617523193 0.17829453945159912 -0.5654316544532776
-0.20930230617523193 0.17829453945159912 0.6105118989944458
-0.20930230617523193 0.17829453945159912 0.823600172996521
-0.20930230617523193 0.19379842281341553 -0.7436845302581787
-0.20930230617523193 0.19379842281341553 -0.3703191578388214
-0.20930230617523193 0.19379842281341553 -0.2075294554233551
-0.20930230617523193 0.19379842281341553 -0.154600590467453
-0.20930230617523193 0.19379842281341553 0.5795900821685791
-0.20930230617523193 0.19379842281341553 0.8043928146362305
-0.20930230617523193 0.20930230617523193 -0.7206565141677856
-0.20930230617523193 0.20930230617523193 -0.30153360962867737
-0.20930230617523193 0.20930230617523193 -0.21250048279762268
-0.20930230617523193 0.20930230617523193 -0.11650051176548004
-0.20930230617523193 0.20930230617523193 0.5288820862770081
-0.20930230617523193 0.20930230617523193 0.7835966944694519
-0.20930230617523193 0.22480618953704834 -0.6958867907524109
-0.20930230617523193 0.22480618953704834 -0.2848285436630249
-0.20930230617523193 0.22480618953704834 -0.21780191361904144
-0.20930230617523193 0.22480618953704834 -0.08958739787340164
-0.20930229127407074 0.22480618953704834 0.488552451133728
-0.20930230617523193 0.22480618953704834 0.760118842124939
-0.20930230617523193 0.24031007289886475 -0.6655003428459167
-0.20930230617523193 0.24031007289886475 -0.2784251570701599
-0.20930230617523193 0.24031007289886475 -0.22261984646320343
-0.20930230617523193 0.24031007289886475 0.016005968675017357
-0.20930230617523193 0.24031007289886475 0.4483492076396942
-0.20930230617523193 0.24031007289886475 0.7355570197105408
-0.20930230617523193 0.25581395626068115 -0.6331920027732849
-0.20930230617523193 0.25581395626068115 0.07067164033651352
-0.20930230617523193 0.25581395626068115 0.18169432878494263
-0.20930230617523193 0.25581395626068115 0.24974632263183594
-0.20930230617523193 0.25581395626068115 0.40777868032455444
-0.20930230617523193 0.25581395626068115 0.707520604133606
-0.20930230617523193 0.27131783962249756 -0.5979670882225037
-0.20930230617523193 0.27131783962249756 0.09979773312807083
-0.20930230617523193 0.27131783962249756 0.1611199527978897
-0.20930230617523193 0.27131783962249756 0.2685176432132721
-0.20930230617523193 0.27131783962249756 0.3684290647506714
-0.20930230617523193 0.27131783962249756 0.6770952343940735
-0.20930230617523193 0.28682172298431396 -0.5589489936828613
-0.20930230617523193 0.28682172298431396 0.6440823674201965
-0.20930230617523193 0.30232560634613037 -0.5147465467453003
-0.20930230617523193 0.30232560634613037 0.6129259467124939
-0.20930230617523193 0.3178294897079468 -0.466766357421875
-0.20930230617523193 0.3178294897079468 0.5845080018043518
-0.20930230617523193 0.3333333730697632 -0.41483747959136963
-0.20930230617523193 0.3333333730697632 0.5557408332824707
-0.20930230617523193 0.3488372564315796 -0.3574005961418152
-0.20930230617523193 0.3488372564315796 0.524585485458374
-0.20930230617523193 0.364341139793396 -0.2894553542137146
-0.20930230617523193 0.364341139793396 0.4888561964035034
-0.20930230617523193 0.37984490394592285 -0.21121613681316376
-0.20930230617523193 0.37984490394592285 0.4428046941757202
-0.20930230617523193 0.39534878730773926 -0.10781948268413544
-0.20930230617523193 0.39534878730773926 0.3911629617214203
-0.20930230617523193 0.41085267066955566 0.04170040041208267
-0.20930230617523193 0.41085267066955566 0.3084696829319
-0.19379842281341553 -0.41085273027420044 -0.03943059593439102
-0.19379842281341553 -0.41085273027420044 0.38901859521865845
-0.19379842281341553 -0.39534884691238403 -0.12250388413667679
-0.19379842281341553 -0.39534884691238403 0.45012709498405457
-0.19379842281341553 -0.3798449635505676 -0.21208038926124573
-0.19379842281341553 -0.3798449635505676 0.49374866485595703
-0.19379842281341553 -0.3643410801887512 -0.29029446840286255
-0.19379842281341553 -0.3643410801887512 0.5284647345542908
-0.19379842281341553 -0.3488371968269348 -0.3533670902252197
-0.19379842281341553 -0.3488371968269348 0.5603690147399902
-0.19379842281341553 -0.3333333134651184 -0.4148160219192505
-0.19379842281341553 -0.3333333134651184 0.5947080850601196
-0.19379842281341553 -0.317829430103302 -0.4659920632839203
-0.19379842281341553 -0.317829430103302 0.2240503579378128
-0.19379842281341553 -0.317829430103302 0.35281676054000854
-0.19379842281341553 -0.317829430103302 0.6318487524986267
-0.19379842281341553 -0.30232560634613037 -0.5143440365791321
-0.19379842281341553 -0.30232560634613037 0.0808970257639885
-0.19379842281341553 -0.30232560634613037 0.39385175704956055
-0.19379842281341553 -0.30232560634613037 0.6680842041969299
-0.19379842281341553 -0.28682172298431396 -0.5644227266311646
-0.19379842281341553 -0.28682172298431396 0.035594332963228226
-0.19379842281341553 -0.28682172298431396 0.4439685344696045
-0.19379842281341553 -0.28682172298431396 0.7016800045967102
-0.19379842281341553 -0.27131783962249756 -0.612548291683197
-0.19379842281341553 -0.27131783962249756 -0.062327515333890915
-0.19379842281341553 -0.27131780982017517 0.504720151424408
-0.19379842281341553 -0.27131783962249756 0.7328329086303711
-0.19379842281341553 -0.25581395626068115 -0.6538881659507751
-0.19379842281341553 -0.25581395626068115 -0.0792531967163086
-0.19379842281341553 -0.25581395626068115 0.5538886785507202
-0.19379842281341553 -0.25581395626068115 0.7602634429931641
-0.19379842281341553 -0.24031007289886475 -0.6900371313095093
-0.19379842281341553 -0.24031007289886475 -0.08801087737083435
-0.19379842281341553 -0.24031007289886475 0.5984234809875488
-0.19379842281341553 -0.24031007289886475 0.7844232320785522
-0.19379843771457672 -0.22480618953704834 -0.7182976007461548
-0.19379842281341553 -0.22480618953704834 -0.23296880722045898
-0.19379842281341553 -0.22480618953704834 -0.14559833705425262
-0.19379840791225433 -0.22480617463588715 -0.09893734753131866
-0.19379842281341553 -0.22480618953704834 0.6344786882400513
-0.19379842281341553 -0.22480618953704834 0.8064545392990112
-0.19379842281341553 -0.20930230617523193 -0.7428898215293884
-0.19379842281341553 -0.20930230617523193 -0.2354952096939087
-0.19379842281341553 -0.20930230617523193 -0.14454667270183563
-0.19379842281341553 -0.20930230617523193 -0.10376845300197601
-0.19379842281341553 -0.20930230617523193 0.6576467752456665
-0.19379842281341553 -0.20930230617523193 0.8257827162742615
-0.19379842281341553 -0.19379842281341553 -0.7640324831008911
-0.19379842281341553 -0.19379842281341553 -0.2286698818206787
-0.19379840791225433 -0.19379840791225433 0.6762219071388245
-0.19379842281341553 -0.19379842281341553 0.8426595330238342
-0.19379842281341553 -0.1782945990562439 -0.7826263904571533
-0.19379842281341553 -0.1782945990562439 -0.19899725914001465
-0.19379842281341553 -0.1782945990562439 0.6912224292755127
-0.19379842281341553 -0.1782945990562439 0.8562963008880615
-0.19379842281341553 -0.1627907156944275 -0.7979373931884766
-0.19379842281341553 -0.1627907156944275 -0.422305703163147
-0.19379842281341553 -0.1627907156944275 -0.33537757396698
-0.19379842281341553 -0.1627907156944275 -0.2026025950908661
-0.19379842281341553 -0.1627907156944275 0.7021510601043701
-0.19379842281341553 -0.1627907156944275 0.8679009675979614
-0.19379842281341553 -0.14728683233261108 -0.8105522990226746
-0.19379842281341553 -0.14728683233261108 -0.5030642151832581
-0.19379842281341553 -0.14728683233261108 0.7186943292617798
-0.19379842281341553 -0.14728683233261108 0.877062201499939
-0.19379842281341553 -0.13178294897079468 -0.8218424320220947
-0.19379842281341553 -0.13178294897079468 -0.5872223973274231
-0.19379842281341553 -0.13178294897079468 0.732537031173706
-0.19379842281341553 -0.13178294897079468 0.8859661817550659
-0.19379842281341553 -0.11627906560897827 -0.8313129544258118
-0.19379840791225433 -0.11627905815839767 -0.625098705291748
-0.19379842281341553 -0.11627906560897827 0.7474713325500488
-0.19379842281341553 -0.11627906560897827 0.8942020535469055
-0.19379842281341553 -0.10077517479658127 -0.8391051292419434
-0.19379842281341553 -0.10077518224716187 -0.64265376329422
-0.19379842281341553 -0.10077518224716187 0.7598702311515808
-0.19379842281341553 -0.10077518224716187 0.9023129940032959
-0.19379842281341553 -0.08527129888534546 -0.8459999561309814
-0.19379842281341553 -0.08527129888534546 -0.6613001823425293
-0.19379842281341553 -0.08527129888534546 0.7686588168144226
-0.19379842281341553 -0.08527129888534546 0.9095925092697144
-0.19379842281341553 -0.06976741552352905 -0.8522341251373291
-0.19379842281341553 -0.06976741552352905 -0.6742093563079834
-0.19379842281341553 -0.06976741552352905 0.7750892639160156
-0.19379842281341553 -0.06976741552352905 0.9169453382492065
-0.19379842281341553 -0.05426359176635742 -0.8582895398139954
-0.19379842281341553 -0.05426359176635742 -0.6880089044570923
-0.19379842281341553 -0.05426359176635742 0.7794609069824219
-0.19379842281341553 -0.05426359176635742 0.9233720302581787
-0.19379842281341553 -0.038759708404541016 -0.8647685647010803
-0.19379842281341553 -0.038759708404541016 -0.7043094038963318
-0.19379843771457672 -0.038759708404541016 0.7839058041572571
-0.19379842281341553 -0.038759708404541016 0.9293253421783447
-0.19379842281341553 -0.02325582504272461 -0.8696274757385254
-0.19379842281341553 -0.02325582504272461 -0.7294857501983643
-0.19379842281341553 -0.02325582504272461 0.7921407222747803
-0.19379842281341553 -0.02325582504272461 0.9330407381057739
-0.19379842281341553 -0.007751941680908203 -0.8733468651771545
-0.19379842281341553 -0.007751941680908203 -0.7416113615036011
-0.19379842281341553 -0.007751941680908203 0.7952498197555542
-0.19379842281341553 -0.007751941680908203 0.9345318078994751
-0.19379842281341553 0.007751941680908203 -0.8750088214874268
-0.19379842281341553 0.007751941680908203 -0.7486934065818787
-0.19379842281341553 0.007751941680908203 0.7954813241958618
-0.19379842281341553 0.007751941680908203 0.9319123029708862
-0.19379842281341553 0.02325582504272461 -0.873337984085083
-0.19379842281341553 0.02325582318007946 -0.750300407409668
-0.19379842281341553 0.02325582504272461 0.7911102771759033
-0.19379842281341553 0.02325582504272461 0.9275029301643372
-0.19379842281341553 0.038759708404541016 -0.8697905540466309
-0.19379842281341553 0.038759708404541016 -0.7475553154945374
-0.19379842281341553 0.038759708404541016 0.7855100631713867
-0.19379842281341553 0.038759708404541016 0.9221813678741455
-0.19379842281341553 0.05426359176635742 -0.8646640777587891
-0.19379842281341553 0.05426359176635742 -0.740414023399353
-0.19379842281341553 0.05426359176635742 0.7791799306869507
-0.19379842281341553 0.05426359176635742 0.915174126625061
-0.19379842281341553 0.06976747512817383 -0.8580350279808044
-0.19379842281341553 0.06976747512817383 -0.7316035032272339
-0.19379842281341553 0.06976747512817383 0.7729317545890808
-0.19379842281341553 0.06976747512817383 0.9089263677597046
-0.19379842281341553 0.08527135848999023 -0.8502686023712158
-0.19379842281341553 0.08527135848999023 -0.717160165309906
-0.19379842281341553 0.08527135848999023 0.7630774974822998
-0.19379842281341553 0.08527135848999023 0.9015129804611206
-0.19379842281341553 0.10077524185180664 -0.8407717943191528
-0.19379842281341553 0.10077524185180664 -0.6954014897346497
-0.19379842281341553 0.10077524185180664 0.7496437430381775
-0.19379842281341553 0.10077524185180664 0.8945168256759644
-0.19379842281341553 0.11627912521362305 -0.8298454880714417
-0.19379842281341553 0.11627912521362305 -0.6827409863471985
-0.19379842281341553 0.11627912521362305 0.7331574559211731
-0.19379842281341553 0.11627912521362305 0.8854662179946899
-0.19379842281341553 0.1317828893661499 -0.818882405757904
-0.19379843771457672 0.1317828893661499 -0.6708263158798218
-0.19379842281341553 0.1317828893661499 0.7009876370429993
-0.19379842281341553 0.1317828893661499 0.8764219284057617
-0.19379842281341553 0.1472867727279663 -0.8066588640213013
-0.19379842281341553 0.1472867727279663 -0.654509961605072
-0.19379842281341553 0.1472867727279663 0.666427493095398
-0.19379842281341553 0.1472867727279663 0.8644057512283325
-0.19379842281341553 0.16279065608978271 -0.793091893196106
-0.19379842281341553 0.16279065608978271 -0.6323170065879822
-0.19379842281341553 0.16279065608978271 0.6481696367263794
-0.19379842281341553 0.16279065608978271 0.8510417342185974
-0.19379842281341553 0.17829453945159912 -0.7778826951980591
-0.19379842281341553 0.17829453945159912 -0.5990105271339417
-0.19379842281341553 0.17829453945159912 0.6312905550003052
-0.19379842281341553 0.17829453945159912 0.8353806734085083
-0.19379842281341553 0.19379842281341553 -0.7609559893608093
-0.19379842281341553 0.19379842281341553 -0.5603587031364441
-0.19379840791225433 0.19379840791225433 -0.32812434434890747
-0.19379842281341553 0.19379842281341553 -0.2958078384399414
-0.19379842281341553 0.19379842281341553 0.6051298379898071
-0.19379843771457672 0.19379843771457672 0.8170797824859619
-0.19379842281341553 0.20930230617523193 -0.7409152388572693
-0.19379842281341553 0.20930230617523193 -0.2571311295032501
-0.19379842281341553 0.20930230617523193 -0.2524097263813019
-0.19379842281341553 0.20930230617523193 -0.16564930975437164
-0.19379842281341553 0.20930230617523193 0.5632814168930054
-0.19379842281341553 0.20930230617523193 0.7963558435440063
-0.19379842281341553 0.22480618953704834 -0.7161027193069458
-0.19379842281341553 0.22480618953704834 -0.2949793338775635
-0.19379842281341553 0.22480618953704834 -0.21572566032409668
-0.19379842281341553 0.22480618953704834 -0.13022512197494507
-0.19379842281341553 0.22480618953704834 0.5279584527015686
-0.19379842281341553 0.22480617463588715 0.7737482786178589
-0.19379842281341553 0.24031007289886475 -0.6902541518211365
-0.19379842281341553 0.24031007289886475 -0.34135931730270386
-0.19379842281341553 0.24031007289886475 -0.18795999884605408
-0.19379842281341553 0.24031008780002594 -0.09781534224748611
-0.19379842281341553 0.24031007289886475 0.49196475744247437
-0.19379842281341553 0.24031007289886475 0.7487236261367798
-0.19379842281341553 0.25581395626068115 -0.659307062625885
-0.19379842281341553 0.25581395626068115 -0.310151606798172
-0.19379842281341553 0.25581395626068115 -0.1824425458908081
-0.19379843771457672 0.25581395626068115 0.00917558278888464
-0.19379842281341553 0.25581395626068115 0.45225390791893005
-0.19379842281341553 0.25581395626068115 0.7218557596206665
-0.19379843771457672 0.27131783962249756 -0.6243731379508972
-0.19379842281341553 0.27131783962249756 -0.26471662521362305
-0.19379842281341553 0.27131783962249756 -0.23220422863960266
-0.19379842281341553 0.27131783962249756 0.06194385141134262
-0.19379842281341553 0.27131783962249756 0.18370473384857178
-0.19379842281341553 0.27131783962249756 0.24591539800167084
-0.19379842281341553 0.27131783962249756 0.410765677690506
-0.19379842281341553 0.27131783962249756 0.6912638545036316
-0.19379842281341553 0.28682172298431396 -0.5875028371810913
-0.19379842281341553 0.28682172298431396 0.10433889925479889
-0.19379842281341553 0.28682172298431396 0.15641847252845764
-0.19379842281341553 0.28682172298431396 0.26809531450271606
-0.19379842281341553 0.28682172298431396 0.3589095175266266
-0.19379842281341553 0.28682172298431396 0.6576321125030518
-0.19379842281341553 0.30232560634613037 -0.5439066886901855
-0.19379842281341553 0.30232560634613037 0.6257888674736023
-0.19379842281341553 0.3178294897079468 -0.4963812828063965
-0.19379842281341553 0.3178294897079468 0.5981646776199341
-0.19379842281341553 0.3333333730697632 -0.4447139799594879
-0.19379842281341553 0.3333333730697632 0.5706986784934998
-0.19379842281341553 0.3488372564315796 -0.3893570899963379
-0.19379842281341553 0.3488372564315796 0.5407683849334717
-0.19379842281341553 0.364341139793396 -0.32702749967575073
-0.19379842281341553 0.364341139793396 0.507534384727478
-0.19379842281341553 0.37984490394592285 -0.2549472749233246
-0.19379842281341553 0.37984490394592285 0.4660371243953705
-0.19379842281341553 0.39534878730773926 -0.16782081127166748
-0.19379842281341553 0.39534878730773926 0.4167712330818176
-0.19379842281341553 0.41085267066955566 -0.051645491272211075
-0.19379842281341553 0.41085267066955566 0.3586440682411194
-0.1782945990562439 -0.42635661363601685 0.034125685691833496
-0.1782945990562439 -0.42635661363601685 0.33581992983818054
-0.1782945990562439 -0.41085273027420044 -0.09097272157669067
-0.1782945990562439 -0.41085273027420044 0.42125847935676575
-0.1782945990562439 -0.39534884691238403 -0.1757994294166565
-0.1782945990562439 -0.39534884691238403 0.4702847898006439
-0.1782945990562439 -0.3798449635505676 -0.25850266218185425
-0.1782945990562439 -0.3798449635505676 0.5097286701202393
-0.1782945990562439 -0.3643410801887512 -0.32495972514152527
-0.1782945990562439 -0.3643410801887512 0.5431233644485474
-0.1782945990562439 -0.3488371968269348 -0.3873017430305481
-0.1782945990562439 -0.3488371968269348 0.5759172439575195
-0.1782945990562439 -0.3333333134651184 -0.4463374614715576
-0.1782945990562439 -0.3333333134651184 0.29893624782562256
-0.1782945990562439 -0.3333333134651184 0.3296375274658203
-0.1782945990562439 -0.3333333134651184 0.610480546951294
-0.1782945990562439 -0.317829430103302 -0.49524062871932983
-0.1782945990562439 -0.317829430103302 0.12108701467514038
-0.1782945990562439 -0.317829430103302 0.3681003451347351
-0.1782945990562439 -0.317829430103302 0.6479387283325195
-0.1782945990562439 -0.30232560634613037 -0.5456812381744385
-0.1782945990562439 -0.30232560634613037 0.07210226356983185
-0.1782945990562439 -0.30232560634613037 0.4211246967315674
-0.1782945990562439 -0.30232560634613037 0.6839663982391357
-0.1782945990562439 -0.28682172298431396 -0.5964139103889465
-0.1782945990562439 -0.28682172298431396 0.018830468878149986
-0.1782945990562439 -0.28682172298431396 0.47599172592163086
-0.1782945990562439 -0.28682172298431396 0.7162735462188721
-0.1782945990562439 -0.27131783962249756 -0.6412690281867981
-0.1782945990562439 -0.27131783962249756 -0.07662571966648102
-0.1782945990562439 -0.27131783962249756 0.5285564064979553
-0.1782945990562439 -0.27131783962249756 0.746016263961792
-0.1782945990562439 -0.25581395626068115 -0.6795060634613037
-0.1782945990562439 -0.25581395626068115 -0.08577580004930496
-0.1782945990562439 -0.25581395626068115 0.5723210573196411
-0.1782945990562439 -0.25581395626068115 0.772529661655426
-0.1782945990562439 -0.24031007289886475 -0.7105530500411987
-0.1782945990562439 -0.24031007289886475 -0.09528588503599167
-0.1782945990562439 -0.24031007289886475 0.6179171800613403
-0.1782945990562439 -0.24031007289886475 0.7945682406425476
-0.1782945990562439 -0.22480618953704834 -0.7377921938896179
-0.1782945990562439 -0.22480618953704834 -0.11666656285524368
-0.1782945990562439 -0.22480618953704834 0.6508888006210327
-0.1782945990562439 -0.22480618953704834 0.8186526298522949
-0.1782945990562439 -0.20930230617523193 -0.7599354386329651
