0.06976747512817383 0.3555850684642792 -0.30232560634613037
0.06976747512817383 0.3586811125278473 -0.11627906560897827
0.06976747512817383 0.3498717248439789 -0.10077518224716187
0.06976747512817383 0.3634117543697357 -0.007751941680908203
0.06976747512817383 0.35523414611816406 0.007751941680908203
0.06976747512817383 0.3773173987865448 -0.39534884691238403
0.06976747512817383 0.3680794835090637 -0.13178294897079468
0.06976747512817383 0.37238365411758423 -0.02325582504272461
0.06976747512817383 0.39289718866348267 -0.41085273027420044
0.06976747512817383 0.3945895731449127 -0.30232560634613037
0.06976747512817383 0.38930565118789673 -0.1627907156944275
0.06976747512817383 0.3800274431705475 -0.14728683233261108
0.06976747512817383 0.38883984088897705 -0.05426359176635742
0.06976746767759323 0.3800099194049835 -0.038759708404541016
0.06976747512817383 0.41004905104637146 -0.42635661363601685
0.06976747512817383 0.4106326699256897 -0.28682172298431396
0.06976747512817383 0.410441517829895 -0.20930230617523193
0.06976747512817383 0.4042252004146576 -0.19379842281341553
0.06976747512817383 0.39774635434150696 -0.1782945841550827
0.06976747512817383 0.4054564833641052 -0.08527129888534546
0.06976747512817383 0.396371454000473 -0.06976741552352905
0.06976747512817383 0.41488921642303467 -0.27131783962249756
0.06976747512817383 0.4158044159412384 -0.25581395626068115
0.06976747512817383 0.4150703549385071 -0.24031007289886475
0.06976747512817383 0.4131002426147461 -0.22480618953704834
0.06976747512817383 0.42204946279525757 -0.11627906560897827
0.06976747512817383 0.41327452659606934 -0.10077518224716187
0.06976747512817383 0.42801254987716675 -0.4418604373931885
0.06976747512817383 0.4371253550052643 -0.14728683233261108
0.06976747512817383 0.4293402433395386 -0.13178294897079468
0.06976747512817383 0.456394761800766 -0.4728682041168213
0.06976747512817383 0.4435593783855438 -0.4573643207550049
0.06976747512817383 0.45472240447998047 -0.19379842281341553
0.06976747512817383 0.44948965311050415 -0.1782945990562439
0.06976747512817383 0.44299018383026123 -0.1627907156944275
0.06976747512817383 0.46829697489738464 -0.4883720874786377
0.06976747512817383 0.4719245731830597 -0.25581395626068115
0.06976747512817383 0.46762409806251526 -0.24031007289886475
0.06976747512817383 0.46367183327674866 -0.22480618953704834
0.06976747512817383 0.4589335024356842 -0.20930230617523193
0.06976747512817383 0.48565101623535156 -0.5193798542022705
0.06976747512817383 0.4781917929649353 -0.5038759708404541
0.06976747512817383 0.4872863292694092 -0.30232560634613037
0.06976747512817383 0.47992008924484253 -0.28682172298431396
0.06976747512817383 0.47535309195518494 -0.27131783962249756
0.06976747512817383 0.4992198944091797 -0.5503876209259033
0.06976747512817383 0.49197515845298767 -0.5348837375640869
0.06976747512817383 0.4945283532142639 -0.317829430103302
0.06976747512817383 0.5163828134536743 -0.5968992114067078
0.06976747512817383 0.5115578770637512 -0.5813953876495361
0.06976747512817383 0.5053597092628479 -0.5658915042877197
0.06976747512817383 0.5148061513900757 -0.3488371968269348
0.06976747512817383 0.5048444271087646 -0.3333333134651184
0.06976747512817383 0.5309644937515259 -0.643410861492157
0.06976747512817383 0.5262669920921326 -0.6279069185256958
0.06976747512817383 0.5211272239685059 -0.6124030947685242
0.06976747512817383 0.5253507494926453 -0.3643410801887512
0.06976747512817383 0.5480249524116516 -0.6899224519729614
0.06976747512817383 0.542182445526123 -0.674418568611145
0.06976747512817383 0.5359986424446106 -0.6589146852493286
0.06976747512817383 0.5496587157249451 -0.39534884691238403
0.06976747512817383 0.5375494956970215 -0.3798449635505676
0.06976747512817383 0.5624579191207886 -0.7209302186965942
0.06976747512817383 0.5551319718360901 -0.7054263353347778
0.06976747512817383 0.5617995262145996 -0.41085273027420044
0.06976747512817383 0.5798919796943665 -0.751937985420227
0.06976747512817383 0.5711140036582947 -0.7364341020584106
0.06976747512817383 0.5745595693588257 -0.42635661363601685
0.06976747512817383 0.590508222579956 -0.7674418687820435
0.06976747512817383 0.5960816740989685 -0.643410861492157
0.06976747512817383 0.5938032269477844 -0.6279069185256958
0.06976747512817383 0.5960396528244019 -0.6124030351638794
0.06976747512817383 0.5880496501922607 -0.4418604373931885
0.06976747512817383 0.6013401746749878 -0.7829457521438599
0.06976747512817383 0.6065460443496704 -0.674418568611145
0.06976747512817383 0.5994458198547363 -0.6589146852493286
0.06976747512817383 0.6051256656646729 -0.5968992114067078
0.06976747512817383 0.6018432378768921 -0.4573643207550049
0.06976747512817383 0.6134668588638306 -0.7984496355056763
0.06976747512817383 0.6140004396438599 -0.6899224519729614
0.06976747512817383 0.6167700290679932 -0.4728682041168213
0.06976747512817383 0.629013180732727 -0.8139534592628479
0.06976747512817383 0.6328595876693726 -0.4883720874786377
0.06976747512817383 0.646692156791687 -0.8294573426246643
0.06976747512817383 0.6541800498962402 -0.6899224519729614
0.06976747512817383 0.6522437930107117 -0.5038759708404541
0.06976747512817383 0.6709742546081543 -0.8604651093482971
0.06976747512817383 0.6604738831520081 -0.8449612259864807
0.06976747512817383 0.6624599695205688 -0.674418568611145
0.06976747512817383 0.6704859137535095 -0.6589146852493286
0.06976747512817383 0.6740087866783142 -0.6124030947685242
0.06976747512817383 0.6618088483810425 -0.5968992114067078
0.06976747512817383 0.6894152760505676 -0.8914728760719299
0.06976747512817383 0.6812927722930908 -0.8759690523147583
0.06976747512817383 0.674995481967926 -0.643410861492157
0.06976747512817383 0.679546058177948 -0.6279069781303406
0.06976747512817383 0.6754986643791199 -0.5193798542022705
0.06976747512817383 0.7012790441513062 -0.9069767594337463
0.06976747512817383 0.7030314207077026 -0.5348837375640869
0.06976747512817383 0.7148134708404541 -0.9224806427955627
0.06976747512817383 0.7298449277877808 -0.9379844665527344
0.06976747512817383 0.731606125831604 -0.5503876209259033
0.06976747512817383 0.748292863368988 -0.9534883499145508
0.06976747512817383 0.7581279277801514 -0.5658915042877197
0.06976747512817383 0.7801594138145447 -0.9689922332763672
0.06976747512817383 0.7767647504806519 -0.7984496355056763
0.06976747512817383 0.7729244828224182 -0.7829457521438599
0.06976747512817383 0.7706490755081177 -0.7674418687820435
0.06976747512817383 0.7706257104873657 -0.751937985420227
0.06976747512817383 0.771230161190033 -0.7364341020584106
0.06976747512817383 0.7729790210723877 -0.7209302186965942
0.06976747512817383 0.7768000364303589 -0.7054263353347778
0.06976747512817383 0.7822256684303284 -0.6899224519729614
0.06976747512817383 0.777492880821228 -0.5813953876495361
0.06976747512817383 0.7919012308120728 -0.8294573426246643
0.06976747512817383 0.7843040823936462 -0.8139535188674927
0.06976747512817383 0.7871742248535156 -0.674418568611145
0.06976747512817383 0.7926790714263916 -0.6589146852493286
0.06976747512817383 0.7974643707275391 -0.643410861492157
0.06976747512817383 0.797623872756958 -0.6279069781303406
0.06976747512817383 0.792709469795227 -0.6124030947685242
0.06976747512817383 0.7870061993598938 -0.5968992114067078
0.06976747512817383 0.8132238984107971 -0.9069767594337463
0.06976747512817383 0.8120863437652588 -0.8914728760719299
0.06976747512817383 0.8095625638961792 -0.8759689927101135
0.06976747512817383 0.8053277730941772 -0.8604651689529419
0.06976747512817383 0.8002194166183472 -0.8449612259864807
0.06976747512817383 0.8164312243461609 -0.9689922332763672
0.06976747512817383 0.8152426481246948 -0.9534883499145508
0.06976747512817383 0.8142690658569336 -0.9379844665527344
0.06976747512817383 0.8139883279800415 -0.9224806427955627
0.08527135848999023 -0.8150584697723389 0.038759708404541016
0.08527135848999023 -0.8019360899925232 0.02325582504272461
0.08527135848999023 -0.8137054443359375 0.05426359176635742
0.08527135848999023 -0.7150932550430298 0.05426359176635742
0.08527135848999023 -0.7011158466339111 0.007751941680908203
0.08527136594057083 -0.5951080322265625 0.038759708404541016
0.08527135848999023 -0.5705098509788513 -0.007751941680908203
0.08527135848999023 -0.5642567873001099 -0.007751941680908203
0.08527135848999023 -0.4477298855781555 0.007751941680908203
0.08527135848999023 -0.41720035672187805 0.038759708404541016
0.08527135848999023 -0.31379592418670654 0.02325582504272461
0.08527135848999023 -0.2668118476867676 0.05426358804106712
0.08527135848999023 -0.23948036134243011 0.038759708404541016
0.08527135848999023 -0.2332577109336853 0.06976747512817383
0.08527135848999023 -0.21437762677669525 0.08527135848999023
0.08527135848999023 -0.2096593827009201 0.8139535188674927
0.08527135848999023 -0.21189603209495544 0.8294574022293091
0.08527135848999023 -0.21335190534591675 0.8449612855911255
0.08527135848999023 -0.21396847069263458 0.8604651689529419
0.08527135848999023 -0.21364209055900574 0.8759689331054688
0.08527135848999023 -0.21280919015407562 0.8914728164672852
0.08527135848999023 -0.211482435464859 0.9069766998291016
0.08527135848999023 -0.21027210354804993 0.922480583190918
0.08527135848999023 -0.20567385852336884 0.05426359176635742
0.08527135848999023 -0.20617511868476868 0.10077524185180664
0.08527135848999023 -0.20298437774181366 0.11627912521362305
0.08527135848999023 -0.19880449771881104 0.1317828893661499
0.08527135848999023 -0.2070711851119995 0.8139535188674927
0.08527135848999023 -0.19963578879833221 0.8294574022293091
0.08527135848999023 -0.19610553979873657 0.8449612855911255
0.08527135848999023 -0.2081490457057953 0.9379844665527344
0.08527135848999023 -0.20368140935897827 0.9534883499145508
0.08527135848999023 -0.19721809029579163 0.9689922332763672
0.08527135848999023 -0.17879000306129456 0.1472867727279663
0.08527135848999023 -0.17751945555210114 0.06976747512817383
0.08527135848999023 -0.16915377974510193 0.8294574022293091
0.08527135848999023 -0.17535342276096344 0.8449612855911255
0.08527135848999023 -0.16974522173404694 0.9379844665527344
0.08527135848999023 -0.17462590336799622 0.9534884095191956
0.08527135848999023 -0.17828580737113953 0.9689922332763672
0.08527135848999023 -0.1508949100971222 0.08527135848999023
0.08527135848999023 -0.14813977479934692 0.7829457521438599
0.08527135848999023 -0.15576016902923584 0.7984496355056763
0.08527135848999023 -0.16255919635295868 0.8139535188674927
0.08527135848999023 -0.15541407465934753 0.9069766998291016
0.08527135848999023 -0.16055525839328766 0.922480583190918
0.08527135848999023 -0.13502241671085358 0.7674418687820435
0.08527135848999023 -0.1393325924873352 0.8759689331054688
0.08527135848999023 -0.14560410380363464 0.8914728164672852
0.08527135848999023 -0.12212572246789932 0.751937985420227
0.08527135848999023 -0.1202010065317154 0.8449612855911255
0.08527135848999023 -0.12930360436439514 0.8604651689529419
0.08527135848999023 -0.10918442904949188 0.7364341020584106
0.08527135848999023 -0.10944913327693939 0.8294574022293091
0.08527135848999023 -0.09497734904289246 0.1472867727279663
0.08527135848999023 -0.09148586541414261 0.7054263353347778
0.08527135848999023 -0.09883654862642288 0.720930278301239
0.08527135848999023 -0.08783778548240662 0.7984496355056763
0.08527135848999023 -0.09804203361272812 0.8139535784721375
0.08527135848999023 -0.07630781829357147 0.08527135848999023
0.08527135848999023 -0.07374551147222519 0.674418568611145
0.08527135848999023 -0.0836595743894577 0.6899224519729614
0.08527135848999023 -0.07833224534988403 0.7829457521438599
0.08527135848999023 -0.05457361042499542 0.6589146852493286
0.08527135848999023 -0.06209399178624153 0.751937985420227
0.08527135848999023 -0.06941340118646622 0.7674418687820435
0.08527135848999023 -0.04340911656618118 0.06976747512817383
0.08527135848999023 -0.04237806797027588 0.1317828893661499
0.08527135848999023 -0.045975588262081146 0.7209302186965942
0.08527135848999023 -0.05354488268494606 0.7364341020584106
0.08527135848999023 -0.027056939899921417 0.6279069185256958
0.08527135848999023 -0.03854386880993843 0.6434108018875122
0.08527135848999023 -0.0257532000541687 0.6899224519729614
0.08527135848999023 -0.03626567870378494 0.7054263353347778
0.08527135848999023 -0.01774018444120884 0.05426359176635742
0.08527135848999023 -0.009984387084841728 0.5813953876495361
0.08527135848999023 -0.014331527054309845 0.5968992710113525
0.08527135103940964 -0.01973831094801426 0.612403154373169
0.08527135848999023 -0.014258679002523422 0.674418568611145
0.08527135848999023 0.0011815002653747797 0.038759708404541016
0.08527135848999023 0.0019320996943861246 0.11627912521362305
0.08527135848999023 0.006159165874123573 0.5348837375640869
0.08527135848999023 3.332877531647682e-05 0.5503876209259033
0.08527135848999023 -0.0056645991280674934 0.5658915042877197
0.08527135848999023 -0.0017687301151454449 0.6589146852493286
0.08527135848999023 0.017624149098992348 0.02325582504272461
0.08527135848999023 0.022813787683844566 0.5038759708404541
0.08527135848999023 0.014189286157488823 0.5193798542022705
0.08527135848999023 0.01737651787698269 0.6279069185256958
0.08527135848999023 0.007867923006415367 0.6434108018875122
0.08527135848999023 0.03292521834373474 0.007751941680908203
0.08527135848999023 0.026448747143149376 0.10077524185180664
0.08527135848999023 0.032907091081142426 0.4883720874786377
0.08527135848999023 0.035638537257909775 0.5968992710113525
0.08527135848999023 0.028059758245944977 0.612403154373169
0.08527135848999023 0.0461219847202301 -0.007751941680908203
0.08527135848999023 0.0528806708753109 0.06976747512817383
0.08527136594057083 0.0401712991297245 0.08527136594057083
0.08527135848999023 0.05277002602815628 0.4573643207550049
0.08527135848999023 0.042999882251024246 0.4728682041168213
0.08527135848999023 0.05350363999605179 0.5658915042877197
0.08527135848999023 0.045498400926589966 0.5813953876495361
0.08527135848999023 0.05818083882331848 -0.02325582504272461
0.08527135848999023 0.0686529204249382 0.42635655403137207
0.08527135848999023 0.06080213561654091 0.4418604373931885
0.08527135848999023 0.06933072209358215 0.5348837375640869
0.08527135848999023 0.06181662157177925 0.5503876209259033
0.08527135848999023 0.08107111603021622 -0.05426359176635742
0.08527135848999023 0.06987355649471283 -0.038759708404541016
0.08527135103940964 0.07135666906833649 0.05426359176635742
0.08527135848999023 0.08048131316900253 0.39534878730773926
0.08527135848999023 0.07485900819301605 0.41085267066955566
0.08527135848999023 0.08343492448329926 0.5038759708404541
0.08527135848999023 0.07712522894144058 0.5193798542022705
0.08527135848999023 0.09265835583209991 -0.06976741552352905
0.08527135848999023 0.08993308991193771 0.038759708404541016
0.08527135848999023 0.09241510182619095 0.364341139793396
0.08527135848999023 0.08648534119129181 0.37984490394592285
0.08527135848999023 0.09786324948072433 0.4728682041168213
0.08527135848999023 0.09205926954746246 0.4883720874786377
0.08527135848999023 0.10509981960058212 -0.08527129888534546
0.08527135848999023 0.11564598232507706 0.007751941680908203
0.08527135848999023 0.1039838045835495 0.02325582690536976
0.08527135848999023 0.1109950989484787 0.3333333730697632
0.08527135848999023 0.1010107696056366 0.348837286233902
0.08527135848999023 0.11234970390796661 0.4418604373931885
0.08527135848999023 0.1064942255616188 0.4573642909526825
0.08527135848999023 0.1284056007862091 -0.11627906560897827
0.08527135848999023 0.11726457625627518 -0.10077518224716187
0.08527135848999023 0.1263824999332428 -0.007751941680908203
0.08527135848999023 0.12215793132781982 0.3178294897079468
0.08527135848999023 0.12664981186389923 0.41085267066955566
0.08527135848999023 0.12076331675052643 0.42635658383369446
0.08527135848999023 0.139990895986557 -0.13178294897079468
0.08527135848999023 0.13781072199344635 -0.02325582504272461
0.08527135848999023 0.14461076259613037 0.28682172298431396
0.08527135848999023 0.13300934433937073 0.30232560634613037
0.08527135848999023 0.14132893085479736 0.37984490394592285
0.08527135848999023 0.13460397720336914 0.39534878730773926
0.08527135848999023 0.1522381603717804 -0.14728683233261108
0.08527135848999023 0.15763962268829346 -0.05426359176635742
0.08527135848999023 0.14814546704292297 -0.038759708404541016
0.08527135848999023 0.15540742874145508 0.27131783962249756
0.08527135848999023 0.15718644857406616 0.3488372564315796
0.08527135848999023 0.14982649683952332 0.364341139793396
0.08527135848999023 0.17694763839244843 -0.1782945990562439
0.08527135848999023 0.16458696126937866 -0.1627907156944275
0.08527135848999023 0.1776708960533142 -0.08527129888534546
0.08527135848999023 0.16777126491069794 -0.06976741552352905
0.08527135848999023 0.17698605358600616 0.24031007289886475
0.08527135103940964 0.16667577624320984 0.25581395626068115
0.08527135848999023 0.17518261075019836 0.3178294897079468
0.08527135848999023 0.1669778674840927 0.3333333730697632
0.08527135848999023 0.19063153862953186 -0.19379842281341553
0.08527135848999023 0.1893182247877121 -0.10077518224716187
0.08527135848999023 0.18587133288383484 0.22480618953704834
0.08527135848999023 0.1863892376422882 0.30232560634613037
0.08527135848999023 0.20479856431484222 -0.20930230617523193
0.08527135848999023 0.20020544528961182 -0.11627906560897827
0.08527135848999023 0.20576165616512299 0.17829453945159912
0.08527135848999023 0.1999964416027069 0.19379842281341553
0.08527135848999023 0.19422492384910583 0.20930230617523193
0.08527135848999023 0.20415648818016052 0.27131783962249756
0.08527135848999023 0.195804163813591 0.28682172298431396
0.08527135848999023 0.21997204422950745 -0.22480618953704834
0.08527135848999023 0.21281878650188446 -0.13178294897079468
0.08527135848999023 0.22315993905067444 0.11627912521362305
0.08527135848999023 0.21831299364566803 0.1317828893661499
0.08527135848999023 0.2145996242761612 0.1472867727279663
0.08527135848999023 0.21043097972869873 0.16279065608978271
0.08527135848999023 0.22112450003623962 0.24031007289886475
0.08527135848999023 0.2152615785598755 0.25581395626068115
0.08527135848999023 0.23433521389961243 -0.24031007289886475
0.08527135848999023 0.23029287159442902 -0.14728683233261108
0.08527135848999023 0.23487704992294312 0.08527135848999023
0.08527135848999023 0.22851762175559998 0.10077524930238724
0.08527135848999023 0.23648135364055634 0.20930230617523193
0.08527135848999023 0.23176223039627075 0.22480618953704834
0.08527135848999023 0.2493295669555664 -0.25581395626068115
0.08527135848999023 0.2542306184768677 0.007751941680908203
0.08527135848999023 0.25133368372917175 0.02325582504272461
0.08527135848999023 0.2495173215866089 0.038759708404541016
0.08527135848999023 0.24659082293510437 0.05426359176635742
0.08527135848999023 0.24217788875102997 0.06976747512817383
0.08527135848999023 0.25179412961006165 0.17829453945159912
0.08527135848999023 0.24687589704990387 0.19379842281341553
0.08527135848999023 0.2649722099304199 -0.27131783962249756
0.08527135848999023 0.25715091824531555 -0.1627907156944275
0.08527135848999023 0.26908326148986816 -0.02325582504272461
0.08527135848999023 0.2603272497653961 -0.00775194214656949
0.08527135848999023 0.26680147647857666 0.1472867727279663
0.08527135848999023 0.26112639904022217 0.16279065608978271
0.08527135848999023 0.2813975214958191 -0.28682172298431396
0.08527135848999023 0.2798803150653839 -0.1782945990562439
0.08527135848999023 0.28034889698028564 -0.038759708404541016
0.08527135848999023 0.2819311320781708 0.11627912521362305
0.08527135848999023 0.27484020590782166 0.1317828893661499
0.08527135848999023 0.29836228489875793 -0.30232560634613037
0.08527135848999023 0.30188634991645813 -0.22480618953704834
0.08527135848999023 0.2951352000236511 -0.20930230617523193
0.08527135848999023 0.28878504037857056 -0.19379840791225433
0.08527135848999023 0.2929207682609558 -0.05426359549164772
0.08527135848999023 0.29834866523742676 0.08527135848999023
0.08527135848999023 0.2904883921146393 0.10077524185180664
0.08527135848999023 0.31096094846725464 -0.24031007289886475
0.08527135848999023 0.3143969476222992 -0.08527129888534546
0.08527135848999023 0.3046802878379822 -0.06976741552352905
0.08527135848999023 0.3157706558704376 0.05426359176635742
0.08527135848999023 0.3077039420604706 0.06976747512817383
0.08527135848999023 0.31804704666137695 -0.317829430103302
0.08527135848999023 0.3219495117664337 -0.25581395626068115
0.08527135848999023 0.33122459053993225 -0.11627906560897827
0.08527135848999023 0.3223331570625305 -0.10077518224716187
0.08527135848999023 0.32554930448532104 0.038759708404541016
0.08527135848999023 0.33938997983932495 -0.3333333134651184
0.08527135848999023 0.34070831537246704 -0.27131783962249756
0.08527135848999023 0.3396664261817932 -0.13178294897079468
0.08527135848999023 0.34378206729888916 0.007751941680908203
0.08527135848999023 0.3344418406486511 0.02325582504272461
0.08527135848999023 0.36108577251434326 -0.3488371968269348
0.08527135848999023 0.3640376627445221 -0.1627907156944275
0.08527135848999023 0.35228782892227173 -0.14728683233261108
0.08527135848999023 0.36177223920822144 -0.02325582504272461
0.08527135848999023 0.3531036972999573 -0.007751941215246916
0.08527135848999023 0.3770137429237366 -0.3643410801887512
0.08527135848999023 0.3740154504776001 -0.27131783962249756
0.08527135848999023 0.37277936935424805 -0.1782945990562439
0.08527135848999023 0.378471702337265 -0.05426359176635742
0.08527135848999023 0.37042224407196045 -0.038759708404541016
0.08527135848999023 0.39086341857910156 -0.3798449635505676
0.08527135848999023 0.3865165114402771 -0.25581395626068115
0.08527135848999023 0.39016929268836975 -0.24031007289886475
0.08527135848999023 0.3899350166320801 -0.22480618953704834
0.08527135848999023 0.38660210371017456 -0.20930230617523193
0.08527135848999023 0.38095036149024963 -0.19379842281341553
0.08527135848999023 0.3944777548313141 -0.08527129888534546
0.08527135848999023 0.38684073090553284 -0.06976741552352905
0.08527135848999023 0.40558093786239624 -0.39534884691238403
0.08527135848999023 0.41029050946235657 -0.11627906560897827
0.08527135848999023 0.4030391275882721 -0.10077518224716187
0.08527135848999023 0.42293107509613037 -0.41085273027420044
0.08527135848999023 0.42586764693260193 -0.14728683233261108
0.08527135848999023 0.418762743473053 -0.13178294897079468
0.08527135848999023 0.4399721622467041 -0.42635661363601685
0.08527135848999023 0.4389090836048126 -0.1782945990562439
0.08527135848999023 0.4329986572265625 -0.1627907156944275
0.08527135848999023 0.4555334448814392 -0.4418604373931885
0.08527135848999023 0.45579081773757935 -0.24031007289886475
0.08527135848999023 0.45220187306404114 -0.22480618953704834
0.08527135848999023 0.4481775164604187 -0.20930230617523193
0.08527135848999023 0.4432733356952667 -0.19379842281341553
0.08527135848999023 0.4704330861568451 -0.4573643207550049
0.08527135848999023 0.47127383947372437 -0.30232560634613037
0.08527135848999023 0.4648841321468353 -0.28682172298431396
0.08527135848999023 0.46132323145866394 -0.27131783962249756
0.08527135848999023 0.458303838968277 -0.25581395626068115
0.08527135848999023 0.4842393398284912 -0.4728682041168213
0.08527135848999023 0.4878849387168884 -0.3333333134651184
0.08527135848999023 0.47764116525650024 -0.317829430103302
0.08527135848999023 0.4959801435470581 -0.4883720874786377
0.08527135848999023 0.4973774552345276 -0.3488371968269348
0.08527135848999023 0.516179621219635 -0.5348837375640869
0.08527135848999023 0.5104819536209106 -0.5193798542022705
0.08527135848999023 0.5040742754936218 -0.5038759708404541
0.08527135848999023 0.5191690921783447 -0.3798449635505676
0.08527135848999023 0.5075192451477051 -0.3643410801887512
0.08527135848999023 0.5336578488349915 -0.6124030947685242
0.08527135848999023 0.5305978059768677 -0.5968992114067078
0.08527135848999023 0.5282776355743408 -0.5813953876495361
0.08527135848999023 0.5256862044334412 -0.5658915042877197
0.08527135848999023 0.5221199989318848 -0.5503876209259033
0.08527135848999023 0.5296517610549927 -0.39534884691238403
0.08527135848999023 0.5470686554908752 -0.6589146852493286
0.08527135848999023 0.5421268939971924 -0.643410861492157
0.08527135848999023 0.5379122495651245 -0.6279069781303406
0.08527135848999023 0.5402683019638062 -0.41085273027420044
0.08527135848999023 0.5595645308494568 -0.6899224519729614
0.08527135848999023 0.5531524419784546 -0.674418568611145
0.08527135848999023 0.5655823945999146 -0.4418604373931885
0.08527135103940964 0.5521367192268372 -0.42635661363601685
0.08527135848999023 0.5744308233261108 -0.7209302186965942
0.08527135103940964 0.5659607648849487 -0.7054263353347778
0.08527135848999023 0.5796301960945129 -0.4573643207550049
0.08527135848999023 0.5926467776298523 -0.751937985420227
0.08527135848999023 0.582699716091156 -0.7364341020584106
0.08527135848999023 0.5950703620910645 -0.4728682041168213
0.08527135848999023 0.6029949188232422 -0.7674418687820435
0.08527135848999023 0.6122103929519653 -0.4883720874786377
0.08527135848999023 0.6278189420700073 -0.7984496355056763
0.08527135848999023 0.6143985986709595 -0.7829457521438599
0.08527135848999023 0.6309528350830078 -0.5038759708404541
0.08527135848999023 0.6442447304725647 -0.8139535188674927
0.08527135848999023 0.654338002204895 -0.5193798542022705
0.08527135848999023 0.6701682806015015 -0.8449612259864807
0.08527135848999023 0.6595237851142883 -0.8294573426246643
0.08527135848999023 0.6867644786834717 -0.8759689927101135
0.08527135848999023 0.6781079769134521 -0.8604650497436523
0.08527135848999023 0.6828464269638062 -0.5348837375640869
0.08527135848999023 0.6962755918502808 -0.8914728760719299
0.08527135848999023 0.7197974920272827 -0.9224806427955627
0.08527135848999023 0.7064773440361023 -0.9069767594337463
0.08527135848999023 0.7136443853378296 -0.5503876209259033
0.08527135848999023 0.7360061407089233 -0.9379844665527344
0.08527135848999023 0.7449980974197388 -0.5658915042877197
0.08527135848999023 0.7585864067077637 -0.9534883499145508
0.08527135848999023 0.7788812518119812 -0.7829457521438599
0.08527135848999023 0.7763012647628784 -0.7674418687820435
0.08527135848999023 0.7764459848403931 -0.751937985420227
0.08527135848999023 0.7773597240447998 -0.7364341020584106
0.08527135848999023 0.7796050906181335 -0.7209302186965942
0.08527135848999023 0.7697473168373108 -0.5813953876495361
0.08527135848999023 0.7908740043640137 -0.9689922332763672
0.08527135848999023 0.7972446084022522 -0.8294573426246643
0.08527135848999023 0.7886319160461426 -0.8139535188674927
0.08527136594057083 0.7833203077316284 -0.7984496355056763
0.08527135848999023 0.7841335535049438 -0.7054263353347778
0.08527135848999023 0.7886261343955994 -0.6899224519729614
0.08527135848999023 0.7937840223312378 -0.674418568611145
0.08527135848999023 0.7934671640396118 -0.6124030947685242
0.08527135848999023 0.7849656343460083 -0.5968992114067078
0.08527135848999023 0.8139504194259644 -0.9069767594337463
0.08527135848999023 0.812826931476593 -0.8914728760719299
0.08527135848999023 0.8108006715774536 -0.8759689927101135
0.08527135848999023 0.8072030544281006 -0.8604651093482971
0.08527135848999023 0.8026513457298279 -0.8449611663818359
0.08527135848999023 0.7990183234214783 -0.6589146852493286
0.08527135848999023 0.800594687461853 -0.643410861492157
0.08527135848999023 0.7998918294906616 -0.6279069185256958
0.08527135848999023 0.8152177333831787 -0.9689922332763672
0.08527135848999023 0.8159841895103455 -0.9534883499145508
0.08527135848999023 0.8146975040435791 -0.9379844665527344
0.08527135848999023 0.814214825630188 -0.922480583190918
0.10077524185180664 -0.8143861293792725 0.038759708404541016
0.10077524185180664 -0.8145365715026855 0.05426359176635742
0.10077524185180664 -0.7598799467086792 0.02325582504272461
0.10077524185180664 -0.7586888074874878 0.06976747512817383
0.10077524185180664 -0.7340670228004456 0.06976747512817383
0.10077524185180664 -0.7073589563369751 0.05426359176635742
0.10077524185180664 -0.6654843091964722 0.007751941680908203
0.10077524185180664 -0.5725094676017761 0.038759708404541016
0.10077524185180664 -0.5013010501861572 0.038759708404541016
0.10077524185180664 -0.4848453104496002 0.007751941680908203
0.10077524185180664 -0.3539388179779053 0.02325582504272461
0.10077524185180664 -0.2980661392211914 0.05426359176635742
0.10077524185180664 -0.25849124789237976 0.038759708404541016
0.10077524185180664 -0.25331294536590576 0.06976747512817383
0.10077524185180664 -0.230503112077713 0.08527135848999023
0.10077524185180664 -0.2192564606666565 0.05426359176635742
0.10077524185180664 -0.21958008408546448 0.10077524185180664
0.10077524185180664 -0.2149977833032608 0.11627912521362305
0.10077524185180664 -0.21241526305675507 0.1317828893661499
0.10077524185180664 -0.210780069231987 0.8294574022293091
0.10077524185180664 -0.2123316079378128 0.8449612855911255
0.10077524185180664 -0.2131386548280716 0.8604651689529419
0.10077524185180664 -0.213096022605896 0.8759689331054688
0.10077524185180664 -0.21255816519260406 0.8914728164672852
0.10077524185180664 -0.2114766538143158 0.9069766998291016
0.10077524185180664 -0.21049043536186218 0.922480583190918
0.10077524185180664 -0.20974132418632507 0.9379844665527344
0.10077524185180664 -0.20259231328964233 0.1472867727279663
0.10077524185180664 -0.20368638634681702 0.8294574022293091
0.10077524185180664 -0.19928491115570068 0.8449612855911255
0.10077524185180664 -0.195275217294693 0.8604651689529419
0.10077524185180664 -0.20406891405582428 0.9534883499145508
0.10077524185180664 -0.1947830319404602 0.9689922332763672
0.10077524185180664 -0.1922682523727417 0.06976748257875443
0.10077524185180664 -0.18771548569202423 0.8604651689529419
0.10077524185180664 -0.18988829851150513 0.9689922332763672
0.10077524185180664 -0.16927608847618103 0.08527135848999023
0.10077524185180664 -0.16427773237228394 0.8139535188674927
0.10077524185180664 -0.16990236937999725 0.8294574022293091
0.10077524185180664 -0.1754293143749237 0.8449612855911255
0.10077524185180664 -0.1633346527814865 0.922480583190918
0.10077524185180664 -0.17305853962898254 0.9379844665527344
0.10077524185180664 -0.17672942578792572 0.9534883499145508
0.10077524185180664 -0.15482524037361145 0.16279065608978271
0.10077524185180664 -0.15334753692150116 0.7829457521438599
0.10077524930238724 -0.15916858613491058 0.7984496355056763
0.10077524185180664 -0.1499095857143402 0.8914728164672852
0.10077524185180664 -0.15794555842876434 0.9069766998291016
0.10077524185180664 -0.14260879158973694 0.10077524185180664
0.10077524185180664 -0.13389624655246735 0.751937985420227
0.10077523440122604 -0.14436087012290955 0.7674418687820435
0.10077524185180664 -0.13375915586948395 0.8604651689529419
0.10077524185180664 -0.14234380424022675 0.8759689331054688
0.10077524185180664 -0.12805655598640442 0.16279065608978271
0.10077524185180664 -0.11885124444961548 0.7364341020584106
0.10077524185180664 -0.12497827410697937 0.8449612855911255
0.10077524185180664 -0.10780967772006989 0.7209302186965942
0.10077524185180664 -0.10418198257684708 0.8139535188674927
0.10077524185180664 -0.11429471522569656 0.8294574022293091
0.10077524185180664 -0.09208551049232483 0.6899224519729614
0.10077524185180664 -0.0990290716290474 0.7054263353347778
0.10077524185180664 -0.09372386336326599 0.7984496355056763
0.10077524185180664 -0.08317269384860992 0.10077524185180664
0.10077524930238724 -0.08312711864709854 0.674418568611145
0.10077524185180664 -0.076096311211586 0.7674418687820435
0.10077524185180664 -0.08378767967224121 0.7829457521438599
0.10077524185180664 -0.06774181872606277 0.6589146852493286
0.10077524185180664 -0.060265280306339264 0.7364341020584106
0.10077524185180664 -0.06766404956579208 0.751937985420227
0.10077524185180664 -0.04545700550079346 0.08527135848999023
0.10077524185180664 -0.04829050973057747 0.1472867727279663
0.10077524185180664 -0.05130843073129654 0.6434108018875122
0.10077524185180664 -0.04393555968999863 0.7054263353347778
0.10077524185180664 -0.05174509808421135 0.7209302186965942
0.10077524185180664 -0.023362210020422935 0.5968992710113525
0.10077524185180664 -0.02991662733256817 0.612403154373169
0.10077524185180664 -0.03781362250447273 0.6279069185256958
0.10077524185180664 -0.032827846705913544 0.6899224519729614
0.10077524185180664 -0.01731346920132637 0.06976747512817383
0.10077524185180664 -0.008487831801176071 0.5503876209259033
0.10077524185180664 -0.013849835842847824 0.5658915042877197
0.10077524185180664 -0.018504735082387924 0.5813953876495361
0.10077524185180664 -0.010467395186424255 0.6589146852493286
0.10077524185180664 -0.021362677216529846 0.6744186282157898
0.10077524185180664 0.0031607572454959154 0.05426359176635742
0.10077524185180664 0.003714754479005933 0.5193798542022705
0.10077524185180664 -0.002723397919908166 0.5348837375640869
0.10077524185180664 7.671467028558254e-05 0.6434108018875122
0.10077524185180664 0.01986655592918396 0.038759708404541016
0.10077524185180664 0.017216205596923828 0.1317828893661499
0.10077524185180664 0.01767902821302414 0.4883720874786377
0.10077523440122604 0.009807674214243889 0.5038759708404541
0.10077524185180664 0.01791713573038578 0.612403154373169
0.10077524185180664 0.009583273902535439 0.6279069185256958
0.10077524185180664 0.03533173352479935 0.02325582504272461
0.10077524185180664 0.03712105005979538 0.4573643207550049
0.10077524185180664 0.02681576833128929 0.4728682041168213
0.10077524185180664 0.03547201305627823 0.5813953876495361
0.10077524185180664 0.027845829725265503 0.5968992710113525
0.10077524185180664 0.049358487129211426 0.007751941680908203
0.10077524185180664 0.040480710566043854 0.11627912521362305
0.10077524185180664 0.04657498747110367 0.4418604373931885
0.10077524185180664 0.052567485719919205 0.5503876209259033
0.10077524185180664 0.045047327876091 0.5658915042877197
0.10077524185180664 0.061949361115694046 -0.007751941680908203
0.10077524185180664 0.05589558556675911 0.10077524185180664
0.10077524185180664 0.06282449513673782 0.41085267066955566
0.10077524185180664 0.05566481873393059 0.42635655403137207
0.10077524185180664 0.06747043877840042 0.5193798542022705
0.10077524185180664 0.06116510555148125 0.5348837375640869
0.10077523440122604 0.0739978477358818 -0.02325582504272461
0.10077524185180664 0.07127055525779724 0.08527135848999023
0.10077524185180664 0.08224165439605713 0.364341139793396
0.10077524185180664 0.0758989155292511 0.37984490394592285
0.10077523440122604 0.07003945112228394 0.39534875750541687
0.10077524185180664 0.08166081458330154 0.4883720874786377
0.10077524185180664 0.07592432200908661 0.5038759708404541
0.10077524185180664 0.09639006853103638 -0.05426359176635742
0.10077524185180664 0.08569607883691788 -0.038759708404541016
0.10077524185180664 0.08941922336816788 0.06976747512817383
0.10077524185180664 0.10048093646764755 0.3333333730697632
0.10077524185180664 0.09006904065608978 0.3488372564315796
0.10077524185180664 0.0955304428935051 0.4573643207550049
0.10077524185180664 0.09017844498157501 0.4728682041168213
0.10077524185180664 0.10772368311882019 -0.06976741552352905
0.10077524185180664 0.108233742415905 0.05426359176635742
0.10077524185180664 0.11166422069072723 0.3178294897079468
0.10077524185180664 0.10970115661621094 0.42635655403137207
0.10077524185180664 0.10354126989841461 0.4418604373931885
0.10077524185180664 0.13047756254673004 -0.10077518224716187
0.10077524185180664 0.11965576559305191 -0.08527129888534546
0.10077524185180664 0.12865278124809265 0.02325582504272461
0.10077524185180664 0.11939086019992828 0.038759708404541016
0.10077524185180664 0.1225716695189476 0.30232560634613037
0.10077524185180664 0.13066254556179047 0.37984490394592285
0.10077524185180664 0.12404146790504456 0.39534878730773926
0.10077524185180664 0.11666490882635117 0.41085267066955566
0.10077524185180664 0.14048872888088226 -0.11627906560897827
0.10077524185180664 0.13887643814086914 0.007751941680908203
0.10077524185180664 0.143164724111557 0.27131783962249756
0.10077524185180664 0.13322420418262482 0.28682172298431396
0.10077524185180664 0.1463852822780609 0.3488372564315796
0.10077524185180664 0.13911749422550201 0.364341139793396
0.10077524185180664 0.15213902294635773 -0.13178294897079468
0.10077524185180664 0.16045179963111877 -0.02325582504272461
0.10077524185180664 0.14942046999931335 -0.00775194214656949
0.10077524185180664 0.1533816158771515 0.25581395626068115
0.10077524185180664 0.1553281843662262 0.3333333730697632
0.10077524185180664 0.17636950314044952 -0.1627907156944275
0.10077524930238724 0.16403067111968994 -0.14728683233261108
0.10077524185180664 0.17730258405208588 -0.05426359176635742
0.10077524185180664 0.16998589038848877 -0.038759708404541016
0.10077524185180664 0.17273664474487305 0.22480618953704834
0.10077524185180664 0.163704976439476 0.24031007289886475
0.10077524185180664 0.17389756441116333 0.30232560634613037
0.10077524185180664 0.16478025913238525 0.3178294897079468
0.10077524185180664 0.1904413402080536 -0.1782945990562439
0.10077524185180664 0.18855777382850647 -0.06976741552352905
0.10077524185180664 0.1885371208190918 0.19379842281341553
0.10077524185180664 0.18141932785511017 0.20930230617523193
0.10077524185180664 0.19347384572029114 0.27131783962249756
0.10077524185180664 0.18529629707336426 0.28682172298431396
0.10077524185180664 0.20547251403331757 -0.19379842281341553
0.10077524185180664 0.20033296942710876 -0.08527129888534546
0.10077524185180664 0.20802035927772522 0.1317828893661499
0.10077524185180664 0.20435093343257904 0.1472867727279663
0.10077524185180664 0.20001748204231262 0.16279065608978271
0.10077523440122604 0.19522151350975037 0.17829453945159912
0.10077524185180664 0.20311415195465088 0.25581395626068115
0.10077524185180664 0.22126096487045288 -0.20930230617523193
0.10077524185180664 0.2150486409664154 -0.10077518224716187
0.10077524185180664 0.21993403136730194 0.08527135848999023
0.10077524185180664 0.21502597630023956 0.10077524185180664
0.10077524185180664 0.21152456104755402 0.11627912521362305
0.10077524185180664 0.21935904026031494 0.22480618953704834
0.10077524185180664 0.21286684274673462 0.24031007289886475
0.10077524185180664 0.23686480522155762 -0.22480618953704834
0.10077524185180664 0.23395013809204102 -0.11627906560897827
0.10077524185180664 0.2374264895915985 0.038759708404541016
0.10077524185180664 0.23276874423027039 0.05426359176635742
0.10077523440122604 0.2267683744430542 0.06976747512817383
0.10077524185180664 0.23494528234004974 0.19379842281341553
0.10077524185180664 0.2284700721502304 0.20930230617523193
0.10077524185180664 0.25217732787132263 -0.24031007289886475
0.10077524185180664 0.254568487405777 -0.038759708404541016
0.10077524185180664 0.250425785779953 -0.02325582504272461
0.10077524185180664 0.24656018614768982 -0.007751941680908203
0.10077524185180664 0.24296018481254578 0.007751941215246916
0.10077523440122604 0.24044571816921234 0.02325582504272461
0.10077524185180664 0.2557455599308014 0.1472867727279663
0.10077524185180664 0.25021451711654663 0.16279065608978271
0.10077524185180664 0.24279922246932983 0.17829453945159912
0.10077524185180664 0.2694501578807831 -0.25581395626068115
0.10077524185180664 0.2667979598045349 -0.06976741552352905
0.10077524185180664 0.26015597581863403 -0.05426359176635742
0.10077524185180664 0.26991093158721924 0.11627912521362305
0.10077524185180664 0.26477938890457153 0.1317828893661499
0.10077524185180664 0.27186375856399536 -0.11627906560897827
0.10077524185180664 0.2760983407497406 -0.10077518224716187
0.10077523440122604 0.27389436960220337 -0.08527129888534546
0.10077524185180664 0.2858329713344574 0.08527135848999023
0.10077524185180664 0.27962419390678406 0.10077524185180664
0.10077524930238724 0.2876402735710144 -0.27131783962249756
0.10077524185180664 0.2952840030193329 0.06976747512817383
0.10077524185180664 0.3054387867450714 -0.28682172298431396
0.10077524185180664 0.311380535364151 0.038759708404541016
0.10077524930238724 0.302620530128479 0.05426359176635742
0.10077524185180664 0.32566526532173157 -0.30232560634613037
0.10077524185180664 0.32931649684906006 0.007751941680908203
0.10077524185180664 0.320137619972229 0.02325582504272461
0.10077524185180664 0.34728139638900757 -0.02325582504272461
0.10077524185180664 0.3382699489593506 -0.007751941680908203
0.10077524185180664 0.3537466526031494 -0.317829430103302
0.10077524185180664 0.36431214213371277 -0.05426359176635742
0.10077524185180664 0.35540032386779785 -0.038759708404541016
0.10077524185180664 0.37243926525115967 -0.06976741552352905
0.10077524185180664 0.3845679759979248 -0.3333333134651184
0.10077524185180664 0.38866662979125977 -0.10077518224716187
0.10077524185180664 0.3805074989795685 -0.08527129888534546
0.10077524185180664 0.405644029378891 -0.3488371968269348
0.10077524185180664 0.40395593643188477 -0.13178294897079468
0.10077524185180664 0.3958496153354645 -0.11627907305955887
0.10077524185180664 0.4237932860851288 -0.3643410801887512
0.10077524185180664 0.4240172207355499 -0.1782945990562439
0.10077524185180664 0.4178686738014221 -0.1627907156944275
0.10077524185180664 0.41089296340942383 -0.14728683233261108
0.10077524185180664 0.4399881064891815 -0.3798449635505676
0.10077524185180664 0.4416707456111908 -0.27131783962249756
0.10077524185180664 0.44007158279418945 -0.25581395626068115
0.10077524185180664 0.43839895725250244 -0.24031007289886475
0.10077524185180664 0.4357973039150238 -0.22480618953704834
0.10077524185180664 0.43233415484428406 -0.20930230617523193
0.10077524185180664 0.42827296257019043 -0.19379842281341553
0.10077524185180664 0.4547472894191742 -0.3333333134651184
0.10077524185180664 0.4485057592391968 -0.317829430103302
0.10077524185180664 0.44452354311943054 -0.30232560634613037
0.10077524185180664 0.44277718663215637 -0.28682172298431396
0.10077523440122604 0.4576169550418854 -0.39534881711006165
0.10077524185180664 0.4714850187301636 -0.3643410801887512
0.10077524185180664 0.4626433849334717 -0.3488371968269348
0.10077524185180664 0.4800228476524353 -0.39534884691238403
0.10077524185180664 0.4778388738632202 -0.3798449635505676
0.10077524185180664 0.5502992272377014 -0.5968992114067078
0.10077524185180664 0.5613635778427124 -0.6589146852493286
0.10077524185180664 0.5569267272949219 -0.643410861492157
0.10077524185180664 0.5538525581359863 -0.6279069781303406
0.10077523440122604 0.5514395833015442 -0.6124030947685242
0.10077524185180664 0.5512717366218567 -0.5813953876495361
0.10077524185180664 0.5533073544502258 -0.5658915042877197
0.10077524185180664 0.5563156008720398 -0.5503876209259033
0.10077524185180664 0.5595677495002747 -0.5348837375640869
0.10077524185180664 0.565485954284668 -0.5193798542022705
0.10077524185180664 0.5797792077064514 -0.7054263353347778
0.10077524185180664 0.5729775428771973 -0.6899224519729614
0.10077524930238724 0.5667949914932251 -0.6744186282157898
0.10077524185180664 0.5968565940856934 -0.7364341020584106
0.10077524185180664 0.5881726145744324 -0.7209302186965942
0.10077524185180664 0.6072359681129456 -0.751937985420227
0.10077524185180664 0.6179282069206238 -0.7674418687820435
0.10077524185180664 0.6140074729919434 -0.5193798542022705
0.10077524185180664 0.6304689049720764 -0.7829458117485046
0.10077524185180664 0.6449365615844727 -0.7984496355056763
0.10077524930238724 0.6486003994941711 -0.5348837375640869
0.10077524185180664 0.6720465421676636 -0.8294573426246643
0.10077524185180664 0.6606760025024414 -0.8139535188674927
0.10077524185180664 0.686377227306366 -0.8604651689529419
0.10077524185180664 0.6797475218772888 -0.8449612259864807
0.10077524185180664 0.684433102607727 -0.5503876209259033
0.10077524185180664 0.703104555606842 -0.8914728760719299
0.10077524185180664 0.6946971416473389 -0.8759690523147583
0.10077524185180664 0.7154636979103088 -0.9069768190383911
0.10077524185180664 0.7302377223968506 -0.9224806427955627
0.10077524185180664 0.7213917374610901 -0.5658915042877197
0.10077524185180664 0.7470864653587341 -0.9379844665527344
0.10077524185180664 0.7534490823745728 -0.5813953876495361
0.10077524185180664 0.772781252861023 -0.9534883499145508
0.10077524185180664 0.7761281728744507 -0.5968992114067078
0.10077524185180664 0.7941113710403442 -0.8139535188674927
0.10077524185180664 0.7883285284042358 -0.7984496355056763
0.10077524185180664 0.7854346632957458 -0.7829457521438599
0.10077524185180664 0.7836080193519592 -0.7674418687820435
0.10077524185180664 0.783840537071228 -0.751937985420227
0.10077524185180664 0.7845878601074219 -0.7364341020584106
0.10077524185180664 0.7865477204322815 -0.7209302186965942
0.10077524185180664 0.7906179428100586 -0.7054263353347778
0.10077524185180664 0.7958972454071045 -0.6899224519729614
0.10077524185180664 0.7914607524871826 -0.6124030947685242
0.10077524185180664 0.8135107159614563 -0.8914728760719299
0.10077524185180664 0.8118906617164612 -0.8759689927101135
0.10077524185180664 0.8089888095855713 -0.8604651093482971
0.10077524185180664 0.8050986528396606 -0.8449612259864807
0.10077524185180664 0.8011265993118286 -0.8294573426246643
0.10077524930238724 0.7997245788574219 -0.674418568611145
0.10077524185180664 0.801963210105896 -0.6589146852493286
0.10077524185180664 0.8030918836593628 -0.643410861492157
0.10077524185180664 0.8012830018997192 -0.6279069781303406
0.10077524185180664 0.8164099454879761 -0.9534883499145508
0.10077524185180664 0.8153007626533508 -0.9379844665527344
0.10077524185180664 0.8144931197166443 -0.9224806427955627
0.10077524930238724 0.8140954971313477 -0.9069767594337463
0.11627912521362305 -0.8150143623352051 0.05426359176635742
0.11627912521362305 -0.8102431893348694 0.038759708404541016
0.11627912521362305 -0.7806926369667053 0.06976747512817383
0.11627912521362305 -0.7225633859634399 0.02325582504272461
0.11627912521362305 -0.7226232290267944 0.06976747512817383
0.11627912521362305 -0.6816797852516174 0.05426359176635742
0.11627912521362305 -0.6087499856948853 0.007751941680908203
0.11627912521362305 -0.5263988375663757 0.007751941680908203
0.11627912521362305 -0.42225781083106995 0.05426359176635742
0.11627912521362305 -0.40343931317329407 0.02325582504272461
0.11627912521362305 -0.2911587059497833 0.038759708404541016
0.11627912521362305 -0.2820926904678345 0.06976747512817383
0.11627912521362305 -0.2509132921695709 0.08527135848999023
0.11627912521362305 -0.23790651559829712 0.05426359176635742
0.11627912521362305 -0.23607975244522095 0.10077524185180664
0.11627912521362305 -0.22820976376533508 0.11627912521362305
0.11627912521362305 -0.2247847467660904 0.1317828893661499
0.11627912521362305 -0.22122614085674286 0.1472867727279663
0.11627912521362305 -0.20931334793567657 0.8294574022293091
0.11627912521362305 -0.21097880601882935 0.8449612855911255
0.11627912521362305 -0.21198418736457825 0.8604651689529419
0.11627912521362305 -0.21230997145175934 0.8759689331054688
0.11627912521362305 -0.21226690709590912 0.8914728164672852
0.11627912521362305 -0.2115747481584549 0.9069766998291016
0.11627912521362305 -0.21087433397769928 0.922480583190918
0.11627912521362305 -0.21035254001617432 0.9379844665527344
0.11627912521362305 -0.20853377878665924 0.06976747512817383
0.11627912521362305 -0.20406478643417358 0.16279065608978271
0.11627913266420364 -0.20925089716911316 0.8294574618339539
0.11627912521362305 -0.20242857933044434 0.8449612855911255
0.11627912521362305 -0.19630733132362366 0.8604651689529419
0.11627912521362305 -0.20259156823158264 0.9534883499145508
0.11627912521362305 -0.18574532866477966 0.08527135848999023
0.11627912521362305 -0.18990100920200348 0.8604651689529419
0.11627912521362305 -0.18350298702716827 0.9534883499145508
0.11627912521362305 -0.16469770669937134 0.10077524185180664
0.11627912521362305 -0.16336160898208618 0.7984496355056763
0.11627912521362305 -0.16749954223632812 0.8139535188674927
0.11627912521362305 -0.17280498147010803 0.8294574022293091
0.11627912521362305 -0.17815934121608734 0.8449612259864807
0.11627912521362305 -0.1704799085855484 0.922480583190918
