0.07637883722782135 -0.02325582504272461 0.41085267066955566
0.07514046132564545 -0.02325582504272461 0.42635655403137207
0.07403948903083801 -0.02325582504272461 0.4418604075908661
0.07289309799671173 -0.02325582504272461 0.4573643207550049
0.07194851338863373 -0.02325582504272461 0.4728682041168213
0.07062562555074692 -0.02325582504272461 0.4883720874786377
0.07911089062690735 -0.02325582504272461 0.5348837375640869
0.0768715888261795 -0.02325582504272461 0.5503876209259033
0.07344527542591095 -0.02325582690536976 0.5658915042877197
0.07689495384693146 -0.007751941680908203 -0.1782945990562439
0.08390004187822342 -0.007751941680908203 -0.1627907156944275
0.08278912305831909 -0.007751941680908203 0.37984490394592285
0.0798800066113472 -0.007751941680908203 0.39534878730773926
0.07770541310310364 -0.007751941680908203 0.41085267066955566
0.07625358551740646 -0.007751941680908203 0.42635655403137207
0.07498875260353088 -0.007751941680908203 0.4418604373931885
0.07365640997886658 -0.007751941680908203 0.4573642909526825
0.07255761325359344 -0.007751941680908203 0.4728682041168213
0.07123976945877075 -0.007751941680908203 0.4883720576763153
0.07960996776819229 -0.007751941680908203 0.5348837375640869
0.07736481726169586 -0.007751941680908203 0.5503876209259033
0.07405168563127518 -0.007751941680908203 0.5658915042877197
0.07830052077770233 0.007751941680908203 -0.1782945990562439
0.07679963856935501 0.007751941680908203 -0.1627907156944275
0.08306783437728882 0.007751941680908203 0.37984490394592285
0.08016274869441986 0.007751941680908203 0.39534878730773926
0.07797130942344666 0.007751941680908203 0.41085267066955566
0.07649656385183334 0.007751941680908203 0.42635655403137207
0.07517999410629272 0.00775194214656949 0.4418604373931885
0.07374580204486847 0.00775194214656949 0.4573643207550049
0.07249383628368378 0.007751941680908203 0.4728682041168213
0.07094268500804901 0.007751941680908203 0.4883720576763153
0.07946300506591797 0.007751941680908203 0.5348837375640869
0.07718747854232788 0.007751941680908203 0.5503876209259033
0.07383511960506439 0.007751941680908203 0.5658915042877197
0.08101242780685425 0.02325582504272461 -0.1782945990562439
0.0757473036646843 0.02325582504272461 -0.1627907156944275
0.08287545293569565 0.02325582504272461 0.364341139793396
0.08025838434696198 0.02325582504272461 0.37984490394592285
0.07807867228984833 0.02325582504272461 0.39534878730773926
0.07631862163543701 0.02325582504272461 0.41085267066955566
0.07507428526878357 0.02325582504272461 0.4263565242290497
0.07387545704841614 0.02325582504272461 0.4418604373931885
0.07256211340427399 0.02325582504272461 0.45736435055732727
0.07126890122890472 0.02325582504272461 0.4728682041168213
0.08206242322921753 0.02325582504272461 0.5193798542022705
0.07884999364614487 0.02325582504272461 0.5348837375640869
0.07621996104717255 0.02325582504272461 0.5503876209259033
0.07216383516788483 0.02325582504272461 0.5658915042877197
0.08271822333335876 0.038759708404541016 -0.1782945990562439
0.0785842016339302 0.038759708404541016 -0.1627907156944275
0.08308367431163788 0.038759708404541016 0.3333333730697632
0.080042764544487 0.038759708404541016 0.3488372564315796
0.07772833108901978 0.038759708404541016 0.364341139793396
0.07601794600486755 0.038759708404541016 0.37984490394592285
0.07448150962591171 0.038759708404541016 0.39534878730773926
0.0731859877705574 0.038759708404541016 0.41085267066955566
0.0723189041018486 0.038759708404541016 0.42635655403137207
0.0714293122291565 0.038759708404541016 0.4418604373931885
0.07026989758014679 0.038759708404541016 0.45736435055732727
0.08520080894231796 0.038759708404541016 0.5038759708404541
0.07961098849773407 0.038759708404541016 0.5193798542022705
0.07766830921173096 0.038759708404541016 0.5348837375640869
0.07448574900627136 0.038759708404541016 0.5503876209259033
0.08458899706602097 0.05426359176635742 -0.1782945990562439
0.07549446076154709 0.05426359176635742 -0.1627907156944275
0.07536505162715912 0.05426359176635742 -0.14728683233261108
0.08452778309583664 0.05426359176635742 0.24031007289886475
0.08314808458089828 0.05426359176635742 0.25581395626068115
0.08185018599033356 0.05426359176635742 0.27131783962249756
0.08020149171352386 0.05426359176635742 0.28682172298431396
0.07821567356586456 0.05426359176635742 0.30232560634613037
0.07679308205842972 0.05426359176635742 0.3178294897079468
0.07516686618328094 0.05426359176635742 0.3333333730697632
0.07333029061555862 0.05426358804106712 0.3488372564315796
0.07179538160562515 0.05426358804106712 0.364341139793396
0.07057502865791321 0.05426359176635742 0.37984490394592285
0.08420777320861816 0.05426359176635742 0.4883720874786377
0.07997487485408783 0.05426359176635742 0.5038759708404541
0.07817504554986954 0.05426359176635742 0.5193798542022705
0.0756494551897049 0.05426359176635742 0.5348837375640869
0.0698469802737236 0.05426358804106712 0.5503876209259033
0.0802735909819603 0.06976747512817383 -0.1627907156944275
0.07291929423809052 0.06976747512817383 -0.13178294897079468
0.08411894738674164 0.06976747512817383 0.17829453945159912
0.08079926669597626 0.06976747512817383 0.19379842281341553
0.07863067835569382 0.06976747512817383 0.20930230617523193
0.07639305293560028 0.06976747512817383 0.22480618953704834
0.07452632486820221 0.06976747512817383 0.24031007289886475
0.07343136519193649 0.06976747512817383 0.25581395626068115
0.0724591463804245 0.06976747512817383 0.27131783962249756
0.07127370685338974 0.06976747512817383 0.28682172298431396
0.0698511153459549 0.06976747512817383 0.30232560634613037
0.08170263469219208 0.06976747512817383 0.4728682041168213
0.07983839511871338 0.06976747512817383 0.4883720874786377
0.07805225998163223 0.06976747512817383 0.5038759708404541
0.07544969767332077 0.06976747512817383 0.5193798542022705
0.06984574347734451 0.06976747512817383 0.5348837375640869
0.08383443206548691 0.08527135848999023 -0.1627907156944275
0.07194976508617401 0.08527135848999023 -0.14728683233261108
0.07348158955574036 0.08527135848999023 -0.11627906560897827
0.08169491589069366 0.08527135848999023 0.1472867727279663
0.07759934663772583 0.08527135848999023 0.16279065608978271
0.07453205436468124 0.08527135848999023 0.17829453945159912
0.07181771099567413 0.08527135848999023 0.19379842281341553
0.07031209766864777 0.08527135848999023 0.20930230617523193
0.08286382257938385 0.08527135848999023 0.42635655403137207
0.08145797252655029 0.08527135848999023 0.4418604373931885
0.0801587626338005 0.08527135848999023 0.4573643207550049
0.07883436232805252 0.08527135848999023 0.4728682041168213
0.0772084966301918 0.08527135848999023 0.4883720874786377
0.0729033574461937 0.08527135848999023 0.5038759708404541
0.07966163754463196 0.10077524185180664 -0.14728683233261108
0.07877971231937408 0.10077524185180664 -0.10077518224716187
0.0827188640832901 0.10077524185180664 0.11627912521362305
0.0778387263417244 0.10077524185180664 0.1317828893661499
0.07361423969268799 0.10077524185180664 0.1472867727279663
0.07009425014257431 0.10077524185180664 0.16279065608978271
0.08417282998561859 0.10077524185180664 0.3488372564315796
0.08263321220874786 0.10077524185180664 0.364341139793396
0.08173368871212006 0.10077524185180664 0.37984490394592285
0.08085432648658752 0.10077524185180664 0.39534878730773926
0.07990755140781403 0.10077524185180664 0.41085267066955566
0.07880843430757523 0.10077524185180664 0.42635655403137207
0.07780709862709045 0.10077524185180664 0.4418604373931885
0.07592321932315826 0.10077524185180664 0.4573643207550049
0.07239127159118652 0.10077524930238724 0.4728682041168213
0.07727387547492981 0.11627912521362305 -0.13178294897079468
0.07531895488500595 0.11627912521362305 -0.02325582504272461
0.0810474306344986 0.11627912521362305 -0.007751941680908203
0.0845331996679306 0.11627912521362305 0.007751941680908203
0.08189012110233307 0.11627912521362305 0.08527135848999023
0.07745283842086792 0.11627912521362305 0.10077524185180664
0.0733163133263588 0.11627912521362305 0.11627912521362305
0.08468964695930481 0.11627912521362305 0.28682172298431396
0.08280280232429504 0.11627912521362305 0.30232560634613037
0.08113782107830048 0.11627912521362305 0.3178294897079468
0.07961509376764297 0.11627912521362305 0.3333333730697632
0.07833487540483475 0.11627912521362305 0.3488372564315796
0.07734410464763641 0.11627912521362305 0.364341139793396
0.07666514813899994 0.11627912521362305 0.37984490394592285
0.07556183636188507 0.11627912521362305 0.39534878730773926
0.07361838966608047 0.11627911776304245 0.41085267066955566
0.07110761106014252 0.11627912521362305 0.4263565242290497
0.0837165117263794 0.1317828893661499 -0.11627906560897827
0.07305833697319031 0.1317828893661499 0.02325582690536976
0.07495538890361786 0.1317828893661499 0.038759708404541016
0.074849434196949 0.1317828893661499 0.05426359176635742
0.0733063817024231 0.1317828893661499 0.06976747512817383
0.07011406868696213 0.1317828893661499 0.08527135848999023
0.0848940908908844 0.1317828893661499 0.22480618953704834
0.08260071277618408 0.1317828893661499 0.24031007289886475
0.08052977919578552 0.1317828893661499 0.25581395626068115
0.07847190648317337 0.1317828893661499 0.27131783962249756
0.07664966583251953 0.1317828893661499 0.28682172298431396
0.07491202652454376 0.1317828893661499 0.30232560634613037
0.07262375205755234 0.1317828893661499 0.3178294897079468
0.07054229080677032 0.1317828893661499 0.3333333730697632
0.08374261856079102 0.1472867727279663 0.16279065608978271
0.0813494622707367 0.1472867727279663 0.17829453945159912
0.07838621735572815 0.1472867727279663 0.19379842281341553
0.07609204947948456 0.1472867727279663 0.20930230617523193
0.0736207664012909 0.1472867727279663 0.22480618953704834
0.07131925225257874 0.1472867727279663 0.24031007289886475
0.07230807840824127 0.16279065608978271 -0.007751941680908203
0.07750917226076126 0.16279065608978271 0.007751941680908203
0.07954141497612 0.16279065608978271 0.02325582504272461
0.08010274916887283 0.16279065608978271 0.038759708404541016
0.08008460700511932 0.16279065608978271 0.05426359176635742
0.07907255738973618 0.16279065608978271 0.06976747512817383
0.07767972350120544 0.16279065608978271 0.08527135848999023
0.07552579790353775 0.16279065608978271 0.10077524930238724
0.07308172434568405 0.16279065608978271 0.11627912521362305
0.07070696353912354 0.16279065608978271 0.1317828893661499
0.10011312365531921 -0.13178294897079468 0.08527135848999023
0.09684431552886963 -0.13178294897079468 0.10077524185180664
0.0929119810461998 -0.13178294897079468 0.11627912521362305
0.08933842927217484 -0.13178294897079468 0.1317828893661499
0.08644229918718338 -0.13178294897079468 0.1472867727279663
0.10027197748422623 -0.11627906560897827 0.1472867727279663
0.09795238077640533 -0.11627906560897827 0.16279065608978271
0.09586942195892334 -0.11627906560897827 0.17829453945159912
0.09360459446907043 -0.11627906560897827 0.19379842281341553
0.09094248712062836 -0.11627906560897827 0.20930230617523193
0.08809546381235123 -0.11627907305955887 0.22480618953704834
0.08547093719244003 -0.11627905815839767 0.24031007289886475
0.09571803361177444 -0.10077518224716187 -0.11627906560897827
0.09272223711013794 -0.10077518224716187 -0.007751941680908203
0.09742559492588043 -0.10077518224716187 0.007751941680908203
0.09749268740415573 -0.10077518224716187 0.02325582504272461
0.09374396502971649 -0.10077518224716187 0.038759708404541016
0.08940734714269638 -0.10077518969774246 0.05426359176635742
0.08541417121887207 -0.10077518224716187 0.06976747512817383
0.09992554038763046 -0.10077518224716187 0.20930230617523193
0.09795533120632172 -0.10077518224716187 0.22480618953704834
0.09646053612232208 -0.10077518224716187 0.24031007289886475
0.09461487084627151 -0.10077518224716187 0.25581395626068115
0.09242796897888184 -0.10077518224716187 0.27131783962249756
0.09008343517780304 -0.10077518224716187 0.28682172298431396
0.08762729167938232 -0.10077518224716187 0.30232560634613037
0.08822531998157501 -0.08527129888534546 -0.08527129888534546
0.0957115888595581 -0.08527129888534546 0.08527135848999023
0.09215346723794937 -0.08527129888534546 0.10077524185180664
0.0897490531206131 -0.08527129888534546 0.11627912521362305
0.08737863600254059 -0.08527129888534546 0.1317828893661499
0.08560127019882202 -0.08527129888534546 0.14728675782680511
0.09836050868034363 -0.08527129888534546 0.27131783962249756
0.09675119817256927 -0.08527129888534546 0.28682172298431396
0.09527462720870972 -0.08527129888534546 0.30232560634613037
0.09348758310079575 -0.08527129888534546 0.3178294897079468
0.09156998991966248 -0.08527129888534546 0.3333333730697632
0.0898723378777504 -0.08527129888534546 0.3488372564315796
0.08805251121520996 -0.08527129888534546 0.364341139793396
0.08635114878416061 -0.08527129888534546 0.37984490394592285
0.09979604184627533 -0.06976741552352905 -0.1627907156944275
0.09333564341068268 -0.06976741552352905 -0.11627906560897827
0.09753908216953278 -0.06976741552352905 0.1317828893661499
0.09477585554122925 -0.06976741552352905 0.1472867727279663
0.09251690655946732 -0.06976741552352905 0.16279065608978271
0.09034907817840576 -0.06976741552352905 0.17829453945159912
0.08814196288585663 -0.06976741552352905 0.19379842281341553
0.08626610785722733 -0.06976741552352905 0.20930230617523193
0.09727360308170319 -0.06976741552352905 0.3178294897079468
0.09568490833044052 -0.06976741552352905 0.3333333730697632
0.09461449086666107 -0.06976741552352905 0.3488372564315796
0.09353578090667725 -0.06976741552352905 0.364341139793396
0.0924077033996582 -0.06976741552352905 0.37984490394592285
0.09127194434404373 -0.06976741552352905 0.39534878730773926
0.09033925831317902 -0.06976741552352905 0.41085267066955566
0.0892646312713623 -0.06976741552352905 0.42635655403137207
0.08776241540908813 -0.06976741552352905 0.4418604373931885
0.08556438237428665 -0.06976740807294846 0.4573643207550049
0.09729388356208801 -0.05426359176635742 -0.1782945990562439
0.08897072821855545 -0.05426359176635742 -0.13178294897079468
0.09972378611564636 -0.05426359176635742 0.16279065608978271
0.09702681750059128 -0.05426359176635742 0.17829453945159912
0.09439080208539963 -0.05426359176635742 0.19379842281341553
0.0921013280749321 -0.05426359176635742 0.20930230617523193
0.0899122878909111 -0.05426359176635742 0.22480618953704834
0.08809340000152588 -0.05426359176635742 0.24031007289886475
0.0867900624871254 -0.05426359176635742 0.25581395626068115
0.08565419167280197 -0.05426359176635742 0.27131783962249756
0.09889312088489532 -0.05426359176635742 0.3488372564315796
0.09587529301643372 -0.05426359176635742 0.364341139793396
0.0947657972574234 -0.05426359176635742 0.37984490394592285
0.09400670230388641 -0.05426359176635742 0.39534878730773926
0.09351173043251038 -0.05426359176635742 0.41085267066955566
0.09295446425676346 -0.05426359176635742 0.42635655403137207
0.09213866293430328 -0.05426359176635742 0.4418604373931885
0.0908299908041954 -0.05426359176635742 0.4573643207550049
0.08912080526351929 -0.05426359176635742 0.4728681743144989
0.08592475950717926 -0.05426359176635742 0.4883720874786377
0.0989924967288971 -0.038759708404541016 -0.19379842281341553
0.09033677726984024 -0.038759708404541016 -0.14728683233261108
0.09939032047986984 -0.038759708404541016 0.19379842281341553
0.09668993949890137 -0.038759708404541016 0.20930230617523193
0.09429138898849487 -0.038759708404541016 0.22480618953704834
0.09243937581777573 -0.038759708404541016 0.24031007289886475
0.09112031757831573 -0.038759708404541016 0.25581395626068115
0.08995528519153595 -0.038759708404541016 0.27131783962249756
0.08889559656381607 -0.038759708404541016 0.28682172298431396
0.08761273324489594 -0.038759708404541016 0.30232560634613037
0.08638577908277512 -0.038759708404541016 0.3178294599056244
0.096520334482193 -0.038759708404541016 0.39534878730773926
0.09520389884710312 -0.038759708404541016 0.41085267066955566
0.09451286494731903 -0.038759708404541016 0.42635655403137207
0.09405823051929474 -0.038759708404541016 0.4418604373931885
0.09334371984004974 -0.038759708404541016 0.4573643207550049
0.09197745472192764 -0.038759708404541016 0.4728682041168213
0.08996936678886414 -0.038759708404541016 0.4883720874786377
0.08668104559183121 -0.038759708404541016 0.5038759708404541
0.09313806146383286 -0.02325582504272461 -0.19379842281341553
0.093926340341568 -0.02325582504272461 -0.1627907156944275
0.10075382143259048 -0.02325582504272461 0.20930230617523193
0.09789282828569412 -0.02325582504272461 0.22480618953704834
0.09576326608657837 -0.02325582504272461 0.24031007289886475
0.09425464272499084 -0.02325582504272461 0.25581395626068115
0.09297852218151093 -0.02325582504272461 0.27131783962249756
0.09184502065181732 -0.02325582504272461 0.28682172298431396
0.09042125940322876 -0.02325582504272461 0.30232560634613037
0.08906929194927216 -0.02325582504272461 0.3178294897079468
0.08771038055419922 -0.02325582504272461 0.3333333730697632
0.08613785356283188 -0.02325582690536976 0.3488372564315796
0.09900829195976257 -0.02325582504272461 0.41085267066955566
0.09613803029060364 -0.02325582504272461 0.42635655403137207
0.09511260688304901 -0.02325582504272461 0.4418604373931885
0.09421665966510773 -0.02325582504272461 0.4573643207550049
0.09332367777824402 -0.02325582504272461 0.4728682041168213
0.09146326780319214 -0.02325582504272461 0.4883720874786377
0.08909520506858826 -0.02325582504272461 0.5038759708404541
0.08531323075294495 -0.02325582504272461 0.5193798542022705
0.09978460520505905 -0.007751941680908203 -0.20930230617523193
0.08957209438085556 -0.007751941680908203 -0.19379842281341553
0.09847386926412582 -0.007751941680908203 -0.1782945990562439
0.10054394602775574 -0.007751941680908203 0.22480618953704834
0.09806756675243378 -0.007751941680908203 0.24031007289886475
0.09626852720975876 -0.007751941680908203 0.25581395626068115
0.09476420283317566 -0.007751941680908203 0.27131783962249756
0.09345687925815582 -0.007751941680908203 0.28682172298431396
0.09193797409534454 -0.007751941680908203 0.30232560634613037
0.09050191938877106 -0.007751941680908203 0.3178294897079468
0.08904179185628891 -0.007751941680908203 0.3333333730697632
0.0875859335064888 -0.007751941680908203 0.348837286233902
0.08581594377756119 -0.007751941680908203 0.3643411695957184
0.09776337444782257 -0.007751941680908203 0.42635655403137207
0.09582065045833588 -0.007751941680908203 0.4418604373931885
0.09460341930389404 -0.007751941680908203 0.4573643207550049
0.09371180832386017 -0.007751941680908203 0.4728682041168213
0.09206818044185638 -0.007751941680908203 0.4883721172809601
0.08977861702442169 -0.007751941680908203 0.5038759708404541
0.08611247688531876 -0.007751941215246916 0.5193798542022705
0.09911041706800461 0.007751941680908203 -0.20930230617523193
0.0890217274427414 0.007751941215246916 -0.19379842281341553
0.09254977852106094 0.007751941680908203 -0.1782945990562439
0.09847565740346909 0.007751941680908203 0.24031007289886475
0.09665039926767349 0.007751941680908203 0.25581395626068115
0.09513518214225769 0.007751941680908203 0.27131783962249756
0.09378373622894287 0.007751941680908203 0.28682172298431396
0.09226681292057037 0.007751941680908203 0.30232560634613037
0.09085789322853088 0.007751941680908203 0.3178294897079468
0.08938584476709366 0.007751941680908203 0.3333333730697632
0.08786501735448837 0.007751941680908203 0.3488372564315796
0.08604387193918228 0.007751941680908203 0.364341139793396
0.09762869775295258 0.007751941680908203 0.42635655403137207
0.09565304219722748 0.007751941680908203 0.4418604373931885
0.09444992244243622 0.007751941680908203 0.4573643207550049
0.09360812604427338 0.007751941680908203 0.4728682041168213
0.0919109433889389 0.007751941680908203 0.4883720874786377
0.08965571224689484 0.007751941680908203 0.5038759708404541
0.08576291054487228 0.007751941680908203 0.5193798542022705
0.10020361095666885 0.02325582504272461 -0.20930230617523193
0.09392495453357697 0.02325582504272461 -0.19379842281341553
0.09169767051935196 0.02325582504272461 -0.1782945990562439
0.10055163502693176 0.02325582504272461 0.20930230617523193
0.09752953797578812 0.02325582504272461 0.22480618953704834
0.09542278945446014 0.02325582504272461 0.24031007289886475
0.09405502676963806 0.02325582504272461 0.25581395626068115
0.09295409917831421 0.02325582504272461 0.27131783962249756
0.09188207983970642 0.02325582504272461 0.28682172298431396
0.0905662328004837 0.02325582504272461 0.30232560634613037
0.08934465050697327 0.02325582504272461 0.3178294897079468
0.08794529736042023 0.02325582504272461 0.3333333432674408
0.0860934928059578 0.02325582690536976 0.3488372564315796
0.09817281365394592 0.02325582504272461 0.41085267066955566
0.0956866443157196 0.02325582504272461 0.42635655403137207
0.09471689164638519 0.02325582504272461 0.4418604373931885
0.09393276274204254 0.02325582504272461 0.4573643207550049
0.09292826056480408 0.02325582504272461 0.4728682041168213
0.09108540415763855 0.02325582504272461 0.4883720874786377
0.0882125124335289 0.02325582504272461 0.5038759708404541
0.09661440551280975 0.038759708404541016 -0.19379842281341553
0.09403117001056671 0.038759708404541016 -0.1782945990562439
0.1003342866897583 0.038759708404541016 0.17829453945159912
0.09723049402236938 0.038759708404541016 0.19379842281341553
0.09458470344543457 0.038759708404541016 0.20930230617523193
0.09230400621891022 0.038759708404541016 0.22480618953704834
0.09073415398597717 0.038759708404541016 0.24031007289886475
0.0898430198431015 0.038759708404541016 0.25581395626068115
0.08908867090940475 0.038759708404541016 0.27131783962249756
0.08817719668149948 0.038759708404541016 0.28682172298431396
0.08696374297142029 0.038759708404541016 0.30232560634613037
0.08577968925237656 0.038759712129831314 0.3178294897079468
0.10074477642774582 0.038759708404541016 0.37984490394592285
0.09634427726268768 0.038759708404541016 0.39534878730773926
0.09494780004024506 0.038759708404541016 0.41085267066955566
0.09422776103019714 0.038759708404541016 0.42635655403137207
0.09379515051841736 0.038759708404541016 0.4418604373931885
0.09281058609485626 0.038759708404541016 0.4573643207550049
0.09148038923740387 0.038759708404541016 0.4728681743144989
0.08926256000995636 0.038759708404541016 0.4883720874786377
0.09836603701114655 0.05426359176635742 -0.19379842281341553
0.09048275649547577 0.05426359176635742 -0.1627907156944275
0.09794310480356216 0.05426359176635742 0.1472867727279663
0.09462723135948181 0.05426359176635742 0.16279065608978271
0.09212592244148254 0.05426359176635742 0.17829453945159912
0.0897107645869255 0.05426359176635742 0.19379842281341553
0.0879286602139473 0.05426359176635742 0.20930230617523193
0.0862087830901146 0.05426359176635742 0.22480618953704834
0.1001071110367775 0.05426359176635742 0.3488372564315796
0.0964299738407135 0.05426359176635742 0.364341139793396
0.09501313418149948 0.05426359176635742 0.37984490394592285
0.09414612501859665 0.05426359176635742 0.39534878730773926
0.0935976654291153 0.05426359176635742 0.41085267066955566
0.09287557005882263 0.05426359176635742 0.42635655403137207
0.09211093187332153 0.05426359176635742 0.4418604373931885
0.09093645215034485 0.05426359549164772 0.4573643207550049
0.08843962848186493 0.05426359176635742 0.4728682041168213
0.09339183568954468 0.06976747512817383 -0.1782945990562439
0.0877361074090004 0.06976747512817383 -0.14728683233261108
0.09714225679636002 0.06976747512817383 0.11627912521362305
0.09297482669353485 0.06976747512817383 0.1317828893661499
0.08954401314258575 0.06976747512817383 0.1472867727279663
0.08670534193515778 0.06976747512817383 0.16279064118862152
0.09944702684879303 0.06976747512817383 0.3178294897079468
0.09652289748191833 0.06976747512817383 0.3333333730697632
0.09509944170713425 0.06976747512817383 0.3488372564315796
0.0939396321773529 0.06976747512817383 0.364341139793396
0.09291933476924896 0.06976747512817383 0.37984490394592285
0.09195882081985474 0.06976747512817383 0.39534878730773926
0.09117616713047028 0.06976747512817383 0.41085267066955566
0.09004425257444382 0.06976747512817383 0.4263565242290497
0.08818639069795609 0.06976747512817383 0.4418604373931885
0.08555138856172562 0.06976747512817383 0.4573643207550049
0.09702059626579285 0.08527135848999023 -0.1782945990562439
0.08850247412919998 0.08527135848999023 -0.13178294897079468
0.09785966575145721 0.08527135848999023 0.08527135848999023
0.09370474517345428 0.08527135848999023 0.10077524185180664
0.08981426805257797 0.08527135848999023 0.11627912521362305
0.08617307245731354 0.08527135848999023 0.1317828893661499
0.09838046133518219 0.08527135848999023 0.28682172298431396
0.09652557969093323 0.08527135848999023 0.30232560634613037
0.09478062391281128 0.08527135848999023 0.3178294897079468
0.09308721125125885 0.08527135848999023 0.3333333730697632
0.09161373972892761 0.08527135848999023 0.3488372564315796
0.09017720073461533 0.08527135848999023 0.364341139793396
0.08863964676856995 0.08527135848999023 0.37984490394592285
0.0868096575140953 0.08527135848999023 0.39534878730773926
0.08534327149391174 0.08527135848999023 0.41085267066955566
0.0924612432718277 0.10077524185180664 -0.1627907156944275
0.09574029594659805 0.10077524185180664 -0.11627906560897827
0.09999596327543259 0.10077524185180664 -0.007751941680908203
0.09822172671556473 0.10077524185180664 0.007751941680908203
0.09871239215135574 0.10077524185180664 0.02325582504272461
0.09797177463769913 0.10077524185180664 0.038759708404541016
0.09617482125759125 0.10077524185180664 0.05426359176635742
0.09389983117580414 0.10077524185180664 0.06976747512817383
0.09046037495136261 0.10077524185180664 0.08527135848999023
0.08702307194471359 0.10077524185180664 0.10077524185180664
0.09875147044658661 0.10077524185180664 0.24031007289886475
0.09682036936283112 0.10077524185180664 0.25581395626068115
0.09510249644517899 0.10077524185180664 0.27131783962249756
0.09315840154886246 0.10077524185180664 0.28682172298431396
0.09133106470108032 0.10077524185180664 0.30232560634613037
0.08910700678825378 0.10077524185180664 0.3178294897079468
0.08639130741357803 0.10077524185180664 0.3333333730697632
0.09214329719543457 0.11627912521362305 -0.14728683233261108
0.08744354546070099 0.11627912521362305 0.02325582504272461
0.08815501630306244 0.11627912521362305 0.038759708404541016
0.08742642402648926 0.11627912521362305 0.05426359176635742
0.08586899191141129 0.11627912521362305 0.06976747512817383
0.09906060993671417 0.11627912521362305 0.19379842281341553
0.09659670293331146 0.11627912521362305 0.20930230617523193
0.09416371583938599 0.11627912521362305 0.22480618953704834
0.09216424822807312 0.11627912521362305 0.24031007289886475
0.09007348865270615 0.11627912521362305 0.25581395626068115
0.0873597264289856 0.11627913266420364 0.27131783962249756
0.09871803969144821 0.1317828893661499 0.1472867727279663
0.09598146378993988 0.1317828893661499 0.16279065608978271
0.09336113929748535 0.1317828893661499 0.17829453945159912
0.0907251387834549 0.1317828893661499 0.19379842281341553
0.08750583976507187 0.1317828893661499 0.20930230617523193
0.10034254193305969 0.1472867727279663 0.038759708404541016
0.09939071536064148 0.1472867727279663 0.05426359176635742
0.09815087914466858 0.1472867727279663 0.06976747512817383
0.09665260463953018 0.1472867727279663 0.08527135848999023
0.09447449445724487 0.1472867727279663 0.10077524185180664
0.09189744293689728 0.1472867727279663 0.11627912521362305
0.08902574330568314 0.1472867727279663 0.1317828893661499
0.08603847771883011 0.1472867727279663 0.1472867727279663
0.10188423097133636 -0.13178294897079468 -0.02325582504272461
0.11238009482622147 -0.13178294897079468 -0.007751941680908203
0.11478107422590256 -0.13178294897079468 0.007751941680908203
0.11388607323169708 -0.13178294897079468 0.02325582504272461
0.11153443157672882 -0.13178294897079468 0.038759708404541016
0.10802076756954193 -0.13178294897079468 0.05426359176635742
0.1034914180636406 -0.13178294897079468 0.06976747512817383
0.11583790928125381 -0.11627906560897827 0.08527135848999023
0.11185585707426071 -0.11627906560897827 0.10077524185180664
0.10755062103271484 -0.11627906560897827 0.11627912521362305
0.10351883620023727 -0.11627907305955887 0.1317828893661499
0.11414273083209991 -0.10077518224716187 0.1317828893661499
0.11132320761680603 -0.10077518224716187 0.1472867727279663
0.10864280164241791 -0.10077518224716187 0.16279065608978271
0.10620656609535217 -0.10077518224716187 0.17829453945159912
0.10306426882743835 -0.10077518224716187 0.19379842281341553
0.1077602282166481 -0.08527129888534546 -0.14728683233261108
0.11155829578638077 -0.08527129888534546 0.038759708404541016
0.10593663901090622 -0.08527129888534546 0.05426359176635742
0.10114726424217224 -0.08527129888534546 0.06976747512817383
0.11558453738689423 -0.08527129888534546 0.16279065608978271
0.11247051507234573 -0.08527129888534546 0.17829453945159912
0.11048249155282974 -0.08527129888534546 0.19379842281341553
0.10836844891309738 -0.08527129888534546 0.20930230617523193
0.10659121721982956 -0.08527129888534546 0.22480618953704834
0.10416057705879211 -0.08527129888534546 0.24031007289886475
0.10135175287723541 -0.08527129888534546 0.25581395626068115
0.11605079472064972 -0.06976741552352905 -0.1782945990562439
0.11571561545133591 -0.06976741552352905 -0.13178294897079468
0.11112375557422638 -0.06976741552352905 0.06976747512817383
0.10648732632398605 -0.06976741552352905 0.08527135848999023
0.10320106893777847 -0.06976741552352905 0.10077524185180664
0.10091742128133774 -0.06976741552352905 0.11627912521362305
0.11204288899898529 -0.06976741552352905 0.20930230617523193
0.1103365421295166 -0.06976741552352905 0.22480618953704834
0.1089467704296112 -0.06976741552352905 0.24031007289886475
0.10732679814100266 -0.06976741552352905 0.25581395626068115
0.10575041174888611 -0.06976741552352905 0.27131783962249756
0.10355791449546814 -0.06976741552352905 0.28682172298431396
0.10124760866165161 -0.06976741552352905 0.30232560634613037
0.11175981163978577 -0.05426359176635742 -0.19379842281341553
0.10705701261758804 -0.05426359176635742 -0.14728683233261108
0.1145896166563034 -0.05426359176635742 0.08527135848999023
0.11053095757961273 -0.05426359176635742 0.10077524185180664
0.10742150247097015 -0.05426359176635742 0.11627912521362305
0.10438507050275803 -0.05426359176635742 0.1317828893661499
0.10199543833732605 -0.05426359176635742 0.1472867727279663
0.11483482271432877 -0.05426359176635742 0.22480618953704834
0.11123988777399063 -0.05426359176635742 0.24031007289886475
0.10946148633956909 -0.05426359176635742 0.25581395626068115
0.10828649252653122 -0.05426359176635742 0.27131783962249756
0.10706639289855957 -0.05426359176635742 0.28682172298431396
0.10592591017484665 -0.05426359176635742 0.30232560634613037
0.10427436977624893 -0.05426359176635742 0.3178294897079468
0.10206019878387451 -0.05426359176635742 0.3333333730697632
0.11226977407932281 -0.038759708404541016 -0.20930230617523193
0.10579710453748703 -0.038759708404541016 -0.1627907156944275
0.11610698699951172 -0.038759708404541016 0.10077524185180664
0.11215546727180481 -0.038759708404541016 0.11627912521362305
0.1087392121553421 -0.038759708404541016 0.1317828893661499
0.106011301279068 -0.038759708404541016 0.1472867727279663
0.10373123735189438 -0.038759708404541016 0.16279065608978271
0.10184384882450104 -0.038759708404541016 0.17829453945159912
0.11201192438602448 -0.038759708404541016 0.25581395626068115
0.10948121547698975 -0.038759708404541016 0.27131783962249756
0.1081339567899704 -0.038759708404541016 0.28682172298431396
0.10729994624853134 -0.038759708404541016 0.30232560634613037
0.10634096711874008 -0.038759708404541016 0.3178294897079468
0.10555052757263184 -0.038759708404541016 0.3333333730697632
0.10424143075942993 -0.038759708404541016 0.3488372564315796
0.10239658504724503 -0.038759712129831314 0.364341139793396
0.10093484818935394 -0.03875970467925072 0.37984490394592285
0.10683243721723557 -0.02325582504272461 -0.20930230617523193
0.10740619897842407 -0.02325582504272461 -0.1782945990562439
0.11613700538873672 -0.02325582504272461 0.11627912521362305
0.11219308525323868 -0.02325582504272461 0.1317828893661499
0.10921789705753326 -0.02325582504272461 0.1472867727279663
0.10678765177726746 -0.02325582504272461 0.16279065608978271
0.10474494099617004 -0.02325582504272461 0.17829453945159912
0.1026550680398941 -0.02325582504272461 0.19379842281341553
0.11183460056781769 -0.02325582504272461 0.27131783962249756
0.10883747786283493 -0.02325582504272461 0.28682172298431396
0.10758236795663834 -0.02325582504272461 0.30232560634613037
0.10675562918186188 -0.02325582504272461 0.3178294897079468
0.10610261559486389 -0.02325582504272461 0.3333333730697632
0.1055830717086792 -0.02325582504272461 0.3488372564315796
0.10461224615573883 -0.02325582504272461 0.364341139793396
0.10313312709331512 -0.02325582504272461 0.37984490394592285
0.101605623960495 -0.02325582504272461 0.39534878730773926
0.11278338730335236 -0.007751941680908203 -0.22480618953704834
0.11076575517654419 -0.007751941680908203 -0.19379842281341553
0.11484917998313904 -0.007751941680908203 0.1317828893661499
0.11151111125946045 -0.007751941680908203 0.1472867727279663
0.10880255699157715 -0.007751941680908203 0.16279065608978271
0.10666334629058838 -0.007751941680908203 0.17829453945159912
0.10446712374687195 -0.007751941680908203 0.19379842281341553
0.10252346843481064 -0.007751941680908203 0.20930230617523193
0.11581765115261078 -0.007751941680908203 0.27131783962249756
0.10932395607233047 -0.007751941680908203 0.28682172298431396
0.10762938857078552 -0.007751941680908203 0.30232560634613037
0.1067613810300827 -0.007751941680908203 0.3178294897079468
0.10612456500530243 -0.007751941680908203 0.3333333730697632
0.10574731230735779 -0.007751941680908203 0.3488372564315796
0.10515598952770233 -0.007751941680908203 0.3643411099910736
0.10399940609931946 -0.007751941680908203 0.37984490394592285
0.10246585309505463 -0.007751941680908203 0.39534878730773926
0.10121089220046997 -0.007751941680908203 0.41085270047187805
0.1124686598777771 0.007751941680908203 -0.22480618953704834
0.10616608709096909 0.007751941680908203 -0.19379842281341553
0.1152641773223877 0.007751941680908203 0.1317828893661499
0.1118374913930893 0.007751941680908203 0.1472867727279663
0.1090167686343193 0.007751941680908203 0.16279065608978271
0.10688698291778564 0.007751941680908203 0.17829453945159912
0.10475128889083862 0.007751941680908203 0.19379842281341553
0.10281400382518768 0.007751941680908203 0.20930230617523193
0.1009308472275734 0.007751941680908203 0.22480620443820953
0.1093209832906723 0.007751941680908203 0.28682172298431396
0.10759571194648743 0.00775194214656949 0.30232560634613037
0.10669870674610138 0.007751941680908203 0.3178294897079468
0.10605241358280182 0.007751941680908203 0.3333333730697632
0.10570672899484634 0.007751941680908203 0.3488372564315796
0.1051369309425354 0.007751941215246916 0.364341139793396
0.10397592186927795 0.007751941680908203 0.37984490394592285
0.10245576500892639 0.007751941215246916 0.39534878730773926
0.10120896250009537 0.007751941680908203 0.41085267066955566
0.11335925757884979 0.02325582504272461 -0.22480618953704834
0.10535383969545364 0.02325582504272461 -0.19379842281341553
0.11592492461204529 0.02325582504272461 0.11627912521362305
0.11206410825252533 0.02325582504272461 0.1317828893661499
0.10901793092489243 0.02325582504272461 0.1472867727279663
0.10649999976158142 0.02325582504272461 0.16279065608978271
0.10457058995962143 0.02325582504272461 0.17829453945159912
0.10258269309997559 0.02325582504272461 0.19379842281341553
0.11167415231466293 0.02325582504272461 0.27131783962249756
0.10868194699287415 0.02325582504272461 0.28682172298431396
0.10744652152061462 0.02325582504272461 0.30232560634613037
0.10648416727781296 0.02325582504272461 0.3178294897079468
0.10588695108890533 0.02325582504272461 0.3333333730697632
0.1054091602563858 0.02325582504272461 0.3488372564315796
0.10429110378026962 0.02325582504272461 0.364341139793396
0.10279714316129684 0.02325582504272461 0.37984490394592285
0.1013709232211113 0.02325582504272461 0.39534878730773926
0.11476552486419678 0.038759708404541016 -0.22480618953704834
0.10973760485649109 0.038759708404541016 -0.20930230617523193
0.10715436935424805 0.038759708404541016 -0.19379842281341553
0.11515622586011887 0.038759708404541016 0.10077524185180664
0.11068062484264374 0.038759708404541016 0.11627912521362305
0.10724838078022003 0.038759708404541016 0.1317828893661499
0.10460492968559265 0.038759708404541016 0.1472867727279663
0.1023196429014206 0.038759708404541016 0.16279065608978271
0.11196518689393997 0.038759708404541016 0.25581395626068115
0.10942365229129791 0.038759708404541016 0.27131783962249756
0.10798843950033188 0.038759708404541016 0.28682172298431396
0.10697488486766815 0.038759708404541016 0.30232560634613037
0.10612428933382034 0.038759708404541016 0.3178294897079468
0.10536709427833557 0.038759708404541016 0.3333333730697632
0.10388804972171783 0.038759708404541016 0.3488372564315796
0.1020529717206955 0.038759708404541016 0.364341139793396
0.11162854731082916 0.05426359176635742 -0.20930230617523193
0.11323054134845734 0.05426359176635742 -0.19379842281341553
0.10356239229440689 0.05426359176635742 -0.1782945990562439
0.11304289102554321 0.05426359176635742 0.08527135848999023
0.10841117054224014 0.05426359176635742 0.10077524185180664
0.10459934175014496 0.05426359549164772 0.11627913266420364
0.10146000981330872 0.05426359176635742 0.1317828744649887
0.11460938304662704 0.05426359176635742 0.22480618953704834
0.11127491295337677 0.05426359176635742 0.24031007289886475
0.10942861437797546 0.05426359176635742 0.25581395626068115
0.10824966430664062 0.05426359176635742 0.27131783962249756
0.10710146278142929 0.05426359176635742 0.28682172298431396
0.10619108378887177 0.05426359176635742 0.30232560634613037
0.10463466495275497 0.05426358804106712 0.3178294897079468
0.10229676961898804 0.05426359176635742 0.3333333730697632
0.11309860646724701 0.06976747512817383 -0.20930230617523193
0.10126861184835434 0.06976747512817383 -0.19379842281341553
0.1129179298877716 0.06976747512817383 -0.1782945990562439
0.10162709653377533 0.06976747512817383 -0.1627907156944275
0.11452250927686691 0.06976747512817383 0.05426359176635742
0.10985769331455231 0.06976747512817383 0.06976747512817383
0.10542245209217072 0.06976747512817383 0.08527135848999023
0.10158879309892654 0.06976747512817383 0.10077524185180664
0.11219114065170288 0.06976747512817383 0.20930230617523193
0.11034108698368073 0.06976747512817383 0.22480618953704834
0.10906447470188141 0.06976747512817383 0.24031007289886475
0.10777033865451813 0.06976747512817383 0.25581395626068115
0.1067098081111908 0.06976747512817383 0.27131783962249756
0.10506792366504669 0.06976747512817383 0.28682172298431396
0.10258276015520096 0.06976747512817383 0.30232560634613037
0.10931424796581268 0.08527135848999023 -0.19379842281341553
0.10388672351837158 0.08527135848999023 -0.14728683233261108
0.11443188041448593 0.08527135848999023 0.007751941680908203
0.11112354695796967 0.08527135848999023 0.02325582504272461
0.10811406373977661 0.08527135848999023 0.038759708404541016
0.1050642728805542 0.08527135848999023 0.05426359176635742
0.10214035958051682 0.08527135848999023 0.06976747512817383
0.11321662366390228 0.08527135848999023 0.17829453945159912
0.11093970388174057 0.08527135848999023 0.19379842281341553
0.10904151946306229 0.08527135848999023 0.20930230617523193
0.107699915766716 0.08527135848999023 0.22480618953704834
0.10632294416427612 0.08527135848999023 0.24031007289886475
0.10397128015756607 0.08527135848999023 0.25581395626068115
0.10145934671163559 0.08527135848999023 0.27131783962249756
0.10505220293998718 0.10077524185180664 -0.1782945990562439
0.11483148485422134 0.10077524185180664 -0.13178294897079468
0.10511597990989685 0.10077524185180664 -0.02325582504272461
0.11327487975358963 0.10077524185180664 0.1472867727279663
0.11095788329839706 0.10077524185180664 0.16279065608978271
0.10906621068716049 0.10077524185180664 0.17829453945159912
0.10742801427841187 0.10077524185180664 0.19379842281341553
0.1045464500784874 0.10077524185180664 0.20930232107639313
0.10157225281000137 0.10077524930238724 0.22480618953704834
0.10641416907310486 0.11627912521362305 -0.1627907156944275
0.11424675583839417 0.11627912521362305 0.10077524185180664
0.11205263435840607 0.11627912521362305 0.11627912521362305
0.10989828407764435 0.11627912521362305 0.1317828893661499
0.10824152827262878 0.11627912521362305 0.1472867727279663
0.10517649352550507 0.11627912521362305 0.16279065608978271
0.1019543707370758 0.11627913266420364 0.17829453945159912
0.10298260301351547 0.1317828893661499 -0.13178294897079468
0.11455465108156204 0.1317828893661499 0.038759708404541016
0.11292880028486252 0.1317828893661499 0.05426359176635742
0.11081930994987488 0.1317828893661499 0.06976747512817383
0.10874868929386139 0.1317828893661499 0.08527135848999023
0.10673363506793976 0.1317828893661499 0.10077524185180664
0.10350868105888367 0.1317828893661499 0.11627912521362305
0.10092338919639587 0.1317828893661499 0.1317828893661499
0.10749157518148422 0.1472867727279663 -0.06976741552352905
0.10860242694616318 0.1472867727279663 -0.05426359176635742
0.10633043944835663 0.1472867727279663 -0.038759708404541016
0.10376144200563431 0.1472867727279663 -0.02325582504272461
0.10277653485536575 0.1472867727279663 -0.007751941680908203
0.10215853899717331 0.1472867727279663 0.007751941215246916
0.1013946384191513 0.1472867727279663 0.02325582504272461
0.12964653968811035 -0.11627906560897827 0.038759708404541016
0.12585431337356567 -0.11627906560897827 0.05426359176635742
0.12074257433414459 -0.11627906560897827 0.06976747512817383
0.12764252722263336 -0.10077518224716187 0.08527135848999023
0.12321010231971741 -0.10077518224716187 0.10077524185180664
0.11816121637821198 -0.10077518224716187 0.11627913266420364
0.13102926313877106 -0.08527129888534546 -0.1627907156944275
0.13127842545509338 -0.08527129888534546 -0.038759708404541016
0.12630140781402588 -0.08527129888534546 -0.02325582504272461
0.12326519191265106 -0.08527129888534546 -0.007751941680908203
0.11988949775695801 -0.08527129888534546 0.007751941680908203
0.11701997369527817 -0.08527129888534546 0.02325582504272461
0.13034389913082123 -0.08527129888534546 0.10077524185180664
0.12581388652324677 -0.08527129888534546 0.11627912521362305
0.12278738617897034 -0.08527129888534546 0.1317828893661499
0.11909408867359161 -0.08527129888534546 0.1472867727279663
0.12827138602733612 -0.06976741552352905 0.02325582504272461
0.12256696820259094 -0.06976741552352905 0.038759708404541016
0.11719752103090286 -0.06976742297410965 0.05426359176635742
0.13158155977725983 -0.06976741552352905 0.11627912521362305
0.1263381391763687 -0.06976741552352905 0.1317828893661499
0.12379799038171768 -0.06976741552352905 0.1472867727279663
0.12202443182468414 -0.06976741552352905 0.16279065608978271
0.11911921203136444 -0.06976741552352905 0.17829453945159912
0.11649218946695328 -0.06976741552352905 0.19379842281341553
0.12617743015289307 -0.05426359176635742 -0.20930230617523193
0.12305387854576111 -0.05426359176635742 -0.1627907156944275
0.12535782158374786 -0.05426359176635742 0.05426359176635742
0.11941137164831161 -0.05426359176635742 0.06976747512817383
0.13127058744430542 -0.05426359176635742 0.1317828893661499
0.1259438395500183 -0.05426359176635742 0.1472867727279663
0.12372826039791107 -0.05426359176635742 0.16279065608978271
0.12256734073162079 -0.05426359176635742 0.17829453945159912
0.12094075232744217 -0.05426359176635742 0.19379842281341553
0.11800513416528702 -0.05426359176635742 0.20930232107639313
0.12623006105422974 -0.038759708404541016 -0.22480618953704834
0.13103912770748138 -0.038759708404541016 -0.19379842281341553
0.11853981018066406 -0.038759708404541016 -0.1782945990562439
0.12556791305541992 -0.038759708404541016 0.06976747512817383
0.12030214071273804 -0.038759708404541016 0.08527135103940964
0.12961748242378235 -0.038759708404541016 0.1472867727279663
0.1250026673078537 -0.038759708404541016 0.16279065608978271
0.12327515333890915 -0.038759708404541016 0.17829453945159912
0.12223124504089355 -0.038759708404541016 0.19379842281341553
0.12098342925310135 -0.038759708404541016 0.20930232107639313
0.11896927654743195 -0.038759708404541016 0.22480618953704834
0.11701161414384842 -0.038759708404541016 0.24031007289886475
0.1301928013563156 -0.02325582504272461 -0.24031007289886475
0.11761622130870819 -0.02325582504272461 -0.22480618953704834
0.13100771605968475 -0.02325582504272461 -0.20930230617523193
0.1193591058254242 -0.02325582504272461 -0.19379842281341553
0.13062286376953125 -0.02325582504272461 0.06976747512817383
0.12434867024421692 -0.02325582504272461 0.08527135848999023
0.11983440816402435 -0.02325582504272461 0.10077524185180664
0.12620539963245392 -0.02325582504272461 0.16279065608978271
0.12349888682365417 -0.02325582504272461 0.17829453945159912
0.12229679524898529 -0.02325582504272461 0.19379842281341553
0.12142594158649445 -0.02325582504272461 0.20930230617523193
0.12051144242286682 -0.02325582504272461 0.22480618953704834
0.11885753273963928 -0.02325582504272461 0.24031007289886475
0.11700257658958435 -0.02325582504272461 0.25581395626068115
0.1266738921403885 -0.007751941680908203 -0.24031007289886475
0.12300852686166763 -0.007751941680908203 -0.20930230617523193
0.12649603188037872 -0.007751941680908203 0.08527135848999023
0.12176534533500671 -0.007751941215246916 0.10077523440122604
0.11832177639007568 -0.007751941680908203 0.11627913266420364
0.12639987468719482 -0.007751941680908203 0.16279065608978271
0.12306784093379974 -0.007751941680908203 0.17829453945159912
0.12190692126750946 -0.007751941680908203 0.19379842281341553
0.12109410017728806 -0.007751941680908203 0.20930230617523193
0.12063784897327423 -0.007751941680908203 0.22480618953704834
0.11938420683145523 -0.007751941680908203 0.24031007289886475
0.11766701936721802 -0.007751941680908203 0.25581395626068115
0.12590762972831726 0.007751941680908203 -0.24031007289886475
0.128708615899086 0.007751941680908203 -0.22480618953704834
0.11824563145637512 0.007751941680908203 -0.20930230617523193
0.12678088247776031 0.007751941680908203 0.08527135848999023
0.12190002202987671 0.007751941680908203 0.10077524185180664
0.11851440370082855 0.007751941680908203 0.11627912521362305
0.12578868865966797 0.007751941680908203 0.16279065608978271
0.12270703166723251 0.007751941680908203 0.17829453945159912
0.12162172049283981 0.007751941680908203 0.19379842281341553
0.1209116205573082 0.007751941680908203 0.20930230617523193
0.12054727971553802 0.007751941680908203 0.22480618953704834
0.11936454474925995 0.007751941680908203 0.24031007289886475
0.11770188063383102 0.007751941680908203 0.25581395626068115
0.11630337685346603 0.007751941680908203 0.27131783962249756
0.1266510784626007 0.02325582504272461 -0.24031007289886475
0.12679412961006165 0.02325582504272461 -0.22480618953704834
0.11728490889072418 0.02325582504272461 -0.20930230617523193
0.130636066198349 0.02325582504272461 0.06976747512817383
0.12397518008947372 0.02325582504272461 0.08527135848999023
0.11951080709695816 0.02325582504272461 0.10077524185180664
0.12471988797187805 0.02325582504272461 0.16279065608978271
0.12255682051181793 0.02325582504272461 0.17829453945159912
0.1215205118060112 0.02325582504272461 0.19379842281341553
0.12098722159862518 0.02325582504272461 0.20930230617523193
0.12013864517211914 0.02325582690536976 0.22480618953704834
0.11856602132320404 0.02325582504272461 0.24031007289886475
0.11686266213655472 0.02325582318007946 0.25581395626068115
0.12810665369033813 0.038759708404541016 -0.24031007289886475
0.13088737428188324 0.038759708404541016 -0.22480618953704834
0.1195724755525589 0.038759708404541016 -0.20930230617523193
