-0.1627907156944275 0.16279065608978271 0.030298329889774323
-0.1627907156944275 0.16279065608978271 0.10956402122974396
-0.1627907156944275 0.16279065608978271 0.16553066670894623
-0.1627907156944275 0.16279065608978271 0.2831515073776245
-0.1627907156944275 0.17829453945159912 0.02040758915245533
-0.1627907156944275 0.17829453945159912 0.10033164173364639
-0.1627907156944275 0.17829453945159912 0.14982792735099792
-0.1627907156944275 0.17829453945159912 0.2670062482357025
-0.1627907156944275 0.19379842281341553 0.0023632736410945654
-0.1627907156944275 0.19379842281341553 0.09596287459135056
-0.1627907156944275 0.19379842281341553 0.12900042533874512
-0.1627907156944275 0.19379842281341553 0.25314977765083313
-0.1627907156944275 0.20930230617523193 -0.021410122513771057
-0.1627907156944275 0.20930230617523193 0.23780523240566254
-0.1627907156944275 0.22480618953704834 -0.04173098877072334
-0.1627907156944275 0.22480618953704834 0.22047272324562073
-0.1627907156944275 0.24031007289886475 -0.05689437314867973
-0.1627907156944275 0.24031007289886475 0.201456218957901
-0.1627907156944275 0.25581395626068115 -0.06905051320791245
-0.1627907156944275 0.25581395626068115 0.1789160668849945
-0.1627907156944275 0.27131783962249756 -0.08066767454147339
-0.1627907156944275 0.27131783962249756 0.1554274708032608
-0.1627907156944275 0.28682172298431396 -0.09235633164644241
-0.1627907156944275 0.28682172298431396 0.13474388420581818
-0.1627907156944275 0.30232560634613037 -0.10624723136425018
-0.1627907156944275 0.30232560634613037 0.11687495559453964
-0.1627907156944275 0.3178294897079468 -0.12097103893756866
-0.1627907156944275 0.3178294897079468 0.10243303328752518
-0.1627907156944275 0.3333333730697632 -0.13486739993095398
-0.1627907156944275 0.3333333730697632 0.09029365330934525
-0.1627907156944275 0.3488372564315796 -0.14853157103061676
-0.1627907156944275 0.3488372564315796 0.07645297795534134
-0.1627907156944275 0.364341139793396 -0.16371525824069977
-0.1627907156944275 0.364341139793396 0.06084661930799484
-0.1627907156944275 0.37984490394592285 -0.1812056452035904
-0.1627907156944275 0.37984490394592285 0.041073959320783615
-0.1627907156944275 0.39534878730773926 -0.19884131848812103
-0.1627907156944275 0.39534878730773926 0.019146623089909554
-0.1627907156944275 0.41085267066955566 -0.2157212495803833
-0.1627907156944275 0.41085270047187805 -0.0034566051326692104
-0.1627907156944275 0.42635655403137207 -0.23337715864181519
-0.1627907156944275 0.42635655403137207 -0.02829192951321602
-0.1627907156944275 0.4418604373931885 -0.25375404953956604
-0.1627907156944275 0.4418604373931885 -0.049606211483478546
-0.1627907156944275 0.4573643207550049 -0.2752106189727783
-0.1627907007932663 0.4573643207550049 -0.06731215119361877
-0.1627907156944275 0.4728682041168213 -0.29617878794670105
-0.1627907156944275 0.4728682339191437 -0.08090922236442566
-0.1627907156944275 0.4883721172809601 -0.3165917694568634
-0.1627907156944275 0.4883720874786377 -0.09511155635118484
-0.1627907156944275 0.5038759708404541 -0.33655595779418945
-0.1627907156944275 0.5038759708404541 -0.11018259823322296
-0.1627907156944275 0.5193798542022705 -0.3579055666923523
-0.1627907156944275 0.5193798542022705 -0.12691311538219452
-0.1627907156944275 0.5348837375640869 -0.38070476055145264
-0.1627907156944275 0.5348837375640869 -0.14595773816108704
-0.1627907156944275 0.5503876209259033 -0.4029862582683563
-0.1627907156944275 0.5503876209259033 -0.16839033365249634
-0.1627907156944275 0.5658915042877197 -0.4262598752975464
-0.16279073059558868 0.5658915042877197 -0.19129608571529388
-0.1627907156944275 0.5813953876495361 -0.4468059539794922
-0.1627907156944275 0.5813953876495361 -0.21367880702018738
-0.1627907156944275 0.5968992710113525 -0.4694558382034302
-0.1627907156944275 0.5968992710113525 -0.2334226816892624
-0.1627907156944275 0.612403154373169 -0.4939318299293518
-0.1627907156944275 0.612403154373169 -0.25198879837989807
-0.1627907156944275 0.6279069185256958 -0.5183312892913818
-0.1627907156944275 0.6279069185256958 -0.26991868019104004
-0.1627907156944275 0.6434108018875122 -0.539592444896698
-0.1627907156944275 0.6434108018875122 -0.2871842682361603
-0.1627907156944275 0.6589146852493286 -0.5608428716659546
-0.1627907156944275 0.6589146852493286 -0.3047054708003998
-0.1627907156944275 0.674418568611145 -0.5844393968582153
-0.1627907156944275 0.674418568611145 -0.32277950644493103
-0.1627907156944275 0.6899224519729614 -0.6094739437103271
-0.1627907156944275 0.6899224519729614 -0.33995166420936584
-0.1627907156944275 0.7054263353347778 -0.6365178823471069
-0.1627907156944275 0.7054263353347778 -0.35726332664489746
-0.1627907156944275 0.7209302186965942 -0.6637991666793823
-0.1627907156944275 0.7209302186965942 -0.5159868001937866
-0.1627907156944275 0.7209302186965942 -0.499869167804718
-0.1627907156944275 0.7209302186965942 -0.37391963601112366
-0.1627907156944275 0.7364341020584106 -0.6903236508369446
-0.1627907156944275 0.7364341020584106 -0.38919341564178467
-0.1627907156944275 0.751937985420227 -0.7133507132530212
-0.1627907156944275 0.751937985420227 -0.40545693039894104
-0.1627907156944275 0.7674418687820435 -0.7365177273750305
-0.1627907156944275 0.7674418687820435 -0.4238848090171814
-0.1627907156944275 0.7829457521438599 -0.7567039728164673
-0.1627907156944275 0.7829457521438599 -0.443604975938797
-0.1627907156944275 0.7984496355056763 -0.7788889408111572
-0.1627907156944275 0.7984496355056763 -0.46498799324035645
-0.1627907156944275 0.8139535188674927 -0.8046241998672485
-0.1627907156944275 0.8139535188674927 -0.48894357681274414
-0.1627907156944275 0.8294574022293091 -0.8407244086265564
-0.1627907156944275 0.8294574022293091 -0.5122560858726501
-0.1627907156944275 0.8449612855911255 -0.8710578680038452
-0.1627907156944275 0.8449612855911255 -0.5362693667411804
-0.1627907156944275 0.8604651689529419 -0.8922411799430847
-0.1627907156944275 0.8604652285575867 -0.5594586730003357
-0.1627907156944275 0.8759689331054688 -0.9056769609451294
-0.1627907156944275 0.8759689331054688 -0.5845459699630737
-0.1627907156944275 0.8914728164672852 -0.9169589877128601
-0.1627907156944275 0.8914728164672852 -0.6093221306800842
-0.1627907156944275 0.9069766998291016 -0.9174525737762451
-0.1627907156944275 0.9069766998291016 -0.6351823806762695
-0.1627907156944275 0.922480583190918 -0.9094287753105164
-0.1627907156944275 0.922480583190918 -0.6635674238204956
-0.1627907156944275 0.9379844665527344 -0.8924182057380676
-0.1627907156944275 0.9379844069480896 -0.6983698606491089
-0.1627907156944275 0.9534883499145508 -0.8365285396575928
-0.1627907156944275 0.9534883499145508 -0.7712196111679077
-0.14728683233261108 -0.9379844665527344 0.46633046865463257
-0.14728683233261108 -0.9379844665527344 0.6640070676803589
-0.14728683233261108 -0.9224806427955627 0.3988402783870697
-0.14728683233261108 -0.9224806427955627 0.6999058723449707
-0.14728683233261108 -0.9069766998291016 0.3433918356895447
-0.14728683233261108 -0.9069766998291016 0.7283138036727905
-0.14728683233261108 -0.8914728760719299 0.3066403865814209
-0.14728683233261108 -0.8914728760719299 0.7526978850364685
-0.14728683233261108 -0.8759689927101135 0.2798624634742737
-0.14728683233261108 -0.8759689927101135 0.4287686049938202
-0.14728683233261108 -0.8759689927101135 0.6671979427337646
-0.14728683233261108 -0.8759689927101135 0.7803487181663513
-0.14728683233261108 -0.8604651093482971 0.26028972864151
-0.14728683233261108 -0.8604651093482971 0.37232106924057007
-0.14728684723377228 -0.8604651093482971 0.7065404653549194
-0.14728683233261108 -0.8604651093482971 0.80076003074646
-0.14728683233261108 -0.8449612855911255 0.24305936694145203
-0.14728683233261108 -0.8449612259864807 0.3320232331752777
-0.14728683233261108 -0.8449611663818359 0.7329692244529724
-0.14728683233261108 -0.8449612855911255 0.8203312158584595
-0.14728683233261108 -0.8294574022293091 0.22679555416107178
-0.14728683233261108 -0.8294573426246643 0.30944693088531494
-0.14728683233261108 -0.8294573426246643 0.7540085315704346
-0.14728683233261108 -0.8294574022293091 0.8368217945098877
-0.14728683233261108 -0.8139535784721375 0.21027050912380219
-0.14728683233261108 -0.8139535188674927 0.29095160961151123
-0.14728683233261108 -0.8139535188674927 0.7730765342712402
-0.14728683233261108 -0.8139535188674927 0.8506263494491577
-0.14728683233261108 -0.7984496355056763 0.19246068596839905
-0.14728683233261108 -0.7984496355056763 0.27565670013427734
-0.14728683233261108 -0.7984496355056763 0.7907768487930298
-0.14728683233261108 -0.7984495759010315 0.862123966217041
-0.14728683233261108 -0.7829457521438599 0.17549698054790497
-0.14728683233261108 -0.7829457521438599 0.2632194459438324
-0.14728683233261108 -0.7829457521438599 0.8083370327949524
-0.14728683233261108 -0.7829457521438599 0.8747287392616272
-0.14728683233261108 -0.7674418687820435 0.15925896167755127
-0.14728683233261108 -0.7674418687820435 0.2512117028236389
-0.14728683233261108 -0.7674418687820435 0.8234823942184448
-0.14728683233261108 -0.7674418687820435 0.8841184377670288
-0.14728683233261108 -0.751937985420227 0.14464250206947327
-0.1472868174314499 -0.751937985420227 0.24041451513767242
-0.14728683233261108 -0.751937985420227 0.8371099233627319
-0.14728683233261108 -0.751937985420227 0.8912619948387146
-0.1472868174314499 -0.7364341020584106 0.13232699036598206
-0.14728683233261108 -0.7364341020584106 0.21043270826339722
-0.14728683233261108 -0.7364341616630554 0.8489055633544922
-0.14728683233261108 -0.7364341020584106 0.8992658853530884
-0.14728683233261108 -0.7209302186965942 0.12039905786514282
-0.14728683233261108 -0.7209302186965942 0.1828642040491104
-0.14728683233261108 -0.7209302186965942 0.8581387400627136
-0.14728683233261108 -0.7209302186965942 0.9059017896652222
-0.14728683233261108 -0.7054263353347778 0.10823386907577515
-0.14728683233261108 -0.7054263353347778 0.16290788352489471
-0.14728683233261108 -0.7054263353347778 0.8656693696975708
-0.14728683233261108 -0.7054263353347778 0.9086452126502991
-0.14728683233261108 -0.6899224519729614 0.09750916808843613
-0.14728683233261108 -0.6899224519729614 0.14637690782546997
-0.14728683233261108 -0.6899224519729614 0.8712382912635803
-0.14728683233261108 -0.6899224519729614 0.9171686172485352
-0.14728683233261108 -0.674418568611145 0.08918777108192444
-0.14728683233261108 -0.674418568611145 0.13343283534049988
-0.14728683233261108 -0.674418568611145 0.8766108155250549
-0.14728683233261108 -0.674418568611145 0.9218266606330872
-0.14728683233261108 -0.6589146852493286 0.0776711031794548
-0.14728683233261108 -0.6589146852493286 0.12133073806762695
-0.14728683233261108 -0.6589146852493286 0.8806184530258179
-0.14728683233261108 -0.6589146852493286 0.9250105619430542
-0.14728683233261108 -0.643410861492157 0.06822105497121811
-0.14728683233261108 -0.643410861492157 0.1116291806101799
-0.14728683233261108 -0.643410861492157 0.883400559425354
-0.14728683233261108 -0.643410861492157 0.9326089024543762
-0.14728683233261108 -0.6279069781303406 0.06056327372789383
-0.14728683233261108 -0.6279069781303406 0.1012626364827156
-0.14728683233261108 -0.6279069781303406 0.8857733011245728
-0.14728683233261108 -0.6279069781303406 0.9368887543678284
-0.14728683233261108 -0.6124030947685242 0.04994212090969086
-0.14728683233261108 -0.6124030947685242 0.08925047516822815
-0.14728683233261108 -0.6124030947685242 0.8880760073661804
-0.14728683233261108 -0.6124030947685242 0.9388560652732849
-0.14728683233261108 -0.5968992114067078 0.045546047389507294
-0.14728683233261108 -0.5968992114067078 0.076279416680336
-0.14728683233261108 -0.5968992114067078 0.8886091709136963
-0.14728683233261108 -0.5968992114067078 0.9442378282546997
-0.14728683233261108 -0.5813953876495361 0.03527136147022247
-0.14728683233261108 -0.5813953876495361 0.06594015657901764
-0.14728683233261108 -0.5813953876495361 0.889513373374939
-0.14728683233261108 -0.5813953876495361 0.9488688707351685
-0.14728683233261108 -0.5658915042877197 0.03229917585849762
-0.14728683233261108 -0.5658915042877197 0.05419284850358963
-0.14728683233261108 -0.5658915042877197 0.8905521035194397
-0.14728683233261108 -0.5658915042877197 0.9508726596832275
-0.14728683233261108 -0.5503876209259033 0.02685941942036152
-0.14728683233261108 -0.5503876209259033 0.04834670573472977
-0.14728683233261108 -0.5503876209259033 0.8906778693199158
-0.14728683233261108 -0.5503876209259033 0.9512792229652405
-0.14728683233261108 -0.5348837375640869 0.018884897232055664
-0.14728683233261108 -0.5348837375640869 0.04083063453435898
-0.14728683233261108 -0.5348837375640869 0.8892568349838257
-0.14728683233261108 -0.5348837375640869 0.9505065083503723
-0.14728683233261108 -0.5193798542022705 0.017746834084391594
-0.14728683233261108 -0.5193798542022705 0.03709401190280914
-0.14728683233261108 -0.5193798542022705 0.886553168296814
-0.14728683233261108 -0.5193798542022705 0.9478579759597778
-0.14728683233261108 -0.5038759708404541 0.010354390367865562
-0.14728683233261108 -0.5038759708404541 0.03322528302669525
-0.14728683233261108 -0.5038759708404541 0.8825569152832031
-0.14728683233261108 -0.5038759708404541 0.9427918195724487
-0.14728683233261108 -0.4883720874786377 0.002874985570088029
-0.14728683233261108 -0.4883720576763153 0.02835514023900032
-0.14728683233261108 -0.4883720874786377 0.8776609301567078
-0.14728683233261108 -0.4883720874786377 0.9377875328063965
-0.14728683233261108 -0.4728682041168213 0.0006791809573769569
-0.14728683233261108 -0.4728682041168213 0.02425972931087017
-0.14728683233261108 -0.4728682041168213 0.8705150485038757
-0.14728683233261108 -0.4728682041168213 0.9357333183288574
-0.14728683233261108 -0.4573643207550049 -0.008961668238043785
-0.14728683233261108 -0.4573643207550049 0.021545834839344025
-0.14728683233261108 -0.4573643207550049 0.8634660243988037
-0.14728683233261108 -0.4573643207550049 0.9311748147010803
-0.14728683233261108 -0.4418604373931885 -0.014531013555824757
-0.14728683233261108 -0.4418604373931885 0.01797950454056263
-0.14728683233261108 -0.4418604373931885 0.8550986051559448
-0.14728684723377228 -0.4418604373931885 0.9236722588539124
-0.14728683233261108 -0.42635661363601685 -0.01757795736193657
-0.14728683233261108 -0.42635661363601685 0.014881964772939682
-0.14728683233261108 -0.42635661363601685 0.8455301523208618
-0.14728683233261108 -0.42635661363601685 0.920153021812439
-0.14728683233261108 -0.41085273027420044 -0.026575084775686264
-0.14728683233261108 -0.41085273027420044 0.012979142367839813
-0.14728683233261108 -0.41085273027420044 0.0877959132194519
-0.14728683233261108 -0.41085273027420044 0.10658429563045502
-0.14728683233261108 -0.41085273027420044 0.790433406829834
-0.14728683233261108 -0.41085273027420044 0.9129858016967773
-0.14728683233261108 -0.39534884691238403 -0.031125254929065704
-0.14728683233261108 -0.39534884691238403 0.014674331992864609
-0.14728683233261108 -0.39534884691238403 0.05601179227232933
-0.1472868174314499 -0.39534884691238403 0.10235937684774399
-0.14728683233261108 -0.39534884691238403 0.7735802531242371
-0.14728683233261108 -0.39534884691238403 0.9055050015449524
-0.14728683233261108 -0.3798449635505676 -0.0352034755051136
-0.14728683233261108 -0.3798449635505676 0.09088318049907684
-0.14728683233261108 -0.3798449635505676 0.7650339603424072
-0.14728683233261108 -0.3798449635505676 0.8987102508544922
-0.14728683233261108 -0.3643410801887512 -0.04124346747994423
-0.14728683233261108 -0.3643410801887512 0.0816391110420227
-0.14728683233261108 -0.3643410801887512 0.7555121183395386
-0.14728683233261108 -0.3643410801887512 0.8894169926643372
-0.14728683233261108 -0.3488371968269348 -0.04460928589105606
-0.14728683233261108 -0.3488371968269348 0.07194390892982483
-0.14728683233261108 -0.3488371968269348 0.7458889484405518
-0.14728683233261108 -0.3488371968269348 0.8821199536323547
-0.14728683233261108 -0.3333333134651184 -0.04720337316393852
-0.14728683233261108 -0.3333333134651184 0.06270308047533035
-0.14728683233261108 -0.3333333134651184 0.734309196472168
-0.14728683233261108 -0.3333333134651184 0.8726837038993835
-0.14728683233261108 -0.317829430103302 -0.05191661790013313
-0.14728683233261108 -0.317829430103302 0.05671973526477814
-0.1472868174314499 -0.3178294003009796 0.7218158841133118
-0.14728683233261108 -0.317829430103302 0.8636658191680908
-0.14728683233261108 -0.30232560634613037 -0.05726460739970207
-0.14728683233261108 -0.30232560634613037 0.05250244960188866
-0.14728683233261108 -0.30232560634613037 0.7003230452537537
-0.14728683233261108 -0.30232560634613037 0.8526797294616699
-0.14728683233261108 -0.28682172298431396 -0.06196090579032898
-0.14728683233261108 -0.28682172298431396 0.0506475567817688
-0.14728683233261108 -0.28682172298431396 0.6766586899757385
-0.14728683233261108 -0.28682172298431396 0.8399991989135742
-0.14728683233261108 -0.27131783962249756 -0.06995833665132523
-0.14728683233261108 -0.27131783962249756 0.05207539349794388
-0.14728683233261108 -0.27131783962249756 0.6640440821647644
-0.14728683233261108 -0.27131783962249756 0.8281170129776001
-0.14728683233261108 -0.25581395626068115 -0.07473950833082199
-0.14728683233261108 -0.25581395626068115 0.05579650029540062
-0.14728683233261108 -0.25581395626068115 0.6625248789787292
-0.14728683233261108 -0.25581395626068115 0.8169263005256653
-0.14728683233261108 -0.24031007289886475 -0.0789744034409523
-0.14728683233261108 -0.24031008780002594 0.060452692210674286
-0.14728683233261108 -0.24031007289886475 0.6664015054702759
-0.14728683233261108 -0.24031007289886475 0.8045684099197388
-0.14728683233261108 -0.22480618953704834 -0.08420977741479874
-0.14728683233261108 -0.22480618953704834 0.06747327744960785
-0.14728683233261108 -0.22480618953704834 0.5640034675598145
-0.14728683233261108 -0.22480618953704834 0.5689728856086731
-0.14728683233261108 -0.22480618953704834 0.6714779734611511
-0.14728683233261108 -0.22480620443820953 0.7885339856147766
-0.14728683233261108 -0.20930230617523193 -0.08678323775529861
-0.14728683233261108 -0.20930230617523193 0.07308197766542435
-0.14728683233261108 -0.20930230617523193 0.5565446615219116
-0.14728683233261108 -0.20930232107639313 0.5688816905021667
-0.14728683233261108 -0.20930230617523193 0.6751426458358765
-0.14728683233261108 -0.20930230617523193 0.7665642499923706
-0.14728683233261108 -0.19379842281341553 -0.08763048052787781
-0.14728683233261108 -0.19379842281341553 0.07730381190776825
-0.14728683233261108 -0.19379842281341553 0.5487030148506165
-0.14728683233261108 -0.19379842281341553 0.5664589405059814
-0.14728683233261108 -0.19379842281341553 0.6763744354248047
-0.14728683233261108 -0.19379842281341553 0.7433454990386963
-0.14728683233261108 -0.1782945990562439 -0.08588318526744843
-0.14728683233261108 -0.1782945990562439 0.08223377913236618
-0.14728683233261108 -0.1782945990562439 0.5459303855895996
-0.14728683233261108 -0.1782945990562439 0.563149631023407
-0.14728683233261108 -0.1782945990562439 0.6744426488876343
-0.14728683233261108 -0.1782945990562439 0.7320476770401001
-0.14728683233261108 -0.1627907156944275 -0.07788428664207458
-0.1472868174314499 -0.1627907007932663 0.08628866076469421
-0.14728683233261108 -0.1627907156944275 0.5393766164779663
-0.14728683233261108 -0.1627907156944275 0.563322901725769
-0.14728683233261108 -0.1627907156944275 0.6675994396209717
-0.14728683233261108 -0.1627907156944275 0.7232284545898438
-0.14728683233261108 -0.14728683233261108 -0.06358972936868668
-0.14728683233261108 -0.14728683233261108 0.08791627734899521
-0.14728683233261108 -0.14728683233261108 0.5319720506668091
-0.14728683233261108 -0.14728683233261108 0.5640966892242432
-0.14728683233261108 -0.14728683233261108 0.6584537029266357
-0.14728683233261108 -0.14728683233261108 0.7136551141738892
-0.14728683233261108 -0.13178294897079468 -0.044115327298641205
-0.14728683233261108 -0.13178294897079468 0.08903768658638
-0.14728683233261108 -0.13178294897079468 0.521723747253418
-0.14728683233261108 -0.13178294897079468 0.5675253868103027
-0.14728683233261108 -0.13178294897079468 0.6400712132453918
-0.14728683233261108 -0.13178294897079468 0.7015389204025269
-0.14728683233261108 -0.11627906560897827 -0.025702830404043198
-0.14728683233261108 -0.11627906560897827 0.08924828469753265
-0.14728683233261108 -0.11627906560897827 0.5072093605995178
-0.14728683233261108 -0.11627906560897827 0.5832898616790771
-0.14728683233261108 -0.11627906560897827 0.6014708280563354
-0.14728683233261108 -0.11627906560897827 0.6874125003814697
-0.1472868174314499 -0.10077517479658127 -0.007709363009780645
-0.14728683233261108 -0.10077517479658127 0.08796080946922302
-0.14728683233261108 -0.10077518224716187 0.4879610240459442
-0.14728683233261108 -0.10077518224716187 0.6712891459465027
-0.14728683233261108 -0.08527129888534546 0.012400245293974876
-0.14728683233261108 -0.08527129888534546 0.08452903479337692
-0.14728683233261108 -0.08527129888534546 0.46887683868408203
-0.14728683233261108 -0.08527129888534546 0.6531768441200256
-0.14728683233261108 -0.06976741552352905 0.03694537281990051
-0.14728683233261108 -0.06976741552352905 0.07191566377878189
-0.14728683233261108 -0.06976741552352905 0.4459385871887207
-0.14728683233261108 -0.06976741552352905 0.6333059072494507
-0.14728683233261108 -0.05426359176635742 0.4174538850784302
-0.14728683233261108 -0.05426359176635742 0.6129461526870728
-0.14728683233261108 -0.038759708404541016 0.3685765266418457
-0.14728683233261108 -0.038759708404541016 0.5946249961853027
-0.14728683233261108 -0.02325582504272461 0.26857492327690125
-0.14728683233261108 -0.02325582504272461 0.5771466493606567
-0.14728683233261108 -0.007751941680908203 0.21893614530563354
-0.14728683233261108 -0.007751941680908203 0.5585285425186157
-0.14728683233261108 0.007751941680908203 0.17800910770893097
-0.14728683233261108 0.007751941680908203 0.2580396234989166
-0.1472868174314499 0.007751941215246916 0.44337713718414307
-0.14728683233261108 0.007751941680908203 0.5388425588607788
-0.14728683233261108 0.02325582504272461 0.12595491111278534
-0.14728683233261108 0.02325582504272461 0.23798209428787231
-0.14728683233261108 0.02325582504272461 0.4381011128425598
-0.14728683233261108 0.02325582504272461 0.5189816355705261
-0.14728683233261108 0.038759708404541016 0.09205061197280884
-0.14728683233261108 0.038759708404541016 0.23041793704032898
-0.14728683233261108 0.038759708404541016 0.4229993522167206
-0.14728683233261108 0.038759708404541016 0.499476820230484
-0.14728683233261108 0.05426359176635742 0.07488346844911575
-0.14728683233261108 0.05426359176635742 0.228367418050766
-0.14728683233261108 0.05426359176635742 0.4014136791229248
-0.14728683233261108 0.05426359176635742 0.47993695735931396
-0.14728683233261108 0.06976747512817383 0.0628603845834732
-0.14728683233261108 0.06976747512817383 0.22889284789562225
-0.14728683233261108 0.06976747512817383 0.37340331077575684
-0.14728683233261108 0.06976747512817383 0.4544685482978821
-0.14728683233261108 0.08527135848999023 0.05412845313549042
-0.14728683233261108 0.08527135848999023 0.2384503036737442
-0.14728683233261108 0.08527135848999023 0.3349752128124237
-0.14728683233261108 0.08527135848999023 0.4308681786060333
-0.14728683233261108 0.10077524185180664 0.04779176414012909
-0.14728683233261108 0.10077524185180664 0.40548640489578247
-0.14728683233261108 0.11627912521362305 0.04293951392173767
-0.14728683233261108 0.11627912521362305 0.17492282390594482
-0.14728683233261108 0.11627912521362305 0.18083447217941284
-0.14728683233261108 0.11627912521362305 0.3812887966632843
-0.14728683233261108 0.1317828893661499 0.037672802805900574
-0.14728683233261108 0.1317828893661499 0.1505478471517563
-0.14728683233261108 0.1317828893661499 0.19361048936843872
-0.14728683233261108 0.1317828893661499 0.3537820875644684
-0.14728683233261108 0.1472867727279663 0.032597437500953674
-0.14728683233261108 0.1472867727279663 0.1338845193386078
-0.14728683233261108 0.1472867727279663 0.18589280545711517
-0.14728683233261108 0.1472867727279663 0.32108068466186523
-0.14728683233261108 0.16279065608978271 0.02379431575536728
-0.14728683233261108 0.16279065608978271 0.10749105364084244
-0.14728683233261108 0.16279065608978271 0.17318862676620483
-0.14728683233261108 0.16279065608978271 0.2877826690673828
-0.14728683233261108 0.17829453945159912 0.007521693594753742
-0.14728683233261108 0.17829453945159912 0.08653634041547775
-0.14728683233261108 0.17829453945159912 0.16283507645130157
-0.14728683233261108 0.17829453945159912 0.272308349609375
-0.14728683233261108 0.19379842281341553 -0.01831372268497944
-0.14728683233261108 0.19379842281341553 0.06920330971479416
-0.14728683233261108 0.19379842281341553 0.15082600712776184
-0.14728683233261108 0.19379842281341553 0.25954604148864746
-0.14728683233261108 0.20930230617523193 -0.04273058474063873
-0.14728683233261108 0.20930230617523193 0.05763084068894386
-0.14728683233261108 0.20930230617523193 0.1297946572303772
-0.14728683233261108 0.20930230617523193 0.24585816264152527
-0.14728683233261108 0.22480618953704834 -0.0616520419716835
-0.14728683233261108 0.22480618953704834 0.0469774529337883
-0.14728683233261108 0.22480618953704834 0.10854494571685791
-0.14728683233261108 0.22480618953704834 0.2302340865135193
-0.14728683233261108 0.24031007289886475 -0.07630787044763565
-0.14728683233261108 0.24031007289886475 0.035173602402210236
-0.14728683233261108 0.24031007289886475 0.09184063971042633
-0.14728683233261108 0.24031005799770355 0.21231624484062195
-0.14728683233261108 0.25581395626068115 -0.08754131942987442
-0.14728683233261108 0.25581395626068115 0.02306062914431095
-0.14728683233261108 0.25581395626068115 0.07736638188362122
-0.14728683233261108 0.25581395626068115 0.19121350347995758
-0.14728683233261108 0.27131783962249756 -0.09795120358467102
-0.14728683233261108 0.27131783962249756 0.007340594194829464
-0.14728683233261108 0.27131783962249756 0.06289982795715332
-0.14728683233261108 0.27131783962249756 0.16991367936134338
-0.14728683233261108 0.28682172298431396 -0.10851657390594482
-0.14728683233261108 0.28682172298431396 -0.0016625523567199707
-0.14728683233261108 0.28682172298431396 0.04554610326886177
-0.14728683233261108 0.28682172298431396 0.14839044213294983
-0.14728683233261108 0.30232560634613037 -0.12045504152774811
-0.14728683233261108 0.30232560634613037 -0.00885026715695858
-0.14728683233261108 0.30232560634613037 0.02958136796951294
-0.14728683233261108 0.30232560634613037 0.1301446110010147
-0.14728683233261108 0.3178294897079468 -0.13338181376457214
-0.14728683233261108 0.3178294897079468 -0.0038576340302824974
-0.14728683233261108 0.3178294897079468 0.008675603196024895
-0.14728683233261108 0.3178294897079468 0.11422518640756607
-0.14728683233261108 0.3333333730697632 -0.14673630893230438
-0.14728683233261108 0.3333333730697632 0.09995245933532715
-0.14728683233261108 0.3488372564315796 -0.16260038316249847
-0.14728683233261108 0.3488372564315796 0.08611089736223221
-0.14728683233261108 0.364341139793396 -0.1823100745677948
-0.14728683233261108 0.364341139793396 0.07031980156898499
-0.14728683233261108 0.37984490394592285 -0.20227941870689392
-0.14728683233261108 0.37984490394592285 0.05226016417145729
-0.14728683233261108 0.39534878730773926 -0.22012615203857422
-0.14728683233261108 0.39534878730773926 0.03280068561434746
-0.14728683233261108 0.41085267066955566 -0.2377796322107315
-0.14728683233261108 0.41085267066955566 -0.1569691300392151
-0.14728683233261108 0.41085267066955566 -0.116661436855793
-0.14728683233261108 0.41085267066955566 0.010794369503855705
-0.14728683233261108 0.42635655403137207 -0.25606319308280945
-0.14728683233261108 0.42635655403137207 -0.1794506162405014
-0.14728683233261108 0.42635655403137207 -0.11867217719554901
-0.14728683233261108 0.42635655403137207 -0.013073412701487541
-0.14728683233261108 0.4418604373931885 -0.27565956115722656
-0.14728683233261108 0.4418604373931885 -0.1938810646533966
-0.14728683233261108 0.4418604373931885 -0.12405704706907272
-0.14728683233261108 0.4418604373931885 -0.034613657742738724
-0.14728683233261108 0.4573643207550049 -0.295005738735199
-0.14728683233261108 0.4573643207550049 -0.20212571322917938
-0.14728683233261108 0.45736435055732727 -0.1312856525182724
-0.14728683233261108 0.4573643207550049 -0.05338903144001961
-0.14728683233261108 0.4728682041168213 -0.31384995579719543
-0.14728683233261108 0.4728682041168213 -0.20910988748073578
-0.14728683233261108 0.4728682041168213 -0.14360010623931885
-0.14728683233261108 0.4728682041168213 -0.06763955950737
-0.14728683233261108 0.4883720874786377 -0.333486407995224
-0.14728683233261108 0.4883720874786377 -0.20599569380283356
-0.14728683233261108 0.4883720874786377 -0.17113925516605377
-0.14728683233261108 0.4883720874786377 -0.08093515783548355
-0.14728683233261108 0.5038759708404541 -0.352578729391098
-0.14728683233261108 0.5038759708404541 -0.09475356340408325
-0.14728683233261108 0.5193798542022705 -0.37226995825767517
-0.14728683233261108 0.5193798542022705 -0.11006781458854675
-0.14728683233261108 0.5348837375640869 -0.3945715129375458
-0.14728683233261108 0.5348837375640869 -0.12677805125713348
-0.14728683233261108 0.5503876209259033 -0.4153396189212799
-0.14728683233261108 0.5503876209259033 -0.14569737017154694
-0.14728683233261108 0.5658915042877197 -0.4364895522594452
-0.14728683233261108 0.5658915042877197 -0.16579031944274902
-0.14728683233261108 0.5813953876495361 -0.45827043056488037
-0.14728683233261108 0.5813953876495361 -0.18687094748020172
-0.14728683233261108 0.5968992710113525 -0.4806467294692993
-0.14728683233261108 0.5968992710113525 -0.20758841931819916
-0.14728683233261108 0.612403154373169 -0.5046770572662354
-0.14728683233261108 0.612403154373169 -0.22680002450942993
-0.14728683233261108 0.6279069185256958 -0.5256524085998535
-0.14728683233261108 0.6279069185256958 -0.2453363835811615
-0.14728683233261108 0.6434108018875122 -0.5456592440605164
-0.14728683233261108 0.6434108018875122 -0.26351749897003174
-0.14728683233261108 0.6589146852493286 -0.56700599193573
-0.14728683233261108 0.6589146852493286 -0.2813570201396942
-0.14728683233261108 0.674418568611145 -0.5890452861785889
-0.14728683233261108 0.674418568611145 -0.4764689803123474
-0.14728683233261108 0.674418568611145 -0.43066686391830444
-0.14728683233261108 0.674418568611145 -0.29918602108955383
-0.14728683233261108 0.6899224519729614 -0.6136598587036133
-0.14728683233261108 0.6899224519729614 -0.5051127076148987
-0.14728683233261108 0.6899224519729614 -0.43623417615890503
-0.14728683233261108 0.6899224519729614 -0.3169778883457184
-0.14728683233261108 0.7054263353347778 -0.639389157295227
-0.14728683233261108 0.7054263353347778 -0.5260087847709656
-0.14728683233261108 0.7054263353347778 -0.4461100697517395
-0.14728683233261108 0.7054263353347778 -0.3344002366065979
-0.14728683233261108 0.7209302186965942 -0.6651921272277832
-0.14728683233261108 0.7209302186965942 -0.5411642789840698
-0.14728683233261108 0.7209302186965942 -0.4621109962463379
-0.14728683233261108 0.7209302186965942 -0.3519361913204193
-0.14728683233261108 0.7364341020584106 -0.6904483437538147
-0.14728683233261108 0.7364341020584106 -0.5513285398483276
-0.14728683233261108 0.7364341020584106 -0.48198795318603516
-0.14728683233261108 0.7364341020584106 -0.36866530776023865
-0.14728683233261108 0.751937985420227 -0.7127487063407898
-0.14728683233261108 0.751937985420227 -0.5405087471008301
-0.14728683233261108 0.751937985420227 -0.5161827802658081
-0.14728683233261108 0.751937985420227 -0.3860616087913513
-0.14728683233261108 0.7674418687820435 -0.735907256603241
-0.14728683233261108 0.7674418687820435 -0.40494322776794434
-0.14728683233261108 0.7829457521438599 -0.757206916809082
-0.14728684723377228 0.7829457521438599 -0.4257679283618927
-0.14728683233261108 0.7984496355056763 -0.7820239663124084
-0.14728683233261108 0.7984496355056763 -0.44757235050201416
-0.14728683233261108 0.8139535188674927 -0.8127572536468506
-0.14728683233261108 0.8139534592628479 -0.47188279032707214
-0.14728683233261108 0.8294574022293091 -0.8547172546386719
-0.14728683233261108 0.8294574022293091 -0.49565088748931885
-0.14728683233261108 0.8449612855911255 -0.8843355178833008
-0.14728683233261108 0.8449612855911255 -0.5203166604042053
-0.14728683233261108 0.8604651689529419 -0.9049795269966125
-0.14728683233261108 0.8604651689529419 -0.5438840389251709
-0.14728683233261108 0.8759689331054688 -0.9194039106369019
-0.14728683233261108 0.8759689331054688 -0.5687699913978577
-0.14728683233261108 0.8914728164672852 -0.9301703572273254
-0.14728683233261108 0.8914727568626404 -0.5940460562705994
-0.14728683233261108 0.9069766998291016 -0.9300966262817383
-0.14728683233261108 0.9069766998291016 -0.6205308437347412
-0.14728683233261108 0.922480583190918 -0.9238752722740173
-0.14728683233261108 0.922480583190918 -0.6479901075363159
-0.14728683233261108 0.9379844665527344 -0.9107603430747986
-0.14728683233261108 0.9379844665527344 -0.6799193024635315
-0.14728683233261108 0.9534883499145508 -0.8819091320037842
-0.14728683233261108 0.9534883499145508 -0.7261924147605896
-0.13178294897079468 -0.9534883499145508 0.5264291167259216
-0.13178294897079468 -0.953488290309906 0.6290532350540161
-0.13178294897079468 -0.9379844665527344 0.4453691840171814
-0.13178294897079468 -0.9379844665527344 0.6794968247413635
-0.13178294897079468 -0.9224807024002075 0.38164639472961426
-0.13178294897079468 -0.9224806427955627 0.7116987705230713
-0.13178294897079468 -0.9069767594337463 0.3310866951942444
-0.13178294897079468 -0.9069767594337463 0.7378717064857483
-0.13178294897079468 -0.8914729356765747 0.29750341176986694
-0.13178294897079468 -0.8914728760719299 0.7662936449050903
-0.13178294897079468 -0.8759690523147583 0.27478498220443726
-0.13178294897079468 -0.8759690523147583 0.41089722514152527
-0.13178294897079468 -0.8759689331054688 0.6833903193473816
-0.13178294897079468 -0.8759689331054688 0.7892001867294312
-0.13178294897079468 -0.8604651093482971 0.2546193301677704
-0.13178294897079468 -0.8604651093482971 0.36143815517425537
-0.13178294897079468 -0.8604651093482971 0.7169103622436523
-0.13178294897079468 -0.8604651093482971 0.812640368938446
-0.13178294897079468 -0.8449611663818359 0.23709475994110107
-0.13178294897079468 -0.8449612259864807 0.3268289566040039
-0.13178294897079468 -0.8449612855911255 0.7411080598831177
-0.13178294897079468 -0.8449612855911255 0.8297080993652344
-0.13178294897079468 -0.8294573426246643 0.2208142876625061
-0.13178294897079468 -0.8294573426246643 0.3052034080028534
-0.13178294897079468 -0.8294573426246643 0.7607622146606445
-0.13178294897079468 -0.8294573426246643 0.8453087210655212
-0.13178294897079468 -0.8139535188674927 0.20439273118972778
-0.13178294897079468 -0.8139535188674927 0.2873055934906006
-0.13178294897079468 -0.8139535188674927 0.7783234119415283
-0.13178294897079468 -0.8139535188674927 0.8596119284629822
-0.13178294897079468 -0.7984496355056763 0.18730023503303528
-0.13178294897079468 -0.7984496355056763 0.2731587886810303
-0.13178294897079468 -0.7984496355056763 0.7954179048538208
-0.13178294897079468 -0.7984496355056763 0.8722656965255737
-0.13178294897079468 -0.7829457521438599 0.17094576358795166
-0.13178294897079468 -0.7829457521438599 0.2612043619155884
-0.13178294897079468 -0.7829457521438599 0.8135093450546265
-0.13178294897079468 -0.7829457521438599 0.8790973424911499
-0.13178294897079468 -0.7674418687820435 0.15521381795406342
-0.13178294897079468 -0.7674418687820435 0.24907809495925903
-0.13178294897079468 -0.7674418687820435 0.8284696340560913
-0.13178294897079468 -0.7674418687820435 0.8905004262924194
-0.13178294897079468 -0.751937985420227 0.1409337818622589
-0.13178294897079468 -0.751937985420227 0.2387666404247284
-0.13178294897079468 -0.751937985420227 0.8417404294013977
-0.13178294897079468 -0.751937985420227 0.8974815011024475
-0.13178294897079468 -0.7364341020584106 0.12835481762886047
-0.13178294897079468 -0.7364341020584106 0.21101804077625275
-0.13178294897079468 -0.7364341020584106 0.8526173830032349
-0.13178294897079468 -0.7364341020584106 0.9057690501213074
-0.13178294897079468 -0.7209302186965942 0.11736415326595306
-0.13178294897079468 -0.7209302186965942 0.18195730447769165
-0.13178294897079468 -0.7209302186965942 0.8628168106079102
-0.13178294897079468 -0.7209302186965942 0.909054160118103
-0.13178294897079468 -0.7054263353347778 0.10646003484725952
-0.13178294897079468 -0.7054263353347778 0.16156357526779175
-0.13178294897079468 -0.7054263353347778 0.8692318201065063
-0.13178294897079468 -0.7054263353347778 0.9174215793609619
-0.13178294897079468 -0.6899224519729614 0.09502075612545013
-0.13178294897079468 -0.6899224519729614 0.14517219364643097
-0.13178294897079468 -0.6899224519729614 0.8762770891189575
-0.13178294897079468 -0.6899224519729614 0.9221251606941223
-0.13178294897079468 -0.674418568611145 0.0866883397102356
-0.13178293406963348 -0.674418568611145 0.13240526616573334
-0.13178294897079468 -0.674418568611145 0.880340576171875
-0.13178294897079468 -0.674418568611145 0.9261157512664795
-0.13178294897079468 -0.6589146852493286 0.0764007642865181
-0.13178294897079468 -0.6589146852493286 0.12018562853336334
-0.13178294897079468 -0.6589146852493286 0.8842335939407349
-0.13178294897079468 -0.6589146852493286 0.9338667988777161
-0.13178294897079468 -0.643410861492157 0.06585763394832611
-0.13178294897079468 -0.643410861492157 0.11000632494688034
-0.13178294897079468 -0.643410861492157 0.8871842622756958
-0.13178294897079468 -0.643410861492157 0.9376174211502075
-0.13178294897079468 -0.6279069781303406 0.05925402045249939
-0.13178294897079468 -0.6279069781303406 0.09948434680700302
-0.13178294897079468 -0.6279070377349854 0.8901156783103943
-0.13178294897079468 -0.6279070377349854 0.9412128925323486
-0.13178294897079468 -0.6124030947685242 0.048279762268066406
-0.13178294897079468 -0.6124030947685242 0.08691380172967911
-0.13178294897079468 -0.6124030947685242 0.8921507596969604
-0.13178294897079468 -0.6124030947685242 0.9481602907180786
-0.13178294897079468 -0.5968992114067078 0.044107887893915176
-0.13178294897079468 -0.596899151802063 0.07355272769927979
-0.13178294897079468 -0.5968992114067078 0.8923063278198242
-0.13178294897079468 -0.5968992114067078 0.951964259147644
-0.13178294897079468 -0.5813953876495361 0.03368052467703819
-0.13178294897079468 -0.5813953876495361 0.0629657730460167
-0.13178294897079468 -0.5813953876495361 0.8928201198577881
-0.13178294897079468 -0.5813953876495361 0.953417181968689
-0.13178294897079468 -0.5658915042877197 0.03222428262233734
-0.13178294897079468 -0.5658915042877197 0.05306718498468399
-0.13178294897079468 -0.5658915042877197 0.8940628170967102
-0.13178294897079468 -0.5658915638923645 0.9543638229370117
-0.13178294897079468 -0.5503876209259033 0.02139783650636673
-0.13178294897079468 -0.5503876209259033 0.044664449989795685
-0.13178294897079468 -0.5503876209259033 0.8947888612747192
-0.13178294897079468 -0.5503876209259033 0.9549723863601685
-0.13178294897079468 -0.5348837375640869 0.018184278160333633
-0.13178294897079468 -0.5348837375640869 0.038113705813884735
-0.13178294897079468 -0.5348837375640869 0.8925712704658508
-0.13178293406963348 -0.5348837375640869 0.9538721442222595
-0.13178294897079468 -0.5193798542022705 0.017913129180669785
-0.13178294897079468 -0.5193798542022705 0.034352801740169525
-0.13178294897079468 -0.5193798542022705 0.8882779479026794
-0.13178294897079468 -0.5193798542022705 0.9524868726730347
-0.13178294897079468 -0.5038759708404541 0.005305921658873558
-0.13178294897079468 -0.5038759708404541 0.02833506464958191
-0.13178294897079468 -0.5038759708404541 0.8832117319107056
-0.13178294897079468 -0.5038759708404541 0.9503493905067444
-0.13178294897079468 -0.4883720874786377 0.002063567517325282
-0.13178293406963348 -0.4883720576763153 0.023444943130016327
-0.13178294897079468 -0.4883720874786377 0.8781049251556396
-0.13178294897079468 -0.4883720874786377 0.9453822374343872
-0.13178294897079468 -0.4728682041168213 -0.0007275117095559835
-0.13178294897079468 -0.4728682041168213 0.021220462396740913
-0.13178294897079468 -0.4728682041168213 0.8705456256866455
-0.13178294897079468 -0.4728682041168213 0.9386861324310303
-0.13178294897079468 -0.4573643207550049 -0.012394709512591362
-0.13178294897079468 -0.4573643207550049 0.016963735222816467
-0.13178294897079468 -0.4573642909526825 0.8633219003677368
-0.13178294897079468 -0.4573643207550049 0.9359422326087952
-0.13178294897079468 -0.4418604373931885 -0.015617028810083866
-0.13178294897079468 -0.4418604373931885 0.012304209172725677
-0.13178294897079468 -0.4418604373931885 0.8545591831207275
-0.13178294897079468 -0.4418604373931885 0.9309862852096558
-0.13178294897079468 -0.42635661363601685 -0.023971671238541603
-0.13178294897079468 -0.42635661363601685 0.008497538976371288
-0.13178294897079468 -0.42635661363601685 0.8410062789916992
-0.13178294897079468 -0.42635661363601685 0.9232316613197327
-0.13178294897079468 -0.41085273027420044 -0.03037981130182743
-0.13178294897079468 -0.41085273027420044 0.006199067458510399
-0.13178294897079468 -0.41085273027420044 0.09360116720199585
-0.13178294897079468 -0.41085273027420044 0.10381637513637543
-0.13178294897079468 -0.41085273027420044 0.7905235290527344
-0.13178294897079468 -0.41085273027420044 0.9189465641975403
-0.13178294897079468 -0.39534884691238403 -0.03438623249530792
-0.13178294897079468 -0.39534884691238403 0.004992783069610596
-0.13178294897079468 -0.39534884691238403 0.06744341552257538
-0.13178296387195587 -0.39534884691238403 0.10140526294708252
-0.13178294897079468 -0.39534884691238403 0.7756843566894531
-0.13178294897079468 -0.39534884691238403 0.9105013608932495
-0.13178294897079468 -0.3798449635505676 -0.04188190773129463
-0.13178294897079468 -0.3798449635505676 0.004659590311348438
-0.13178294897079468 -0.3798449635505676 0.042242005467414856
-0.13178294897079468 -0.3798449635505676 0.09008137881755829
-0.13178294897079468 -0.3798449635505676 0.7665389776229858
-0.13178294897079468 -0.3798449635505676 0.9038069248199463
-0.13178294897079468 -0.3643410801887512 -0.04601883143186569
-0.13178294897079468 -0.3643410801887512 0.007116330787539482
-0.13178294897079468 -0.3643410801887512 0.023868044838309288
-0.13178294897079468 -0.3643410801887512 0.08182807266712189
-0.13178294897079468 -0.3643410801887512 0.7561545372009277
-0.13178294897079468 -0.3643410801887512 0.8953156471252441
-0.13178294897079468 -0.3488371968269348 -0.049627430737018585
-0.13178294897079468 -0.3488371968269348 0.07269713282585144
-0.13178294897079468 -0.3488371968269348 0.744472861289978
-0.13178294897079468 -0.3488371968269348 0.8876990079879761
-0.13178294897079468 -0.3333333134651184 -0.055511560291051865
-0.13178294897079468 -0.3333333134651184 0.06474406272172928
-0.13178294897079468 -0.3333333134651184 0.7315462231636047
-0.13178294897079468 -0.3333333134651184 0.8793018460273743
-0.13178294897079468 -0.317829430103302 -0.05975855886936188
-0.13178294897079468 -0.317829430103302 0.05864527449011803
-0.13178294897079468 -0.317829430103302 0.7168872356414795
-0.13178294897079468 -0.317829430103302 0.8703745603561401
-0.13178294897079468 -0.30232560634613037 -0.06517572700977325
-0.13178294897079468 -0.30232560634613037 0.05538208782672882
-0.13178294897079468 -0.30232560634613037 0.6977030038833618
-0.13178294897079468 -0.30232560634613037 0.8602406978607178
-0.13178294897079468 -0.28682172298431396 -0.07269099354743958
-0.13178294897079468 -0.28682172298431396 0.05393778160214424
-0.13178294897079468 -0.28682172298431396 0.6730846166610718
-0.13178294897079468 -0.28682172298431396 0.8486420512199402
-0.13178294897079468 -0.27131783962249756 -0.07808898389339447
-0.13178294897079468 -0.27131783962249756 0.054290637373924255
-0.13178294897079468 -0.27131783962249756 0.6471094489097595
-0.13178294897079468 -0.27131783962249756 0.8350627422332764
-0.13178294897079468 -0.25581395626068115 -0.08550665527582169
-0.13178294897079468 -0.25581395626068115 0.056168440729379654
-0.13178294897079468 -0.25581395626068115 0.5968420505523682
-0.13178296387195587 -0.25581395626068115 0.5970581769943237
-0.13178294897079468 -0.25581395626068115 0.6450220346450806
-0.13178294897079468 -0.25581395626068115 0.8223294019699097
-0.13178294897079468 -0.24031007289886475 -0.08919025212526321
-0.13178294897079468 -0.24031007289886475 0.059820614755153656
-0.13178294897079468 -0.24031007289886475 0.5800924897193909
-0.13178294897079468 -0.24031007289886475 0.5903192162513733
-0.13178294897079468 -0.24031007289886475 0.6564568281173706
-0.13178294897079468 -0.24031007289886475 0.8100335001945496
-0.13178294897079468 -0.22480618953704834 -0.09232884645462036
-0.13178294897079468 -0.22480618953704834 0.06554263085126877
-0.13178294897079468 -0.22480618953704834 0.5750788450241089
-0.13178294897079468 -0.22480618953704834 0.5861086249351501
-0.13178294897079468 -0.22480618953704834 0.6650419235229492
-0.13178294897079468 -0.22480618953704834 0.7950421571731567
-0.13178294897079468 -0.20930230617523193 -0.09417907893657684
-0.13178294897079468 -0.20930230617523193 0.07159586995840073
-0.13178294897079468 -0.20930230617523193 0.5641882419586182
-0.13178294897079468 -0.20930230617523193 0.5817837119102478
-0.13178294897079468 -0.20930230617523193 0.6704165935516357
-0.13178294897079468 -0.20930230617523193 0.7711491584777832
-0.13178294897079468 -0.19379842281341553 -0.09507259726524353
-0.13178294897079468 -0.19379842281341553 0.07540950924158096
-0.13178294897079468 -0.19379842281341553 0.5617529153823853
-0.13178294897079468 -0.19379842281341553 0.5770986080169678
-0.13178294897079468 -0.19379842281341553 0.6732844114303589
-0.13178294897079468 -0.19379842281341553 0.7412083148956299
-0.13178294897079468 -0.1782945990562439 -0.09329212456941605
-0.13178294897079468 -0.1782945990562439 0.07913858443498611
-0.13178294897079468 -0.1782945990562439 0.556861162185669
-0.13178294897079468 -0.1782945990562439 0.5748192071914673
-0.13178294897079468 -0.1782945990562439 0.6718245148658752
-0.13178294897079468 -0.1782945990562439 0.7287958860397339
-0.13178294897079468 -0.1627907156944275 -0.08847175538539886
-0.13178294897079468 -0.1627907156944275 0.08267855644226074
-0.13178294897079468 -0.1627907156944275 0.5494518876075745
-0.13178294897079468 -0.1627907156944275 0.5753030776977539
-0.13178294897079468 -0.1627907156944275 0.6653733253479004
-0.13178294897079468 -0.1627907156944275 0.7205468416213989
-0.13178294897079468 -0.14728683233261108 -0.07664643973112106
-0.13178294897079468 -0.14728683233261108 0.08553846180438995
-0.13178294897079468 -0.14728683233261108 0.5462751984596252
-0.13178294897079468 -0.14728683233261108 0.577939510345459
-0.13178294897079468 -0.14728683233261108 0.6553096771240234
-0.13178294897079468 -0.14728683233261108 0.7110183238983154
-0.13178294897079468 -0.13178294897079468 -0.05836766958236694
-0.13178294897079468 -0.13178294897079468 0.0864056944847107
-0.13178294897079468 -0.13178294897079468 0.5381302833557129
-0.13178294897079468 -0.13178294897079468 0.5877981185913086
-0.13178294897079468 -0.13178294897079468 0.6350057125091553
-0.13178294897079468 -0.13178294897079468 0.6991240978240967
-0.13178294897079468 -0.11627906560897827 -0.03367595374584198
-0.13178294897079468 -0.11627906560897827 0.08634745329618454
-0.13178294897079468 -0.11627906560897827 0.5264987945556641
-0.13178294897079468 -0.11627906560897827 0.6845126748085022
-0.13178294897079468 -0.10077518224716187 -0.011131125502288342
-0.13178294897079468 -0.10077518224716187 0.08480147272348404
-0.13178294897079468 -0.10077518224716187 0.5085741877555847
-0.13178294897079468 -0.10077518224716187 0.6680954098701477
-0.13178294897079468 -0.08527129888534546 0.012432204559445381
-0.13178294897079468 -0.08527129888534546 0.07723850756883621
-0.13178294897079468 -0.08527129888534546 0.48727738857269287
-0.13178294897079468 -0.08527129888534546 0.6484032869338989
