-0.27131783962249756 -0.013836001046001911 0.17829453945159912
-0.27131783962249756 0.021874962374567986 -0.038759708404541016
-0.27131783962249756 0.036005228757858276 0.16279065608978271
-0.27131783962249756 0.06000892072916031 -0.05426359176635742
-0.27131783962249756 0.0830565094947815 0.1472867727279663
-0.27131783962249756 0.09813559055328369 -0.06976741552352905
-0.27131783962249756 0.12258118391036987 0.1317828893661499
-0.27131783962249756 0.136053204536438 -0.08527129888534546
-0.27131783962249756 0.16015207767486572 0.11627912521362305
-0.27131783962249756 0.19728602468967438 0.10077524185180664
-0.27131783962249756 0.2269057333469391 0.08527135848999023
-0.27131783962249756 0.25263315439224243 0.06976747512817383
-0.27131783962249756 0.2772671580314636 0.05426359176635742
-0.27131783962249756 0.30113548040390015 0.038759708404541016
-0.27131783962249756 0.32655391097068787 0.02325582504272461
-0.27131783962249756 0.34360748529434204 -0.08527129888534546
-0.27131783962249756 0.3556134104728699 0.007751941680908203
-0.27131783962249756 0.38630831241607666 -0.007751941680908203
-0.27131783962249756 0.40101301670074463 -0.06976741552352905
-0.27131783962249756 0.42225712537765503 -0.05426359176635742
-0.27131783962249756 0.42486393451690674 -0.038759708404541016
-0.27131783962249756 0.4133419394493103 -0.02325582504272461
-0.25581395626068115 -0.9538419842720032 -0.13178294897079468
-0.25581395626068115 -0.9556235671043396 -0.11627906560897827
-0.25581395626068115 -0.9559704065322876 -0.10077518224716187
-0.25581395626068115 -0.955814778804779 -0.08527129888534546
-0.25581395626068115 -0.955489456653595 -0.06976741552352905
-0.25581395626068115 -0.955083966255188 -0.05426359176635742
-0.25581395626068115 -0.9545952081680298 -0.038759708404541016
-0.25581395626068115 -0.9542490243911743 -0.02325582504272461
-0.25581395626068115 -0.9539240002632141 -0.007751941680908203
-0.25581395626068115 -0.9536470174789429 0.007751941680908203
-0.25581395626068115 -0.9549159407615662 0.7984496355056763
-0.25581395626068115 -0.9561010599136353 0.8139535188674927
-0.25581395626068115 -0.9561630487442017 0.8294574022293091
-0.25581395626068115 -0.9540410041809082 0.8449612855911255
-0.25581395626068115 -0.9461936354637146 0.007751941680908203
-0.25581395626068115 -0.9442882537841797 0.7829457521438599
-0.25581395626068115 -0.9325251579284668 -0.13178294897079468
-0.25581395626068115 -0.9228401184082031 -0.007751941680908203
-0.25581395626068115 -0.9278602600097656 0.7674418687820435
-0.25581395626068115 -0.9301269054412842 0.8294574022293091
-0.25581395626068115 -0.9371214509010315 0.8449612855911255
-0.25581395626068115 -0.9222241044044495 -0.007751941680908203
-0.25581395626068115 -0.9076919555664062 0.007751941680908203
-0.25581395626068115 -0.9160105586051941 0.751937985420227
-0.25581395626068115 -0.9156957268714905 0.8139535188674927
-0.25581395626068115 -0.8955354690551758 0.02325582504272461
-0.25581395626068115 -0.9041882157325745 0.7364341020584106
-0.25581395626068115 -0.8837180137634277 0.038759708404541016
-0.25581395626068115 -0.8889747262001038 0.7209302186965942
-0.25581395626068115 -0.8873372673988342 0.7984496355056763
-0.25581395626068115 -0.874241828918457 0.05426359176635742
-0.25581395626068115 -0.8648954629898071 0.06976747512817383
-0.25581395626068115 -0.8642699718475342 0.7054263353347778
-0.25581395626068115 -0.8575783371925354 0.08527135848999023
-0.25581395626068115 -0.852057933807373 0.10077524185180664
-0.25581395626068115 -0.8586742877960205 0.7829457521438599
-0.25581395626068115 -0.8361572027206421 -0.11627906560897827
-0.25581395626068115 -0.8446058034896851 0.11627913266420364
-0.25581395626068115 -0.8276392221450806 0.1317828893661499
-0.25581395626068115 -0.8269088268280029 0.6899224519729614
-0.25581395626068115 -0.8281335830688477 0.7674419283866882
-0.25581395626068115 -0.8038617372512817 -0.10077518224716187
-0.25581395626068115 -0.7998615503311157 0.1472867727279663
-0.25581395626068115 -0.7926911115646362 -0.08527129888534546
-0.25581395626068115 -0.7851223945617676 -0.06976741552352905
-0.25581395626068115 -0.7953671813011169 0.6744185090065002
-0.25581395626068115 -0.7888593077659607 0.751937985420227
-0.25581395626068115 -0.7785773873329163 -0.05426359176635742
-0.25581395626068115 -0.773086428642273 -0.038759708404541016
-0.25581395626068115 -0.7677669525146484 -0.02325582504272461
-0.25581395626068115 -0.7757823467254639 0.16279065608978271
-0.25581395626068115 -0.7757070064544678 0.6589146852493286
-0.25581395626068115 -0.7600167989730835 -0.007751941215246916
-0.25581395626068115 -0.7572315335273743 0.17829453945159912
-0.25581395626068115 -0.7620663642883301 0.6434108018875122
-0.25581395626068115 -0.7607138156890869 0.7364341020584106
-0.25581395626068115 -0.7512080669403076 0.007751941680908203
-0.25581395626068115 -0.7406086325645447 0.02325582504272461
-0.25581395626068115 -0.7400500178337097 0.19379842281341553
-0.25581395626068115 -0.7425751090049744 0.612403154373169
-0.25581395626068115 -0.7507795691490173 0.6279069185256958
-0.25581395626068115 -0.7397840023040771 0.7209302186965942
-0.25581395626068115 -0.7266275882720947 0.038759708404541016
-0.25581395626068115 -0.7238351702690125 0.20930230617523193
-0.25581395626068115 -0.7223624587059021 0.5813953876495361
-0.25581395626068115 -0.7333673238754272 0.5968992710113525
-0.25581395626068115 -0.7231559753417969 0.7054263353347778
-0.25581395626068115 -0.7091849446296692 0.05426359176635742
-0.25581395626068115 -0.7064398527145386 0.22480618953704834
-0.25581395626068115 -0.707121729850769 0.5658915042877197
-0.25581395626068115 -0.7067052125930786 0.6899224519729614
-0.25581395626068115 -0.6919763684272766 0.24031007289886475
-0.25581395626068115 -0.6902990937232971 0.674418568611145
-0.25581395626068115 -0.6861258745193481 0.06976747512817383
-0.25581395626068115 -0.6815679669380188 0.25581395626068115
-0.25581395626068115 -0.687393844127655 0.5503876209259033
-0.25581395626068115 -0.664261519908905 0.08527135848999023
-0.25581395626068115 -0.6744144558906555 0.27131783962249756
-0.25581395626068115 -0.6603987812995911 0.28682172298431396
-0.25581395626068115 -0.6596609950065613 0.5348837375640869
-0.25581395626068115 -0.6720591187477112 0.6589146852493286
-0.25581395626068115 -0.6520403027534485 0.6434108018875122
-0.25581395626068115 -0.6433097124099731 0.10077524185180664
-0.25581395626068115 -0.6418784260749817 0.30232560634613037
-0.25581395626068115 -0.6304823160171509 0.5193798542022705
-0.25581395626068115 -0.6281278729438782 0.6279069185256958
-0.25581395626068115 -0.6184403896331787 0.11627912521362305
-0.25581395626068115 -0.6233223080635071 0.30232560634613037
-0.25581395626068115 -0.5997780561447144 0.5038759708404541
-0.25581395626068115 -0.6036262512207031 0.612403154373169
-0.25581395626068115 -0.5910883545875549 0.1317828893661499
-0.25581395626068115 -0.5716512799263 0.28682172298431396
-0.25581395626068115 -0.5800430774688721 0.5968992710113525
-0.25581395626068115 -0.556551456451416 0.1472867727279663
-0.25581395626068115 -0.5577940940856934 0.4883720874786377
-0.25581395626068115 -0.5538312196731567 0.5813953876495361
-0.25581395626068115 -0.5267307758331299 0.27131783962249756
-0.25581395626068115 -0.5295272469520569 0.5658915042877197
-0.25581395626068115 -0.5180101990699768 0.4728682041168213
-0.25581395626068115 -0.5058744549751282 0.5503876209259033
-0.25581395626068115 -0.48694711923599243 0.4573643207550049
-0.25581395626068115 -0.4816255569458008 0.5348837375640869
-0.25581395626068115 -0.4629599452018738 0.4418604373931885
-0.25581395626068115 -0.4590684473514557 0.5193798542022705
-0.25581395626068115 -0.4555668830871582 0.25581395626068115
-0.25581395626068115 -0.44534242153167725 0.42635655403137207
-0.25581395626068115 -0.4310857951641083 0.41085267066955566
-0.25581395626068115 -0.4378992021083832 0.5038759708404541
-0.25581395626068115 -0.41237732768058777 0.37984490394592285
-0.25581395626068115 -0.4204375743865967 0.39534878730773926
-0.25581395626068115 -0.4161226749420166 0.4883720874786377
-0.25581395626068115 -0.39600613713264465 0.3488372564315796
-0.25581395626068115 -0.4048631191253662 0.364341139793396
-0.25581395626068115 -0.39718663692474365 0.4728682041168213
-0.25581395626068115 -0.3828902840614319 0.24031007289886475
-0.25581395626068115 -0.3860296607017517 0.3333333730697632
-0.25581395626068115 -0.3800274431705475 0.4573643207550049
-0.25581395626068115 -0.36642980575561523 0.3178294897079468
-0.25581395626068115 -0.36249101161956787 0.22480617463588715
-0.25581395626068115 -0.36250796914100647 0.4418604373931885
-0.25581395626068115 -0.3421604037284851 0.1472867727279663
-0.25581395626068115 -0.3414832353591919 0.30232560634613037
-0.25581395626068115 -0.3463192880153656 0.42635655403137207
-0.25581395626068115 -0.3265843987464905 0.20930230617523193
-0.25581395626068115 -0.3292749524116516 0.41085267066955566
-0.25581395626068115 -0.3099898099899292 0.39534878730773926
-0.25581395626068115 -0.29519009590148926 0.1317828893661499
-0.25581395626068115 -0.2948082685470581 0.28682172298431396
-0.25581395626068115 -0.28787460923194885 0.37984490394592285
-0.25581395626068115 -0.2671965956687927 0.11627912521362305
-0.25581395626068115 -0.26379460096359253 0.364341139793396
-0.25581395626068115 -0.2438250482082367 0.10077524185180664
-0.25581395626068115 -0.2509416341781616 0.19379842281341553
-0.25581395626068115 -0.25096026062965393 0.27131783962249756
-0.25581395626068115 -0.23763896524906158 0.3488372564315796
-0.25581395626068115 -0.22390000522136688 0.08527135848999023
-0.25581395626068115 -0.21217074990272522 0.19379842281341553
-0.25581395626068115 -0.2115599513053894 0.24031007289886475
-0.25581395626068115 -0.22378285229206085 0.25581395626068115
-0.25581395626068115 -0.21263837814331055 0.3333333730697632
-0.25581395626068115 -0.20671479403972626 0.06976747512817383
-0.25581395626068115 -0.20303606986999512 0.20930230617523193
-0.25581395626068115 -0.2042342573404312 0.22480618953704834
-0.25581395626068115 -0.1907779425382614 0.05426359176635742
-0.25581395626068115 -0.18846997618675232 0.3178294897079468
-0.25581395626068115 -0.17470569908618927 0.038759708404541016
-0.25581395626068115 -0.163895383477211 0.30232560634613037
-0.25581395626068115 -0.1574309915304184 0.02325582504272461
-0.25581395626068115 -0.1380905658006668 0.007751941680908203
-0.25581395626068115 -0.14057590067386627 0.28682172298431396
-0.25581395626068115 -0.11722981184720993 -0.007751941680908203
-0.25581395626068115 -0.11721228063106537 0.27131783962249756
-0.25581395626068115 -0.09514429420232773 -0.02325582504272461
-0.25581395626068115 -0.09089663624763489 0.25581395626068115
-0.25581395626068115 -0.07140529155731201 -0.038759708404541016
-0.25581395626068115 -0.07096430659294128 0.10077524185180664
-0.25581395626068115 -0.08066343516111374 0.11627912521362305
-0.25581395626068115 -0.05461529269814491 0.08527135848999023
-0.25581395626068115 -0.06434778869152069 0.24031007289886475
-0.25581395626068115 -0.04622265696525574 -0.05426359176635742
-0.25581395626068115 -0.03450263291597366 0.06976747512817383
-0.25581395626068115 -0.03731222450733185 0.22480618953704834
-0.25581395626068115 -0.016544533893465996 -0.06976741552352905
-0.25581395626068115 -0.011493830010294914 0.05426359176635742
-0.25581395626068115 0.006186413578689098 0.038759708404541016
-0.25581395626068115 -0.0006802603602409363 0.20930230617523193
-0.25581395626068115 0.012520406395196915 -0.08527129888534546
-0.25581395626068115 0.036959487944841385 0.007751941680908203
-0.25581395626068115 0.023866495117545128 0.02325582504272461
-0.25581395626068115 0.027779102325439453 0.11627912521362305
-0.25581395626068115 0.04519704729318619 -0.10077518224716187
-0.25581395626068115 0.05556585267186165 -0.007751941680908203
-0.25581395626068115 0.05591222271323204 0.19379842281341553
-0.25581395626068115 0.08045322448015213 -0.11627906560897827
-0.25581395626068115 0.07100477069616318 0.10077524185180664
-0.25581395626068115 0.08660963922739029 -0.02325582504272461
-0.25581395626068115 0.09750533849000931 0.08527135848999023
-0.25581395626068115 0.11625690758228302 -0.13178294897079468
-0.25581395626068115 0.1111222356557846 0.06976747512817383
-0.25581395626068115 0.10363813489675522 0.17829453945159912
-0.25581395626068115 0.12189200520515442 0.05426359176635742
-0.25581395626068115 0.1424936056137085 -0.038759708404541016
-0.25581395626068115 0.14113540947437286 0.16279065608978271
-0.25581395626068115 0.1532791256904602 0.038759708404541016
-0.25581395626068115 0.166099414229393 -0.14728683233261108
-0.25581395626068115 0.16395670175552368 -0.038759708404541016
-0.25581395626068115 0.17378763854503632 0.1472867727279663
-0.25581395626068115 0.18096666038036346 0.02325582504272461
-0.25581395626068115 0.2020898014307022 0.007751941680908203
-0.25581395626068115 0.2033809870481491 0.1317828893661499
-0.25581395626068115 0.2107149362564087 -0.02325582504272461
-0.25581395626068115 0.21268330514431 -0.007751941215246916
-0.25581395626068115 0.23199869692325592 0.11627912521362305
-0.25581395626068115 0.26187050342559814 0.10077524185180664
-0.25581395626068115 0.2948899269104004 0.08527135848999023
-0.25581395626068115 0.32950276136398315 0.06976747512817383
-0.25581395626068115 0.34278786182403564 -0.14728683233261108
-0.25581395626068115 0.3706400692462921 0.05426358804106712
-0.25581395626068115 0.41661906242370605 -0.13178294897079468
-0.25581395626068115 0.415202796459198 0.038759708404541016
-0.25581395626068115 0.45897310972213745 -0.11627906560897827
-0.25581395626068115 0.47047966718673706 0.02325582504272461
-0.25581395626068115 0.5010174512863159 -0.10077518224716187
-0.25581395626068115 0.5259604454040527 0.007751941680908203
-0.25581395626068115 0.5554777383804321 -0.08527129888534546
-0.25581395626068115 0.6074236631393433 -0.06976741552352905
-0.25581395626068115 0.6013836860656738 -0.00775194214656949
-0.25581395626068115 0.6330662965774536 -0.05426359176635742
-0.25581395626068115 0.6402091979980469 -0.038759708404541016
-0.25581395626068115 0.6311770081520081 -0.02325582504272461
-0.24031007289886475 -0.9553979635238647 -0.1627907156944275
-0.24031007289886475 -0.9560624361038208 -0.14728683233261108
-0.24031007289886475 -0.9559953212738037 -0.13178294897079468
-0.24031007289886475 -0.9557695984840393 -0.11627906560897827
-0.24031007289886475 -0.9553132057189941 -0.10077518224716187
-0.24031007289886475 -0.9548624753952026 -0.08527129888534546
-0.24031007289886475 -0.954443633556366 -0.06976741552352905
-0.24031007289886475 -0.9541395902633667 -0.05426359176635742
-0.24031007289886475 -0.9538081288337708 -0.038759708404541016
-0.24031007289886475 -0.9535669684410095 -0.02325582504272461
-0.24031007289886475 -0.953761637210846 0.8139535188674927
-0.24031007289886475 -0.9558669924736023 0.8294574022293091
-0.24031007289886475 -0.9566994905471802 0.8449612855911255
-0.24031007289886475 -0.955865740776062 0.8604651689529419
-0.24031007289886475 -0.9520552754402161 -0.1782945990562439
-0.24031007289886475 -0.9423335790634155 -0.038759708404541016
-0.24031007289886475 -0.9518564939498901 -0.02325582504272461
-0.24031007289886475 -0.9349399209022522 -0.1782945990562439
-0.24031007289886475 -0.9278337955474854 -0.05426359176635742
-0.24031007289886475 -0.9228270053863525 0.7829457521438599
-0.24031007289886475 -0.9331656694412231 0.7984496355056763
-0.24031007289886475 -0.9232885837554932 0.8449612855911255
-0.24031007289886475 -0.932202935218811 0.8604651093482971
-0.24031007289886475 -0.9180418252944946 -0.05426359176635742
-0.24031007289886475 -0.9070166945457458 -0.038759708404541016
-0.24031007289886475 -0.9121618270874023 0.7674418687820435
-0.24031007289886475 -0.8985742926597595 -0.02325582504272461
-0.24031007289886475 -0.8915227651596069 0.7364341020584106
-0.24031007289886475 -0.9020618200302124 0.7519379258155823
-0.24031007289886475 -0.8993947505950928 0.8294574022293091
-0.24031007289886475 -0.8898646831512451 -0.007751941680908203
-0.24031007289886475 -0.8804172277450562 0.007751941680908203
-0.24031007289886475 -0.8724388480186462 0.02325582504272461
-0.24031007289886475 -0.86475670337677 0.038759708404541016
-0.24031007289886475 -0.8715528249740601 0.7209302186965942
-0.24031007289886475 -0.8739579916000366 0.8139535188674927
-0.24031007289886475 -0.8592687845230103 0.05426359176635742
-0.24031007289886475 -0.8515726327896118 0.06976747512817383
-0.24031007289886475 -0.8471494913101196 0.08527135848999023
-0.24031007289886475 -0.8470914959907532 0.10077524185180664
-0.24031007289886475 -0.8465973734855652 0.11627912521362305
-0.24031007289886475 -0.8476361036300659 0.7984496355056763
-0.24031007289886475 -0.8299813270568848 0.1317828893661499
-0.24031007289886475 -0.8357284069061279 0.7054263353347778
-0.24031007289886475 -0.8141385316848755 0.7829457521438599
-0.24031007289886475 -0.7844519019126892 -0.1627907156944275
-0.24031007289886475 -0.7970141172409058 0.1472867727279663
-0.24031007289886475 -0.7954447865486145 0.6899224519729614
-0.24031007289886475 -0.7735188603401184 0.16279065608978271
-0.24031007289886475 -0.7749413251876831 0.674418568611145
-0.24031007289886475 -0.7821605801582336 0.7674418687820435
-0.24031007289886475 -0.7646955847740173 -0.14728683233261108
-0.24031007289886475 -0.7534409761428833 -0.13178294897079468
-0.24031007289886475 -0.7564605474472046 0.17829453945159912
-0.24031007289886475 -0.7591001987457275 0.6589146852493286
-0.24031007289886475 -0.7595900297164917 0.751937985420227
-0.24031007289886475 -0.746023416519165 -0.11627906560897827
-0.24031007289886475 -0.7409687638282776 -0.10077518224716187
-0.24031007289886475 -0.7376827001571655 -0.08527129888534546
-0.24031007289886475 -0.7381265163421631 0.19379842281341553
-0.24031007289886475 -0.738762617111206 0.6279069185256958
-0.24031007289886475 -0.7480086088180542 0.6434108018875122
-0.24031007289886475 -0.740164041519165 0.7364341020584106
-0.24031007289886475 -0.734282374382019 -0.06976741552352905
-0.24031007289886475 -0.7298337817192078 -0.05426359176635742
-0.24031007289886475 -0.7246220111846924 -0.038759708404541016
-0.24031007289886475 -0.7289528846740723 0.612403154373169
-0.24031007289886475 -0.72390216588974 0.7209302186965942
-0.24031007289886475 -0.7189714312553406 -0.02325582504272461
-0.24031007289886475 -0.7075226306915283 -0.007751941680908203
-0.24031007289886475 -0.7185414433479309 0.20930230617523193
-0.24031007289886475 -0.7160890102386475 0.5968992710113525
-0.24031007289886475 -0.7081210613250732 0.7054263353347778
-0.24031007289886475 -0.6904613375663757 0.007751941680908203
-0.24031007289886475 -0.6985067129135132 0.22480618953704834
-0.24031007289886475 -0.6998279094696045 0.5813953876495361
-0.24031007289886475 -0.6907579898834229 0.6899224519729614
-0.24031007289886475 -0.6807428002357483 0.24031007289886475
-0.24031007289886475 -0.680640697479248 0.5658915042877197
-0.24031007289886475 -0.6701229214668274 0.02325582504272461
-0.24031007289886475 -0.660772442817688 0.25581395626068115
-0.24031005799770355 -0.6725655794143677 0.674418568611145
-0.24031007289886475 -0.6471027135848999 0.038759708404541016
-0.24031007289886475 -0.6534993052482605 0.5503876209259033
-0.24031007289886475 -0.6505903601646423 0.6589146852493286
-0.24031007289886475 -0.638159990310669 0.27131783962249756
-0.24031008780002594 -0.6226951479911804 0.05426359176635742
-0.24031007289886475 -0.616239607334137 0.27131783962249756
-0.24031007289886475 -0.6224746704101562 0.5348837375640869
-0.24031007289886475 -0.6249229907989502 0.6434108018875122
-0.24031007289886475 -0.5990635752677917 0.06976747512817383
-0.24031007289886475 -0.5990128517150879 0.6279069185256958
-0.24031007289886475 -0.5870741605758667 0.5193798542022705
-0.24031007289886475 -0.5798311233520508 0.08527135848999023
-0.24031005799770355 -0.5784217119216919 0.25581395626068115
-0.24031007289886475 -0.5732944011688232 0.612403154373169
-0.24031007289886475 -0.5611599683761597 0.10077524185180664
-0.24031007289886475 -0.5392889976501465 0.11627912521362305
-0.24031007289886475 -0.5423997640609741 0.5038759708404541
-0.24031007289886475 -0.5471006035804749 0.5968992710113525
-0.24031007289886475 -0.5225760340690613 0.5813953876495361
-0.24031007289886475 -0.5058978199958801 0.1317828893661499
-0.24031007289886475 -0.5064706206321716 0.24031007289886475
-0.24031007289886475 -0.5074024796485901 0.4883720874786377
-0.24031007289886475 -0.49931591749191284 0.5658915042877197
-0.24031007289886475 -0.47882258892059326 0.4728682041168213
-0.24031007289886475 -0.47469985485076904 0.5503876209259033
-0.24031007289886475 -0.4610973298549652 0.22480618953704834
-0.24031007289886475 -0.4543353319168091 0.4573643207550049
-0.24031007289886475 -0.4508088529109955 0.5348837375640869
-0.24031007289886475 -0.4337165951728821 0.4418604373931885
-0.24031007289886475 -0.4284802973270416 0.5193798542022705
-0.24031007289886475 -0.4173737168312073 0.42635655403137207
-0.24031007289886475 -0.4070203900337219 0.20930230617523193
-0.24031008780002594 -0.40372204780578613 0.41085267066955566
-0.24031007289886475 -0.407611608505249 0.5038759708404541
-0.24031007289886475 -0.38095036149024963 0.37984490394592285
-0.24031007289886475 -0.39226049184799194 0.39534878730773926
-0.24031007289886475 -0.387393593788147 0.4883720874786377
-0.24031007289886475 -0.3673672080039978 0.364341139793396
-0.24031007289886475 -0.36932626366615295 0.4728682041168213
-0.24031007289886475 -0.3613044023513794 0.19379842281341553
-0.24031007289886475 -0.35101115703582764 0.3488372564315796
-0.24031007289886475 -0.35250845551490784 0.4573643207550049
-0.24031007289886475 -0.343132346868515 0.1317828893661499
-0.24031007289886475 -0.33400559425354004 0.3333333730697632
-0.24031007289886475 -0.3365986943244934 0.4418604373931885
-0.24031007289886475 -0.3199150562286377 0.42635655403137207
-0.24031007289886475 -0.30845868587493896 0.3178294897079468
-0.24031007289886475 -0.2970707416534424 0.11627912521362305
-0.24031007289886475 -0.2998364567756653 0.17829453945159912
-0.24031007289886475 -0.30146485567092896 0.41085267066955566
-0.24031007289886475 -0.27198904752731323 0.10077524185180664
-0.24031007289886475 -0.27326738834381104 0.30232560634613037
-0.24031007289886475 -0.2810767889022827 0.39534878730773926
-0.24031007289886475 -0.2566579580307007 0.37984490394592285
-0.24031007289886475 -0.2516316771507263 0.08527135848999023
-0.24031007289886475 -0.24856171011924744 0.16279065608978271
-0.24031007289886475 -0.23485660552978516 0.06976747512817383
-0.24031007289886475 -0.22577768564224243 0.1472867727279663
-0.24031007289886475 -0.23524320125579834 0.28682172298431396
-0.24031007289886475 -0.23219479620456696 0.364341139793396
-0.24031007289886475 -0.2204224020242691 0.05426359176635742
-0.24031007289886475 -0.21374714374542236 0.27131783962249756
-0.24031007289886475 -0.20604208111763 0.038759708404541016
-0.24031007289886475 -0.20419687032699585 0.1317828893661499
-0.24031007289886475 -0.19443854689598083 0.25581395626068115
-0.24031007289886475 -0.20714473724365234 0.3488372266292572
-0.24031007289886475 -0.19046980142593384 0.02325582504272461
-0.24031007289886475 -0.1879047006368637 0.11627912521362305
-0.24031007289886475 -0.18241789937019348 0.3333333730697632
-0.24031005799770355 -0.17333897948265076 0.007751941680908203
-0.24031007289886475 -0.16782519221305847 0.10077524185180664
-0.24031007289886475 -0.17438063025474548 0.24031007289886475
-0.24031007289886475 -0.15394756197929382 -0.007751941680908203
-0.24031007289886475 -0.15711446106433868 0.22480620443820953
-0.24031007289886475 -0.1565985232591629 0.3178294897079468
-0.24031007289886475 -0.13426297903060913 -0.02325582504272461
-0.24031007289886475 -0.14389491081237793 0.08527135848999023
-0.24031007289886475 -0.13904589414596558 0.20930230617523193
-0.24031007289886475 -0.11905001103878021 0.06976747512817383
-0.24031007289886475 -0.13052675127983093 0.302325576543808
-0.24031007289886475 -0.11617032438516617 -0.038759712129831314
-0.24031007289886475 -0.10351261496543884 0.19379842281341553
-0.24031007289886475 -0.10385073721408844 0.28682172298431396
-0.24031007289886475 -0.09775684773921967 -0.05426359176635742
-0.24031007289886475 -0.09096583724021912 0.05426359176635742
-0.24031007289886475 -0.07724685966968536 -0.06976741552352905
-0.24031007289886475 -0.0768703743815422 0.27131783962249756
-0.24031007289886475 -0.06731664389371872 0.038759708404541016
-0.24031007289886475 -0.06441894173622131 0.17829453945159912
-0.24031007289886475 -0.05383387953042984 -0.08527129888534546
-0.24031007289886475 -0.04776530712842941 0.02325582504272461
-0.24031007289886475 -0.04980829358100891 0.25581395626068115
-0.24031007289886475 -0.028347529470920563 -0.10077518224716187
-0.24031007289886475 -0.03148289769887924 0.007751941680908203
-0.24031007289886475 -0.01434130035340786 -0.007751941680908203
-0.24031007289886475 -0.01881849206984043 0.16279065608978271
-0.24031007289886475 -0.018483983352780342 0.24031007289886475
-0.24031007289886475 0.0003564127255231142 -0.11627906560897827
-0.24031007289886475 0.005803593434393406 -0.02325582504272461
-0.24031007289886475 0.030911196023225784 -0.13178294897079468
-0.24031007289886475 0.03184457868337631 -0.038759708404541016
-0.24031007289886475 0.02430025115609169 0.22480618953704834
-0.24031007289886475 0.06396500021219254 -0.14728683233261108
-0.24031007289886475 0.06071951240301132 -0.05426359176635742
-0.24031007289886475 0.05535668879747391 0.1472867727279663
-0.24031007289886475 0.07853179425001144 0.20930230617523193
-0.24031007289886475 0.09971332550048828 -0.1627907156944275
-0.24031007289886475 0.09474396705627441 -0.06976741552352905
-0.24031007289886475 0.10030364245176315 0.1317828893661499
-0.24031007289886475 0.12726767361164093 0.11627912521362305
-0.24031007289886475 0.12648537755012512 0.19379842281341553
-0.24031007289886475 0.14725689589977264 -0.1782945990562439
-0.24031007289886475 0.14943267405033112 0.10077524185180664
-0.24031007289886475 0.17535844445228577 0.06976747512817383
-0.24031007289886475 0.16454465687274933 0.08527135848999023
-0.24031005799770355 0.16299863159656525 0.17829453945159912
-0.24031007289886475 0.18823868036270142 0.05426359176635742
-0.24031007289886475 0.19186241924762726 0.16279065608978271
-0.24031007289886475 0.21065165102481842 0.038759708404541016
-0.24031007289886475 0.21853068470954895 0.1472867727279663
-0.24031007289886475 0.23797249794006348 0.02325582504272461
-0.24031007289886475 0.25459134578704834 -0.06976741552352905
-0.24031007289886475 0.24659153819084167 0.1317828893661499
-0.24031007289886475 0.269535094499588 0.007751941680908203
-0.24031007289886475 0.2797456681728363 0.11627912521362305
-0.24031007289886475 0.29682978987693787 -0.05426359176635742
-0.24031007289886475 0.29322418570518494 -0.007751941680908203
-0.24031007289886475 0.3056392967700958 -0.038759708404541016
-0.24031007289886475 0.3050118088722229 -0.02325582504272461
-0.24031007289886475 0.32022514939308167 0.10077524185180664
-0.24031005799770355 0.34928104281425476 -0.1782945841550827
-0.24031007289886475 0.36898016929626465 0.08527135848999023
-0.24031007289886475 0.42588430643081665 0.06976747512817383
-0.24031007289886475 0.43098828196525574 -0.1627907156944275
-0.24031007289886475 0.4930932819843292 -0.14728683233261108
-0.24031007289886475 0.5114971995353699 0.05426359176635742
-0.24031007289886475 0.5723854899406433 -0.13178294897079468
-0.24031007289886475 0.6198890209197998 0.038759708404541016
-0.24031007289886475 0.6497858762741089 -0.11627906560897827
-0.24031007289886475 0.6810203194618225 0.02325582504272461
-0.24031007289886475 0.7310482263565063 0.007751941680908203
-0.24031007289886475 0.7810148000717163 -0.10077518224716187
-0.24031007289886475 0.7990899682044983 -0.007751941680908203
-0.24031007289886475 0.867171049118042 -0.02325582504272461
-0.24031007289886475 0.9023740887641907 -0.10077518224716187
-0.24031007289886475 0.9098345637321472 -0.10077518224716187
-0.24031007289886475 0.9143655300140381 -0.08527129888534546
-0.24031007289886475 0.9154418706893921 -0.06976741552352905
-0.24031007289886475 0.9153072237968445 -0.05426359176635742
-0.24031007289886475 0.9134362936019897 -0.038759708404541016
-0.22480618953704834 -0.9551495909690857 -0.20930230617523193
-0.22480618953704834 -0.9560080170631409 -0.19379842281341553
-0.22480618953704834 -0.956040620803833 -0.1782945990562439
-0.22480618953704834 -0.955942690372467 -0.1627907156944275
-0.22480618953704834 -0.9556466341018677 -0.14728683233261108
-0.22480618953704834 -0.9552628993988037 -0.13178294897079468
-0.22480618953704834 -0.9549213647842407 -0.11627906560897827
-0.22480618953704834 -0.9545829892158508 -0.10077518224716187
-0.22480618953704834 -0.9543325901031494 -0.08527129888534546
-0.22480618953704834 -0.9540598392486572 -0.06976741552352905
-0.22480618953704834 -0.9538161158561707 -0.05426359176635742
-0.22480618953704834 -0.9534978270530701 -0.038759708404541016
-0.22480618953704834 -0.9556070566177368 0.8449612855911255
-0.22480618953704834 -0.9569552540779114 0.8604651689529419
-0.22480618953704834 -0.956611156463623 0.8759689331054688
-0.22480618953704834 -0.9532756209373474 -0.22480618953704834
-0.22480618953704834 -0.9434270858764648 -0.06976741552352905
-0.22480618953704834 -0.9494691491127014 -0.05426359176635742
-0.22480618953704834 -0.9533928632736206 -0.038759708404541016
-0.22480618953704834 -0.9472136497497559 0.8294574022293091
-0.22480618953704834 -0.9324007034301758 -0.22480618953704834
-0.22480618953704834 -0.924383282661438 -0.10077518224716187
-0.22480618953704834 -0.9331415891647339 -0.08527129888534546
-0.22480618953704834 -0.9278148412704468 0.8139535188674927
-0.22480618953704834 -0.9294232726097107 0.8759689331054688
-0.22480618953704834 -0.9196249842643738 -0.10077518224716187
-0.22480618953704834 -0.907355546951294 -0.08527129888534546
-0.22480618953704834 -0.9094879627227783 0.7829457521438599
-0.22480618953704834 -0.9176964163780212 0.7984496355056763
-0.22480618953704834 -0.9152500629425049 0.8604651689529419
-0.22480618953704834 -0.8996977806091309 -0.06976741552352905
-0.22480618953704834 -0.894533097743988 -0.05426359176635742
-0.22480618953704834 -0.8919892311096191 0.751937985420227
-0.22480618953704834 -0.9003458619117737 0.7674418687820435
-0.22480620443820953 -0.8887031078338623 -0.038759708404541016
-0.22480618953704834 -0.8844013214111328 -0.02325582504272461
-0.22480618953704834 -0.8787910342216492 -0.007751941680908203
-0.22480618953704834 -0.8781216740608215 0.7364341020584106
-0.22480618953704834 -0.8902828097343445 0.8449612855911255
-0.22480618953704834 -0.8722447752952576 -0.22480618953704834
-0.22480618953704834 -0.872270941734314 0.007751941680908203
-0.22480618953704834 -0.8663620352745056 0.02325582504272461
-0.22480618953704834 -0.8606805205345154 0.038759708404541016
-0.22480618953704834 -0.866102933883667 0.8294574022293091
-0.22480620443820953 -0.8567565679550171 0.05426359176635742
-0.22480618953704834 -0.8512452840805054 0.06976747512817383
-0.22480618953704834 -0.8506803512573242 0.08527135848999023
-0.22480618953704834 -0.8550205230712891 0.10077524185180664
-0.22480618953704834 -0.8517371416091919 0.11627912521362305
-0.22480618953704834 -0.8502417206764221 0.7209302186965942
-0.22480618953704834 -0.8401017785072327 0.8139535188674927
-0.22480618953704834 -0.8167784214019775 0.1317828893661499
-0.22480618953704834 -0.8026262521743774 0.7054263353347778
-0.22480618953704834 -0.8069388270378113 0.7984496355056763
-0.22480617463588715 -0.7769721746444702 0.1472867727279663
-0.22480618953704834 -0.7758805751800537 0.6899224519729614
-0.22480618953704834 -0.7782021760940552 0.7829457521438599
-0.22480618953704834 -0.7598918676376343 -0.22480618953704834
-0.22480617463588715 -0.7611513733863831 0.16279065608978271
-0.22480618953704834 -0.7591553926467896 0.674418568611145
-0.22480618953704834 -0.7583075165748596 0.7674418687820435
-0.22480618953704834 -0.7378960847854614 -0.20930230617523193
-0.22480618953704834 -0.7441396117210388 0.17829453945159912
-0.22480618953704834 -0.7366783022880554 0.6434108018875122
-0.22480617463588715 -0.7460582256317139 0.6589146852493286
-0.22480618953704834 -0.7415459156036377 0.751937985420227
-0.22480618953704834 -0.7262716293334961 0.6279069185256958
-0.22480618953704834 -0.7257891297340393 0.7364341020584106
-0.22480618953704834 -0.7189059257507324 -0.19379842281341553
-0.22480618953704834 -0.7203021049499512 0.19379842281341553
-0.22480618953704834 -0.7132889032363892 0.612403154373169
-0.22480618953704834 -0.7101860642433167 0.7209302186965942
-0.22480618953704834 -0.7048512101173401 -0.1782945990562439
-0.22480618953704834 -0.694602370262146 -0.1627907156944275
-0.22480618953704834 -0.6938163638114929 0.20930230617523193
-0.22480618953704834 -0.6963067650794983 0.5968992710113525
-0.22480618953704834 -0.6936142444610596 0.7054263353347778
-0.22480618953704834 -0.6839219331741333 -0.14728683233261108
-0.22480618953704834 -0.6757967472076416 -0.13178294897079468
-0.22480618953704834 -0.6765269637107849 0.5813953876495361
-0.22480618953704834 -0.6693034172058105 -0.11627906560897827
-0.22480618953704834 -0.6636703610420227 -0.10077518224716187
-0.22480618953704834 -0.6597883105278015 -0.08527129888534546
-0.22480618953704834 -0.6629679203033447 0.22480618953704834
-0.22480618953704834 -0.6739409565925598 0.6899224519729614
-0.22480618953704834 -0.6556215286254883 -0.06976741552352905
-0.22480618953704834 -0.6494802236557007 -0.05426359176635742
-0.22480618953704834 -0.6510317325592041 0.5658915042877197
-0.22480618953704834 -0.6522359251976013 0.674418568611145
-0.22480618953704834 -0.6404995918273926 -0.038759708404541016
-0.22480618953704834 -0.6305679082870483 -0.02325582504272461
-0.22480618953704834 -0.6162561178207397 -0.007751941680908203
-0.22480618953704834 -0.6185591220855713 0.5503876209259033
-0.22480618953704834 -0.6232402920722961 0.6589146852493286
-0.22480618953704834 -0.6003209352493286 0.007751941680908203
-0.22480618953704834 -0.585155189037323 0.02325582504272461
-0.22480617463588715 -0.5955803990364075 0.6434108018875122
-0.22480618953704834 -0.5700230598449707 0.038759708404541016
-0.22480618953704834 -0.5800474882125854 0.5348837375640869
-0.22480618953704834 -0.5680252313613892 0.6279069185256958
-0.22480618953704834 -0.5544576644897461 0.05426359176635742
-0.22480618953704834 -0.539082944393158 0.06976747512817383
-0.22480618953704834 -0.5407773852348328 0.612403154373169
-0.22480618953704834 -0.5235828161239624 0.08527135848999023
-0.22480618953704834 -0.5321884751319885 0.22480618953704834
-0.22480618953704834 -0.5345519185066223 0.5193798542022705
-0.22480618953704834 -0.5047928690910339 0.10077524185180664
-0.22480618953704834 -0.5170624256134033 0.5968992710113525
-0.22480618953704834 -0.5031905174255371 0.5038759708404541
-0.22480618953704834 -0.49294883012771606 0.5813953876495361
-0.22480618953704834 -0.48026564717292786 0.20930230617523193
-0.22480618953704834 -0.4734444320201874 0.4883720874786377
-0.22480618953704834 -0.468769371509552 0.5658915042877197
-0.22480618953704834 -0.45395711064338684 0.11627912521362305
-0.22480618953704834 -0.4521913230419159 0.19379842281341553
-0.22480618953704834 -0.449626624584198 0.4728682041168213
-0.22480618953704834 -0.44547581672668457 0.5503876209259033
-0.22480618953704834 -0.4276045858860016 0.4573643207550049
-0.22480617463588715 -0.42201143503189087 0.5348837375640869
-0.22480617463588715 -0.4084739685058594 0.4418604373931885
-0.22480618953704834 -0.40082406997680664 0.5193798542022705
-0.22480618953704834 -0.38335344195365906 0.17829453945159912
-0.22480618953704834 -0.3928006887435913 0.42635655403137207
-0.22480618953704834 -0.38167160749435425 0.5038759708404541
-0.22480618953704834 -0.36615538597106934 0.39534878730773926
-0.22480618953704834 -0.3790469765663147 0.41085267066955566
-0.22480618953704834 -0.3532331883907318 0.37984490394592285
-0.22480618953704834 -0.36202099919319153 0.4883720874786377
-0.22480618953704834 -0.33735156059265137 0.11627912521362305
-0.22480618953704834 -0.33954882621765137 0.364341139793396
-0.22480620443820953 -0.34521040320396423 0.4728682339191437
-0.22480618953704834 -0.32020264863967896 0.3488372564315796
-0.22480618953704834 -0.32891175150871277 0.4573643207550049
-0.22480618953704834 -0.3033890724182129 0.16279065608978271
-0.22480620443820953 -0.3122197389602661 0.4418604373931885
-0.22480618953704834 -0.2954391837120056 0.10077524185180664
-0.22480618953704834 -0.2970691919326782 0.3333333730697632
-0.22480618953704834 -0.294633686542511 0.42635655403137207
-0.22480618953704834 -0.2740805149078369 0.08527135848999023
-0.22480618953704834 -0.2746744751930237 0.41085267066955566
-0.22480618953704834 -0.25701072812080383 0.06976747512817383
-0.22480618953704834 -0.2614172697067261 0.1472867727279663
-0.22480618953704834 -0.2679781913757324 0.3178294897079468
-0.22480618953704834 -0.24169866740703583 0.05426359176635742
-0.22480618953704834 -0.2408560961484909 0.1317828893661499
-0.22480618953704834 -0.25254368782043457 0.39534878730773926
-0.22480618953704834 -0.22856727242469788 0.038759708404541016
-0.22480618953704834 -0.2334999144077301 0.30232560634613037
-0.22480618953704834 -0.22754473984241486 0.37984490394592285
-0.22480618953704834 -0.2148706018924713 0.02325582504272461
-0.22480618953704834 -0.22383785247802734 0.11627913266420364
-0.22480618953704834 -0.2101358324289322 0.28682172298431396
-0.22480618953704834 -0.19880926609039307 0.007751941680908203
-0.22480618953704834 -0.2027859389781952 0.10077524185180664
-0.22480618953704834 -0.20320764183998108 0.364341139793396
-0.22480618953704834 -0.18010075390338898 -0.007751941680908203
-0.22480618953704834 -0.18204864859580994 0.08527135848999023
-0.22480618953704834 -0.1886175572872162 0.27131783962249756
-0.22480618953704834 -0.1654776781797409 0.25581395626068115
-0.22480618953704834 -0.17707030475139618 0.3488372564315796
-0.22480618953704834 -0.16095314919948578 -0.02325582690536976
-0.22480618953704834 -0.16058066487312317 0.06976747512817383
-0.22480618953704834 -0.15067444741725922 0.3333333730697632
-0.22480620443820953 -0.1444110870361328 -0.038759708404541016
-0.22480618953704834 -0.13885498046875 0.05426359176635742
-0.22480618953704834 -0.14168918132781982 0.24031005799770355
-0.22480618953704834 -0.12912233173847198 -0.05426359176635742
-0.22480618953704834 -0.12462057173252106 0.3178294897079468
-0.22480618953704834 -0.11274681985378265 -0.06976741552352905
-0.22480618953704834 -0.11504960060119629 0.038759712129831314
-0.22480618953704834 -0.11009769886732101 0.22480618953704834
-0.22480618953704834 -0.09343086928129196 -0.08527129888534546
-0.22480618953704834 -0.09110189974308014 0.02325582504272461
-0.22480618953704834 -0.0966101884841919 0.30232560634613037
-0.22480618953704834 -0.07165361940860748 -0.10077518224716187
-0.22480618953704834 -0.07349282503128052 0.007751941680908203
-0.22480618953704834 -0.07848338782787323 0.20930230617523193
-0.22480618953704834 -0.057866454124450684 -0.007751941680908203
-0.22480618953704834 -0.0690540298819542 0.28682172298431396
-0.22480618953704834 -0.048648394644260406 -0.11627906560897827
-0.22480618953704834 -0.03947409242391586 -0.02325582504272461
-0.22480618953704834 -0.04113738238811493 0.19379842281341553
-0.22480618953704834 -0.043542906641960144 0.27131783962249756
-0.22480618953704834 -0.020801546052098274 -0.13178294897079468
-0.22480618953704834 -0.016452396288514137 -0.038759708404541016
-0.22480618953704834 -0.013898046687245369 0.25581395626068115
-0.22480618953704834 0.007618051953613758 -0.05426359176635742
-0.22480618953704834 0.009401163086295128 -0.14728683233261108
-0.22480618953704834 0.020845556631684303 0.17829453945159912
-0.22480618953704834 0.03166567161679268 -0.06976741552352905
-0.22480618953704834 0.028959253802895546 0.24031007289886475
-0.22480618953704834 0.04092574864625931 -0.1627907156944275
-0.22480617463588715 0.05525793880224228 -0.08527129143476486
-0.22480618953704834 0.0726514607667923 -0.1782945990562439
-0.22480618953704834 0.08475430309772491 0.22480618953704834
-0.22480618953704834 0.08789107203483582 -0.10077518224716187
-0.22480618953704834 0.08887200802564621 0.16279065608978271
-0.22480618953704834 0.1106100007891655 -0.19379842281341553
-0.22480618953704834 0.12852302193641663 0.1472867727279663
-0.22480618953704834 0.13289955258369446 0.20930230617523193
-0.22480618953704834 0.15474632382392883 0.1317828893661499
-0.22480618953704834 0.1727132797241211 0.11627912521362305
-0.22480618953704834 0.17079079151153564 0.19379842281341553
-0.22480618953704834 0.18854938447475433 0.10077524185180664
-0.22480618953704834 0.20172898471355438 0.08527135848999023
-0.22480618953704834 0.20123893022537231 0.17829453945159912
-0.22480618953704834 0.21885260939598083 0.05426359176635742
-0.22480618953704834 0.209550678730011 0.06976747512817383
-0.22480618953704834 0.22679929435253143 -0.11627907305955887
-0.22480618953704834 0.22742031514644623 0.16279065608978271
-0.22480618953704834 0.24392825365066528 0.038759708404541016
-0.22480618953704834 0.25526291131973267 0.1472867727279663
-0.22480618953704834 0.27982601523399353 -0.13178294897079468
-0.22480618953704834 0.28541651368141174 0.02325582504272461
-0.22480618953704834 0.28993165493011475 0.1317828893661499
-0.22480618953704834 0.32041528820991516 0.007751941680908203
-0.22480618953704834 0.33675089478492737 -0.13178294897079468
-0.22480618953704834 0.33722981810569763 0.11627911776304245
-0.22480618953704834 0.34953418374061584 -0.007751941680908203
-0.22480618953704834 0.3787781596183777 -0.19379842281341553
-0.22480618953704834 0.3740372955799103 -0.02325582504272461
-0.22480618953704834 0.38935697078704834 -0.11627906560897827
-0.22480618953704834 0.3935166895389557 0.10077524185180664
-0.22480618953704834 0.4405684471130371 -0.10077518224716187
-0.22480618953704834 0.4554969370365143 -0.1782945990562439
-0.22480618953704834 0.46946489810943604 -0.038759708404541016
-0.22480618953704834 0.47088825702667236 0.08527135848999023
-0.22480618953704834 0.5041977763175964 -0.08527129888534546
-0.22480618953704834 0.5450527667999268 -0.1627907156944275
-0.22480618953704834 0.5763416290283203 -0.08527129888534546
-0.22480618953704834 0.588765561580658 -0.038759708404541016
-0.22480618953704834 0.5978527069091797 0.06976747512817383
-0.22480618953704834 0.6511329412460327 -0.14728683233261108
-0.22480618953704834 0.6649645566940308 -0.08527129888534546
-0.22480618953704834 0.694071352481842 0.05426359176635742
-0.22480618953704834 0.7095399498939514 -0.038759708404541016
-0.22480618953704834 0.7652297616004944 0.038759708404541016
-0.22480617463588715 0.7846015095710754 -0.038759708404541016
-0.22480618953704834 0.8231865167617798 -0.08527129888534546
-0.22480618953704834 0.8629489541053772 0.02325582504272461
-0.22480618953704834 0.9159284830093384 -0.13178294897079468
-0.22480618953704834 0.9182232618331909 -0.11627906560897827
-0.22480618953704834 0.9130417108535767 -0.10077518224716187
-0.22480618953704834 0.9163634777069092 -0.02325582504272461
-0.22480618953704834 0.9188894629478455 -0.007751941680908203
-0.22480618953704834 0.9165825843811035 0.007751941680908203
-0.20930230617523193 -0.9542462825775146 -0.27131783962249756
-0.20930230617523193 -0.9556171894073486 -0.25581395626068115
-0.20930230617523193 -0.9561368823051453 -0.24031007289886475
-0.20930230617523193 -0.9560821056365967 -0.22480618953704834
-0.20930230617523193 -0.9558637142181396 -0.20930230617523193
-0.20930230617523193 -0.9556632041931152 -0.19379842281341553
-0.20930230617523193 -0.9554352164268494 -0.1782945990562439
-0.20930230617523193 -0.9551867246627808 -0.1627907156944275
-0.20930230617523193 -0.9548715353012085 -0.14728683233261108
-0.20930230617523193 -0.9546306133270264 -0.13178294897079468
-0.20930230617523193 -0.9544538259506226 -0.11627906560897827
-0.20930230617523193 -0.9542389512062073 -0.10077518224716187
-0.20930230617523193 -0.9540614485740662 -0.08527129888534546
-0.20930230617523193 -0.9538344740867615 -0.06976741552352905
-0.20930230617523193 -0.9536033868789673 -0.05426359176635742
-0.20930230617523193 -0.9554277658462524 0.8604651689529419
-0.20930230617523193 -0.9571996927261353 0.8759689331054688
-0.20930230617523193 -0.9567028880119324 0.8914728164672852
-0.20930230617523193 -0.9415327906608582 -0.28682172298431396
-0.20930230617523193 -0.9420803785324097 -0.08527129888534546
-0.20930230617523193 -0.9486448764801025 -0.06976741552352905
-0.20930230617523193 -0.9522839188575745 -0.05426359176635742
-0.20930230617523193 -0.9369575381278992 -0.28682172298431396
-0.20930230617523193 -0.9259354472160339 -0.13178294897079468
-0.20930230617523193 -0.9299553632736206 -0.11627906560897827
-0.20930230617523193 -0.934821605682373 -0.10077518224716187
-0.20930230617523193 -0.9235408902168274 0.8294574022293091
-0.20930230617523193 -0.9378755688667297 0.8449612855911255
-0.20930230617523193 -0.927865743637085 0.8914728164672852
-0.20930230617523193 -0.9112368822097778 -0.13178294897079468
-0.20930230617523193 -0.9071027636528015 0.7984496355056763
-0.20930230617523193 -0.9137611389160156 0.8139535188674927
-0.20930230617523193 -0.9115147590637207 0.8759689331054688
-0.20930230617523193 -0.902474045753479 -0.11627906560897827
-0.20930230617523193 -0.8963813185691833 -0.10077518224716187
-0.20930230617523193 -0.8925554156303406 -0.08527129888534546
-0.20930230617523193 -0.898208498954773 0.7829457521438599
-0.20930230617523193 -0.8807199001312256 -0.28682172298431396
-0.20930232107639313 -0.8902755975723267 -0.06976741552352905
-0.20930230617523193 -0.8877602815628052 -0.05426359176635742
-0.20930230617523193 -0.8836660385131836 -0.038759708404541016
-0.20930230617523193 -0.8806158304214478 -0.02325582504272461
-0.20930230617523193 -0.8762106895446777 -0.007751941680908203
-0.20930230617523193 -0.8791685104370117 0.751937985420227
-0.20930230617523193 -0.8909386396408081 0.7674418687820435
-0.20930230617523193 -0.8873833417892456 0.8604651689529419
-0.20930230617523193 -0.8697370290756226 0.007751941680908203
-0.20930230617523193 -0.8642026782035828 0.02325582504272461
-0.20930230617523193 -0.8614227175712585 0.7364341020584106
-0.20930230617523193 -0.8631678819656372 0.8449612855911255
-0.20930230617523193 -0.8584901690483093 0.038759708404541016
-0.20930230617523193 -0.8559989929199219 0.05426359549164772
-0.20930230617523193 -0.8522531986236572 0.06976747512817383
-0.20930230617523193 -0.8516366481781006 0.08527135848999023
-0.20930230617523193 -0.8470888733863831 0.10077524185180664
-0.20930230617523193 -0.8294774293899536 -0.30232560634613037
-0.20930230617523193 -0.8366971015930176 0.8294574022293091
-0.20930230617523193 -0.8121968507766724 0.11627912521362305
-0.20930230617523193 -0.812745988368988 0.7209302186965942
-0.20930230617523193 -0.8052281141281128 0.8139535188674927
-0.20930230617523193 -0.7676267027854919 -0.30232560634613037
-0.20930232107639313 -0.7786860466003418 0.7054263353347778
-0.20930230617523193 -0.7778060436248779 0.7984496355056763
-0.20930230617523193 -0.7652244567871094 0.1317828893661499
-0.20930230617523193 -0.7583174705505371 0.6899224519729614
-0.20930230617523193 -0.7578021287918091 0.7829457521438599
-0.20930230617523193 -0.7413687109947205 0.1472867727279663
-0.20930230617523193 -0.7447109222412109 0.674418568611145
-0.20930230617523193 -0.7425795197486877 0.7674418687820435
-0.20930230617523193 -0.7269103527069092 -0.28682172298431396
-0.20930230617523193 -0.725411057472229 0.16279065608978271
-0.20930230617523193 -0.7232561707496643 0.6434108018875122
-0.20930230617523193 -0.7332093715667725 0.6589146852493286
-0.20930230617523193 -0.7284805774688721 0.751937985420227
-0.20930230617523193 -0.7097951173782349 0.6279069185256958
