-0.007751941680908203 -0.02325582504272461 0.08002955466508865
-0.007751941680908203 -0.007751941680908203 -0.1451084017753601
-0.007751941680908203 -0.007751941680908203 0.08210370689630508
-0.007751941680908203 0.007751941680908203 -0.1441919058561325
-0.007751941680908203 0.007751941680908203 0.08517301827669144
-0.00775194214656949 0.02325582504272461 -0.14277046918869019
-0.007751941680908203 0.02325582504272461 0.08487597107887268
-0.007751941680908203 0.038759708404541016 -0.1422213315963745
-0.007751941680908203 0.038759708404541016 0.0861552432179451
-0.007751941680908203 0.05426359176635742 -0.14160922169685364
-0.007751941680908203 0.05426359176635742 0.11415030062198639
-0.007751941680908203 0.06976747512817383 -0.14021866023540497
-0.007751941680908203 0.06976747512817383 0.18357732892036438
-0.007751941680908203 0.08527135848999023 -0.1383921205997467
-0.007751941680908203 0.08527135848999023 0.20308507978916168
-0.007751941680908203 0.10077524185180664 -0.13676157593727112
-0.007751941680908203 0.10077524185180664 0.2183578461408615
-0.007751941680908203 0.11627912521362305 -0.13526666164398193
-0.007751941680908203 0.11627911776304245 0.23052763938903809
-0.007751941680908203 0.1317828893661499 -0.13348446786403656
-0.007751941680908203 0.1317828893661499 0.24082188308238983
-0.007751941680908203 0.1472867727279663 -0.13103128969669342
-0.007751941680908203 0.1472867727279663 0.24592240154743195
-0.007751941680908203 0.16279065608978271 -0.12718072533607483
-0.007751941680908203 0.16279065608978271 0.24980893731117249
-0.007751941680908203 0.17829453945159912 -0.12406906485557556
-0.007751941680908203 0.17829453945159912 0.25415143370628357
-0.007751941680908203 0.19379842281341553 -0.12140032649040222
-0.007751941680908203 0.19379842281341553 0.2571466863155365
-0.007751941680908203 0.20930230617523193 -0.11876054853200912
-0.007751941680908203 0.20930230617523193 0.2590150237083435
-0.007751941680908203 0.22480617463588715 -0.11463098973035812
-0.007751941680908203 0.22480618953704834 0.2600706219673157
-0.007751941680908203 0.24031007289886475 -0.11028997600078583
-0.007751941680908203 0.24031007289886475 0.26039308309555054
-0.007751941680908203 0.25581395626068115 -0.1069200411438942
-0.007751941680908203 0.25581395626068115 0.26020514965057373
-0.007751941680908203 0.27131783962249756 -0.10397756099700928
-0.007751941680908203 0.27131783962249756 0.25997164845466614
-0.007751941680908203 0.28682172298431396 -0.09926580637693405
-0.007751941680908203 0.28682172298431396 0.2588817775249481
-0.007751941680908203 0.30232560634613037 -0.0947156548500061
-0.007751941680908203 0.30232560634613037 0.25673794746398926
-0.007751941680908203 0.3178294897079468 -0.09121882915496826
-0.007751941680908203 0.3178294897079468 0.25315651297569275
-0.007751941680908203 0.3333333730697632 -0.08557741343975067
-0.007751941680908203 0.3333333730697632 0.249769926071167
-0.007751941680908203 0.3488372564315796 -0.07880200445652008
-0.007751941680908203 0.3488372564315796 0.2471512109041214
-0.007751941680908203 0.364341139793396 -0.0733935534954071
-0.00775194214656949 0.364341139793396 0.24464283883571625
-0.007751941680908203 0.37984490394592285 -0.06447930634021759
-0.007751941680908203 0.37984490394592285 0.24090386927127838
-0.007751941680908203 0.39534878730773926 -0.05808410048484802
-0.007751941680908203 0.39534878730773926 0.23569804430007935
-0.007751941680908203 0.41085267066955566 -0.04902680590748787
-0.007751941680908203 0.41085267066955566 0.23181843757629395
-0.007751941680908203 0.42635655403137207 -0.04206904023885727
-0.00775194214656949 0.42635655403137207 0.22701069712638855
-0.007751941680908203 0.4418604373931885 -0.03472372889518738
-0.007751941680908203 0.4418604373931885 0.2195517122745514
-0.007751941680908203 0.4573643207550049 -0.028185226023197174
-0.007751941680908203 0.4573643207550049 0.21294790506362915
-0.007751941680908203 0.4728682041168213 -0.022660596296191216
-0.007751941680908203 0.4728682041168213 0.20326866209506989
-0.007751941680908203 0.4883720874786377 -0.014748778194189072
-0.007751941680908203 0.4883720874786377 0.19370807707309723
-0.007751941680908203 0.5038759708404541 -0.004298391751945019
-0.007751941680908203 0.5038759708404541 0.18105868995189667
-0.007751941680908203 0.5193798542022705 0.009526391513645649
-0.007751941680908203 0.5193798542022705 0.16398614645004272
-0.007751941680908203 0.5348837375640869 0.02701309137046337
-0.007751941680908203 0.5348837375640869 0.13683468103408813
-0.007751941680908203 0.5503876209259033 0.06960514187812805
-0.007751941215246916 0.5503876209259033 0.07020764797925949
0.007751941680908203 -0.25581395626068115 -0.10361841320991516
0.007751941215246916 -0.25581395626068115 0.027953485026955605
0.007751941680908203 -0.24031007289886475 -0.11721325665712357
0.007751941680908203 -0.24031007289886475 0.05036139860749245
0.007751941680908203 -0.22480618953704834 -0.12143908441066742
0.007751941680908203 -0.22480618953704834 0.060275863856077194
0.007751941215246916 -0.20930230617523193 -0.12496204674243927
0.007751941680908203 -0.20930230617523193 0.06405087560415268
0.007751941680908203 -0.19379842281341553 -0.1295219212770462
0.007751941680908203 -0.19379842281341553 0.06562570482492447
0.007751941680908203 -0.1782945990562439 -0.13303209841251373
0.007751941680908203 -0.1782945990562439 0.06552664190530777
0.007751941680908203 -0.1627907156944275 -0.13576635718345642
0.007751941680908203 -0.1627907156944275 0.06486255675554276
0.007751941680908203 -0.14728683233261108 -0.1384929120540619
0.007751941680908203 -0.14728683233261108 0.06407644599676132
0.007751941680908203 -0.13178294897079468 -0.14141395688056946
0.007751941680908203 -0.13178294897079468 0.06417429447174072
0.007751941680908203 -0.11627906560897827 -0.14352841675281525
0.007751941680908203 -0.11627906560897827 0.06543594598770142
0.007751941680908203 -0.10077518224716187 -0.1448906809091568
0.007751941680908203 -0.10077518224716187 0.06865355372428894
0.007751941215246916 -0.08527129888534546 -0.14555920660495758
0.007751941680908203 -0.08527129143476486 0.07375260442495346
0.007751941680908203 -0.06976741552352905 -0.1458330601453781
0.007751941680908203 -0.06976741552352905 0.07861479371786118
0.007751941680908203 -0.05426359176635742 -0.14624539017677307
0.007751941680908203 -0.05426359176635742 0.08042407035827637
0.007751941215246916 -0.038759708404541016 -0.146468847990036
0.007751941680908203 -0.038759708404541016 0.08058784902095795
0.007751941680908203 -0.02325582504272461 -0.14671117067337036
0.007751941680908203 -0.02325582504272461 0.07940024882555008
0.007751941215246916 -0.007751941215246916 -0.14511488378047943
0.007751941680908203 -0.007751941680908203 0.08082128316164017
0.007751941680908203 0.007751941680908203 -0.14419317245483398
0.007751941680908203 0.007751941680908203 0.08352179825305939
0.007751941680908203 0.02325582504272461 -0.14285698533058167
0.007751941680908203 0.02325582504272461 0.08309418708086014
0.007751941680908203 0.038759708404541016 -0.1423739641904831
0.007751941680908203 0.038759708404541016 0.08376370370388031
0.007751941680908203 0.05426359176635742 -0.1417258083820343
0.007751941680908203 0.05426359176635742 0.10390181094408035
0.007751941680908203 0.06976747512817383 -0.14028438925743103
0.007751941680908203 0.06976747512817383 0.1820584088563919
0.007751941680908203 0.08527135848999023 -0.13841316103935242
0.007751941680908203 0.08527135848999023 0.2021702527999878
0.007751941680908203 0.10077524185180664 -0.1367400735616684
0.007751941680908203 0.10077524185180664 0.217654287815094
0.007751941680908203 0.11627912521362305 -0.13520285487174988
0.007751941680908203 0.11627912521362305 0.23001396656036377
0.007751941680908203 0.1317828893661499 -0.13341505825519562
0.007751941215246916 0.1317828893661499 0.2404032200574875
0.007751941680908203 0.1472867727279663 -0.1309191882610321
0.007751941680908203 0.1472867727279663 0.24569809436798096
0.007751941680908203 0.16279065608978271 -0.1270621418952942
0.007751941680908203 0.16279065608978271 0.24964125454425812
0.007751941680908203 0.17829453945159912 -0.12392635643482208
0.007751941680908203 0.17829453945159912 0.2540220022201538
0.007751941680908203 0.19379842281341553 -0.12126052379608154
0.007751941680908203 0.19379842281341553 0.2570624351501465
0.007751941680908203 0.20930230617523193 -0.11855105310678482
0.007751941680908203 0.20930230617523193 0.2589215338230133
0.007751941680908203 0.22480620443820953 -0.11431445926427841
0.007751941680908203 0.22480618953704834 0.2600162625312805
0.007751941680908203 0.24031007289886475 -0.11005168408155441
0.007751941680908203 0.24031007289886475 0.2603656053543091
0.007751941680908203 0.25581395626068115 -0.10669472813606262
0.007751941680908203 0.25581395626068115 0.26017844676971436
0.007751941680908203 0.27131783962249756 -0.10367532819509506
0.007751941680908203 0.27131783962249756 0.25994035601615906
0.007751941680908203 0.28682172298431396 -0.0988355204463005
0.007751941680908203 0.28682172298431396 0.2588190734386444
0.00775194214656949 0.30232560634613037 -0.09442827105522156
0.007751941680908203 0.30232560634613037 0.25665077567100525
0.007751941680908203 0.3178294897079468 -0.09096547961235046
0.007751941680908203 0.3178294897079468 0.25306034088134766
0.007751941680908203 0.3333333730697632 -0.08510010689496994
0.007751941680908203 0.3333333730697632 0.2496975064277649
0.007751941680908203 0.3488372564315796 -0.07856586575508118
0.007751941680908203 0.3488372564315796 0.24706274271011353
0.007751941680908203 0.364341139793396 -0.07296255975961685
0.007751941680908203 0.364341139793396 0.24447888135910034
0.007751941680908203 0.37984490394592285 -0.06421193480491638
0.007751941680908203 0.37984490394592285 0.24066393077373505
0.007751941680908203 0.39534878730773926 -0.05765780806541443
0.007751941680908203 0.39534878730773926 0.23547211289405823
0.007751941680908203 0.41085267066955566 -0.04870535805821419
0.007751941680908203 0.41085267066955566 0.23162829875946045
0.007751941680908203 0.42635655403137207 -0.041675418615341187
0.007751941680908203 0.42635655403137207 0.2266748994588852
0.007751941680908203 0.4418604373931885 -0.03430958837270737
0.007751941680908203 0.4418604373931885 0.21926259994506836
0.007751941680908203 0.4573643207550049 -0.027780212461948395
0.007751941680908203 0.4573643207550049 0.21259793639183044
0.007751941215246916 0.4728682041168213 -0.0223093219101429
0.007751941680908203 0.4728682041168213 0.20293381810188293
0.007751941680908203 0.4883720874786377 -0.014319686219096184
0.007751941680908203 0.4883720874786377 0.19324928522109985
0.007751941680908203 0.5038759708404541 -0.003952361643314362
0.007751941215246916 0.5038759708404541 0.18065863847732544
0.007751941680908203 0.5193798542022705 0.009971879422664642
0.007751941680908203 0.5193798542022705 0.16356398165225983
0.00775194214656949 0.5348837375640869 0.02795042097568512
0.007751941680908203 0.5348837375640869 0.1361803114414215
0.02325582504272461 -0.25581395626068115 -0.10197484493255615
0.02325582504272461 -0.25581395626068115 0.02946382388472557
0.02325582504272461 -0.24031007289886475 -0.11563470959663391
0.02325582504272461 -0.24031007289886475 0.05117518827319145
0.02325582504272461 -0.22480618953704834 -0.12047344446182251
0.02325582504272461 -0.22480618953704834 0.06046959012746811
0.02325582504272461 -0.20930230617523193 -0.1238049864768982
0.02325582504272461 -0.20930230617523193 0.06369495391845703
0.02325582504272461 -0.19379840791225433 -0.12816396355628967
0.02325582504272461 -0.19379842281341553 0.06505779922008514
0.02325582504272461 -0.1782945990562439 -0.13241641223430634
0.02325582504272461 -0.1782945990562439 0.06502310931682587
0.02325582504272461 -0.1627907156944275 -0.13512173295021057
0.02325582504272461 -0.1627907156944275 0.06447847187519073
0.02325582504272461 -0.14728683233261108 -0.13805615901947021
0.02325582504272461 -0.14728683233261108 0.06386265158653259
0.02325582504272461 -0.13178294897079468 -0.14090776443481445
0.02325582504272461 -0.13178294897079468 0.06382039189338684
0.02325582504272461 -0.11627906560897827 -0.14303173124790192
0.02325582504272461 -0.11627906560897827 0.06486479938030243
0.02325582504272461 -0.10077518224716187 -0.14446067810058594
0.02325582504272461 -0.10077518224716187 0.06776388734579086
0.02325582504272461 -0.08527129888534546 -0.14527535438537598
0.02325582504272461 -0.08527129888534546 0.0727667361497879
0.02325582504272461 -0.06976741552352905 -0.14576594531536102
0.02325582504272461 -0.06976741552352905 0.07808470726013184
0.02325582504272461 -0.05426359176635742 -0.14631372690200806
0.02325582504272461 -0.05426359176635742 0.08010618388652802
0.02325582504272461 -0.038759708404541016 -0.14655372500419617
0.02325582504272461 -0.038759708404541016 0.08060693740844727
0.02325582504272461 -0.02325582504272461 -0.1468145251274109
0.02325582504272461 -0.02325582504272461 0.07981807738542557
0.02325582504272461 -0.007751941680908203 -0.14509552717208862
0.02325582504272461 -0.007751941680908203 0.0813191831111908
0.02325582504272461 0.007751941680908203 -0.14420264959335327
0.02325582504272461 0.007751941680908203 0.0837099477648735
0.02325582504272461 0.02325582504272461 -0.14286963641643524
0.02325582504272461 0.02325582504272461 0.08334426581859589
0.02325582504272461 0.038759708404541016 -0.14210176467895508
0.02325582504272461 0.038759708404541016 0.08382675051689148
0.02325582504272461 0.05426359176635742 -0.14148275554180145
0.02325582504272461 0.05426359176635742 0.10196569561958313
0.02325582504272461 0.06976747512817383 -0.140053853392601
0.02325582504272461 0.06976747512817383 0.1812487691640854
0.02325582504272461 0.08527135848999023 -0.13819046318531036
0.02325582504272461 0.08527135848999023 0.20127201080322266
0.02325582504272461 0.10077524185180664 -0.1364838182926178
0.02325582504272461 0.10077524185180664 0.216803640127182
0.02325582504272461 0.11627912521362305 -0.1349949687719345
0.02325582504272461 0.11627912521362305 0.22929048538208008
0.02325582504272461 0.1317828893661499 -0.1332240104675293
0.02325582504272461 0.1317828893661499 0.2391558438539505
0.02325582504272461 0.1472867727279663 -0.13049596548080444
0.02325582504272461 0.1472867727279663 0.24506086111068726
0.02325582504272461 0.16279065608978271 -0.12672008574008942
0.02325582504272461 0.16279065608978271 0.24868229031562805
0.02325582504272461 0.17829453945159912 -0.12349730730056763
0.02325582504272461 0.17829453945159912 0.2527737617492676
0.02325582504272461 0.19379842281341553 -0.12078157067298889
0.02325582504272461 0.19379842281341553 0.2563416063785553
0.02325582504272461 0.20930230617523193 -0.11774049699306488
0.02325582504272461 0.20930230617523193 0.2581503391265869
0.02325582690536976 0.22480618953704834 -0.1132236123085022
0.02325582504272461 0.22480618953704834 0.2593122124671936
0.02325582504272461 0.24031008780002594 -0.10925526916980743
0.02325582504272461 0.24031005799770355 0.2597405016422272
0.02325582504272461 0.25581395626068115 -0.10603480041027069
0.02325582504272461 0.25581395626068115 0.25953322649002075
0.02325582504272461 0.27131783962249756 -0.10263276100158691
0.02325582504272461 0.27131783962249756 0.2591707110404968
0.02325582504272461 0.28682172298431396 -0.09750184416770935
0.02325582504272461 0.28682172298431396 0.25793391466140747
0.02325582504272461 0.30232560634613037 -0.09346286952495575
0.02325582504272461 0.30232560634613037 0.2556930184364319
0.02325582504272461 0.3178294897079468 -0.08991648256778717
0.02325582504272461 0.3178294897079468 0.2518956661224365
0.02325582504272461 0.3333333730697632 -0.08330069482326508
0.02325582504272461 0.3333333730697632 0.2488941103219986
0.02325582504272461 0.3488372564315796 -0.07766783982515335
0.02325582504272461 0.3488372564315796 0.2464764267206192
0.02325582504272461 0.364341139793396 -0.07128887623548508
0.02325582504272461 0.364341139793396 0.2436661720275879
0.02325582504272461 0.37984490394592285 -0.0632311999797821
0.02325582504272461 0.37984490394592285 0.23960448801517487
0.02325582504272461 0.39534878730773926 -0.05621424317359924
0.02325582504272461 0.39534878730773926 0.23486435413360596
0.02325582504272461 0.41085267066955566 -0.04780171811580658
0.02325582504272461 0.41085267066955566 0.2313300520181656
0.02325582504272461 0.42635655403137207 -0.04075222089886665
0.02325582504272461 0.42635655403137207 0.22637489438056946
0.02325582504272461 0.4418604373931885 -0.03338078036904335
0.02325582504272461 0.4418604373931885 0.2192079871892929
0.02325582504272461 0.4573643207550049 -0.027156967669725418
0.02325582318007946 0.4573643207550049 0.212724968791008
0.02325582504272461 0.4728682041168213 -0.02123837359249592
0.02325582504272461 0.4728682041168213 0.20324453711509705
0.02325582504272461 0.4883720874786377 -0.013422292657196522
0.02325582504272461 0.4883720874786377 0.1939280480146408
0.02325582504272461 0.5038759708404541 -0.003074820153415203
0.02325582504272461 0.5038759708404541 0.1815033257007599
0.02325582504272461 0.5193798542022705 0.011220077984035015
0.02325582504272461 0.5193798542022705 0.16445182263851166
0.02325582504272461 0.5348837375640869 0.029682252556085587
0.02325582504272461 0.5348837375640869 0.13623784482479095
0.038759708404541016 -0.25581395626068115 -0.09501445293426514
0.038759708404541016 -0.25581395626068115 0.030952364206314087
0.038759708404541016 -0.24031007289886475 -0.1106468141078949
0.038759708404541016 -0.24031007289886475 0.05163612216711044
0.038759708404541016 -0.22480618953704834 -0.11830435693264008
0.038759708404541016 -0.22480618953704834 0.0598258301615715
0.038759708404541016 -0.20930230617523193 -0.1212252676486969
0.038759708404541016 -0.20930230617523193 0.062399521470069885
0.038759708404541016 -0.19379842281341553 -0.12470271438360214
0.038759708404541016 -0.19379842281341553 0.06333126127719879
0.038759708404541016 -0.1782945990562439 -0.129011332988739
0.038759708404541016 -0.1782945990562439 0.06334324926137924
0.038759708404541016 -0.1627907156944275 -0.13301599025726318
0.038759708404541016 -0.1627907156944275 0.06297728419303894
0.038759708404541016 -0.14728683233261108 -0.13678951561450958
0.038759708404541016 -0.14728683233261108 0.0627012699842453
0.038759708404541016 -0.13178294897079468 -0.13999436795711517
0.038759708404541016 -0.13178294897079468 0.06258724629878998
0.038759708404541016 -0.11627906560897827 -0.1423472762107849
0.038759708404541016 -0.11627906560897827 0.06355154514312744
0.038759708404541016 -0.10077518224716187 -0.1439426988363266
0.038759708404541016 -0.10077518224716187 0.06609100848436356
0.038759708404541016 -0.08527129888534546 -0.14502759277820587
0.038759708404541016 -0.08527129888534546 0.0707528218626976
0.038759708404541016 -0.06976741552352905 -0.14592349529266357
0.038759708404541016 -0.06976741552352905 0.07646764814853668
0.038759708404541016 -0.05426359176635742 -0.14664654433727264
0.038759708404541016 -0.05426359176635742 0.07901979982852936
0.038759708404541016 -0.038759708404541016 -0.147343710064888
0.038759708404541016 -0.038759708404541016 0.07978473603725433
0.038759708404541016 -0.02325582504272461 -0.14743852615356445
0.038759708404541016 -0.02325582504272461 0.07972697168588638
0.038759708404541016 -0.007751941680908203 -0.14587844908237457
0.038759708404541016 -0.007751941680908203 0.08176285773515701
0.038759712129831314 0.007751941680908203 -0.14478695392608643
0.038759708404541016 0.007751941680908203 0.08446457237005234
0.038759708404541016 0.02325582504272461 -0.1437453180551529
0.038759708404541016 0.02325582504272461 0.08466697484254837
0.038759708404541016 0.038759708404541016 -0.14233875274658203
0.038759708404541016 0.038759708404541016 0.08548931032419205
0.038759708404541016 0.05426359176635742 -0.14170370995998383
0.03875970467925072 0.05426359176635742 0.10145246237516403
0.038759708404541016 0.06976747512817383 -0.1403089165687561
0.038759708404541016 0.06976747512817383 0.18023662269115448
0.038759708404541016 0.08527135848999023 -0.13842007517814636
0.038759708404541016 0.08527135848999023 0.20023153722286224
0.038759708404541016 0.10077524185180664 -0.13674665987491608
0.038759708404541016 0.10077524185180664 0.21584384143352509
0.038759708404541016 0.11627912521362305 -0.1353098750114441
0.038759708404541016 0.11627912521362305 0.22840598225593567
0.038759708404541016 0.1317828893661499 -0.13358567655086517
0.038759708404541016 0.1317828893661499 0.23729413747787476
0.038759708404541016 0.1472867727279663 -0.13110119104385376
0.038759708404541016 0.1472867727279663 0.24405556917190552
0.038759708404541016 0.16279065608978271 -0.1271342784166336
0.038759708404541016 0.16279065608978271 0.24714717268943787
0.038759708404541016 0.17829453945159912 -0.1236552894115448
0.038759708404541016 0.17829453945159912 0.25046804547309875
0.038759708404541016 0.19379842281341553 -0.12075477838516235
0.038759708404541016 0.19379842281341553 0.25388333201408386
0.038759708404541016 0.20930230617523193 -0.11742319166660309
0.038759708404541016 0.20930230617523193 0.2564236521720886
0.038759708404541016 0.22480620443820953 -0.11277590692043304
0.038759708404541016 0.22480618953704834 0.25748929381370544
0.038759708404541016 0.24031007289886475 -0.10885567963123322
0.038759708404541016 0.24031007289886475 0.25792959332466125
0.038759708404541016 0.25581395626068115 -0.1056465357542038
0.038759712129831314 0.25581395626068115 0.25769883394241333
0.038759708404541016 0.27131783962249756 -0.10189181566238403
0.038759708404541016 0.27131783962249756 0.25721192359924316
0.038759708404541016 0.28682172298431396 -0.09669551998376846
0.038759708404541016 0.28682175278663635 0.25593727827072144
0.038759708404541016 0.30232560634613037 -0.09282797574996948
0.038759708404541016 0.30232560634613037 0.2526569068431854
0.038759708404541016 0.3178294897079468 -0.08900599926710129
0.038759708404541016 0.3178294897079468 0.24973952770233154
0.038759708404541016 0.3333333730697632 -0.08222483098506927
0.038759708404541016 0.3333333730697632 0.24739426374435425
0.038759708404541016 0.3488372564315796 -0.07705778628587723
0.038759708404541016 0.3488372564315796 0.24512448906898499
0.038759708404541016 0.364341139793396 -0.07022842019796371
0.038759708404541016 0.364341139793396 0.24193289875984192
0.038759708404541016 0.37984490394592285 -0.06269367784261703
0.038759708404541016 0.37984490394592285 0.2375074177980423
0.038759708404541016 0.39534878730773926 -0.05543695017695427
0.038759708404541016 0.39534878730773926 0.23377716541290283
0.038759708404541016 0.41085267066955566 -0.04741884768009186
0.038759708404541016 0.41085267066955566 0.23066720366477966
0.038759708404541016 0.42635655403137207 -0.040410783141851425
0.038759708404541016 0.42635655403137207 0.22574076056480408
0.038759708404541016 0.4418604373931885 -0.033080458641052246
0.038759708404541016 0.4418604373931885 0.2188674807548523
0.038759708404541016 0.4573643207550049 -0.026907291263341904
0.038759708404541016 0.4573643207550049 0.21260666847229004
0.038759708404541016 0.4728682041168213 -0.020424319431185722
0.038759708404541016 0.4728682041168213 0.20340698957443237
0.038759708404541016 0.4883720874786377 -0.012536490336060524
0.03875970467925072 0.4883720874786377 0.19456911087036133
0.038759708404541016 0.5038759708404541 -0.0023958636447787285
0.038759708404541016 0.5038759708404541 0.18273702263832092
0.038759708404541016 0.5193798542022705 0.012357061728835106
0.038759708404541016 0.5193798542022705 0.16586382687091827
0.038759708404541016 0.5348837375640869 0.031360261142253876
0.038759708404541016 0.5348837375640869 0.13608314096927643
0.05426359176635742 -0.25581395626068115 -0.08614013344049454
0.05426359176635742 -0.25581395626068115 0.028323370963335037
0.05426359176635742 -0.24031007289886475 -0.10544909536838531
0.05426359176635742 -0.24031007289886475 0.05024511367082596
0.05426359176635742 -0.22480618953704834 -0.11254416406154633
0.05426359176635742 -0.22480618953704834 0.05789395421743393
0.05426359176635742 -0.20930230617523193 -0.11783873289823532
0.05426359176635742 -0.20930230617523193 0.05986727029085159
0.05426359176635742 -0.19379842281341553 -0.12064193189144135
0.05426359176635742 -0.19379842281341553 0.060446418821811676
0.05426359176635742 -0.1782945990562439 -0.12401280552148819
0.05426359176635742 -0.1782945990562439 0.06043189391493797
0.05426359176635742 -0.1627907156944275 -0.12852022051811218
0.05426359176635742 -0.1627907156944275 0.060325175523757935
0.05426359176635742 -0.14728683233261108 -0.13389991223812103
0.05426359176635742 -0.14728683233261108 0.060261040925979614
0.05426359176635742 -0.13178294897079468 -0.13843190670013428
0.05426359176635742 -0.13178294897079468 0.05998454988002777
0.05426359176635742 -0.11627905815839767 -0.14091011881828308
0.05426359176635742 -0.11627906560897827 0.06067619472742081
0.05426359176635742 -0.10077518224716187 -0.14239323139190674
0.05426359176635742 -0.10077518224716187 0.06365706026554108
0.05426359176635742 -0.08527129888534546 -0.14334681630134583
0.05426359176635742 -0.08527129888534546 0.06757078319787979
0.05426359176635742 -0.06976741552352905 -0.14416727423667908
0.05426359176635742 -0.06976741552352905 0.07331432402133942
0.05426359549164772 -0.05426359549164772 -0.14492005109786987
0.05426359176635742 -0.05426359176635742 0.07702954113483429
0.05426358804106712 -0.038759708404541016 -0.14617444574832916
0.05426359176635742 -0.038759708404541016 0.07810467481613159
0.05426359176635742 -0.02325582504272461 -0.14658932387828827
0.05426359176635742 -0.02325582504272461 0.07887496054172516
0.05426359176635742 -0.007751941680908203 -0.1451580971479416
0.05426359176635742 -0.007751941680908203 0.0813649371266365
0.05426359176635742 0.007751941680908203 -0.1442563831806183
0.05426359176635742 0.007751941680908203 0.08449149876832962
0.05426359176635742 0.02325582504272461 -0.14330755174160004
0.05426359176635742 0.02325582690536976 0.08550194650888443
0.05426359176635742 0.038759708404541016 -0.14194923639297485
0.05426359176635742 0.038759708404541016 0.08776047825813293
0.05426359176635742 0.05426359176635742 -0.14127349853515625
0.05426359176635742 0.05426359176635742 0.10335257649421692
0.05426359176635742 0.06976747512817383 -0.14008626341819763
0.05426359176635742 0.06976747512817383 0.17929862439632416
0.05426359176635742 0.08527135848999023 -0.1383226364850998
0.05426359176635742 0.08527135848999023 0.1991204023361206
0.05426359176635742 0.10077524185180664 -0.13658903539180756
0.05426359176635742 0.10077524185180664 0.21471691131591797
0.05426359176635742 0.11627912521362305 -0.13499854505062103
0.05426358804106712 0.11627912521362305 0.22718214988708496
0.05426359176635742 0.1317828893661499 -0.13329476118087769
0.05426359176635742 0.1317828893661499 0.2349233627319336
0.05426359176635742 0.1472867727279663 -0.13081443309783936
0.05426359176635742 0.1472867727279663 0.242436945438385
0.05426359176635742 0.16279065608978271 -0.1270100623369217
0.05426359176635742 0.16279065608978271 0.2455904185771942
0.05426359176635742 0.17829453945159912 -0.12342900037765503
0.05426359176635742 0.17829453945159912 0.2479170560836792
0.05426359176635742 0.19379842281341553 -0.1203528419137001
0.05426359176635742 0.19379842281341553 0.25055932998657227
0.05426359176635742 0.20930230617523193 -0.11663686484098434
0.05426359176635742 0.20930230617523193 0.2530342638492584
0.05426358804106712 0.22480618953704834 -0.11181484162807465
0.05426359176635742 0.22480618953704834 0.25468116998672485
0.05426359176635742 0.24031007289886475 -0.10795536637306213
0.05426359176635742 0.24031007289886475 0.25535112619400024
0.05426359176635742 0.25581395626068115 -0.10466669499874115
0.05426359176635742 0.25581395626068115 0.2549556493759155
0.05426359176635742 0.27131783962249756 -0.10037363320589066
0.05426359176635742 0.27131783962249756 0.25399336218833923
0.05426359176635742 0.28682172298431396 -0.09534046053886414
0.05426359176635742 0.28682172298431396 0.2519822418689728
0.05426359176635742 0.30232560634613037 -0.091783806681633
0.05426359176635742 0.30232560634613037 0.24947568774223328
0.05426359176635742 0.3178294897079468 -0.08739016205072403
0.05426359176635742 0.3178294897079468 0.24732714891433716
0.05426359176635742 0.3333333730697632 -0.08080961555242538
0.05426359176635742 0.3333333730697632 0.2454243004322052
0.05426359176635742 0.3488372564315796 -0.07610534876585007
0.05426359549164772 0.3488372564315796 0.24262863397598267
0.05426359176635742 0.364341139793396 -0.06870484352111816
0.05426359176635742 0.364341139793396 0.23898296058177948
0.05426359176635742 0.37984490394592285 -0.061979930847883224
0.05426359176635742 0.37984490394592285 0.23513875901699066
0.05426359176635742 0.39534878730773926 -0.05447391793131828
0.05426359176635742 0.39534878730773926 0.23237378895282745
0.05426359176635742 0.41085267066955566 -0.04684966802597046
0.05426359176635742 0.41085267066955566 0.22954635322093964
0.05426359176635742 0.42635655403137207 -0.03973004221916199
0.05426359176635742 0.42635655403137207 0.22459560632705688
0.05426359176635742 0.4418604373931885 -0.03244134411215782
0.05426359176635742 0.4418604373931885 0.21798396110534668
0.05426359176635742 0.4573643207550049 -0.026043416932225227
0.05426359176635742 0.4573643207550049 0.2117263376712799
0.05426359176635742 0.4728682041168213 -0.019135963171720505
0.05426359176635742 0.4728682041168213 0.20273533463478088
0.05426359176635742 0.4883720874786377 -0.011004114523530006
0.05426358804106712 0.4883720874786377 0.19443415105342865
0.05426359176635742 0.5038759708404541 -0.0014935026410967112
0.05426359176635742 0.5038759708404541 0.1831890493631363
0.05426359176635742 0.5193798542022705 0.013564091175794601
0.05426359176635742 0.5193798542022705 0.1663437783718109
0.05426359176635742 0.5348837375640869 0.03368144854903221
0.05426359176635742 0.5348837375640869 0.13400836288928986
0.06976747512817383 -0.25581395626068115 -0.06254087388515472
0.06976747512817383 -0.25581395626068115 0.01567918434739113
0.06976747512817383 -0.24031007289886475 -0.09776241332292557
0.06976747512817383 -0.24031007289886475 0.045613884925842285
0.06976747512817383 -0.22480618953704834 -0.10594379156827927
0.06976747512817383 -0.22480618953704834 0.05519538372755051
0.06976747512817383 -0.20930230617523193 -0.11008825898170471
0.06976747512817383 -0.20930230617523193 0.056342221796512604
0.06976747512817383 -0.19379842281341553 -0.11484970152378082
0.06976747512817383 -0.19379843771457672 0.056124478578567505
0.06976747512817383 -0.1782945990562439 -0.11882391571998596
0.06976747512817383 -0.1782945990562439 0.055838823318481445
0.06976747512817383 -0.1627907156944275 -0.12323081493377686
0.06976747512817383 -0.1627907156944275 0.0561540387570858
0.06976747512817383 -0.14728683233261108 -0.12998934090137482
0.06976747512817383 -0.14728683233261108 0.056315336376428604
0.06976747512817383 -0.13178294897079468 -0.13596422970294952
0.06976747512817383 -0.13178294897079468 0.05560580641031265
0.06976747512817383 -0.11627906560897827 -0.13936707377433777
0.06976747512817383 -0.11627906560897827 0.05545878782868385
0.06976747512817383 -0.10077518224716187 -0.14085718989372253
0.06976747512817383 -0.10077518224716187 0.05857160687446594
0.06976747512817383 -0.08527129888534546 -0.1416231095790863
0.06976747512817383 -0.08527129888534546 0.0637914165854454
0.06976747512817383 -0.06976741552352905 -0.14217336475849152
0.06976747512817383 -0.06976741552352905 0.06864304840564728
0.06976747512817383 -0.05426359176635742 -0.1427847295999527
0.06976747512817383 -0.05426359176635742 0.07325363159179688
0.06976747512817383 -0.038759708404541016 -0.14367987215518951
0.06976747512817383 -0.038759708404541016 0.07539980113506317
0.06976747512817383 -0.02325582504272461 -0.1441919207572937
0.06976747512817383 -0.02325582504272461 0.07670331001281738
0.06976747512817383 -0.007751941680908203 -0.14371541142463684
0.06976747512817383 -0.007751941680908203 0.07907381653785706
0.06976747512817383 0.007751941680908203 -0.14326398074626923
0.06976747512817383 0.007751941680908203 0.08195117115974426
0.06976747512817383 0.02325582504272461 -0.1423681378364563
0.06976747512817383 0.02325582504272461 0.08442506939172745
0.06976747512817383 0.038759708404541016 -0.1413346230983734
0.06976747512817383 0.038759708404541016 0.08731670677661896
0.06976747512817383 0.05426359176635742 -0.1404847651720047
0.06976747512817383 0.05426359176635742 0.10044620931148529
0.06976747512817383 0.06976747512817383 -0.13943812251091003
0.06976747512817383 0.06976747512817383 0.1752987802028656
0.06976747512817383 0.08527135848999023 -0.13780412077903748
0.06976747512817383 0.08527135848999023 0.19721846282482147
0.06976747512817383 0.10077524185180664 -0.13582706451416016
0.06976747512817383 0.10077524185180664 0.21311867237091064
0.06976747512817383 0.11627912521362305 -0.13386206328868866
0.06976747512817383 0.11627912521362305 0.2251962423324585
0.06976747512817383 0.1317828893661499 -0.13219809532165527
0.06976747512817383 0.1317828893661499 0.2321764975786209
0.06976747512817383 0.1472867727279663 -0.12910887598991394
0.06976747512817383 0.1472867727279663 0.2397892326116562
0.06976747512817383 0.16279065608978271 -0.12553882598876953
0.06976747512817383 0.16279065608978271 0.24352112412452698
0.06976747512817383 0.17829453945159912 -0.12223152071237564
0.06976747512817383 0.17829453945159912 0.24575558304786682
0.06976747512817383 0.19379842281341553 -0.11897404491901398
0.06976747512817383 0.19379842281341553 0.24758203327655792
0.06976747512817383 0.20930232107639313 -0.11458222568035126
0.06976747512817383 0.20930230617523193 0.2494780719280243
0.06976747512817383 0.22480618953704834 -0.10989819467067719
0.06976747512817383 0.22480618953704834 0.2509031295776367
0.06976747512817383 0.24031007289886475 -0.10630552470684052
0.06976747512817383 0.24031007289886475 0.251544713973999
0.06976747512817383 0.25581395626068115 -0.10254956036806107
0.06976747512817383 0.25581395626068115 0.2511233389377594
0.06976747512817383 0.27131783962249756 -0.09757624566555023
0.06976747512817383 0.27131783962249756 0.2501586675643921
0.06976747512817383 0.28682172298431396 -0.09324584901332855
0.06976747512817383 0.28682172298431396 0.24849188327789307
0.06976747512817383 0.30232560634613037 -0.08999699354171753
0.06976747512817383 0.30232560634613037 0.24669891595840454
0.06976747512817383 0.3178294897079468 -0.08477967977523804
0.06976747512817383 0.3178294897079468 0.24478477239608765
0.06976747512817383 0.3333333730697632 -0.07893175631761551
0.06976747512817383 0.3333333730697632 0.24226990342140198
0.06976747512817383 0.3488372564315796 -0.07436543703079224
0.06976747512817383 0.3488372564315796 0.23877112567424774
0.06976747512817383 0.364341139793396 -0.06655383110046387
0.06976747512817383 0.364341139793396 0.23535174131393433
0.06976747512817383 0.37984490394592285 -0.060770586133003235
0.06976747512817383 0.37984490394592285 0.23288407921791077
0.06976747512817383 0.39534881711006165 -0.05243145674467087
0.06976747512817383 0.39534878730773926 0.2309322953224182
0.06976747512817383 0.41085267066955566 -0.04579179361462593
0.06976747512817383 0.41085267066955566 0.22792446613311768
0.06976747512817383 0.42635655403137207 -0.03820061311125755
0.06976747512817383 0.42635655403137207 0.2224465310573578
0.06976747512817383 0.4418604373931885 -0.03127652034163475
0.06976747512817383 0.4418604373931885 0.21665877103805542
0.06976747512817383 0.4573643207550049 -0.024176158010959625
0.06976747512817383 0.4573643207550049 0.20991204679012299
0.06976747512817383 0.4728682041168213 -0.01764918677508831
0.06976747512817383 0.4728682041168213 0.20107273757457733
0.06976747512817383 0.4883720874786377 -0.008825089782476425
0.06976747512817383 0.4883720874786377 0.19275280833244324
0.06976747512817383 0.5038759708404541 0.0002641079481691122
0.06976747512817383 0.5038759708404541 0.18205979466438293
0.06976747512817383 0.5193798542022705 0.015474693849682808
0.06976747512817383 0.5193798542022705 0.16500990092754364
0.06976747512817383 0.5348837375640869 0.03782139718532562
0.06976747512817383 0.5348837375640869 0.12751729786396027
0.08527135848999023 -0.24031007289886475 -0.0772397518157959
0.08527135848999023 -0.24031007289886475 0.032747454941272736
0.08527135848999023 -0.22480618953704834 -0.09372571855783463
0.08527135848999023 -0.22480618953704834 0.046211741864681244
0.08527135848999023 -0.20930230617523193 -0.10078173875808716
0.08527135848999023 -0.20930230617523193 0.04927747696638107
0.08527135848999023 -0.19379842281341553 -0.10370859503746033
0.08527135848999023 -0.19379842281341553 0.048847220838069916
0.08527135848999023 -0.1782945990562439 -0.10843950510025024
0.08527135848999023 -0.1782945990562439 0.04843668267130852
0.08527135848999023 -0.1627907156944275 -0.11698608845472336
0.08527135848999023 -0.1627907156944275 0.04873417317867279
0.08527135848999023 -0.14728683233261108 -0.12416666001081467
0.08527135848999023 -0.14728683233261108 0.04881614074110985
0.08527135848999023 -0.13178294897079468 -0.13280946016311646
0.08527135848999023 -0.13178294897079468 0.04772789031267166
0.08527135848999023 -0.11627906560897827 -0.13784509897232056
0.08527135848999023 -0.11627906560897827 0.047564733773469925
0.08527135848999023 -0.10077518224716187 -0.13977956771850586
0.08527135848999023 -0.10077518224716187 0.05091521143913269
0.08527135848999023 -0.08527129888534546 -0.14066603779792786
0.08527135103940964 -0.08527129888534546 0.05657099187374115
0.08527135848999023 -0.06976741552352905 -0.14107607305049896
0.08527135848999023 -0.06976741552352905 0.06290885806083679
0.08527135848999023 -0.05426359176635742 -0.141399547457695
0.08527135848999023 -0.05426359176635742 0.06731414049863815
0.08527135848999023 -0.038759708404541016 -0.14206434786319733
0.08527135848999023 -0.038759708404541016 0.07087913155555725
0.08527135848999023 -0.02325582318007946 -0.14277823269367218
0.08527135848999023 -0.02325582504272461 0.07209528237581253
0.08527135848999023 -0.007751941680908203 -0.14275556802749634
0.08527135848999023 -0.007751941215246916 0.0738176554441452
0.08527135848999023 0.007751941680908203 -0.14242863655090332
0.08527135848999023 0.007751941680908203 0.07625125348567963
0.08527135848999023 0.02325582504272461 -0.141526460647583
0.08527135848999023 0.02325582504272461 0.0790257677435875
0.08527135848999023 0.038759708404541016 -0.14065220952033997
0.08527135848999023 0.038759708404541016 0.08221456408500671
0.08527135848999023 0.05426359176635742 -0.13971149921417236
0.08527135848999023 0.05426359176635742 0.0910065621137619
0.08527135848999023 0.06976747512817383 -0.13850468397140503
0.08527135848999023 0.06976747512817383 0.16136965155601501
0.08527135848999023 0.08527135848999023 -0.13651522994041443
0.08527135848999023 0.08527135848999023 0.19370676577091217
0.08527135848999023 0.10077524185180664 -0.13401994109153748
0.08527135848999023 0.10077524185180664 0.2105959951877594
0.08527135848999023 0.11627912521362305 -0.13206934928894043
0.08527135848999023 0.11627912521362305 0.2212744802236557
0.08527136594057083 0.1317828893661499 -0.12813109159469604
0.08527135848999023 0.1317828893661499 0.22963842749595642
0.08527135848999023 0.1472867727279663 -0.12442237138748169
0.08527135848999023 0.1472867727279663 0.2348162829875946
0.08527135848999023 0.16279065608978271 -0.12164060771465302
0.08527135848999023 0.16279065608978271 0.24010999500751495
0.08527135848999023 0.17829453945159912 -0.11916234344244003
0.08527135848999023 0.17829453945159912 0.24266505241394043
0.08527136594057083 0.19379842281341553 -0.11554049700498581
0.08527135848999023 0.19379842281341553 0.24476157128810883
0.08527135848999023 0.20930230617523193 -0.11055009812116623
0.08527135848999023 0.20930230617523193 0.2462921440601349
0.08527135848999023 0.22480618953704834 -0.10643795877695084
0.08527135848999023 0.22480618953704834 0.24727416038513184
0.08527135848999023 0.24031007289886475 -0.10291736572980881
0.08527135848999023 0.24031007289886475 0.24772998690605164
0.08527135848999023 0.25581395626068115 -0.0983075425028801
0.08527135848999023 0.25581395626068115 0.24731874465942383
0.08527135848999023 0.27131783962249756 -0.0938224047422409
0.08527135848999023 0.27131783962249756 0.24654072523117065
0.08527135848999023 0.28682172298431396 -0.09045256674289703
0.08527135848999023 0.28682172298431396 0.24519547820091248
0.08527135848999023 0.30232560634613037 -0.08662545680999756
0.08527135848999023 0.30232560634613037 0.24297742545604706
0.08527135848999023 0.3178294897079468 -0.08108542859554291
0.08527135848999023 0.3178294897079468 0.2400309294462204
0.08527135848999023 0.3333333730697632 -0.07684697955846786
0.08527135848999023 0.3333333730697632 0.23675164580345154
0.08527135848999023 0.3488372564315796 -0.0713810920715332
0.08527135848999023 0.3488372564315796 0.23415197432041168
0.08527135848999023 0.364341139793396 -0.06403163075447083
0.08527135848999023 0.364341139793396 0.23221299052238464
0.08527135848999023 0.37984490394592285 -0.05847187340259552
0.08527135848999023 0.37984490394592285 0.23068442940711975
0.08527135848999023 0.39534878730773926 -0.04975781589746475
0.08527136594057083 0.39534881711006165 0.22875507175922394
0.08527135848999023 0.41085267066955566 -0.04370008409023285
0.08527135848999023 0.41085267066955566 0.22515514492988586
0.08527135848999023 0.42635658383369446 -0.03524336591362953
0.08527135848999023 0.42635655403137207 0.21927689015865326
0.08527135848999023 0.4418604373931885 -0.029180841520428658
0.08527135848999023 0.4418604373931885 0.21397514641284943
0.08527135848999023 0.4573643207550049 -0.021531300619244576
0.08527135848999023 0.4573643207550049 0.20552527904510498
0.08527135848999023 0.4728682041168213 -0.015663281083106995
0.08527135848999023 0.4728682041168213 0.19741332530975342
0.08527135848999023 0.4883720874786377 -0.007050986401736736
0.08527135848999023 0.4883720874786377 0.1880764663219452
0.08527135848999023 0.5038759708404541 0.0027960846200585365
0.08527135848999023 0.5038759708404541 0.17845292389392853
0.08527135848999023 0.5193798542022705 0.0181813333183527
0.08527135848999023 0.5193798542022705 0.16042563319206238
0.08527135848999023 0.5348837375640869 0.0432840920984745
0.08527135848999023 0.5348837375640869 0.1180662214756012
0.10077524185180664 -0.22480618953704834 -0.06234924495220184
0.10077524185180664 -0.22480618953704834 0.025287318974733353
0.10077524185180664 -0.20930230617523193 -0.07321569323539734
0.10077524185180664 -0.20930230617523193 0.03207146003842354
0.10077524185180664 -0.19379842281341553 -0.07746020704507828
0.10077524185180664 -0.19379842281341553 0.032390497624874115
0.10077524185180664 -0.1782945990562439 -0.08583683520555496
0.10077524185180664 -0.1782945990562439 0.0325888991355896
0.10077524185180664 -0.1627907156944275 -0.09967701137065887
0.10077524185180664 -0.1627907156944275 0.03248672932386398
0.10077523440122604 -0.14728683233261108 -0.1161370798945427
0.10077524185180664 -0.14728683233261108 0.03160377964377403
0.10077524185180664 -0.13178294897079468 -0.12696363031864166
0.10077524185180664 -0.13178294897079468 0.0298466794192791
0.10077524185180664 -0.11627906560897827 -0.13533563911914825
0.10077524185180664 -0.11627906560897827 0.03219597786664963
0.10077524185180664 -0.10077518224716187 -0.13901859521865845
0.10077524185180664 -0.10077518224716187 0.03974245488643646
0.10077524185180664 -0.08527129888534546 -0.14030736684799194
0.10077524185180664 -0.08527129888534546 0.04764080047607422
0.10077524185180664 -0.06976741552352905 -0.14080435037612915
0.10077524185180664 -0.06976741552352905 0.0557100847363472
0.10077524185180664 -0.05426359176635742 -0.14102913439273834
0.10077524185180664 -0.05426359176635742 0.061167605221271515
0.10077524185180664 -0.038759708404541016 -0.1414356827735901
0.10077524185180664 -0.038759708404541016 0.06406867504119873
0.10077524185180664 -0.02325582504272461 -0.14202864468097687
0.10077524185180664 -0.02325582504272461 0.06548647582530975
0.10077524185180664 -0.007751941680908203 -0.14206160604953766
0.10077524185180664 -0.007751941680908203 0.0668611079454422
0.10077524185180664 0.007751941680908203 -0.1416178196668625
0.10077524185180664 0.007751941680908203 0.06871447712182999
0.10077524185180664 0.02325582504272461 -0.14074914157390594
0.10077524185180664 0.02325582504272461 0.07111215591430664
0.10077524185180664 0.038759708404541016 -0.13981840014457703
0.10077524185180664 0.038759708404541016 0.07313685119152069
0.10077524185180664 0.05426359176635742 -0.13893291354179382
0.10077524185180664 0.05426359176635742 0.07831065356731415
0.10077524185180664 0.06976747512817383 -0.1372688114643097
0.10077524185180664 0.06976747512817383 0.10007341206073761
0.10077524185180664 0.08527135848999023 -0.13434277474880219
0.10077524185180664 0.08527135848999023 0.18579785525798798
0.10077524185180664 0.10077524185180664 -0.13191798329353333
0.10077524185180664 0.10077524185180664 0.2053402066230774
0.10077524185180664 0.11627912521362305 -0.12293794751167297
0.10077524185180664 0.11627912521362305 0.21668675541877747
0.10077524185180664 0.1317828893661499 -0.11861658841371536
0.10077524185180664 0.1317828893661499 0.22594651579856873
0.10077524185180664 0.1472867727279663 -0.11664324998855591
0.10077524185180664 0.1472867727279663 0.23035234212875366
0.10077524185180664 0.16279065608978271 -0.114622101187706
0.10077524185180664 0.16279065608978271 0.23360157012939453
0.10077524185180664 0.17829453945159912 -0.11152703315019608
0.10077524185180664 0.17829453945159912 0.23668700456619263
0.10077524185180664 0.19379842281341553 -0.10727716982364655
0.10077524185180664 0.19379842281341553 0.23972152173519135
0.10077524185180664 0.20930230617523193 -0.10399895161390305
0.10077524185180664 0.20930230617523193 0.24198798835277557
0.10077524185180664 0.22480618953704834 -0.10039488226175308
0.10077524185180664 0.22480618953704834 0.2433951199054718
0.10077524185180664 0.24031007289886475 -0.09561874717473984
0.10077524185180664 0.24031007289886475 0.24391904473304749
0.10077524185180664 0.25581395626068115 -0.09162896871566772
0.10077524185180664 0.25581395626068115 0.24339476227760315
0.10077524185180664 0.27131783962249756 -0.0885360911488533
0.10077524185180664 0.27131783962249756 0.24219906330108643
0.10077524185180664 0.28682172298431396 -0.08468140661716461
0.10077524185180664 0.28682172298431396 0.23988479375839233
0.10077524185180664 0.30232560634613037 -0.08003003150224686
0.10077524185180664 0.30232560634613037 0.23655281960964203
0.10077524185180664 0.3178294897079468 -0.07646620273590088
0.10077524185180664 0.3178294897079468 0.2339211106300354
0.10077524185180664 0.3333333730697632 -0.07246760278940201
0.10077524185180664 0.3333333730697632 0.2321871519088745
0.10077524185180664 0.3488372564315796 -0.06577417999505997
0.10077524185180664 0.3488372564315796 0.23077672719955444
0.10077524185180664 0.364341139793396 -0.06087132543325424
0.10077524185180664 0.364341139793396 0.22941970825195312
0.10077524185180664 0.37984487414360046 -0.053611867129802704
0.10077524185180664 0.37984490394592285 0.22763700783252716
0.10077524185180664 0.39534878730773926 -0.0464015007019043
0.10077524185180664 0.39534878730773926 0.22507348656654358
0.10077524185180664 0.41085267066955566 -0.03919777274131775
0.10077524185180664 0.41085267066955566 0.219979390501976
0.10077524185180664 0.42635655403137207 -0.031182777136564255
0.10077524185180664 0.42635655403137207 0.2155131995677948
0.10077524185180664 0.4418604373931885 -0.024618132039904594
0.10077524185180664 0.4418604373931885 0.2087748646736145
0.10077524185180664 0.4573643207550049 -0.01710701733827591
0.10077524185180664 0.4573643207550049 0.19958606362342834
0.10077524185180664 0.4728682041168213 -0.01111418567597866
