-0.10077518224716187 0.42635655403137207 0.2677992582321167
-0.10077517479658127 0.4418604075908661 -0.019983503967523575
-0.10077518224716187 0.4418604373931885 0.26687008142471313
-0.10077518224716187 0.4573643207550049 -0.01581672579050064
-0.10077518224716187 0.4573643207550049 0.2645576596260071
-0.10077518224716187 0.4728682041168213 -0.013220544904470444
-0.10077518224716187 0.4728681743144989 0.2598346173763275
-0.10077518224716187 0.4883720874786377 -0.009759891778230667
-0.10077518224716187 0.4883720874786377 0.2526247799396515
-0.10077518224716187 0.5038759708404541 -0.003407627111300826
-0.10077518969774246 0.5038759708404541 0.241718128323555
-0.10077518224716187 0.5193798542022705 0.00654694065451622
-0.10077518224716187 0.5193798542022705 0.22674547135829926
-0.10077518224716187 0.5348837375640869 0.02201567217707634
-0.10077518224716187 0.5348837375640869 0.2051701843738556
-0.10077518224716187 0.5503876209259033 0.04881912097334862
-0.10077518224716187 0.5503876805305481 0.16294719278812408
-0.08527129888534546 -0.4573643207550049 0.006201823242008686
-0.08527129888534546 -0.4573643207550049 0.049614954739809036
-0.08527129888534546 -0.4418604373931885 -0.009609437547624111
-0.08527129888534546 -0.44186046719551086 0.07143895328044891
-0.08527129888534546 -0.42635661363601685 -0.017677785828709602
-0.08527129888534546 -0.42635661363601685 0.08405595272779465
-0.08527129888534546 -0.41085273027420044 -0.024248860776424408
-0.08527129888534546 -0.41085273027420044 0.09169347584247589
-0.08527129888534546 -0.39534884691238403 -0.02499573491513729
-0.08527129888534546 -0.39534884691238403 0.0943867415189743
-0.08527129888534546 -0.3798449635505676 -0.01850038208067417
-0.08527129888534546 -0.3798449635505676 0.09412612020969391
-0.08527130633592606 -0.3643410801887512 -0.004062328487634659
-0.08527129888534546 -0.3643410801887512 0.09117771685123444
-0.08527129888534546 -0.3488371968269348 0.0107199028134346
-0.08527130633592606 -0.3488371968269348 0.08768349140882492
-0.08527129888534546 -0.3333333134651184 0.01615176908671856
-0.08527129888534546 -0.333333283662796 0.08604994416236877
-0.08527129888534546 -0.317829430103302 0.01614964008331299
-0.08527129888534546 -0.317829430103302 0.08371570706367493
-0.08527129888534546 -0.30232560634613037 0.005287736654281616
-0.08527129888534546 -0.30232560634613037 0.08437720686197281
-0.08527129888534546 -0.28682172298431396 -0.013428699225187302
-0.08527129888534546 -0.28682172298431396 0.08871592581272125
-0.08527129888534546 -0.27131783962249756 -0.02875417284667492
-0.08527129888534546 -0.27131783962249756 0.09361590445041656
-0.08527129888534546 -0.25581395626068115 -0.039460472762584686
-0.08527129888534546 -0.25581395626068115 0.09736690670251846
-0.08527129888534546 -0.24031007289886475 -0.04314146563410759
-0.08527129888534546 -0.24031007289886475 0.10013599693775177
-0.08527129888534546 -0.22480618953704834 -0.04351560026407242
-0.08527129888534546 -0.22480618953704834 0.10151000320911407
-0.08527129888534546 -0.20930230617523193 -0.040309373289346695
-0.08527129888534546 -0.20930230617523193 0.10088945925235748
-0.08527129888534546 -0.19379842281341553 -0.032261837273836136
-0.08527129888534546 -0.19379842281341553 0.09939523041248322
-0.08527129888534546 -0.1782945990562439 -0.022761253640055656
-0.08527129888534546 -0.1782945990562439 0.09816958755254745
-0.08527129888534546 -0.1627907156944275 -0.009615382179617882
-0.08527129888534546 -0.1627907156944275 0.10071893781423569
-0.08527129888534546 -0.14728683233261108 -0.004467885009944439
-0.08527129888534546 -0.14728683233261108 0.10506211221218109
-0.08527129888534546 -0.13178294897079468 -0.009273280389606953
-0.08527129888534546 -0.13178294897079468 0.10903353989124298
-0.08527129888534546 -0.11627906560897827 -0.025968845933675766
-0.08527129888534546 -0.11627906560897827 0.11484394967556
-0.08527129888534546 -0.10077518224716187 -0.05282557010650635
-0.08527129888534546 -0.10077518224716187 0.1209680438041687
-0.08527129888534546 -0.08527129888534546 -0.06691358238458633
-0.08527129888534546 -0.08527129888534546 0.12685608863830566
-0.08527129888534546 -0.06976741552352905 -0.07263081520795822
-0.08527129888534546 -0.06976741552352905 0.13483870029449463
-0.08527129888534546 -0.05426359176635742 -0.07389311492443085
-0.08527129888534546 -0.05426359176635742 0.13973292708396912
-0.08527129888534546 -0.038759708404541016 -0.07312089204788208
-0.08527129888534546 -0.038759708404541016 0.14127421379089355
-0.08527129888534546 -0.02325582504272461 -0.07159597426652908
-0.08527129888534546 -0.02325582504272461 0.14090697467327118
-0.08527129888534546 -0.007751941680908203 -0.06939610838890076
-0.08527129888534546 -0.007751941680908203 0.13829557597637177
-0.08527129888534546 0.007751941680908203 -0.06473219394683838
-0.08527129888534546 0.007751941680908203 0.13282066583633423
-0.08527129888534546 0.02325582504272461 -0.06051110476255417
-0.08527129888534546 0.02325582504272461 0.12607383728027344
-0.08527129888534546 0.038759708404541016 -0.05644203722476959
-0.08527129888534546 0.038759708404541016 0.12395849078893661
-0.08527129888534546 0.05426359176635742 -0.051329106092453
-0.08527129888534546 0.05426359176635742 0.12346069514751434
-0.08527129888534546 0.06976747512817383 -0.04049712046980858
-0.08527129888534546 0.06976747512817383 0.11838331073522568
-0.08527129888534546 0.08527135848999023 -0.02459283173084259
-0.08527129888534546 0.08527135848999023 0.10833276808261871
-0.08527129888534546 0.10077524185180664 -0.011571947485208511
-0.08527129888534546 0.10077524185180664 0.11935162544250488
-0.08527129888534546 0.11627912521362305 -0.014588810503482819
-0.08527129888534546 0.11627912521362305 0.12890201807022095
-0.08527129888534546 0.1317828893661499 -0.021584229543805122
-0.08527129888534546 0.1317828893661499 0.12352647632360458
-0.08527129888534546 0.1472867727279663 -0.026967452839016914
-0.08527129888534546 0.1472867727279663 0.11120271682739258
-0.08527129888534546 0.16279065608978271 -0.0333731472492218
-0.08527129888534546 0.16279065608978271 0.10551886260509491
-0.08527129888534546 0.17829453945159912 -0.03883742168545723
-0.08527129888534546 0.17829453945159912 0.17861905694007874
-0.08527129888534546 0.19379842281341553 -0.03993871808052063
-0.08527129888534546 0.19379842281341553 0.193861186504364
-0.08527129888534546 0.20930230617523193 -0.041574377566576004
-0.08527129888534546 0.20930230617523193 0.19944292306900024
-0.08527129888534546 0.22480618953704834 -0.0436677560210228
-0.08527129888534546 0.22480618953704834 0.20244798064231873
-0.08527129888534546 0.24031007289886475 -0.0454324409365654
-0.08527129888534546 0.24031007289886475 0.20259219408035278
-0.08527129888534546 0.25581395626068115 -0.04795006662607193
-0.08527129888534546 0.25581395626068115 0.2020423859357834
-0.08527129888534546 0.27131783962249756 -0.051296040415763855
-0.08527129888534546 0.27131783962249756 0.20818057656288147
-0.08527129888534546 0.28682172298431396 -0.05452360957860947
-0.08527129888534546 0.28682172298431396 0.22157464921474457
-0.08527129888534546 0.30232560634613037 -0.0562543086707592
-0.08527129888534546 0.30232560634613037 0.2366885542869568
-0.08527129888534546 0.3178294897079468 -0.05743623524904251
-0.08527129888534546 0.3178294897079468 0.24778437614440918
-0.08527129888534546 0.3333333730697632 -0.05803907662630081
-0.08527129888534546 0.3333333730697632 0.257521390914917
-0.08527129888534546 0.3488372564315796 -0.05786425992846489
-0.08527129888534546 0.3488372564315796 0.26383984088897705
-0.08527129888534546 0.364341139793396 -0.05618700385093689
-0.08527129888534546 0.364341139793396 0.26978713274002075
-0.08527129888534546 0.37984493374824524 -0.051671240478754044
-0.08527129888534546 0.37984487414360046 0.2733738124370575
-0.08527129888534546 0.39534878730773926 -0.046463992446660995
-0.08527129888534546 0.39534878730773926 0.27491599321365356
-0.08527129888534546 0.41085267066955566 -0.04091113805770874
-0.08527129888534546 0.41085267066955566 0.2749829590320587
-0.08527129888534546 0.42635655403137207 -0.033366430550813675
-0.08527129888534546 0.42635655403137207 0.2742408215999603
-0.08527129888534546 0.4418604373931885 -0.028033562004566193
-0.08527129888534546 0.4418604373931885 0.27279752492904663
-0.08527129888534546 0.4573643207550049 -0.02356770820915699
-0.08527129888534546 0.4573643207550049 0.2701403498649597
-0.08527129888534546 0.4728682041168213 -0.01942506991326809
-0.08527129888534546 0.4728682041168213 0.26623374223709106
-0.08527129888534546 0.4883720874786377 -0.016793927177786827
-0.08527129888534546 0.4883720874786377 0.25866857171058655
-0.08527129888534546 0.5038759708404541 -0.011736905202269554
-0.08527129888534546 0.5038759708404541 0.2487860918045044
-0.08527129888534546 0.5193798542022705 -0.002428099513053894
-0.08527129888534546 0.5193798542022705 0.2339918613433838
-0.08527129888534546 0.5348837375640869 0.011928753927350044
-0.08527129888534546 0.5348837375640869 0.21328182518482208
-0.08527129888534546 0.5503876209259033 0.03593635559082031
-0.08527129888534546 0.5503876209259033 0.1744723618030548
-0.06976741552352905 -0.4728682041168213 -0.004012993536889553
-0.06976741552352905 -0.4728682339191437 0.06106117367744446
-0.06976741552352905 -0.4573643207550049 -0.015047797933220863
-0.06976741552352905 -0.4573643207550049 0.07832786440849304
-0.06976741552352905 -0.4418604373931885 -0.023844385519623756
-0.06976741552352905 -0.4418604373931885 0.0910586416721344
-0.06976741552352905 -0.42635661363601685 -0.028134800493717194
-0.06976741552352905 -0.42635661363601685 0.09837765246629715
-0.06976741552352905 -0.41085273027420044 -0.03167783096432686
-0.06976741552352905 -0.41085273027420044 0.10407984256744385
-0.06976741552352905 -0.39534884691238403 -0.03308018669486046
-0.06976741552352905 -0.39534884691238403 0.10620688647031784
-0.06976741552352905 -0.3798449635505676 -0.030291039496660233
-0.06976741552352905 -0.3798449635505676 0.1053977981209755
-0.06976741552352905 -0.3643410801887512 -0.02445223368704319
-0.06976741552352905 -0.3643410801887512 0.10278414189815521
-0.06976741552352905 -0.3488371968269348 -0.014976106584072113
-0.06976741552352905 -0.3488371968269348 0.10037747770547867
-0.06976741552352905 -0.3333333134651184 -0.011064104735851288
-0.06976741552352905 -0.3333333134651184 0.09903106838464737
-0.06976741552352905 -0.317829430103302 -0.012397199869155884
-0.06976741552352905 -0.317829430103302 0.09843051433563232
-0.06976741552352905 -0.30232560634613037 -0.020480472594499588
-0.06976741552352905 -0.30232560634613037 0.09916806221008301
-0.06976741552352905 -0.28682172298431396 -0.030017821118235588
-0.06976741552352905 -0.28682172298431396 0.10188882052898407
-0.06976741552352905 -0.27131783962249756 -0.04029189050197601
-0.06976741552352905 -0.27131783962249756 0.10466213524341583
-0.06976741552352905 -0.25581395626068115 -0.04542451351881027
-0.06976741552352905 -0.25581395626068115 0.10678339004516602
-0.06976741552352905 -0.24031007289886475 -0.04815949499607086
-0.06976741552352905 -0.24031007289886475 0.10813014209270477
-0.06976741552352905 -0.22480618953704834 -0.048470474779605865
-0.06976741552352905 -0.22480618953704834 0.10899564623832703
-0.06976741552352905 -0.20930230617523193 -0.045962799340486526
-0.06976741552352905 -0.20930230617523193 0.10906587541103363
-0.06976741552352905 -0.19379842281341553 -0.04026804864406586
-0.06976741552352905 -0.19379842281341553 0.10898712277412415
-0.06976741552352905 -0.1782945990562439 -0.0300751980394125
-0.06976741552352905 -0.1782945990562439 0.10883396863937378
-0.06976741552352905 -0.1627907156944275 -0.021229207515716553
-0.06976741552352905 -0.1627907156944275 0.11088255792856216
-0.06976741552352905 -0.14728683233261108 -0.019361423328518867
-0.06976741552352905 -0.14728683233261108 0.11637330800294876
-0.06976741552352905 -0.13178294897079468 -0.03144240751862526
-0.06976741552352905 -0.13178294897079468 0.12146174907684326
-0.06976741552352905 -0.11627906560897827 -0.05153515934944153
-0.06976741552352905 -0.11627906560897827 0.12534937262535095
-0.06976741552352905 -0.10077518969774246 -0.06770312786102295
-0.06976741552352905 -0.10077518224716187 0.1307285726070404
-0.06976741552352905 -0.08527129888534546 -0.07591468840837479
-0.06976741552352905 -0.08527129888534546 0.13745392858982086
-0.06976741552352905 -0.06976741552352905 -0.0789317935705185
-0.06976741552352905 -0.06976741552352905 0.14189930260181427
-0.06976741552352905 -0.05426359176635742 -0.07977849245071411
-0.06976741552352905 -0.05426358804106712 0.1473860740661621
-0.06976741552352905 -0.038759708404541016 -0.07852090150117874
-0.06976741552352905 -0.038759708404541016 0.15013200044631958
-0.06976741552352905 -0.02325582504272461 -0.07654718309640884
-0.06976741552352905 -0.02325582504272461 0.1503789871931076
-0.06976741552352905 -0.007751941680908203 -0.07435253262519836
-0.06976741552352905 -0.00775194214656949 0.1478102058172226
-0.06976741552352905 0.007751941680908203 -0.0718570277094841
-0.06976741552352905 0.007751941680908203 0.14180514216423035
-0.06976741552352905 0.02325582504272461 -0.06718624383211136
-0.06976741552352905 0.02325582504272461 0.13592511415481567
-0.06976741552352905 0.038759708404541016 -0.061682164669036865
-0.06976741552352905 0.038759708404541016 0.13342496752738953
-0.06976741552352905 0.05426359176635742 -0.057166896760463715
-0.06976741552352905 0.05426358804106712 0.13259972631931305
-0.06976741552352905 0.06976747512817383 -0.047971852123737335
-0.06976741552352905 0.06976747512817383 0.12620262801647186
-0.06976741552352905 0.08527135848999023 -0.03758103772997856
-0.06976740807294846 0.08527135848999023 0.11678577214479446
-0.06976741552352905 0.10077524185180664 -0.028743289411067963
-0.06976741552352905 0.10077524185180664 0.12278134375810623
-0.06976741552352905 0.11627912521362305 -0.03234339505434036
-0.06976741552352905 0.11627912521362305 0.12954191863536835
-0.06976741552352905 0.1317828893661499 -0.03912964090704918
-0.06976741552352905 0.1317828893661499 0.12413766980171204
-0.06976741552352905 0.1472867727279663 -0.04127688333392143
-0.06976741552352905 0.1472867727279663 0.11413053423166275
-0.06976741552352905 0.16279065608978271 -0.04309399425983429
-0.06976741552352905 0.16279065608978271 0.16393327713012695
-0.06976741552352905 0.17829453945159912 -0.04484392702579498
-0.06976741552352905 0.17829453945159912 0.19182729721069336
-0.06976741552352905 0.19379842281341553 -0.04649195075035095
-0.06976741552352905 0.19379842281341553 0.20296183228492737
-0.06976741552352905 0.20930230617523193 -0.048983532935380936
-0.06976741552352905 0.20930230617523193 0.20986433327198029
-0.06976741552352905 0.22480618953704834 -0.05192495509982109
-0.06976741552352905 0.22480618953704834 0.21278038620948792
-0.06976741552352905 0.24031007289886475 -0.05452808365225792
-0.06976741552352905 0.24031007289886475 0.21388573944568634
-0.06976741552352905 0.25581395626068115 -0.05626532435417175
-0.06976741552352905 0.25581395626068115 0.2130715548992157
-0.06976741552352905 0.27131783962249756 -0.05828172713518143
-0.06976741552352905 0.27131783962249756 0.21630752086639404
-0.06976741552352905 0.28682172298431396 -0.05963558703660965
-0.06976741552352905 0.28682172298431396 0.22824892401695251
-0.06976741552352905 0.30232560634613037 -0.06086781620979309
-0.06976741552352905 0.30232560634613037 0.24216896295547485
-0.06976741552352905 0.3178294897079468 -0.06174810230731964
-0.06976741552352905 0.3178294897079468 0.25450772047042847
-0.06976741552352905 0.3333333730697632 -0.06206447631120682
-0.06976741552352905 0.3333333730697632 0.26269853115081787
-0.06976741552352905 0.3488372564315796 -0.06158123165369034
-0.06976741552352905 0.3488372564315796 0.27061331272125244
-0.06976741552352905 0.364341139793396 -0.06023242324590683
-0.06976741552352905 0.364341139793396 0.27548524737358093
-0.06976741552352905 0.37984490394592285 -0.057087626308202744
-0.06976741552352905 0.37984490394592285 0.2787867784500122
-0.06976741552352905 0.39534878730773926 -0.050855688750743866
-0.06976741552352905 0.39534878730773926 0.28033390641212463
-0.06976741552352905 0.41085267066955566 -0.045326072722673416
-0.06976741552352905 0.41085267066955566 0.2805374562740326
-0.06976741552352905 0.42635655403137207 -0.03900859132409096
-0.06976741552352905 0.42635655403137207 0.27976906299591064
-0.06976741552352905 0.4418604373931885 -0.03216143697500229
-0.06976741552352905 0.4418604373931885 0.2778010070323944
-0.06976741552352905 0.4573643207550049 -0.027859527617692947
-0.06976741552352905 0.4573643207550049 0.27464982867240906
-0.06976741552352905 0.4728682041168213 -0.02448030188679695
-0.06976741552352905 0.4728682041168213 0.2702715992927551
-0.06976741552352905 0.4883720874786377 -0.020185045897960663
-0.06976741552352905 0.4883720874786377 0.26379573345184326
-0.06976741552352905 0.5038759708404541 -0.016447698697447777
-0.06976741552352905 0.5038759708404541 0.2531569302082062
-0.06976742297410965 0.5193798542022705 -0.00633177300915122
-0.06976741552352905 0.5193798542022705 0.23844647407531738
-0.06976741552352905 0.5348837375640869 0.006530006416141987
-0.06976741552352905 0.5348837375640869 0.21923264861106873
-0.06976741552352905 0.5503876209259033 0.029444079846143723
-0.06976741552352905 0.5503876209259033 0.18352660536766052
-0.05426359176635742 -0.5038759708404541 0.021459348499774933
-0.05426359176635742 -0.5038759708404541 0.03967488557100296
-0.05426359176635742 -0.4883720874786377 -0.0046770283952355385
-0.05426359176635742 -0.4883720874786377 0.06379792839288712
-0.05426359176635742 -0.4728682041168213 -0.015588461421430111
-0.05426359176635742 -0.4728682041168213 0.07948997616767883
-0.05426359176635742 -0.4573643207550049 -0.024417947977781296
-0.05426359176635742 -0.4573643207550049 0.09254854917526245
-0.05426359176635742 -0.4418604373931885 -0.02882775291800499
-0.05426359176635742 -0.4418604373931885 0.10105568915605545
-0.05426359176635742 -0.42635661363601685 -0.03244444355368614
-0.05426359176635742 -0.42635661363601685 0.10744263231754303
-0.05426359176635742 -0.41085273027420044 -0.03637028858065605
-0.05426359176635742 -0.41085273027420044 0.10983051359653473
-0.05426359176635742 -0.39534884691238403 -0.0379825122654438
-0.05426359176635742 -0.39534884691238403 0.11136214435100555
-0.05426359176635742 -0.3798449635505676 -0.03523249924182892
-0.05426359176635742 -0.3798449635505676 0.1110571026802063
-0.05426359176635742 -0.3643410801887512 -0.030619075521826744
-0.05426359176635742 -0.3643410801887512 0.10943131893873215
-0.05426359176635742 -0.3488371968269348 -0.026547236368060112
-0.05426359176635742 -0.3488371968269348 0.10779747366905212
-0.05426359176635742 -0.3333333134651184 -0.024614062160253525
-0.05426359176635742 -0.3333333134651184 0.1069391667842865
-0.05426359176635742 -0.317829430103302 -0.02563232183456421
-0.05426359176635742 -0.317829430103302 0.10665879398584366
-0.05426359176635742 -0.30232560634613037 -0.0299682654440403
-0.05426359176635742 -0.30232560634613037 0.10705602169036865
-0.05426359176635742 -0.28682172298431396 -0.03838095813989639
-0.05426359176635742 -0.28682172298431396 0.10834852606058121
-0.05426359176635742 -0.27131783962249756 -0.043737225234508514
-0.05426359176635742 -0.27131783962249756 0.10985422134399414
-0.05426359176635742 -0.25581395626068115 -0.047670453786849976
-0.05426359176635742 -0.25581395626068115 0.11143516004085541
-0.05426359176635742 -0.24031007289886475 -0.05056712031364441
-0.05426359176635742 -0.24031007289886475 0.11332973837852478
-0.05426359176635742 -0.22480618953704834 -0.05043023079633713
-0.05426359176635742 -0.22480618953704834 0.11538692563772202
-0.05426359176635742 -0.20930230617523193 -0.04703487455844879
-0.05426359176635742 -0.20930230617523193 0.11582352221012115
-0.05426359176635742 -0.19379842281341553 -0.04096199944615364
-0.05426359176635742 -0.19379842281341553 0.11632810533046722
-0.05426359176635742 -0.1782945990562439 -0.030201997607946396
-0.05426359176635742 -0.1782945990562439 0.11718128621578217
-0.05426359176635742 -0.1627907156944275 -0.02319716103374958
-0.05426359176635742 -0.1627907156944275 0.11961305886507034
-0.05426359176635742 -0.14728683233261108 -0.02683684602379799
-0.05426359176635742 -0.14728683233261108 0.12351909279823303
-0.05426359176635742 -0.13178294897079468 -0.04454377293586731
-0.05426359176635742 -0.13178294897079468 0.12712471187114716
-0.05426359176635742 -0.11627906560897827 -0.06205230951309204
-0.05426359176635742 -0.11627906560897827 0.1323118358850479
-0.05426359176635742 -0.10077518224716187 -0.07506769150495529
-0.05426359176635742 -0.10077518224716187 0.13799794018268585
-0.05426359176635742 -0.08527129888534546 -0.08134640753269196
-0.05426359176635742 -0.08527129888534546 0.14245963096618652
-0.05426359176635742 -0.06976741552352905 -0.08606764674186707
-0.05426359176635742 -0.06976741552352905 0.14841464161872864
-0.05426359176635742 -0.05426359176635742 -0.08668787777423859
-0.05426359176635742 -0.05426359176635742 0.1528521031141281
-0.05426359176635742 -0.038759708404541016 -0.08550871908664703
-0.05426359176635742 -0.038759708404541016 0.15482620894908905
-0.05426359176635742 -0.02325582504272461 -0.08113016188144684
-0.05426359176635742 -0.02325582504272461 0.15531674027442932
-0.05426359176635742 -0.007751941680908203 -0.07732684165239334
-0.05426359176635742 -0.007751941680908203 0.15367910265922546
-0.05426359176635742 0.007751941680908203 -0.07468955963850021
-0.05426359176635742 0.007751941680908203 0.14892059564590454
-0.05426359176635742 0.02325582504272461 -0.07118546217679977
-0.05426359176635742 0.02325582504272461 0.14192946255207062
-0.05426359176635742 0.038759708404541016 -0.06530535221099854
-0.05426359176635742 0.038759708404541016 0.13864746689796448
-0.05426359176635742 0.05426359176635742 -0.05906742066144943
-0.05426359176635742 0.05426359176635742 0.13656000792980194
-0.05426359176635742 0.06976747512817383 -0.05065828561782837
-0.05426359176635742 0.06976747512817383 0.13123519718647003
-0.05426359176635742 0.08527135848999023 -0.039973367005586624
-0.05426359176635742 0.08527135848999023 0.11825890839099884
-0.05426359176635742 0.10077524185180664 -0.036413948982954025
-0.05426359176635742 0.10077524930238724 0.11909913271665573
-0.05426359176635742 0.11627912521362305 -0.040016770362854004
-0.05426359176635742 0.11627912521362305 0.12113317847251892
-0.05426359176635742 0.1317828893661499 -0.04354376345872879
-0.05426359176635742 0.1317828893661499 0.11686886847019196
-0.05426359176635742 0.1472867727279663 -0.046329595148563385
-0.05426359176635742 0.1472867727279663 0.1094672754406929
-0.05426359176635742 0.16279065608978271 -0.04863446578383446
-0.05426359176635742 0.16279065608978271 0.17371156811714172
-0.05426359176635742 0.17829453945159912 -0.05086299031972885
-0.05426359176635742 0.17829453945159912 0.19672712683677673
-0.05426359549164772 0.19379843771457672 -0.05318095162510872
-0.05426359176635742 0.19379842281341553 0.20911253988742828
-0.05426359176635742 0.20930230617523193 -0.05524546280503273
-0.05426359176635742 0.20930230617523193 0.2144695669412613
-0.05426359176635742 0.22480618953704834 -0.05722123757004738
-0.05426359176635742 0.22480618953704834 0.2185845673084259
-0.05426359176635742 0.24031007289886475 -0.05902375280857086
-0.05426359176635742 0.24031007289886475 0.21972976624965668
-0.05426359176635742 0.25581395626068115 -0.060528725385665894
-0.05426359176635742 0.25581395626068115 0.2184155285358429
-0.05426359176635742 0.27131783962249756 -0.062310293316841125
-0.05426359176635742 0.27131783962249756 0.22208839654922485
-0.05426359176635742 0.28682172298431396 -0.0638776421546936
-0.05426359176635742 0.28682172298431396 0.23197945952415466
-0.05426359176635742 0.30232560634613037 -0.06552762538194656
-0.05426359176635742 0.30232560634613037 0.24517011642456055
-0.05426359549164772 0.3178294897079468 -0.06650432199239731
-0.05426359176635742 0.3178294897079468 0.25765669345855713
-0.05426359176635742 0.3333333730697632 -0.06632230430841446
-0.05426359176635742 0.3333333730697632 0.26657748222351074
-0.05426358804106712 0.3488372564315796 -0.06478694081306458
-0.05426359176635742 0.348837286233902 0.2739174962043762
-0.05426359176635742 0.364341139793396 -0.06223810464143753
-0.05426359176635742 0.364341139793396 0.2788582444190979
-0.05426359176635742 0.37984490394592285 -0.059303611516952515
-0.05426359176635742 0.37984490394592285 0.2820051908493042
-0.05426359176635742 0.39534878730773926 -0.05428652837872505
-0.05426359176635742 0.39534878730773926 0.2835271954536438
-0.05426359176635742 0.41085267066955566 -0.04696106165647507
-0.05426359176635742 0.41085267066955566 0.28347247838974
-0.05426359176635742 0.42635655403137207 -0.041079699993133545
-0.05426359176635742 0.42635655403137207 0.2827061712741852
-0.05426359176635742 0.4418604373931885 -0.03397674113512039
-0.05426359176635742 0.4418604373931885 0.2810218930244446
-0.05426359176635742 0.4573643207550049 -0.02986719086766243
-0.05426359549164772 0.45736435055732727 0.2774844765663147
-0.05426359176635742 0.4728682041168213 -0.026238836348056793
-0.05426359176635742 0.4728681743144989 0.272644579410553
-0.05426359176635742 0.4883720874786377 -0.02237253077328205
-0.05426359176635742 0.4883720874786377 0.26630574464797974
-0.05426359549164772 0.5038759708404541 -0.017589613795280457
-0.05426359176635742 0.5038759708404541 0.2553575038909912
-0.05426359176635742 0.5193798542022705 -0.00803875457495451
-0.05426358804106712 0.5193798542022705 0.24134446680545807
-0.05426359176635742 0.5348837375640869 0.004983902908861637
-0.05426359176635742 0.5348837375640869 0.2218061089515686
-0.05426359176635742 0.5503876209259033 0.02808191627264023
-0.05426359176635742 0.5503876209259033 0.18716418743133545
-0.05426359176635742 0.5658915042877197 0.07974530011415482
-0.05426359176635742 0.5658915042877197 0.10902674496173859
-0.038759708404541016 -0.5038759708404541 2.4863053113222122e-05
-0.038759708404541016 -0.5038759708404541 0.06428453326225281
-0.038759708404541016 -0.4883720874786377 -0.013866223394870758
-0.038759708404541016 -0.4883720874786377 0.07923384010791779
-0.038759708404541016 -0.4728682041168213 -0.02400880679488182
-0.038759708404541016 -0.4728682339191437 0.09225501120090485
-0.038759708404541016 -0.4573643207550049 -0.02880777046084404
-0.038759708404541016 -0.4573643207550049 0.10156659781932831
-0.038759708404541016 -0.4418604373931885 -0.03291291743516922
-0.038759708404541016 -0.4418604373931885 0.10804545879364014
-0.038759708404541016 -0.42635661363601685 -0.03758393973112106
-0.038759708404541016 -0.42635661363601685 0.11178196221590042
-0.038759708404541016 -0.41085273027420044 -0.040127042680978775
-0.038759708404541016 -0.41085273027420044 0.11555192619562149
-0.038759708404541016 -0.39534884691238403 -0.04054257646203041
-0.038759708404541016 -0.39534884691238403 0.11740739643573761
-0.038759708404541016 -0.3798449635505676 -0.03934461250901222
-0.038759708404541016 -0.3798449635505676 0.11748268455266953
-0.038759708404541016 -0.3643410801887512 -0.03481559827923775
-0.038759708404541016 -0.3643410801887512 0.1164771318435669
-0.038759708404541016 -0.3488371968269348 -0.03109048306941986
-0.038759708404541016 -0.3488371968269348 0.11428334563970566
-0.038759708404541016 -0.3333333134651184 -0.02960483357310295
-0.038759708404541016 -0.3333333134651184 0.1125180721282959
-0.038759708404541016 -0.317829430103302 -0.03092818707227707
-0.038759708404541016 -0.317829430103302 0.111812524497509
-0.038759708404541016 -0.30232560634613037 -0.035731710493564606
-0.038759708404541016 -0.30232560634613037 0.1120423823595047
-0.038759708404541016 -0.28682172298431396 -0.04172797128558159
-0.038759708404541016 -0.28682172298431396 0.11318934708833694
-0.038759708404541016 -0.27131783962249756 -0.0457899272441864
-0.038759708404541016 -0.27131783962249756 0.11507482826709747
-0.038759708404541016 -0.25581395626068115 -0.04942028969526291
-0.038759708404541016 -0.25581395626068115 0.11716149002313614
-0.038759708404541016 -0.24031008780002594 -0.052046049386262894
-0.038759708404541016 -0.24031007289886475 0.11857613921165466
-0.038759708404541016 -0.22480618953704834 -0.05138397216796875
-0.038759708404541016 -0.22480620443820953 0.1198914498090744
-0.038759708404541016 -0.20930230617523193 -0.04761849343776703
-0.038759708404541016 -0.20930230617523193 0.1205291599035263
-0.038759708404541016 -0.19379842281341553 -0.04189303517341614
-0.038759708404541016 -0.19379842281341553 0.1213531494140625
-0.038759708404541016 -0.1782945990562439 -0.03213157132267952
-0.038759708404541016 -0.1782945990562439 0.12266179919242859
-0.038759708404541016 -0.1627907156944275 -0.026972055435180664
-0.038759708404541016 -0.1627907156944275 0.12464240193367004
-0.038759708404541016 -0.14728683233261108 -0.0388198122382164
-0.038759708404541016 -0.14728683233261108 0.1280403733253479
-0.038759708404541016 -0.13178294897079468 -0.05547010153532028
-0.038759708404541016 -0.13178294897079468 0.13317455351352692
-0.038759708404541016 -0.11627906560897827 -0.07041844725608826
-0.038759708404541016 -0.11627906560897827 0.13802434504032135
-0.038759708404541016 -0.10077518224716187 -0.07935991883277893
-0.038759708404541016 -0.10077518224716187 0.14188595116138458
-0.038759708404541016 -0.08527129888534546 -0.08662581443786621
-0.038759708404541016 -0.08527129888534546 0.14763876795768738
-0.038759708404541016 -0.06976741552352905 -0.0892249345779419
-0.038759708404541016 -0.06976741552352905 0.1525840312242508
-0.038759708404541016 -0.05426359176635742 -0.08973968029022217
-0.038759708404541016 -0.05426359176635742 0.15566521883010864
-0.038759708404541016 -0.038759708404541016 -0.08859618008136749
-0.038759708404541016 -0.038759708404541016 0.1578550785779953
-0.038759708404541016 -0.02325582504272461 -0.0862714871764183
-0.038759708404541016 -0.02325582504272461 0.15893734991550446
-0.038759708404541016 -0.00775194214656949 -0.08079952001571655
-0.038759708404541016 -0.007751941680908203 0.15735353529453278
-0.038759708404541016 0.007751941680908203 -0.07669757306575775
-0.038759708404541016 0.007751941680908203 0.15360984206199646
-0.038759708404541016 0.02325582504272461 -0.07299661636352539
-0.038759708404541016 0.02325582504272461 0.14781855046749115
-0.03875970467925072 0.03875970467925072 -0.068876713514328
-0.038759708404541016 0.038759708404541016 0.14388784766197205
-0.038759708404541016 0.05426359176635742 -0.06033780425786972
-0.038759708404541016 0.05426359176635742 0.14230069518089294
-0.038759708404541016 0.06976747512817383 -0.052481845021247864
-0.038759708404541016 0.06976747512817383 0.13640937209129333
-0.038759708404541016 0.08527135848999023 -0.04207063093781471
-0.038759708404541016 0.08527135848999023 0.12448025494813919
-0.038759708404541016 0.10077524185180664 -0.040203940123319626
-0.038759708404541016 0.10077524185180664 0.11988465487957001
-0.038759708404541016 0.11627912521362305 -0.04254946485161781
-0.038759708404541016 0.11627912521362305 0.11874911189079285
-0.038759708404541016 0.1317828893661499 -0.046260617673397064
-0.038759708404541016 0.1317828893661499 0.11477747559547424
-0.038759708404541016 0.1472867727279663 -0.0499672032892704
-0.038759708404541016 0.1472867727279663 0.11117523908615112
-0.038759708404541016 0.16279065608978271 -0.05323885381221771
-0.038759708404541016 0.16279065608978271 0.17790165543556213
-0.038759708404541016 0.17829453945159912 -0.05494677275419235
-0.038759708404541016 0.17829453945159912 0.1992393434047699
-0.038759708404541016 0.19379842281341553 -0.056171827018260956
-0.03875970467925072 0.19379842281341553 0.2116336226463318
-0.038759708404541016 0.20930230617523193 -0.05829273909330368
-0.038759708404541016 0.20930230617523193 0.2178238034248352
-0.038759708404541016 0.22480618953704834 -0.06057170033454895
-0.038759708404541016 0.22480618953704834 0.22205612063407898
-0.038759708404541016 0.24031007289886475 -0.06241466850042343
-0.038759708404541016 0.24031007289886475 0.2237386852502823
-0.038759708404541016 0.25581395626068115 -0.06431803107261658
-0.038759708404541016 0.25581395626068115 0.22202278673648834
-0.038759708404541016 0.27131783962249756 -0.06650608032941818
-0.038759708404541016 0.27131786942481995 0.2249131202697754
-0.038759708404541016 0.28682172298431396 -0.06844872981309891
-0.038759708404541016 0.28682172298431396 0.2346290946006775
-0.038759708404541016 0.30232560634613037 -0.07014003396034241
-0.038759708404541016 0.30232560634613037 0.24782520532608032
-0.038759708404541016 0.3178294897079468 -0.07052398473024368
-0.038759708404541016 0.3178294897079468 0.26031139492988586
-0.038759708404541016 0.3333333730697632 -0.07007601112127304
-0.038759708404541016 0.3333333730697632 0.27069324254989624
-0.038759708404541016 0.3488372564315796 -0.06745214760303497
-0.038759708404541016 0.3488372564315796 0.2769172191619873
-0.038759708404541016 0.364341139793396 -0.06381119787693024
-0.038759708404541016 0.364341139793396 0.28178852796554565
-0.038759708404541016 0.37984490394592285 -0.06028427928686142
-0.038759708404541016 0.37984490394592285 0.28538790345191956
-0.038759708404541016 0.39534878730773926 -0.05547361448407173
-0.038759708404541016 0.39534878730773926 0.28683456778526306
-0.038759708404541016 0.41085267066955566 -0.047957830131053925
-0.038759708404541016 0.41085267066955566 0.2864404618740082
-0.038759708404541016 0.42635655403137207 -0.042075615376234055
-0.038759708404541016 0.42635655403137207 0.2849836051464081
-0.038759708404541016 0.4418604373931885 -0.034845054149627686
-0.038759708404541016 0.4418604373931885 0.2832430899143219
-0.038759708404541016 0.4573643207550049 -0.030590465292334557
-0.038759708404541016 0.4573643207550049 0.27984917163848877
-0.038759708404541016 0.4728682041168213 -0.02700774557888508
-0.038759708404541016 0.4728682041168213 0.2743803858757019
-0.038759708404541016 0.4883720874786377 -0.023271018639206886
-0.038759708404541016 0.4883720874786377 0.2678966820240021
-0.038759708404541016 0.5038759708404541 -0.017912866547703743
-0.038759708404541016 0.5038759708404541 0.2573820948600769
-0.038759708404541016 0.5193798542022705 -0.008405128493905067
-0.038759708404541016 0.5193798542022705 0.24392259120941162
-0.038759708404541016 0.5348837375640869 0.005020543932914734
-0.038759708404541016 0.5348837375640869 0.2240981161594391
-0.038759708404541016 0.5503876209259033 0.02819874882698059
-0.038759708404541016 0.5503876209259033 0.18963205814361572
-0.038759708404541016 0.5658915042877197 0.07667569816112518
-0.038759708404541016 0.5658915042877197 0.11309482902288437
-0.02325582504272461 -0.5193798542022705 0.010326368734240532
-0.02325582504272461 -0.5193798542022705 0.05881524085998535
-0.02325582504272461 -0.5038759708404541 -0.008901958353817463
-0.02325582504272461 -0.5038759708404541 0.07551570981740952
-0.02325582504272461 -0.4883720874786377 -0.0190893467515707
-0.02325582504272461 -0.4883720874786377 0.08815460652112961
-0.02325582504272461 -0.4728682041168213 -0.026836365461349487
-0.02325582504272461 -0.4728682041168213 0.0974651575088501
-0.02325582504272461 -0.4573643207550049 -0.031109850853681564
-0.02325582504272461 -0.4573643207550049 0.10659844428300858
-0.02325582504272461 -0.4418604373931885 -0.03629423677921295
-0.02325582504272461 -0.4418604373931885 0.11080817878246307
-0.02325582504272461 -0.42635661363601685 -0.04013236612081528
-0.02325582690536976 -0.42635661363601685 0.11642590165138245
-0.02325582504272461 -0.41085273027420044 -0.041579797863960266
-0.02325582318007946 -0.41085270047187805 0.11893617361783981
-0.02325582504272461 -0.39534884691238403 -0.04182688891887665
-0.02325582504272461 -0.39534884691238403 0.1203065812587738
-0.02325582504272461 -0.3798449635505676 -0.04084571823477745
-0.02325582504272461 -0.37984499335289 0.12075410783290863
-0.02325582504272461 -0.3643410801887512 -0.038332752883434296
-0.02325582318007946 -0.3643410801887512 0.12022195756435394
-0.02325582318007946 -0.3488371968269348 -0.03408706560730934
-0.02325582690536976 -0.3488371968269348 0.11871824413537979
-0.02325582504272461 -0.3333333134651184 -0.032772958278656006
-0.02325582318007946 -0.333333283662796 0.116825632750988
-0.02325582504272461 -0.317829430103302 -0.03442069888114929
-0.02325582504272461 -0.317829430103302 0.11547277122735977
-0.02325582504272461 -0.30232560634613037 -0.03942374512553215
-0.02325582504272461 -0.30232560634613037 0.11542502790689468
-0.02325582504272461 -0.28682172298431396 -0.04321277141571045
-0.02325582504272461 -0.28682172298431396 0.11642565578222275
-0.02325582504272461 -0.27131783962249756 -0.04722730815410614
-0.02325582504272461 -0.27131783962249756 0.11752347648143768
-0.02325582504272461 -0.25581395626068115 -0.050968289375305176
-0.02325582504272461 -0.25581395626068115 0.11895253509283066
-0.02325582504272461 -0.24031007289886475 -0.05357913300395012
-0.02325582504272461 -0.24031007289886475 0.12036025524139404
-0.02325582504272461 -0.22480618953704834 -0.0525517500936985
-0.02325582504272461 -0.22480618953704834 0.12164485454559326
-0.02325582504272461 -0.20930230617523193 -0.048549309372901917
-0.02325582504272461 -0.20930232107639313 0.12239393591880798
-0.02325582504272461 -0.19379842281341553 -0.04312314838171005
-0.02325582504272461 -0.19379842281341553 0.12340164929628372
-0.02325582504272461 -0.1782945990562439 -0.03588441014289856
-0.02325582504272461 -0.1782945990562439 0.12495719641447067
-0.02325582504272461 -0.1627907156944275 -0.033214639872312546
-0.02325582504272461 -0.1627907156944275 0.12752529978752136
-0.02325582504272461 -0.14728683233261108 -0.04468482360243797
-0.02325582504272461 -0.14728683233261108 0.1320926547050476
-0.02325582504272461 -0.13178294897079468 -0.060521677136421204
-0.02325582504272461 -0.13178294897079468 0.13713586330413818
-0.02325582504272461 -0.11627906560897827 -0.0739208459854126
-0.02325582504272461 -0.11627906560897827 0.1405893862247467
-0.02325582504272461 -0.10077518224716187 -0.08265408873558044
-0.02325582504272461 -0.10077518224716187 0.1446874439716339
-0.02325582504272461 -0.08527129888534546 -0.08864668011665344
-0.02325582504272461 -0.08527129888534546 0.15035361051559448
-0.02325582504272461 -0.06976741552352905 -0.09068615734577179
-0.02325582504272461 -0.06976741552352905 0.15428151190280914
-0.02325582504272461 -0.05426359176635742 -0.09108559787273407
-0.02325582504272461 -0.05426359176635742 0.15731695294380188
-0.02325582504272461 -0.038759708404541016 -0.09008748829364777
-0.02325582504272461 -0.038759708404541016 0.16033393144607544
-0.02325582504272461 -0.02325582504272461 -0.0879247710108757
-0.02325582504272461 -0.02325582504272461 0.16199596226215363
-0.02325582504272461 -0.00775194214656949 -0.08385062217712402
-0.02325582504272461 -0.007751941680908203 0.16025564074516296
-0.02325582504272461 0.007751941680908203 -0.07802487164735794
-0.02325582504272461 0.007751941680908203 0.15626691281795502
-0.02325582504272461 0.02325582504272461 -0.07385063916444778
-0.02325582504272461 0.02325582504272461 0.1507416069507599
-0.02325582504272461 0.038759708404541016 -0.07008209079504013
-0.02325582504272461 0.038759708404541016 0.14781324565410614
-0.02325582504272461 0.05426359176635742 -0.060777898877859116
-0.02325582504272461 0.05426359176635742 0.14673350751399994
-0.02325582504272461 0.06976747512817383 -0.05236152559518814
-0.02325582504272461 0.06976747512817383 0.14134635031223297
-0.02325582504272461 0.08527135848999023 -0.04217856377363205
-0.02325582504272461 0.08527135848999023 0.13116979598999023
-0.02325582504272461 0.10077524185180664 -0.03994571417570114
-0.02325582504272461 0.10077524185180664 0.12350225448608398
-0.02325582504272461 0.11627912521362305 -0.04201272502541542
-0.02325582504272461 0.11627912521362305 0.11997568607330322
-0.02325582504272461 0.1317828893661499 -0.04604705423116684
-0.02325582504272461 0.1317828893661499 0.11626234650611877
-0.02325582504272461 0.1472867727279663 -0.05078640207648277
-0.02325582504272461 0.1472867727279663 0.11521976441144943
-0.02325582504272461 0.16279065608978271 -0.05462610721588135
-0.02325582504272461 0.16279065608978271 0.17468386888504028
-0.02325582504272461 0.17829453945159912 -0.056085601449012756
-0.02325582504272461 0.17829453945159912 0.19986160099506378
-0.02325582504272461 0.19379842281341553 -0.05778834968805313
-0.02325582504272461 0.19379842281341553 0.21276597678661346
-0.02325582504272461 0.20930230617523193 -0.060231611132621765
-0.02325582504272461 0.20930230617523193 0.21934419870376587
-0.02325582504272461 0.22480618953704834 -0.06274572014808655
-0.02325582504272461 0.22480618953704834 0.22407656908035278
-0.02325582504272461 0.24031007289886475 -0.06511358171701431
-0.02325582504272461 0.24031007289886475 0.22534209489822388
-0.02325582504272461 0.25581395626068115 -0.06726107001304626
-0.02325582504272461 0.25581395626068115 0.22354558110237122
-0.02325582504272461 0.27131783962249756 -0.06978941708803177
-0.02325582504272461 0.27131783962249756 0.22532878816127777
-0.02325582504272461 0.28682172298431396 -0.07073892652988434
-0.02325582504272461 0.28682172298431396 0.23557862639427185
-0.02325582504272461 0.30232560634613037 -0.071566142141819
-0.02325582504272461 0.30232560634613037 0.2497364729642868
-0.02325582504272461 0.3178294897079468 -0.07175491750240326
-0.02325582504272461 0.3178294897079468 0.26242372393608093
-0.02325582504272461 0.3333333730697632 -0.07108741253614426
-0.02325582690536976 0.3333333730697632 0.27264636754989624
-0.02325582504272461 0.348837286233902 -0.0688464418053627
-0.02325582504272461 0.3488372564315796 0.27910399436950684
-0.02325582504272461 0.364341139793396 -0.06442432105541229
-0.02325582504272461 0.364341139793396 0.2842613160610199
-0.02325582504272461 0.37984490394592285 -0.06052398681640625
-0.02325582504272461 0.37984490394592285 0.28756943345069885
-0.02325582504272461 0.39534878730773926 -0.05565739795565605
-0.02325582690536976 0.39534878730773926 0.28853872418403625
-0.02325582504272461 0.41085267066955566 -0.04799233376979828
-0.02325582690536976 0.41085267066955566 0.28809860348701477
-0.02325582504272461 0.42635655403137207 -0.04194549843668938
-0.02325582504272461 0.42635658383369446 0.2868802845478058
-0.02325582504272461 0.4418604373931885 -0.03455885872244835
-0.02325582504272461 0.4418604373931885 0.2845262587070465
-0.02325582504272461 0.4573643207550049 -0.03029271960258484
-0.02325582504272461 0.4573643207550049 0.28142690658569336
-0.02325582504272461 0.4728682041168213 -0.02655615285038948
-0.02325582504272461 0.4728682041168213 0.27559444308280945
-0.02325582504272461 0.4883721172809601 -0.022375160828232765
-0.02325582504272461 0.4883720874786377 0.26875877380371094
-0.02325582504272461 0.5038759708404541 -0.017467297613620758
-0.02325582504272461 0.5038759708404541 0.25882530212402344
-0.02325582504272461 0.5193798542022705 -0.007184579037129879
-0.02325582504272461 0.5193798542022705 0.24578014016151428
-0.02325582504272461 0.5348837375640869 0.006876000203192234
-0.02325582504272461 0.5348837375640869 0.22641947865486145
-0.02325582504272461 0.5503876209259033 0.02961970493197441
-0.02325582504272461 0.5503876209259033 0.1916649341583252
-0.02325582504272461 0.5658915042877197 0.08003894984722137
-0.02325582504272461 0.5658915042877197 0.1080361008644104
-0.007751941680908203 -0.5193798542022705 0.004125732928514481
-0.007751941680908203 -0.5193798542022705 0.06424492597579956
-0.007751941680908203 -0.5038759708404541 -0.01140916720032692
-0.007751941680908203 -0.5038759708404541 0.0792640820145607
-0.007751941680908203 -0.4883720576763153 -0.02238653041422367
-0.007751941680908203 -0.4883720874786377 0.09174355864524841
-0.007751941680908203 -0.4728682041168213 -0.028081588447093964
-0.007751941680908203 -0.4728681743144989 0.1008288711309433
-0.007751941680908203 -0.4573642909526825 -0.03251584619283676
-0.007751941680908203 -0.4573643207550049 0.10786122828722
-0.007751941215246916 -0.4418604075908661 -0.03853077441453934
-0.007751941680908203 -0.4418604373931885 0.11218185722827911
-0.007751941680908203 -0.42635661363601685 -0.04104326665401459
-0.007751941680908203 -0.42635661363601685 0.11765164881944656
-0.007751941680908203 -0.41085273027420044 -0.04233790189027786
-0.007751941680908203 -0.41085273027420044 0.11992624402046204
-0.007751941680908203 -0.39534884691238403 -0.04255622252821922
-0.007751941680908203 -0.39534884691238403 0.12118469923734665
-0.007751941680908203 -0.3798449635505676 -0.04165510833263397
-0.007751941680908203 -0.3798449635505676 0.12170147895812988
-0.007751941680908203 -0.3643410801887512 -0.0395466610789299
-0.007751941680908203 -0.3643410801887512 0.12130863219499588
-0.007751941680908203 -0.3488371968269348 -0.03599213808774948
-0.007751941680908203 -0.3488371968269348 0.12003330141305923
-0.007751941680908203 -0.3333333134651184 -0.03468809649348259
-0.007751941680908203 -0.3333333134651184 0.11822165548801422
-0.007751941680908203 -0.317829430103302 -0.036671269685029984
-0.007751941680908203 -0.317829430103302 0.11689935624599457
-0.007751941680908203 -0.30232560634613037 -0.04058285430073738
-0.007751941680908203 -0.30232560634613037 0.11667658388614655
-0.007751941680908203 -0.28682172298431396 -0.044108398258686066
-0.007751941680908203 -0.28682172298431396 0.11727109551429749
-0.007751941680908203 -0.27131783962249756 -0.04831108823418617
-0.007751941680908203 -0.27131783962249756 0.1182953417301178
-0.007751941680908203 -0.25581395626068115 -0.05238982290029526
-0.007751941680908203 -0.25581395626068115 0.11966000497341156
-0.007751941680908203 -0.24031007289886475 -0.05465089529752731
-0.007751941680908203 -0.24031007289886475 0.12102127075195312
-0.007751941680908203 -0.22480618953704834 -0.05406365171074867
-0.007751941680908203 -0.22480618953704834 0.1222492903470993
-0.007751941680908203 -0.20930230617523193 -0.049827735871076584
-0.007751941680908203 -0.20930230617523193 0.12305192649364471
-0.007751941680908203 -0.19379842281341553 -0.044754646718502045
-0.007751941680908203 -0.19379842281341553 0.12421820312738419
-0.007751941680908203 -0.1782945990562439 -0.04001881182193756
-0.007751941680908203 -0.1782945990562439 0.12619584798812866
-0.007751941680908203 -0.1627907156944275 -0.04011166840791702
-0.007751941680908203 -0.1627907156944275 0.12953734397888184
-0.007751941215246916 -0.14728683233261108 -0.05115508288145065
-0.007751941680908203 -0.14728683233261108 0.13457633554935455
-0.007751941680908203 -0.13178294897079468 -0.06423860043287277
-0.007751941680908203 -0.13178294897079468 0.1391182839870453
-0.007751941680908203 -0.11627906560897827 -0.07610585540533066
-0.007751941680908203 -0.11627906560897827 0.1419842392206192
-0.007751941680908203 -0.10077518224716187 -0.08567671477794647
-0.007751941680908203 -0.10077518224716187 0.14660660922527313
-0.007751941680908203 -0.08527129888534546 -0.0901411697268486
-0.007751941680908203 -0.08527129888534546 0.15153735876083374
-0.007751941680908203 -0.06976741552352905 -0.09184988588094711
-0.007751941680908203 -0.06976741552352905 0.15498031675815582
-0.007751941680908203 -0.05426359176635742 -0.09219318628311157
-0.007751941680908203 -0.05426359176635742 0.1583462357521057
-0.007751941680908203 -0.038759708404541016 -0.09126570075750351
-0.007751941680908203 -0.038759708404541016 0.16205118596553802
-0.007751941680908203 -0.02325582504272461 -0.08938692510128021
-0.007751941680908203 -0.02325582504272461 0.16367940604686737
-0.007751941680908203 -0.007751941680908203 -0.08618174493312836
-0.007751941680908203 -0.007751941680908203 0.16228076815605164
-0.007751941680908203 0.007751941680908203 -0.07976289093494415
-0.007751941680908203 0.007751941680908203 0.15778934955596924
