0.10077524185180664 0.20930230617523193 0.18135125935077667
0.10077524185180664 0.22480618953704834 -0.008692015893757343
0.10077524185180664 0.22480618953704834 0.19382843375205994
0.10077524185180664 0.24031007289886475 -0.006360792554914951
0.10077524185180664 0.24031007289886475 0.2103518545627594
0.10077524185180664 0.25581395626068115 -0.00721698347479105
0.10077524185180664 0.25581395626068115 0.2288098931312561
0.10077524185180664 0.27131783962249756 -0.00978299044072628
0.10077524185180664 0.27131783962249756 0.25113868713378906
0.10077524185180664 0.28682172298431396 -0.013766380958259106
0.10077524185180664 0.28682172298431396 0.2735643982887268
0.10077524185180664 0.30232560634613037 -0.01643422432243824
0.10077524185180664 0.30232560634613037 0.29654794931411743
0.10077524185180664 0.3178294897079468 -0.018333526328206062
0.10077524185180664 0.3178294897079468 0.3192329704761505
0.10077524185180664 0.3333333730697632 -0.01955188438296318
0.10077524185180664 0.3333333730697632 0.3393714725971222
0.10077524185180664 0.3488372564315796 -0.01909394934773445
0.10077524185180664 0.3488372564315796 0.3582612872123718
0.10077524185180664 0.364341139793396 -0.017171332612633705
0.10077524185180664 0.364341139793396 0.3751218020915985
0.10077524185180664 0.37984490394592285 -0.015101103112101555
0.10077524185180664 0.37984490394592285 0.38999927043914795
0.10077524185180664 0.39534878730773926 -0.013301445171236992
0.10077524185180664 0.39534878730773926 0.40280306339263916
0.10077524185180664 0.41085267066955566 -0.0102053452283144
0.10077524185180664 0.41085267066955566 0.4145925045013428
0.10077524185180664 0.4263565242290497 -0.007123569026589394
0.10077524185180664 0.42635655403137207 0.4265945255756378
0.10077524185180664 0.4418604075908661 -0.005048384889960289
0.10077524185180664 0.4418604373931885 0.43669575452804565
0.10077524185180664 0.4573643207550049 -0.004929341841489077
0.10077524185180664 0.4573642909526825 0.4470493793487549
0.10077524930238724 0.4728682041168213 -0.007022238336503506
0.10077524185180664 0.4728682041168213 0.45651042461395264
0.10077524185180664 0.4883720874786377 -0.00944223441183567
0.10077524185180664 0.4883720874786377 0.4654398262500763
0.10077524185180664 0.5038759708404541 -0.011740608140826225
0.10077524185180664 0.5038759708404541 0.47299811244010925
0.10077524185180664 0.5193798542022705 -0.012937085703015327
0.10077524185180664 0.5193798542022705 0.47864943742752075
0.10077524185180664 0.5348837375640869 -0.013240177184343338
0.10077524185180664 0.5348837375640869 0.48140817880630493
0.10077524185180664 0.5503876209259033 -0.012434149160981178
0.10077524185180664 0.5503876209259033 0.48246991634368896
0.10077524185180664 0.5658915042877197 -0.010257941670715809
0.10077524185180664 0.5658915042877197 0.48232346773147583
0.10077524185180664 0.5813953876495361 -0.007184706628322601
0.10077524185180664 0.5813953876495361 0.4814014434814453
0.10077524185180664 0.5968992710113525 -0.0032716107089072466
0.10077524185180664 0.5968992710113525 0.4796377122402191
0.10077524185180664 0.612403154373169 -0.0011971087660640478
0.10077524185180664 0.612403154373169 0.4765813946723938
0.10077524185180664 0.6279069185256958 0.00020265113562345505
0.10077524185180664 0.6279069185256958 0.4726209342479706
0.10077524185180664 0.6434108018875122 0.0007330968510359526
0.10077524185180664 0.6434108018875122 0.4685387909412384
0.10077524185180664 0.6589146852493286 0.001218835124745965
0.10077524185180664 0.6589146852493286 0.465212345123291
0.10077524185180664 0.674418568611145 0.0020276447758078575
0.10077524185180664 0.674418568611145 0.4590212106704712
0.10077524185180664 0.6899224519729614 0.0027725433465093374
0.10077524185180664 0.6899224519729614 0.4525688588619232
0.10077524185180664 0.7054263353347778 0.0037594183813780546
0.10077524185180664 0.7054263353347778 0.4436861574649811
0.10077524185180664 0.7209302186965942 0.005630055442452431
0.10077524185180664 0.7209302186965942 0.4334787428379059
0.10077524185180664 0.7364341020584106 0.008290405385196209
0.10077524185180664 0.7364341020584106 0.41935616731643677
0.10077524185180664 0.751937985420227 0.01369701698422432
0.10077524185180664 0.751937985420227 0.4023945927619934
0.10077524185180664 0.7674418687820435 0.022771751508116722
0.10077524185180664 0.7674418687820435 0.3816794455051422
0.10077524185180664 0.7829458117485046 0.03883104398846626
0.10077524185180664 0.7829457521438599 0.3607175946235657
0.10077524185180664 0.7984496355056763 0.06000947207212448
0.10077524185180664 0.7984496355056763 0.3348350524902344
0.10077524185180664 0.8139535188674927 0.08992612361907959
0.10077524185180664 0.8139535188674927 0.30309784412384033
0.10077524185180664 0.8294574022293091 0.1298985481262207
0.10077524185180664 0.8294574022293091 0.2599146366119385
0.11627912521362305 -0.4418604373931885 0.0204450786113739
0.11627912521362305 -0.4418604373931885 0.07138713449239731
0.11627912521362305 -0.42635661363601685 -0.017731063067913055
0.11627912521362305 -0.42635661363601685 0.10233713686466217
0.11627912521362305 -0.41085273027420044 -0.03659050539135933
0.11627912521362305 -0.41085273027420044 0.11747859418392181
0.11627912521362305 -0.39534884691238403 -0.04655680060386658
0.11627912521362305 -0.39534884691238403 0.12423131614923477
0.11627912521362305 -0.3798449635505676 -0.056256260722875595
0.11627912521362305 -0.3798449635505676 0.12794551253318787
0.11627912521362305 -0.3643410801887512 -0.060576945543289185
0.11627912521362305 -0.3643410801887512 0.1294557750225067
0.11627912521362305 -0.3488371968269348 -0.06214786320924759
0.11627912521362305 -0.3488371968269348 0.13070513308048248
0.11627912521362305 -0.3333333134651184 -0.06196824461221695
0.11627912521362305 -0.3333333134651184 0.13202570378780365
0.11627912521362305 -0.317829430103302 -0.060291923582553864
0.11627912521362305 -0.317829430103302 0.13318464159965515
0.11627912521362305 -0.30232560634613037 -0.05801284313201904
0.11627912521362305 -0.30232560634613037 0.1344199776649475
0.11627912521362305 -0.28682172298431396 -0.05591770261526108
0.11627912521362305 -0.28682172298431396 0.13538062572479248
0.11627912521362305 -0.27131783962249756 -0.05454203858971596
0.11627911776304245 -0.27131783962249756 0.13482874631881714
0.11627912521362305 -0.25581395626068115 -0.05501111224293709
0.11627913266420364 -0.25581395626068115 0.13216091692447662
0.11627912521362305 -0.24031007289886475 -0.05699098855257034
0.11627912521362305 -0.24031007289886475 0.12726262211799622
0.11627912521362305 -0.22480618953704834 -0.0606422945857048
0.11627912521362305 -0.22480618953704834 0.12165766954421997
0.11627912521362305 -0.20930230617523193 -0.06575904041528702
0.11627912521362305 -0.20930230617523193 0.11497633159160614
0.11627912521362305 -0.19379842281341553 -0.07254428416490555
0.11627912521362305 -0.19379842281341553 0.10993994772434235
0.11627912521362305 -0.1782945990562439 -0.07688616216182709
0.11627912521362305 -0.1782945990562439 0.10709217190742493
0.11627912521362305 -0.1627907156944275 -0.07856713235378265
0.11627912521362305 -0.1627907007932663 0.10365673899650574
0.11627912521362305 -0.14728683233261108 -0.07878994196653366
0.11627912521362305 -0.14728683233261108 0.09945443272590637
0.11627912521362305 -0.13178294897079468 -0.07937340438365936
0.11627912521362305 -0.13178294897079468 0.09670858085155487
0.11627912521362305 -0.11627906560897827 -0.08098527789115906
0.11627912521362305 -0.11627906560897827 0.0959143415093422
0.11627912521362305 -0.10077518224716187 -0.08388854563236237
0.11627912521362305 -0.10077518224716187 0.09720981121063232
0.11627912521362305 -0.08527129888534546 -0.0868900716304779
0.11627912521362305 -0.08527129888534546 0.10091859102249146
0.11627912521362305 -0.06976741552352905 -0.08998121321201324
0.11627912521362305 -0.06976741552352905 0.10592955350875854
0.11627912521362305 -0.05426359176635742 -0.09340272843837738
0.11627912521362305 -0.05426359176635742 0.11011379957199097
0.11627912521362305 -0.038759712129831314 -0.10054272413253784
0.11627912521362305 -0.038759708404541016 0.11427167803049088
0.11627912521362305 -0.02325582504272461 -0.10718175768852234
0.11627912521362305 -0.02325582504272461 0.11740061640739441
0.11627912521362305 -0.007751941680908203 -0.11095032095909119
0.11627912521362305 -0.007751941680908203 0.11818604171276093
0.11627912521362305 0.00775194214656949 -0.11008388549089432
0.11627912521362305 0.007751941680908203 0.11682826280593872
0.11627912521362305 0.02325582504272461 -0.1062975525856018
0.11627912521362305 0.02325582504272461 0.11421560496091843
0.11627912521362305 0.038759708404541016 -0.10418879985809326
0.11627912521362305 0.038759708404541016 0.11089140176773071
0.11627912521362305 0.05426359176635742 -0.10305097699165344
0.11627912521362305 0.05426359176635742 0.10808277130126953
0.11627912521362305 0.06976747512817383 -0.09950169175863266
0.11627912521362305 0.06976747512817383 0.10603199899196625
0.11627912521362305 0.08527135848999023 -0.0915551707148552
0.11627912521362305 0.08527135848999023 0.10576657950878143
0.11627913266420364 0.10077524185180664 -0.08493124693632126
0.11627912521362305 0.10077524185180664 0.10933955758810043
0.11627912521362305 0.11627912521362305 -0.07573376595973969
0.11627912521362305 0.11627912521362305 0.11714854836463928
0.11627912521362305 0.1317828893661499 -0.06851482391357422
0.11627912521362305 0.1317828893661499 0.1266571432352066
0.11627912521362305 0.1472867727279663 -0.05605985224246979
0.11627912521362305 0.1472867727279663 0.13475321233272552
0.11627912521362305 0.16279065608978271 -0.04032424837350845
0.11627912521362305 0.16279065608978271 0.14271633327007294
0.11627912521362305 0.17829453945159912 -0.025459861382842064
0.11627912521362305 0.17829453945159912 0.1504235416650772
0.11627912521362305 0.19379842281341553 -0.015123812481760979
0.11627912521362305 0.19379842281341553 0.15919959545135498
0.11627912521362305 0.20930230617523193 -0.008799991570413113
0.11627912521362305 0.20930230617523193 0.1692006140947342
0.11627912521362305 0.22480618953704834 -0.0028810640797019005
0.11627912521362305 0.22480618953704834 0.1827370822429657
0.11627912521362305 0.24031007289886475 -0.0001474618911743164
0.11627912521362305 0.24031007289886475 0.19960501790046692
0.11627913266420364 0.25581395626068115 -0.001232942333444953
0.11627912521362305 0.25581395626068115 0.2187158167362213
0.11627912521362305 0.27131783962249756 -0.005552140064537525
0.11627912521362305 0.27131783962249756 0.24129731953144073
0.11627912521362305 0.28682172298431396 -0.010071894153952599
0.11627912521362305 0.28682172298431396 0.26442593336105347
0.11627912521362305 0.30232560634613037 -0.013721350580453873
0.11627912521362305 0.30232560634613037 0.2876104712486267
0.11627912521362305 0.3178294897079468 -0.015142150223255157
0.11627912521362305 0.3178294897079468 0.31017059087753296
0.11627912521362305 0.3333333730697632 -0.015377653762698174
0.11627912521362305 0.3333333730697632 0.33172091841697693
0.11627912521362305 0.3488372564315796 -0.014935238286852837
0.11627912521362305 0.3488372564315796 0.34993231296539307
0.11627912521362305 0.364341139793396 -0.013933688402175903
0.11627912521362305 0.364341139793396 0.3659277558326721
0.11627912521362305 0.37984490394592285 -0.011654423549771309
0.11627913266420364 0.37984490394592285 0.38045594096183777
0.11627912521362305 0.39534878730773926 -0.007952629588544369
0.11627912521362305 0.39534878730773926 0.3931023180484772
0.11627912521362305 0.41085267066955566 -0.0030465899035334587
0.11627912521362305 0.41085267066955566 0.4040326178073883
0.11627912521362305 0.42635655403137207 -0.000999795040115714
0.11627912521362305 0.42635655403137207 0.41543126106262207
0.11627912521362305 0.4418604373931885 -0.0003231980372220278
0.11627912521362305 0.4418604373931885 0.42679399251937866
0.11627912521362305 0.4573643207550049 -0.0003653755411505699
0.11627912521362305 0.4573643207550049 0.4362984895706177
0.11627912521362305 0.4728682041168213 -0.0012758069206029177
0.11627912521362305 0.4728681743144989 0.44631972908973694
0.11627912521362305 0.4883720576763153 -0.0030545261688530445
0.11627912521362305 0.4883720874786377 0.4546416103839874
0.11627912521362305 0.5038759708404541 -0.005953235551714897
0.11627912521362305 0.5038759708404541 0.4624931514263153
0.11627912521362305 0.5193798542022705 -0.008341073989868164
0.11627912521362305 0.5193798542022705 0.4674025774002075
0.11627912521362305 0.5348837375640869 -0.009008974768221378
0.11627912521362305 0.5348837375640869 0.4713355004787445
0.11627912521362305 0.5503876209259033 -0.00808467622846365
0.11627912521362305 0.5503876209259033 0.47327277064323425
0.11627912521362305 0.5658915042877197 -0.004544188268482685
0.11627913266420364 0.5658915042877197 0.47303566336631775
0.11627912521362305 0.5813953876495361 -0.0011107688769698143
0.11627912521362305 0.5813953876495361 0.4713013172149658
0.11627912521362305 0.5968992710113525 0.0013081042561680079
0.11627912521362305 0.5968992710113525 0.46876901388168335
0.11627912521362305 0.612403154373169 0.0032140484545379877
0.11627912521362305 0.612403154373169 0.4662386178970337
0.11627912521362305 0.6279069185256958 0.0052611324936151505
0.11627912521362305 0.6279069185256958 0.4631531834602356
0.11627912521362305 0.6434108018875122 0.006625316105782986
0.11627912521362305 0.6434108018875122 0.45900678634643555
0.11627913266420364 0.6589147448539734 0.007771093863993883
0.11627912521362305 0.6589146852493286 0.45434579253196716
0.11627912521362305 0.674418568611145 0.009887542575597763
0.11627912521362305 0.674418568611145 0.44997695088386536
0.11627912521362305 0.6899224519729614 0.011522606015205383
0.11627912521362305 0.6899223923683167 0.4418943226337433
0.11627912521362305 0.7054263353347778 0.01312241517007351
0.11627912521362305 0.7054263353347778 0.43343818187713623
0.11627912521362305 0.7209302186965942 0.014881621114909649
0.11627912521362305 0.7209302186965942 0.4208282232284546
0.11627912521362305 0.7364341020584106 0.017206864431500435
0.11627912521362305 0.7364341020584106 0.40569356083869934
0.11627912521362305 0.751937985420227 0.022101011127233505
0.11627912521362305 0.751937985420227 0.3890244960784912
0.11627912521362305 0.7674418687820435 0.03153849393129349
0.11627912521362305 0.7674418687820435 0.36857348680496216
0.11627912521362305 0.7829457521438599 0.046932972967624664
0.11627912521362305 0.7829457521438599 0.3468978703022003
0.11627911776304245 0.7984496355056763 0.07156965881586075
0.11627912521362305 0.7984496355056763 0.3207148611545563
0.11627912521362305 0.8139535784721375 0.1045990139245987
0.11627912521362305 0.8139535188674927 0.2868134379386902
0.11627912521362305 0.8294574022293091 0.1557791829109192
0.11627911776304245 0.8294574022293091 0.23127871751785278
0.1317828893661499 -0.41085273027420044 -0.0017897442448884249
0.1317828893661499 -0.41085273027420044 0.0897747352719307
0.1317828893661499 -0.39534884691238403 -0.0233551487326622
0.1317828893661499 -0.39534884691238403 0.10232608765363693
0.1317828893661499 -0.3798449635505676 -0.03340655565261841
0.1317828893661499 -0.3798449635505676 0.10616031289100647
0.1317828893661499 -0.3643410801887512 -0.03907594084739685
0.1317828893661499 -0.3643410801887512 0.10666605830192566
0.1317828893661499 -0.3488371968269348 -0.03950192406773567
0.1317828893661499 -0.3488371968269348 0.10699032247066498
0.1317828893661499 -0.3333333134651184 -0.039671674370765686
0.1317828893661499 -0.3333333134651184 0.10810524225234985
0.1317828893661499 -0.317829430103302 -0.03962000086903572
0.1317828893661499 -0.317829430103302 0.1102534607052803
0.1317828893661499 -0.30232560634613037 -0.039202772080898285
0.1317828893661499 -0.30232560634613037 0.11408372223377228
0.1317828893661499 -0.28682172298431396 -0.03867863863706589
0.1317828893661499 -0.28682172298431396 0.11796233057975769
0.1317828893661499 -0.27131783962249756 -0.03783240541815758
0.1317828893661499 -0.27131783962249756 0.11927011609077454
0.1317828893661499 -0.25581395626068115 -0.038915131241083145
0.1317828893661499 -0.25581395626068115 0.11778847873210907
0.1317828893661499 -0.24031007289886475 -0.040424223989248276
0.1317828893661499 -0.24031007289886475 0.11415436118841171
0.1317828893661499 -0.22480618953704834 -0.04361207038164139
0.1317828893661499 -0.22480618953704834 0.10858561098575592
0.1317828893661499 -0.20930230617523193 -0.05114475265145302
0.1317828893661499 -0.20930230617523193 0.10287865251302719
0.1317828893661499 -0.19379842281341553 -0.05955471470952034
0.1317828893661499 -0.19379842281341553 0.10011191666126251
0.1317828893661499 -0.1782946139574051 -0.06544914096593857
0.1317828893661499 -0.1782945990562439 0.09649121016263962
0.1317828893661499 -0.1627907156944275 -0.06649976223707199
0.1317828893661499 -0.1627907156944275 0.09308192878961563
0.1317828893661499 -0.14728683233261108 -0.06433765590190887
0.1317828893661499 -0.14728683233261108 0.08981957286596298
0.1317828893661499 -0.13178294897079468 -0.06311917304992676
0.1317828893661499 -0.13178294897079468 0.08618047088384628
0.1317828893661499 -0.11627906560897827 -0.06407889723777771
0.1317828893661499 -0.11627906560897827 0.084792360663414
0.1317828893661499 -0.10077518224716187 -0.06706424057483673
0.1317828893661499 -0.10077518224716187 0.08610712736845016
0.1317828893661499 -0.08527129888534546 -0.07092404365539551
0.1317828893661499 -0.08527129888534546 0.08951105922460556
0.1317828893661499 -0.06976741552352905 -0.07488638162612915
0.1317828893661499 -0.06976741552352905 0.09328535199165344
0.1317828893661499 -0.05426359176635742 -0.07969056814908981
0.1317828893661499 -0.05426359176635742 0.09766535460948944
0.1317828893661499 -0.038759708404541016 -0.0918806791305542
0.1317828893661499 -0.03875970467925072 0.10185051709413528
0.1317828893661499 -0.02325582504272461 -0.1080857515335083
0.1317828893661499 -0.02325582504272461 0.10422850400209427
0.1317828893661499 -0.007751941680908203 -0.11582256853580475
0.1317828893661499 -0.007751941680908203 0.10502833873033524
0.1317828893661499 0.007751941680908203 -0.11635636538267136
0.1317828893661499 0.007751941680908203 0.10339470207691193
0.1317828893661499 0.02325582504272461 -0.11141964793205261
0.1317828893661499 0.02325582504272461 0.10096893459558487
0.1317828893661499 0.038759708404541016 -0.1082703173160553
0.1317828893661499 0.038759708404541016 0.09738294035196304
0.1317828893661499 0.05426359176635742 -0.10637831687927246
0.1317828893661499 0.05426359176635742 0.09414465725421906
0.1317828893661499 0.06976747512817383 -0.10282626748085022
0.1317828893661499 0.06976747512817383 0.09139908850193024
0.1317828893661499 0.08527135848999023 -0.09454025328159332
0.1317828893661499 0.08527135848999023 0.09051361680030823
0.1317828893661499 0.10077524185180664 -0.08635702729225159
0.1317828893661499 0.10077524185180664 0.09283936023712158
0.1317828893661499 0.11627912521362305 -0.07605458796024323
0.1317828893661499 0.11627912521362305 0.09905125945806503
0.1317828893661499 0.1317828893661499 -0.06756558269262314
0.1317828893661499 0.1317828893661499 0.10624319314956665
0.1317828893661499 0.1472867727279663 -0.054780587553977966
0.1317828893661499 0.1472867727279663 0.11341027170419693
0.1317828893661499 0.16279065608978271 -0.03436649590730667
0.1317828893661499 0.16279065608978271 0.12107222527265549
0.1317828893661499 0.17829453945159912 -0.017873847857117653
0.1317828893661499 0.17829453945159912 0.12916187942028046
0.1317828893661499 0.19379842281341553 -0.008683891035616398
0.1317828893661499 0.19379842281341553 0.13717281818389893
0.1317828893661499 0.20930230617523193 0.0007827396038919687
0.1317828893661499 0.20930232107639313 0.14825403690338135
0.1317828893661499 0.22480618953704834 0.005264639854431152
0.1317828893661499 0.22480618953704834 0.16443590819835663
0.1317828893661499 0.24031007289886475 0.0061909519135952
0.1317828893661499 0.24031007289886475 0.18411125242710114
0.1317828893661499 0.25581395626068115 0.005078418180346489
0.1317828893661499 0.25581395626068115 0.20476745069026947
0.1317828893661499 0.27131783962249756 0.0011711220722645521
0.1317828893661499 0.27131783962249756 0.22796916961669922
0.1317828893661499 0.28682172298431396 -0.0033348214346915483
0.1317828893661499 0.28682172298431396 0.25283926725387573
0.1317828893661499 0.30232560634613037 -0.008140085265040398
0.1317828893661499 0.30232560634613037 0.2761121094226837
0.1317828893661499 0.3178294897079468 -0.010467268526554108
0.1317828893661499 0.3178294897079468 0.2995680570602417
0.1317828893661499 0.3333333730697632 -0.01112651452422142
0.1317828893661499 0.3333333730697632 0.32109349966049194
0.1317828893661499 0.3488372564315796 -0.01018022745847702
0.1317828893661499 0.3488372564315796 0.33924680948257446
0.1317828893661499 0.364341139793396 -0.007802150212228298
0.1317828893661499 0.364341139793396 0.35456347465515137
0.1317828893661499 0.37984490394592285 -0.0024994881823658943
0.1317828893661499 0.37984490394592285 0.3683663308620453
0.1317828893661499 0.39534878730773926 -0.00011564884334802628
0.1317828893661499 0.39534878730773926 0.381159245967865
0.1317828893661499 0.41085267066955566 0.0016931460704654455
0.1317828893661499 0.41085267066955566 0.39211660623550415
0.1317828893661499 0.42635655403137207 0.0041666049510240555
0.1317828893661499 0.42635655403137207 0.40289071202278137
0.1317828893661499 0.4418604373931885 0.005354123190045357
0.1317828893661499 0.4418604373931885 0.41425859928131104
0.1317828893661499 0.4573643207550049 0.004967615939676762
0.1317828893661499 0.4573643207550049 0.42446625232696533
0.1317828893661499 0.4728682041168213 0.0030658056493848562
0.1317828893661499 0.4728682041168213 0.43387091159820557
0.1317828893661499 0.4883720874786377 0.001050432212650776
0.1317828893661499 0.4883720874786377 0.4430249333381653
0.1317828893661499 0.5038759708404541 -0.00029388535767793655
0.1317828893661499 0.5038759708404541 0.4497036933898926
0.1317828893661499 0.5193798542022705 -0.0012559173628687859
0.1317828893661499 0.5193798542022705 0.4547587037086487
0.1317828893661499 0.5348837375640869 -0.0019227894954383373
0.1317828893661499 0.5348837375640869 0.4591395854949951
0.1317828893661499 0.5503876209259033 -0.0013654902577400208
0.1317828893661499 0.5503876209259033 0.4612216055393219
0.1317828893661499 0.5658915042877197 0.00021813460625708103
0.1317828893661499 0.5658915042877197 0.46106675267219543
0.1317828893661499 0.5813953876495361 0.0023904608096927404
0.1317828893661499 0.5813953876495361 0.45928865671157837
0.1317828893661499 0.5968992710113525 0.0054891230538487434
0.1317828893661499 0.5968992710113525 0.4564530849456787
0.1317828893661499 0.612403154373169 0.008855883963406086
0.1317828893661499 0.612403154373169 0.4532746374607086
0.1317828893661499 0.6279069185256958 0.012576479464769363
0.1317828893661499 0.6279069185256958 0.45053213834762573
0.1317828893661499 0.6434108018875122 0.01495026983320713
0.1317828893661499 0.6434108018875122 0.4475582242012024
0.1317828893661499 0.6589146852493286 0.016745449975132942
0.1317828893661499 0.6589146852493286 0.4426734745502472
0.1317828893661499 0.674418568611145 0.01843741349875927
0.1317828893661499 0.674418568611145 0.4367477297782898
0.1317828893661499 0.6899224519729614 0.019776899367570877
0.1317828893661499 0.6899224519729614 0.42879682779312134
0.1317828893661499 0.7054263353347778 0.021220451220870018
0.1317828893661499 0.7054263353347778 0.41882359981536865
0.1317828893661499 0.7209302186965942 0.022999409586191177
0.1317828893661499 0.7209302186965942 0.4051316976547241
0.1317828893661499 0.7364341020584106 0.02721165493130684
0.1317828893661499 0.7364341020584106 0.38968488574028015
0.1317828893661499 0.751937985420227 0.03203227370977402
0.1317828893661499 0.751937985420227 0.37274235486984253
0.1317828893661499 0.7674418687820435 0.04218745976686478
0.1317828893661499 0.7674418687820435 0.3527926802635193
0.1317828893661499 0.7829457521438599 0.0585550032556057
0.1317828893661499 0.7829457521438599 0.33106547594070435
0.1317828893661499 0.7984496355056763 0.0853252187371254
0.1317828893661499 0.7984496355056763 0.30341893434524536
0.1317828893661499 0.8139535188674927 0.1227814108133316
0.1317828893661499 0.8139535188674927 0.2654712200164795
0.1472867727279663 -0.39534884691238403 0.03603924438357353
0.14728675782680511 -0.39534881711006165 0.05492931231856346
0.1472867727279663 -0.3798449635505676 0.005656990222632885
0.1472867727279663 -0.3798449635505676 0.0739058405160904
0.1472867727279663 -0.3643410801887512 0.00286235217936337
0.1472867727279663 -0.3643410801887512 0.0745239406824112
0.1472867727279663 -0.3488372266292572 0.00806838646531105
0.1472867727279663 -0.3488371968269348 0.0717882588505745
0.1472867727279663 -0.3333333134651184 0.01433647982776165
0.1472867727279663 -0.3333333134651184 0.07029852271080017
0.14728675782680511 -0.317829430103302 0.008037479594349861
0.1472867727279663 -0.317829430103302 0.07142457365989685
0.1472867727279663 -0.30232560634613037 0.0003114035353064537
0.1472867727279663 -0.30232560634613037 0.07640314102172852
0.1472867727279663 -0.28682172298431396 -0.007146818563342094
0.1472867727279663 -0.28682172298431396 0.08600051701068878
0.1472867727279663 -0.27131783962249756 -0.00916945282369852
0.1472867727279663 -0.27131783962249756 0.0922723263502121
0.1472867727279663 -0.25581395626068115 -0.011362375691533089
0.1472867727279663 -0.25581395626068115 0.09627357125282288
0.1472867727279663 -0.24031007289886475 -0.01383676566183567
0.1472867727279663 -0.24031007289886475 0.0975504070520401
0.1472867727279663 -0.22480618953704834 -0.023430464789271355
0.1472867727279663 -0.22480618953704834 0.09283070266246796
0.1472867727279663 -0.20930230617523193 -0.038374803960323334
0.1472867727279663 -0.20930230617523193 0.08744381368160248
0.1472867727279663 -0.19379843771457672 -0.04931088536977768
0.1472867727279663 -0.19379842281341553 0.0861407071352005
0.1472867727279663 -0.1782945990562439 -0.05590589717030525
0.1472867727279663 -0.1782945990562439 0.08379616588354111
0.1472867727279663 -0.1627907156944275 -0.05489655211567879
0.1472867727279663 -0.1627907156944275 0.07904605567455292
0.1472867727279663 -0.14728683233261108 -0.047718022018671036
0.1472867727279663 -0.14728683233261108 0.07517547905445099
0.1472867727279663 -0.13178294897079468 -0.04257844761013985
0.1472867727279663 -0.13178294897079468 0.07147741317749023
0.1472867727279663 -0.11627906560897827 -0.04169752448797226
0.1472867727279663 -0.11627906560897827 0.06977187842130661
0.1472867727279663 -0.10077518224716187 -0.044026121497154236
0.1472867727279663 -0.10077518224716187 0.07054222375154495
0.1472867727279663 -0.08527129888534546 -0.04870907962322235
0.1472867727279663 -0.08527129888534546 0.073447085916996
0.1472867727279663 -0.06976741552352905 -0.054839324206113815
0.1472867727279663 -0.06976741552352905 0.07721914350986481
0.1472867727279663 -0.05426359176635742 -0.05867226421833038
0.1472867727279663 -0.05426359176635742 0.08125058561563492
0.1472867727279663 -0.038759708404541016 -0.07613526284694672
0.1472867727279663 -0.038759708404541016 0.08461251854896545
0.1472867727279663 -0.02325582504272461 -0.10670681297779083
0.1472867727279663 -0.02325582504272461 0.0867113396525383
0.1472867727279663 -0.007751941680908203 -0.11696617305278778
0.1472867727279663 -0.007751941680908203 0.0879015326499939
0.1472867727279663 0.007751941680908203 -0.11800356954336166
0.1472867727279663 0.007751941215246916 0.08591445535421371
0.1472867727279663 0.02325582504272461 -0.11450207978487015
0.1472867727279663 0.02325582504272461 0.08175483345985413
0.1472867727279663 0.038759708404541016 -0.10997827351093292
0.1472867727279663 0.038759708404541016 0.0771922692656517
0.1472867727279663 0.05426359176635742 -0.1072562038898468
0.1472867727279663 0.05426359176635742 0.07406388968229294
0.1472867727279663 0.06976747512817383 -0.1030953973531723
0.1472867727279663 0.06976747512817383 0.07137498259544373
0.1472867727279663 0.08527135848999023 -0.09404270350933075
0.1472867727279663 0.08527135848999023 0.07005248963832855
0.1472867727279663 0.10077524185180664 -0.0853331983089447
0.1472867727279663 0.10077524185180664 0.0713493600487709
0.1472867727279663 0.11627912521362305 -0.07442976534366608
0.1472867727279663 0.11627912521362305 0.0758679062128067
0.1472867727279663 0.1317828893661499 -0.06551692634820938
0.1472867727279663 0.1317828893661499 0.08278245478868484
0.1472867727279663 0.1472867727279663 -0.05310649424791336
0.1472867727279663 0.1472867727279663 0.08849231898784637
0.1472867727279663 0.16279065608978271 -0.027634795755147934
0.1472867727279663 0.16279065608978271 0.09541001170873642
0.1472867727279663 0.17829453945159912 -0.009194956161081791
0.1472867727279663 0.17829453945159912 0.10308907181024551
0.1472867727279663 0.19379842281341553 0.003489518305286765
0.1472867727279663 0.19379842281341553 0.10934659838676453
0.1472867727279663 0.20930230617523193 0.011357398703694344
0.1472867727279663 0.20930230617523193 0.11764033138751984
0.1472867727279663 0.22480618953704834 0.016402212902903557
0.1472867727279663 0.22480618953704834 0.1327544003725052
0.1472867727279663 0.24031007289886475 0.016777342185378075
0.1472867727279663 0.24031007289886475 0.15680018067359924
0.1472867727279663 0.25581395626068115 0.01412748172879219
0.1472867727279663 0.25581395626068115 0.18166393041610718
0.1472867727279663 0.27131783962249756 0.00859727244824171
0.1472867727279663 0.27131783962249756 0.20885415375232697
0.1472867727279663 0.28682172298431396 0.004407942295074463
0.1472867727279663 0.28682172298431396 0.23573839664459229
0.1472867727279663 0.30232560634613037 0.0004302829038351774
0.1472867727279663 0.30232560634613037 0.2610609531402588
0.1472867727279663 0.3178294897079468 -0.0009661959484219551
0.1472867727279663 0.3178294897079468 0.2847630977630615
0.1472867727279663 0.3333333730697632 -0.0009576298762112856
0.1472867727279663 0.3333333730697632 0.3071126341819763
0.1472867727279663 0.3488372564315796 -0.0001803310588002205
0.1472867727279663 0.3488372564315796 0.3259521722793579
0.1472867727279663 0.364341139793396 0.0010637864470481873
0.1472867727279663 0.364341139793396 0.3408670425415039
0.1472867727279663 0.37984490394592285 0.0035977878142148256
0.1472867727279663 0.37984490394592285 0.35406458377838135
0.1472867727279663 0.39534878730773926 0.007413208484649658
0.1472867727279663 0.39534878730773926 0.3664631247520447
0.1472867727279663 0.4108526408672333 0.011712666600942612
0.1472867727279663 0.41085267066955566 0.3776424527168274
0.1472867727279663 0.42635655403137207 0.013734124600887299
0.1472867727279663 0.42635655403137207 0.38881802558898926
0.1472867727279663 0.4418604373931885 0.014217011630535126
0.1472867727279663 0.4418604373931885 0.4001539945602417
0.1472867727279663 0.4573643207550049 0.013723718002438545
0.1472867727279663 0.4573643207550049 0.4103926718235016
0.1472867727279663 0.4728682041168213 0.011997295543551445
0.1472867727279663 0.4728682041168213 0.42011475563049316
0.1472867727279663 0.4883720874786377 0.008794669061899185
0.1472867727279663 0.4883720874786377 0.42978569865226746
0.1472867727279663 0.5038759708404541 0.005169800482690334
0.1472867727279663 0.5038759708404541 0.43611037731170654
0.1472867727279663 0.5193798542022705 0.0028448794037103653
0.1472867727279663 0.5193798542022705 0.44152843952178955
0.1472867727279663 0.5348837375640869 0.0019070336129516363
0.1472867727279663 0.5348837375640869 0.4459803104400635
0.1472867727279663 0.5503876209259033 0.002172203967347741
0.1472867727279663 0.5503876209259033 0.44770586490631104
0.1472867727279663 0.5658915042877197 0.0037764357402920723
0.1472867727279663 0.5658915042877197 0.4475519359111786
0.1472867727279663 0.5813953876495361 0.006994760595262051
0.1472867727279663 0.5813953876495361 0.4460229277610779
0.1472867727279663 0.5968992710113525 0.0117610739544034
0.1472867727279663 0.5968992114067078 0.44337165355682373
0.1472867727279663 0.612403154373169 0.015366258099675179
0.1472867727279663 0.612403154373169 0.4395958185195923
0.1472867727279663 0.6279069185256958 0.018239913508296013
0.1472867727279663 0.6279069185256958 0.43604016304016113
0.1472867727279663 0.6434108018875122 0.02102457918226719
0.1472867727279663 0.6434108018875122 0.4326838254928589
0.1472867727279663 0.6589146852493286 0.02333025634288788
0.1472867727279663 0.6589147448539734 0.42694714665412903
0.1472867727279663 0.674418568611145 0.02651505172252655
0.1472867727279663 0.674418568611145 0.42019203305244446
0.1472867727279663 0.6899224519729614 0.02883591502904892
0.1472867727279663 0.6899224519729614 0.41028833389282227
0.1472867727279663 0.7054263353347778 0.030803093686699867
0.1472867727279663 0.7054263353347778 0.3996787965297699
0.1472867727279663 0.7209302186965942 0.03279490023851395
0.1472867727279663 0.7209302186965942 0.3861684799194336
0.1472867727279663 0.7364341020584106 0.03593830019235611
0.1472867727279663 0.7364341020584106 0.37011003494262695
0.1472867727279663 0.751937985420227 0.04221422225236893
0.1472867727279663 0.751937985420227 0.35253918170928955
0.1472867727279663 0.7674418687820435 0.05195818096399307
0.1472867727279663 0.7674418687820435 0.3325729966163635
0.1472867727279663 0.7829457521438599 0.07316820323467255
0.1472867727279663 0.7829457521438599 0.31053781509399414
0.1472867727279663 0.7984496355056763 0.10492860525846481
0.1472867727279663 0.7984496355056763 0.28068655729293823
0.1472867727279663 0.8139535188674927 0.15427115559577942
0.1472867727279663 0.8139535188674927 0.22950568795204163
0.16279065608978271 -0.24031007289886475 0.0316675640642643
0.16279065608978271 -0.24031007289886475 0.08217886835336685
0.16279065608978271 -0.22480618953704834 -0.005392220336943865
0.16279065608978271 -0.22480618953704834 0.07892610132694244
0.16279065608978271 -0.20930230617523193 -0.029201865196228027
0.16279065608978271 -0.20930230617523193 0.07348164916038513
0.16279065608978271 -0.19379842281341553 -0.0433243103325367
0.16279065608978271 -0.19379842281341553 0.07204136252403259
0.16279065608978271 -0.1782945990562439 -0.047846563160419464
0.16279065608978271 -0.1782945990562439 0.07001900672912598
0.16279065608978271 -0.1627907156944275 -0.04380355402827263
0.16279065608978271 -0.1627907156944275 0.061674878001213074
0.16279065608978271 -0.14728683233261108 -0.03053329885005951
0.1627906709909439 -0.14728683233261108 0.05546531081199646
0.16279065608978271 -0.13178294897079468 -0.014680318534374237
0.16279065608978271 -0.13178294897079468 0.048603564500808716
0.16279065608978271 -0.11627906560897827 -0.009527754038572311
0.16279065608978271 -0.11627906560897827 0.045734502375125885
0.16279065608978271 -0.10077518224716187 -0.009746095165610313
0.16279065608978271 -0.10077518224716187 0.04588238149881363
0.16279065608978271 -0.08527129888534546 -0.01254274696111679
0.16279065608978271 -0.08527129888534546 0.048116810619831085
0.16279065608978271 -0.06976741552352905 -0.01838570646941662
0.16279065608978271 -0.06976741552352905 0.05174918845295906
0.16279065608978271 -0.05426359176635742 -0.023452570661902428
0.16279064118862152 -0.05426359176635742 0.05576804280281067
0.16279065608978271 -0.038759708404541016 -0.04314206913113594
0.16279065608978271 -0.038759708404541016 0.05783823877573013
0.16279065608978271 -0.02325582504272461 -0.10316702723503113
0.16279065608978271 -0.02325582504272461 0.05868662893772125
0.16279065608978271 -0.007751941680908203 -0.11393067240715027
0.16279065608978271 -0.007751941680908203 0.05880414694547653
0.16279065608978271 0.007751941680908203 -0.11672341078519821
0.16279065608978271 0.007751941680908203 0.05330824851989746
0.16279065608978271 0.02325582504272461 -0.10996674746274948
0.16279065608978271 0.02325582504272461 -0.044764965772628784
0.16279065608978271 0.02325582504272461 0.007391449995338917
0.16279065608978271 0.02325582504272461 0.044434934854507446
0.16279065608978271 0.038759708404541016 -0.10500010848045349
0.16279065608978271 0.038759708404541016 -0.03066645935177803
0.16279065608978271 0.038759708404541016 0.017978206276893616
0.16279065608978271 0.038759708404541016 0.0366603285074234
0.16279065608978271 0.05426359176635742 -0.10273612290620804
0.16279065608978271 0.05426359176635742 -0.018875466659665108
0.16279065608978271 0.06976747512817383 -0.09712687134742737
0.16279065608978271 0.06976747512817383 -0.018064087256789207
0.16279065608978271 0.08527135848999023 -0.08820264786481857
0.16279065608978271 0.08527135848999023 -0.016555391252040863
0.16279065608978271 0.10077524185180664 -0.07656924426555634
0.16279065608978271 0.10077524930238724 -0.0028889502864331007
0.16279065608978271 0.11627912521362305 -0.07050558179616928
0.16279065608978271 0.11627912521362305 0.015253616496920586
0.16279065608978271 0.1317828893661499 -0.06271862238645554
0.16279065608978271 0.1317828893661499 0.044520240277051926
0.16279065608978271 0.1472867876291275 -0.05318605154752731
0.16279065608978271 0.1472867727279663 0.060893088579177856
0.16279065608978271 0.16279065608978271 -0.02947801724076271
0.16279065608978271 0.16279065608978271 0.07114756852388382
0.16279065608978271 0.17829453945159912 -0.006264214403927326
0.16279065608978271 0.17829453945159912 0.07705609500408173
0.16279065608978271 0.19379842281341553 0.011376651003956795
0.16279065608978271 0.19379842281341553 0.08125646412372589
0.16279065608978271 0.20930230617523193 0.023329945281147957
0.16279065608978271 0.20930230617523193 0.08784054964780807
0.16279065608978271 0.22480618953704834 0.027675213292241096
0.16279065608978271 0.22480618953704834 0.10171368718147278
0.16279065608978271 0.24031007289886475 0.02565348893404007
0.16279065608978271 0.24031007289886475 0.12314921617507935
0.16279065608978271 0.25581395626068115 0.022681845352053642
0.16279065608978271 0.25581395626068115 0.14838553965091705
0.16279065608978271 0.27131783962249756 0.019301503896713257
0.16279065608978271 0.27131783962249756 0.17913956940174103
0.16279065608978271 0.28682172298431396 0.014412865042686462
0.16279065608978271 0.28682172298431396 0.21245793998241425
0.16279065608978271 0.30232560634613037 0.010890285484492779
0.16279065608978271 0.30232560634613037 0.24158822000026703
0.1627906709909439 0.3178294897079468 0.008961199782788754
0.16279065608978271 0.3178294897079468 0.26672011613845825
0.16279065608978271 0.3333333730697632 0.008910078555345535
0.16279065608978271 0.3333333730697632 0.2893947958946228
0.1627906709909439 0.348837286233902 0.010502403602004051
0.16279065608978271 0.3488372564315796 0.30862653255462646
0.16279065608978271 0.364341139793396 0.012940632179379463
0.16279065608978271 0.364341139793396 0.3237171471118927
0.16279065608978271 0.37984490394592285 0.01497754268348217
0.16279065608978271 0.37984490394592285 0.3369951844215393
0.16279065608978271 0.39534878730773926 0.017026878893375397
0.16279065608978271 0.39534878730773926 0.3493175506591797
0.16279065608978271 0.41085267066955566 0.019571145996451378
0.16279065608978271 0.41085267066955566 0.3606226146221161
0.16279065608978271 0.42635655403137207 0.02125401422381401
0.16279065608978271 0.42635655403137207 0.3723803758621216
0.16279065608978271 0.4418604373931885 0.021399471908807755
0.16279065608978271 0.4418604373931885 0.38446441292762756
0.16279065608978271 0.4573643207550049 0.020052112638950348
0.16279065608978271 0.4573643207550049 0.3952324092388153
0.16279065608978271 0.4728682041168213 0.017655309289693832
0.16279065608978271 0.4728682041168213 0.4051332473754883
0.16279065608978271 0.4883720874786377 0.0155803756788373
0.16279065608978271 0.4883720874786377 0.41516318917274475
0.16279065608978271 0.5038759708404541 0.013729382306337357
0.16279065608978271 0.5038759708404541 0.42180585861206055
0.16279065608978271 0.5193798542022705 0.011210490949451923
0.16279065608978271 0.5193798542022705 0.4276696443557739
0.16279065608978271 0.5348837375640869 0.008728357963263988
0.16279065608978271 0.5348837375640869 0.4318810701370239
0.16279065608978271 0.5503876209259033 0.008253432810306549
0.16279065608978271 0.5503876209259033 0.4333353340625763
0.1627906709909439 0.5658915042877197 0.010176470503211021
0.16279065608978271 0.5658915042877197 0.43298107385635376
0.16279065608978271 0.5813953876495361 0.013552800752222538
0.16279065608978271 0.5813953876495361 0.43114322423934937
0.16279065608978271 0.5968992710113525 0.016544830054044724
0.16279065608978271 0.5968992710113525 0.42796704173088074
0.16279065608978271 0.612403154373169 0.020138002932071686
0.16279065608978271 0.612403154373169 0.4233782887458801
0.1627906709909439 0.6279069185256958 0.02456212043762207
0.16279065608978271 0.6279069185256958 0.4189918637275696
0.16279065608978271 0.6434108018875122 0.02914332039654255
0.16279065608978271 0.6434108018875122 0.4142974019050598
0.16279065608978271 0.6589146852493286 0.03222058713436127
0.16279065608978271 0.6589146852493286 0.40690910816192627
0.16279065608978271 0.674418568611145 0.03452923521399498
0.16279065608978271 0.674418568611145 0.39953291416168213
0.16279065608978271 0.6899224519729614 0.036415714770555496
0.16279065608978271 0.6899224519729614 0.38861972093582153
0.16279065608978271 0.7054263353347778 0.03850191459059715
0.16279065608978271 0.7054263353347778 0.37604326009750366
0.16279065608978271 0.7209302186965942 0.042181335389614105
0.16279065608978271 0.7209302186965942 0.36177071928977966
0.16279065608978271 0.7364341020584106 0.04701385647058487
0.16279065608978271 0.7364341020584106 0.3463960886001587
0.16279065608978271 0.751937985420227 0.05322321131825447
0.16279065608978271 0.751937985420227 0.32938289642333984
0.16279065608978271 0.7674418687820435 0.06820135563611984
0.16279065608978271 0.7674418687820435 0.3094938099384308
0.16279065608978271 0.7829457521438599 0.09509932994842529
0.16279065608978271 0.7829457521438599 0.2845594882965088
0.16279065608978271 0.7984496355056763 0.13404934108257294
0.16279065608978271 0.7984496355056763 0.2473699301481247
0.17829453945159912 -0.24031007289886475 0.05267612263560295
0.17829453945159912 -0.24031007289886475 0.06131865456700325
0.17829453945159912 -0.22480618953704834 0.0007630083709955215
0.17829453945159912 -0.22480618953704834 0.07132621109485626
0.17829453945159912 -0.20930230617523193 -0.02609557844698429
0.17829453945159912 -0.20930230617523193 0.06852791458368301
0.17829453945159912 -0.19379842281341553 -0.03984520584344864
0.17829453945159912 -0.19379842281341553 0.06463968753814697
0.17829453945159912 -0.1782945990562439 -0.04141824692487717
0.17829453945159912 -0.1782946139574051 0.05858056992292404
0.17829453945159912 -0.1627907007932663 -0.03647443279623985
0.17829453945159912 -0.1627907156944275 0.05068742856383324
0.17829453945159912 -0.14728683233261108 -0.015518324449658394
0.17829453945159912 -0.14728683233261108 0.03922690823674202
0.17829453945159912 -0.02325582504272461 -0.09564200788736343
0.17829453945159912 -0.02325582504272461 0.02103784866631031
0.17829453945159912 -0.007751941680908203 -0.1079767495393753
0.17829453945159912 -0.007751941680908203 0.018010089173913002
0.17829453945159912 0.007751941680908203 -0.10879836976528168
0.17829453945159912 0.00775194214656949 -0.021307406947016716
0.17829453945159912 0.02325582504272461 -0.09313096851110458
0.17829452455043793 0.02325582504272461 -0.06762786954641342
0.17829453945159912 0.038759708404541016 -0.08104714751243591
0.17829453945159912 0.038759708404541016 -0.06599030643701553
0.17829453945159912 0.05426359176635742 -0.08562387526035309
0.17829453945159912 0.05426359176635742 -0.05035121366381645
0.17829453945159912 0.06976747512817383 -0.07721716165542603
0.17829453945159912 0.06976747512817383 -0.05218014121055603
0.17829453945159912 0.10077524185180664 -0.05217890441417694
0.17829453945159912 0.10077524185180664 -0.02849828079342842
0.17829453945159912 0.11627912521362305 -0.06114058941602707
0.17829453945159912 0.11627912521362305 -0.0014030449092388153
0.17829453945159912 0.1317828893661499 -0.05932511389255524
0.17829453945159912 0.1317828893661499 0.019813718274235725
0.17829453945159912 0.1472867727279663 -0.05092303454875946
0.17829453945159912 0.1472867727279663 0.042665619403123856
0.17829453945159912 0.16279065608978271 -0.03215981274843216
0.17829453945159912 0.16279065608978271 0.054304830729961395
0.17829453945159912 0.17829453945159912 -0.007633462082594633
0.17829453945159912 0.17829453945159912 0.0556190051138401
0.17829453945159912 0.19379842281341553 0.02188212424516678
0.17829453945159912 0.19379842281341553 0.04671408236026764
0.17829453945159912 0.22480618953704834 0.05296803265810013
0.17829453945159912 0.22480618953704834 0.06204403191804886
0.17829453945159912 0.24031007289886475 0.03852701187133789
0.17829453945159912 0.24031007289886475 0.09162382036447525
0.17829453945159912 0.25581395626068115 0.03510956093668938
0.17829453945159912 0.25581395626068115 0.11494667828083038
0.17829453945159912 0.27131783962249756 0.030369512736797333
0.17829453945159912 0.27131783962249756 0.14126643538475037
0.17829453945159912 0.28682172298431396 0.02574557065963745
0.17829453945159912 0.28682172298431396 0.17706184089183807
0.17829453945159912 0.30232560634613037 0.02271571010351181
0.17829453945159912 0.30232560634613037 0.21399429440498352
0.17829453945159912 0.3178294897079468 0.021757986396551132
0.17829453945159912 0.31782951951026917 0.24349930882453918
0.17829453945159912 0.3333333730697632 0.021750101819634438
0.17829453945159912 0.3333333730697632 0.26874762773513794
0.17829453945159912 0.3488372564315796 0.02259209007024765
0.17829453945159912 0.3488372564315796 0.28838661313056946
0.17829453945159912 0.364341139793396 0.024689827114343643
0.17829453945159912 0.364341139793396 0.3036085069179535
0.17829453945159912 0.37984490394592285 0.02773416042327881
0.17829453945159912 0.37984490394592285 0.3169844448566437
0.17829453945159912 0.39534878730773926 0.030098505318164825
0.17829453945159912 0.39534878730773926 0.32937857508659363
0.17829453945159912 0.41085267066955566 0.03162685036659241
0.17829453945159912 0.41085267066955566 0.34082984924316406
0.17829453945159912 0.42635655403137207 0.03254245966672897
0.17829453945159912 0.42635655403137207 0.3533441424369812
0.17829453945159912 0.4418604373931885 0.03236321732401848
0.17829453945159912 0.4418604373931885 0.3662150502204895
0.17829453945159912 0.4573643207550049 0.031215231865644455
0.17829453945159912 0.4573643207550049 0.37796691060066223
0.17829453945159912 0.4728682041168213 0.029457425698637962
0.17829453945159912 0.4728682041168213 0.3885042667388916
0.17829453945159912 0.4883720874786377 0.026112031191587448
0.17829453945159912 0.4883720874786377 0.398887574672699
0.17829453945159912 0.5038759708404541 0.02152562327682972
0.17829453945159912 0.5038759708404541 0.40575873851776123
0.17829453945159912 0.5193798542022705 0.01846233755350113
0.17829453945159912 0.5193798542022705 0.4116501808166504
0.17829453945159912 0.5348837375640869 0.016927452757954597
0.17829453945159912 0.5348837375640869 0.4159180521965027
0.17829453945159912 0.5503876209259033 0.016703041270375252
0.17829453945159912 0.5503876209259033 0.41705983877182007
0.17829453945159912 0.5658915042877197 0.01748054288327694
0.17829453945159912 0.5658915042877197 0.4161596894264221
0.17829453945159912 0.5813953876495361 0.02002437599003315
0.17829453945159912 0.5813953876495361 0.41321954131126404
0.17829453945159912 0.5968992710113525 0.02402462065219879
0.17829453945159912 0.5968992710113525 0.4085121750831604
0.17829453945159912 0.612403154373169 0.029626261442899704
0.17829453945159912 0.612403154373169 0.40324676036834717
0.17829453945159912 0.6279069185256958 0.03390371799468994
0.17829453945159912 0.6279069185256958 0.3975216746330261
0.17829453945159912 0.6434108018875122 0.038028255105018616
0.17829453945159912 0.6434108018875122 0.39007729291915894
