-0.0811178982257843 -0.20930230617523193 0.05426359176635742
-0.07750126719474792 -0.20930230617523193 0.06976747512817383
-0.07197967916727066 -0.20930230617523193 0.08527135848999023
-0.0825728327035904 -0.19379842281341553 0.007751941680908203
-0.07101475447416306 -0.19379842281341553 0.02325582504272461
-0.07231588661670685 -0.19379842281341553 0.038759708404541016
-0.07414855808019638 -0.19379842281341553 0.05426359176635742
-0.07233787328004837 -0.19379842281341553 0.06976747512817383
-0.08030615001916885 -0.1627907156944275 -0.13178294897079468
-0.08164211362600327 -0.1627907156944275 0.007751941680908203
-0.07002050429582596 -0.1627907156944275 0.05426359176635742
-0.07253694534301758 -0.14728683233261108 -0.13178294897079468
-0.08436162769794464 -0.14728683233261108 0.007751941680908203
-0.07670079171657562 -0.14728683233261108 0.02325582504272461
-0.07586190849542618 -0.14728683233261108 0.038759708404541016
-0.0751405656337738 -0.14728683233261108 0.05426359176635742
-0.07262014597654343 -0.14728683233261108 0.06976747512817383
-0.07002537697553635 -0.13178294897079468 -0.13178294897079468
-0.08402874320745468 -0.13178294897079468 0.06976747512817383
-0.07580475509166718 -0.13178294897079468 0.08527135848999023
-0.07295477390289307 -0.11627906560897827 -0.13178294897079468
-0.07318005710840225 -0.11627906560897827 0.11627912521362305
-0.0837848037481308 -0.10077518224716187 -0.13178294897079468
-0.07246442884206772 -0.10077518224716187 0.1317828893661499
-0.08431097865104675 -0.08527129888534546 0.1317828893661499
-0.07298047840595245 -0.06976741552352905 0.1472867727279663
-0.08039543777704239 -0.05426359176635742 0.1472867727279663
-0.07268418371677399 -0.038759708404541016 -0.14728683233261108
-0.07499703764915466 -0.02325582504272461 -0.14728683233261108
-0.07071256637573242 -0.02325582504272461 0.16279065608978271
-0.07509076595306396 -0.007751941680908203 -0.14728683233261108
-0.07427695393562317 -0.007751941680908203 0.16279065608978271
-0.07374392449855804 0.007751941680908203 -0.14728683233261108
-0.07516974955797195 0.007751941680908203 0.16279065608978271
-0.0723385140299797 0.02325582504272461 0.16279065608978271
-0.07605933398008347 0.05426359176635742 0.1472867727279663
-0.08455286920070648 0.06976747512817383 -0.13178294897079468
-0.08247998356819153 0.06976747512817383 0.1317828893661499
-0.07192731648683548 0.08527135848999023 -0.13178294897079468
-0.07037121802568436 0.08527135848999023 0.1317828893661499
-0.07250384986400604 0.10077524185180664 0.11627912521362305
-0.0719156488776207 0.11627912521362305 0.10077524185180664
-0.07187165319919586 0.1317828893661499 0.08527135848999023
-0.07675203680992126 0.1472867727279663 -0.11627906560897827
-0.07685437798500061 0.1472867727279663 0.06976747512817383
-0.07791203260421753 0.16279065608978271 0.05426359176635742
-0.07049712538719177 0.17829453945159912 0.038759708404541016
-0.05669074133038521 -0.7674418687820435 -0.007751941680908203
-0.06256991624832153 -0.7674418687820435 0.007751941680908203
-0.06223658472299576 -0.7674418687820435 0.02325582504272461
-0.0551002137362957 -0.7674418687820435 0.038759708404541016
-0.060363031923770905 -0.751937985420227 -0.05426359176635742
-0.05884789675474167 -0.7364341020584106 -0.06976741552352905
-0.06823024898767471 -0.7209302186965942 0.1317828893661499
-0.06822695583105087 -0.7054262757301331 -0.08527129888534546
-0.055338192731142044 -0.6899224519729614 -0.10077518224716187
-0.06116216629743576 -0.674418568611145 0.17829453945159912
-0.06865278631448746 -0.643410861492157 0.19379842281341553
-0.05527772754430771 -0.5968992114067078 -0.11627906560897827
-0.05533702298998833 -0.5813953876495361 -0.11627906560897827
-0.056495800614356995 -0.5813953876495361 0.20930230617523193
-0.054504942148923874 -0.5658915042877197 -0.11627906560897827
-0.06158272176980972 -0.5658915042877197 0.20930230617523193
-0.05513793230056763 -0.5503876209259033 -0.11627906560897827
-0.06958175450563431 -0.5503876209259033 -0.10077518224716187
-0.06696724891662598 -0.5503876209259033 0.20930230617523193
-0.05774499475955963 -0.5348837375640869 -0.11627906560897827
-0.0629594624042511 -0.5348837375640869 -0.10077518224716187
-0.06464384496212006 -0.5193798542022705 -0.11627906560897827
-0.06580611318349838 -0.5193798542022705 -0.10077518224716187
-0.056144144386053085 -0.4883720874786377 -0.13178294897079468
-0.06804921478033066 -0.4728682041168213 -0.13178294897079468
-0.059836000204086304 -0.39534884691238403 0.20930230617523193
-0.059929706156253815 -0.3488371968269348 0.19379842281341553
-0.06421057134866714 -0.317829430103302 0.17829453945159912
-0.05574971064925194 -0.30232560634613037 0.17829453945159912
-0.06909233331680298 -0.28682172298431396 0.16279065608978271
-0.05857906490564346 -0.27131783962249756 0.16279065608978271
-0.05445440858602524 -0.25581395626068115 -0.14728683233261108
-0.06508268415927887 -0.25581395626068115 0.1472867727279663
-0.05481274798512459 -0.24031007289886475 -0.14728683233261108
-0.0675942674279213 -0.24031007289886475 0.1317828893661499
-0.06608369946479797 -0.22480618953704834 0.11627912521362305
-0.054291144013404846 -0.22480618953704834 0.1317828893661499
-0.06321407109498978 -0.20930230617523193 0.10077524185180664
-0.06299757957458496 -0.19379842281341553 0.08527135848999023
-0.05988357216119766 -0.1782945990562439 0.038759708404541016
-0.06592153757810593 -0.1782945990562439 0.05426358804106712
-0.0614650584757328 -0.1782945990562439 0.06976747512817383
-0.0651627629995346 -0.1627907156944275 0.02325582504272461
-0.0685548186302185 -0.1627907156944275 0.038759708404541016
-0.06623946875333786 -0.1627907156944275 0.06976747512817383
-0.05626950412988663 -0.1627907156944275 0.08527135848999023
-0.06687504053115845 -0.14728683233261108 0.08527135848999023
-0.06871461868286133 -0.13178294897079468 0.10077524185180664
-0.060668110847473145 -0.08527129888534546 0.1472867727279663
-0.058610472828149796 -0.06976741552352905 -0.14728683233261108
-0.06728187203407288 -0.05426359549164772 -0.14728683233261108
-0.06214558333158493 -0.038759708404541016 0.16279065608978271
-0.06970226019620895 0.02325582318007946 -0.14728683233261108
-0.05941095948219299 0.038759708404541016 -0.14728683233261108
-0.06496825814247131 0.038759708404541016 0.16279065608978271
-0.05432242527604103 0.05426359176635742 0.16279065608978271
-0.06318715214729309 0.06976747512817383 0.1472867727279663
-0.05809851735830307 0.10077524185180664 -0.13178294897079468
-0.056510910391807556 0.16279065608978271 -0.11627906560897827
-0.06556366384029388 0.17829453945159912 -0.10077518224716187
-0.058968715369701385 0.19379842281341553 -0.038759708404541016
-0.061728477478027344 0.19379842281341553 -0.02325582504272461
-0.05977493152022362 0.19379842281341553 -0.007751941680908203
-0.043924473226070404 -0.7674418687820435 -0.02325582504272461
-0.0506238117814064 -0.751937985420227 0.08527135848999023
-0.04528097063302994 -0.7364341020584106 0.11627912521362305
-0.04525775462388992 -0.7209302186965942 -0.08527129888534546
-0.04394921660423279 -0.643410861492157 -0.11627906560897827
-0.05031681805849075 -0.6279069781303406 -0.11627905815839767
-0.05395442992448807 -0.6124030351638794 -0.11627906560897827
-0.04768167436122894 -0.5968992114067078 0.20930230617523193
-0.0488043911755085 -0.3798449635505676 0.20930230617523193
-0.047023095190525055 -0.3333333134651184 0.19379842281341553
-0.042589060962200165 -0.317829430103302 -0.14728683233261108
-0.04636632278561592 -0.30232560634613037 -0.14728683233261108
-0.0495922677218914 -0.28682172298431396 -0.14728683233261108
-0.04435257613658905 -0.28682172298431396 0.17829453945159912
-0.052935563027858734 -0.27131783962249756 -0.14728683233261108
-0.04438049718737602 -0.25581395626068115 0.16279065608978271
-0.052138980478048325 -0.24031007289886475 0.1472867727279663
-0.052865393459796906 -0.22480618953704834 -0.14728683233261108
-0.04670809581875801 -0.20930230617523193 -0.14728683233261108
-0.05159333720803261 -0.20930230617523193 0.11627912521362305
-0.049296874552965164 -0.19379842281341553 0.10077524185180664
-0.04618098586797714 -0.1782945990562439 0.007751941680908203
-0.049156304448843 -0.1782945990562439 0.08527135848999023
-0.047549132257699966 -0.1627907156944275 0.007751941680908203
-0.04755154997110367 -0.1627907156944275 0.02325582504272461
-0.05423678085207939 -0.1472868174314499 0.10077524185180664
-0.05186288431286812 -0.13178294897079468 0.11627912521362305
-0.052742354571819305 -0.11627906560897827 0.1317828893661499
-0.0407227985560894 -0.10077518224716187 0.1472867727279663
-0.0446198470890522 -0.08527129888534546 -0.14728683233261108
-0.05129442363977432 -0.05426359176635742 0.16279065608978271
-0.04006924480199814 -0.007751941680908203 0.17829453945159912
-0.04461221396923065 0.007751941680908203 0.17829453945159912
-0.040485139936208725 0.02325582504272461 0.17829453945159912
-0.043334946036338806 0.05426359176635742 -0.14728683233261108
-0.04487822949886322 0.08527135848999023 0.1472867727279663
-0.05157484859228134 0.10077524185180664 0.1317828893661499
-0.03918485343456268 0.11627912521362305 -0.13178294897079468
-0.052236855030059814 0.11627911776304245 0.11627911776304245
-0.04918079450726509 0.1317828893661499 0.10077524185180664
-0.05141336843371391 0.1472867727279663 0.08527135848999023
-0.052475325763225555 0.16279064118862152 0.06976747512817383
-0.053076423704624176 0.19379842281341553 -0.05426359176635742
-0.038494646549224854 -0.6589146852493286 0.19379842281341553
-0.03094293735921383 -0.6124030947685242 0.20930230617523193
-0.03580129146575928 -0.5038759708404541 -0.13178294897079468
-0.029060326516628265 -0.3643410801887512 0.20930230617523193
-0.034690480679273605 -0.3333333134651184 -0.14728683233261108
-0.03149077296257019 -0.317829430103302 0.19379842281341553
-0.026892567053437233 -0.27131783962249756 0.17829453945159912
-0.02683284506201744 -0.22480618953704834 0.1472867727279663
-0.029916420578956604 -0.20930230617523193 0.1317828893661499
-0.036314480006694794 -0.19379842281341553 -0.14728683233261108
-0.02880309894680977 -0.19379842281341553 -0.007751941680908203
-0.035534780472517014 -0.19379842281341553 0.007751941680908203
-0.03456135466694832 -0.19379842281341553 0.02325582504272461
-0.030694689601659775 -0.19379842281341553 0.11627912521362305
-0.02448742277920246 -0.1782945990562439 -0.02325582504272461
-0.03505599871277809 -0.1782946139574051 -0.007751941680908203
-0.03768406808376312 -0.1782945990562439 0.038759708404541016
-0.03049931302666664 -0.1627907156944275 -0.02325582504272461
-0.03742627799510956 -0.1627907007932663 -0.007751941680908203
-0.031974148005247116 -0.1627907156944275 0.038759708404541016
-0.03498408570885658 -0.1627907156944275 0.10077524185180664
-0.026717090979218483 -0.14728683233261108 -0.02325582504272461
-0.028757436200976372 -0.14728683233261108 -0.007751941680908203
-0.03054274059832096 -0.14728683233261108 0.007751941680908203
-0.024622172117233276 -0.14728683233261108 0.11627912521362305
-0.03063521906733513 -0.06976741552352905 0.16279065608978271
-0.025073209777474403 0.038759708404541016 0.17829453945159912
-0.029555143788456917 0.06976747512817383 0.16279065608978271
-0.03193376958370209 0.11627913266420364 -0.13178294897079468
-0.03186764940619469 0.19379842281341553 -0.038759708404541016
-0.035003412514925 0.19379842281341553 -0.02325582504272461
-0.03701199218630791 0.19379842281341553 -0.007751941680908203
-0.015342092141509056 -0.7054263353347778 0.16279065608978271
-0.014714108780026436 -0.39534884691238403 -0.14728683233261108
-0.01133972592651844 -0.3798449635505676 -0.14728683233261108
-0.007768911775201559 -0.3643410801887512 -0.14728683233261108
-0.01755508966743946 -0.3488371968269348 -0.14728683233261108
-0.009268522262573242 -0.3488371968269348 -0.038759708404541016
-0.009747033007442951 -0.3333333134651184 -0.05426359176635742
-0.015369116328656673 -0.3333333134651184 -0.038759708404541016
-0.01348031498491764 -0.317829430103302 -0.038759708404541016
-0.009433936327695847 -0.24031007289886475 0.16279065608978271
-0.010216846130788326 -0.20930230617523193 -0.02325582504272461
-0.017287053167819977 -0.20930230617523193 -0.007751941680908203
-0.019008131697773933 -0.20930230617523193 0.007751941680908203
-0.011376805603504181 -0.20930230617523193 0.02325582504272461
-0.018895652145147324 -0.19379843771457672 -0.02325582690536976
-0.022884344682097435 -0.19379842281341553 0.038759708404541016
-0.020647482946515083 -0.1782945990562439 0.05426359176635742
-0.01997455582022667 -0.1782945990562439 0.10077524185180664
-0.018056275323033333 -0.1627907156944275 -0.038759708404541016
-0.011039411649107933 -0.1627907156944275 0.05426359176635742
-0.020030798390507698 -0.14728683233261108 -0.038759708404541016
-0.021893277764320374 -0.14728683233261108 0.02325582504272461
-0.01507190428674221 -0.13178294897079468 0.1317828893661499
-0.011423146352171898 -0.02325582504272461 0.17829453945159912
-0.017688753083348274 0.16279065608978271 -0.11627906560897827
-0.02206277847290039 0.19379842281341553 -0.05426358804106712
-0.007355389650911093 -0.3643410801887512 -0.14728683233261108
0.002287018345668912 -0.317829430103302 -0.05426359176635742
0.007204377092421055 -0.317829430103302 -0.02325582504272461
-0.0005460586398839951 -0.30232560634613037 -0.038759708404541016
-0.002345885382965207 -0.24031007289886475 0.16279065608978271
0.005282078869640827 -0.19379842281341553 0.05426359176635742
-0.003190317191183567 -0.1782945990562439 -0.038759708404541016
0.0025356048718094826 -0.1782945990562439 0.06976747512817383
0.007687447592616081 -0.1782945990562439 0.08527135848999023
-0.002931162714958191 -0.1782945990562439 0.10077524185180664
-0.002830536337569356 -0.1627907156944275 0.10077524185180664
0.002408459549769759 -0.14728683233261108 0.038759708404541016
0.005845756269991398 -0.14728683233261108 0.11627912521362305
0.007292347028851509 0.16279065608978271 0.06976747512817383
0.00974425021559 -0.7674418687820435 -0.02325582690536976
0.021533895283937454 -0.7054263353347778 0.16279065608978271
0.013568500056862831 -0.39534884691238403 -0.14728683233261108
0.01107009593397379 -0.3798449635505676 -0.14728683233261108
0.016887197270989418 -0.3488371968269348 -0.14728683233261108
0.01475585624575615 -0.3488371968269348 -0.038759708404541016
0.014186697080731392 -0.3333333134651184 -0.05426359176635742
0.021792646497488022 -0.3333333134651184 -0.038759708404541016
0.009008451364934444 -0.317829430103302 -0.05426359176635742
0.019393151625990868 -0.317829430103302 -0.038759708404541016
0.008010700345039368 -0.317829430103302 -0.02325582504272461
0.01026282086968422 -0.30232560634613037 -0.038759708404541016
0.02247685007750988 -0.27131783962249756 0.17829453945159912
0.019309157505631447 -0.22480618953704834 0.1472867727279663
0.015132658183574677 -0.20930230617523193 -0.02325582504272461
0.02262292243540287 -0.20930230617523193 0.02325582504272461
0.0218166746199131 -0.20930230617523193 0.1317828893661499
0.010626962408423424 -0.19379842281341553 0.05426359176635742
0.018215833231806755 -0.19379842281341553 0.11627912521362305
0.010583283379673958 -0.1782945990562439 -0.03875970467925072
0.017215155065059662 -0.1782945990562439 0.06976747512817383
0.01175660453736782 -0.14728683233261108 0.038759708404541016
0.008281677961349487 -0.13178294897079468 0.1317829042673111
0.02757192775607109 -0.7209302186965942 -0.08527129888534546
0.03704638034105301 -0.5038759708404541 -0.13178294897079468
0.029498498886823654 -0.3643410801887512 0.20930230617523193
0.02905956655740738 -0.3333333134651184 -0.14728683233261108
0.0259786918759346 -0.317829430103302 0.19379842281341553
0.02426503412425518 -0.20930229127407074 -0.007751941215246916
0.028357353061437607 -0.20930229127407074 0.007751941680908203
0.02844221517443657 -0.19379842281341553 -0.14728683233261108
0.024432091042399406 -0.19379842281341553 -0.02325582318007946
0.03623665124177933 -0.19379842281341553 -0.007751941680908203
0.03604713827371597 -0.19379842281341553 0.038759708404541016
0.03150174021720886 -0.1782945990562439 -0.02325582504272461
0.03594478964805603 -0.1782945990562439 0.05426359176635742
0.02375098690390587 -0.16279073059558868 -0.038759708404541016
0.037193480879068375 -0.1627907156944275 -0.02325582504272461
0.02458222396671772 -0.1627907156944275 0.05426358804106712
0.026202481240034103 -0.14728683233261108 -0.038759708404541016
0.03381878882646561 -0.14728683233261108 -0.02325582504272461
0.036411039531230927 -0.14728683233261108 -0.007751941680908203
0.03311822935938835 -0.14728683233261108 0.02325582504272461
0.030416036024689674 -0.06976741552352905 0.16279065608978271
0.02680972032248974 -0.02325582504272461 0.17829453945159912
0.032140184193849564 0.038759708404541016 0.17829453945159912
0.03144288808107376 0.06976747512817383 0.16279065608978271
0.02384122833609581 0.16279065608978271 -0.11627906560897827
0.047145776450634 -0.7674418687820435 -0.007751941680908203
0.043621569871902466 -0.751937985420227 -0.05426359176635742
0.04367316514253616 -0.7364341020584106 -0.06976741552352905
0.04843014106154442 -0.7364341020584106 0.11627912521362305
0.04398943483829498 -0.6899224519729614 -0.10077518224716187
0.040538568049669266 -0.6589147448539734 0.19379842281341553
0.041071102023124695 -0.6434109210968018 -0.11627906560897827
0.04808599129319191 -0.6279069781303406 -0.11627906560897827
0.05223846435546875 -0.6124030947685242 -0.11627906560897827
0.04111749678850174 -0.6124030947685242 0.20930230617523193
0.053206559270620346 -0.5813953876495361 -0.11627906560897827
0.05001465976238251 -0.5658915042877197 -0.11627906560897827
0.05091901868581772 -0.5503876209259033 -0.11627906560897827
0.04408138245344162 -0.3333333134651184 0.19379842281341553
0.039003338664770126 -0.317829430103302 -0.14728683233261108
0.04149908199906349 -0.30232560634613037 -0.14728683233261108
0.05219662934541702 -0.30232560634613037 0.17829453945159912
0.04394584894180298 -0.28682172298431396 -0.14728683233261108
0.04050275683403015 -0.28682172298431396 0.17829453945159912
0.046977099031209946 -0.27131783962249756 -0.14728683233261108
0.04891451075673103 -0.25581395626068115 -0.14728683233261108
0.04086834564805031 -0.25581395626068115 0.16279065608978271
0.05035397410392761 -0.24031007289886475 -0.14728683233261108
0.04803457856178284 -0.24031007289886475 0.1472867727279663
0.04849425330758095 -0.22480618953704834 -0.14728683233261108
0.049904078245162964 -0.22480618953704834 0.1317828893661499
0.04357501491904259 -0.20930230617523193 -0.14728683233261108
0.04583136364817619 -0.20930230617523193 0.11627912521362305
0.04761271923780441 -0.19379842281341553 0.007751941680908203
0.05033634975552559 -0.19379842281341553 0.02325582504272461
0.041067931801080704 -0.19379842281341553 0.10077524185180664
0.043224163353443146 -0.1782945990562439 -0.007751941215246916
0.04700580984354019 -0.1627907156944275 -0.007751941680908203
0.04573164880275726 -0.1627907156944275 0.038759708404541016
0.03956078737974167 -0.14728683233261108 0.007751941680908203
0.05220365151762962 -0.14728683233261108 0.10077524185180664
0.050675489008426666 -0.13178294897079468 0.11627912521362305
0.051771003752946854 -0.11627906560897827 0.1317828893661499
0.03946381434798241 -0.10077518224716187 0.1472867727279663
0.043600860983133316 -0.08527129888534546 -0.14728683233261108
0.05271913483738899 -0.05426359176635742 0.16279065608978271
0.04493387043476105 -0.007751941680908203 0.17829453945159912
0.04989747703075409 0.007751941680908203 0.17829453945159912
0.04539928212761879 0.02325582504272461 0.17829453945159912
0.04379246383905411 0.05426359176635742 -0.14728683233261108
0.0440298393368721 0.08527135848999023 0.1472867727279663
0.04910856857895851 0.10077524185180664 0.1317828893661499
0.04857838153839111 0.11627912521362305 0.11627912521362305
0.043634675443172455 0.1317828893661499 0.10077524185180664
0.040177520364522934 0.1472867727279663 0.08527135848999023
0.05238677188754082 0.16279065608978271 -0.11627906560897827
0.05757030099630356 -0.7674418687820435 0.007751941680908203
0.059154871851205826 -0.7674418687820435 0.02325582318007946
0.05456330627202988 -0.7674418687820435 0.038759708404541016
0.0550476536154747 -0.751937985420227 0.08527135848999023
0.06523287296295166 -0.7209302186965942 0.1317828893661499
0.059876084327697754 -0.7054263353347778 -0.08527129888534546
0.06963483989238739 -0.7054263353347778 0.1472867727279663
0.06733431667089462 -0.6899224519729614 0.16279065608978271
0.06621350347995758 -0.674418568611145 -0.10077518224716187
0.060252636671066284 -0.674418568611145 0.17829453945159912
0.06586576998233795 -0.643410861492157 0.19379842281341553
0.05435395985841751 -0.5968992114067078 -0.11627906560897827
0.054999351501464844 -0.5968992114067078 0.20930229127407074
0.05997290834784508 -0.5813953876495361 0.20930230617523193
0.06368673592805862 -0.5658915042877197 0.20930230617523193
0.06761416047811508 -0.5503876209259033 0.20930230617523193
0.05565814673900604 -0.5348837375640869 -0.11627906560897827
0.0629110336303711 -0.5348837375640869 -0.10077518224716187
0.06240677833557129 -0.5193798542022705 -0.11627906560897827
0.06625843048095703 -0.5193798542022705 -0.10077518224716187
0.05458885058760643 -0.4883720874786377 -0.13178294897079468
0.06384415924549103 -0.4728682041168213 -0.13178294897079468
0.06465492397546768 -0.39534884691238403 0.20930230617523193
0.054335642606019974 -0.3798449635505676 0.20930230617523193
0.0599612258374691 -0.3488371968269348 0.19379842281341553
0.06173643097281456 -0.317829430103302 0.17829453945159912
0.06598127633333206 -0.28682172298431396 0.16279065608978271
0.05660402402281761 -0.27131783962249756 0.16279065608978271
0.06288040429353714 -0.25581395626068115 0.1472867727279663
0.06590830534696579 -0.24031007289886475 0.1317828893661499
0.06389622390270233 -0.22480618953704834 0.11627912521362305
0.06023775041103363 -0.20930230617523193 0.10077524185180664
0.06313153356313705 -0.19379842281341553 0.02325582504272461
0.05839143693447113 -0.19379842281341553 0.08527135848999023
0.06175670400261879 -0.1782945990562439 0.007751941680908203
0.059792712330818176 -0.1782945990562439 0.05426359549164772
0.05771682783961296 -0.1782945990562439 0.06976747512817383
0.06306680291891098 -0.1627907156944275 0.007751941680908203
0.06418291479349136 -0.1627907156944275 0.038759708404541016
0.06600421667098999 -0.1627907156944275 0.06976747512817383
0.05513627082109451 -0.1627907156944275 0.08527136594057083
0.06792274862527847 -0.14728683233261108 0.08527135848999023
0.06758426874876022 -0.13178294897079468 -0.13178294897079468
0.0693354681134224 -0.13178294897079468 0.10077524185180664
0.060819536447525024 -0.08527129888534546 0.1472867727279663
0.05824398994445801 -0.06976741552352905 -0.14728683233261108
0.06650155782699585 -0.05426359176635742 -0.14728683233261108
0.06390747427940369 -0.038759708404541016 0.16279065608978271
0.0682726502418518 0.02325582504272461 -0.14728683233261108
0.05878818780183792 0.038759708404541016 -0.14728683233261108
0.06890317052602768 0.038759708404541016 0.16279065608978271
0.056742265820503235 0.05426359176635742 0.16279065608978271
0.06467434763908386 0.06976747512817383 0.1472867727279663
0.05675597861409187 0.10077524185180664 -0.13178294897079468
0.06342396140098572 0.17829453945159912 -0.10077518224716187
0.05896475538611412 0.17829453945159912 0.038759708404541016
0.07170791923999786 -0.751937985420227 -0.038759708404541016
0.08320941030979156 -0.751937985420227 -0.02325582504272461
0.07605357468128204 -0.751937985420227 0.06976747512817383
0.0766848772764206 -0.7364341020584106 -0.05426359176635742
0.07652371376752853 -0.7364341020584106 0.10077524185180664
0.07144727557897568 -0.7209302186965942 -0.06976741552352905
0.08459015935659409 -0.7209302186965942 0.11627912521362305
0.07875139266252518 -0.6899224519729614 -0.08527129888534546
0.079303078353405 -0.6589146852493286 -0.10077518224716187
0.07982218265533447 -0.6589146852493286 0.17829453945159912
0.07938202470541 -0.6279069781303406 0.19379842281341553
0.07736996561288834 -0.5658915042877197 -0.10077518224716187
0.06992261111736298 -0.5503876209259033 -0.10077518224716187
0.07715147733688354 -0.5348837375640869 -0.08527129888534546
0.07172399759292603 -0.5348837375640869 0.20930230617523193
0.07434003055095673 -0.5193798542022705 -0.08527129888534546
0.0752720981836319 -0.5193798542022705 0.20930230617523193
0.07143853604793549 -0.5038759708404541 -0.11627906560897827
0.0714723989367485 -0.5038759708404541 -0.10077518224716187
0.07436975091695786 -0.5038759708404541 -0.08527129888534546
0.0789850652217865 -0.5038759708404541 0.20930230617523193
0.07689747214317322 -0.4883720874786377 -0.11627906560897827
0.07518461346626282 -0.4883720874786377 -0.10077518224716187
0.07620209455490112 -0.4883720874786377 -0.08527129888534546
0.0836443305015564 -0.4883720874786377 0.20930230617523193
0.0834759995341301 -0.4728682041168213 -0.11627906560897827
0.08072029054164886 -0.4728682041168213 -0.10077518224716187
0.08348535001277924 -0.4728682041168213 -0.08527129888534546
0.07161165773868561 -0.4573643207550049 -0.13178294897079468
0.07422942668199539 -0.4418604373931885 -0.13178294897079468
0.08436671644449234 -0.4418604373931885 0.20930230617523193
0.07508638501167297 -0.42635661363601685 -0.13178294897079468
0.07899481058120728 -0.42635661363601685 0.20930230617523193
0.07461749017238617 -0.41085270047187805 -0.13178294897079468
0.07307060807943344 -0.41085273027420044 0.20930230617523193
0.07380304485559464 -0.39534884691238403 -0.13178294897079468
0.07308878749608994 -0.3798449635505676 -0.13178294897079468
0.08314600586891174 -0.3798449635505676 0.19379842281341553
0.07190018892288208 -0.3643410801887512 -0.13178294897079468
0.07317373901605606 -0.3643410801887512 0.19379842281341553
0.07152073085308075 -0.3488371968269348 -0.13178294897079468
0.08263462036848068 -0.3488371968269348 0.17829453945159912
0.07270142436027527 -0.3333333134651184 -0.13178294897079468
0.07266414165496826 -0.3333333134651184 0.17829453945159912
0.07522262632846832 -0.317829430103302 -0.13178294897079468
0.0799936056137085 -0.317829430103302 0.16279065608978271
0.0779743492603302 -0.30232560634613037 -0.13178294897079468
0.07330536097288132 -0.30232560634613037 0.16279065608978271
0.08123926818370819 -0.28682172298431396 -0.13178294897079468
0.07978266477584839 -0.28682172298431396 0.1472867727279663
0.08502819389104843 -0.27131783962249756 0.1317828893661499
0.07309295237064362 -0.27131783962249756 0.1472867727279663
0.07490839064121246 -0.25581395626068115 0.1317828893661499
0.0833708867430687 -0.24031007289886475 0.10077524185180664
0.07428989559412003 -0.24031007289886475 0.11627912521362305
0.07965949922800064 -0.22480618953704834 0.08527135848999023
0.07260191440582275 -0.22480618953704834 0.10077524185180664
0.080731101334095 -0.20930230617523193 0.02325582504272461
0.08095058798789978 -0.20930230617523193 0.038759708404541016
0.08149921149015427 -0.20930230617523193 0.05426359176635742
0.07727310061454773 -0.20930230617523193 0.06976747512817383
0.07129660248756409 -0.20930230617523193 0.08527135848999023
0.08042849600315094 -0.19379842281341553 0.007751941680908203
0.07087896764278412 -0.19379842281341553 0.038759708404541016
0.0729285329580307 -0.19379842281341553 0.05426359176635742
0.07117744535207748 -0.19379842281341553 0.06976747512817383
0.08317617326974869 -0.1782945990562439 -0.13178294897079468
0.0793481320142746 -0.1782945990562439 0.007751941680908203
0.07603925466537476 -0.1627907156944275 -0.13178294897079468
0.07600054889917374 -0.1627907156944275 0.007751941680908203
0.06997053325176239 -0.1627907156944275 0.05426359176635742
0.07030472159385681 -0.14728683233261108 -0.13178293406963348
0.07759027183055878 -0.14728683233261108 0.02325582504272461
0.07768850028514862 -0.14728683233261108 0.038759708404541016
0.07724201679229736 -0.14728683233261108 0.05426359176635742
0.07401421666145325 -0.14728683233261108 0.06976747512817383
0.07794961333274841 -0.13178294897079468 0.08527135848999023
0.07373791933059692 -0.11627906560897827 -0.13178294897079468
0.07400113344192505 -0.11627906560897827 0.11627912521362305
0.08487571030855179 -0.10077518224716187 -0.13178294897079468
0.0729498565196991 -0.10077518224716187 0.1317828893661499
0.07376226037740707 -0.06976741552352905 0.1472867727279663
0.08197016268968582 -0.05426359176635742 0.1472867727279663
0.07211335748434067 -0.038759708404541016 -0.14728683233261108
0.07428038865327835 -0.02325582504272461 -0.14728683233261108
0.0722469761967659 -0.02325582504272461 0.1627906709909439
0.07423463463783264 -0.007751941680908203 -0.14728683233261108
0.07657110691070557 -0.007751941680908203 0.16279065608978271
0.07289110124111176 0.007751941215246916 -0.14728683233261108
0.07793711125850677 0.007751941680908203 0.16279065608978271
0.07480543851852417 0.02325582504272461 0.16279065608978271
0.07857783883810043 0.05426359176635742 0.1472867727279663
0.0842224732041359 0.06976747512817383 -0.13178294897079468
0.08508811891078949 0.06976747512817383 0.1317828893661499
0.07136795669794083 0.08527135848999023 -0.13178294897079468
0.07087171077728271 0.08527135848999023 0.1317828893661499
0.07280202955007553 0.10077524185180664 0.11627912521362305
0.07188210636377335 0.11627912521362305 0.10077524185180664
0.07141770422458649 0.1317828893661499 0.08527135848999023
0.07753995060920715 0.1472867727279663 -0.11627906560897827
0.07597577571868896 0.1472867727279663 0.06976747512817383
0.07533834874629974 0.16279065608978271 0.05426359176635742
0.09026527404785156 -0.7519379258155823 -0.007751941215246916
0.09457004070281982 -0.751937985420227 0.007751941680908203
0.09525229781866074 -0.751937985420227 0.02325582504272461
0.09331192076206207 -0.751937985420227 0.038759708404541016
0.08574850857257843 -0.751937985420227 0.05426359176635742
0.09485882520675659 -0.7364341020584106 -0.038759708404541016
0.092021144926548 -0.7364341020584106 0.08527135848999023
0.09342487156391144 -0.7209302186965942 -0.05426359176635742
0.09708202630281448 -0.7209302186965942 0.10077524185180664
0.08838417381048203 -0.7054263353347778 -0.06976741552352905
0.10008250921964645 -0.7054263353347778 0.11627912521362305
0.08900824934244156 -0.7054263353347778 0.1317828893661499
0.08955401182174683 -0.6899224519729614 0.1472867727279663
0.09308993816375732 -0.674418568611145 -0.08527129888534546
0.08620892465114594 -0.6744185090065002 0.16279065608978271
0.09775082767009735 -0.6589146852493286 0.16279065608978271
0.08766845613718033 -0.643410861492157 -0.10077518224716187
0.09295351803302765 -0.6434108018875122 0.17829453945159912
0.08992988616228104 -0.6279069781303406 -0.10077518224716187
0.10008057206869125 -0.6279069781303406 0.17829453945159912
0.0897800624370575 -0.6124030947685242 -0.10077518224716187
0.08759507536888123 -0.6124030947685242 0.19379842281341553
0.08821461349725723 -0.5968992114067078 -0.10077518224716187
0.0920761227607727 -0.596899151802063 0.19379842281341553
0.08560629189014435 -0.5813953876495361 -0.10077518224716187
0.0939384251832962 -0.5813953876495361 0.19379842281341553
0.09624718129634857 -0.5658915042877197 -0.08527129888534546
0.09550721943378448 -0.5658915042877197 0.19379842281341553
0.08688831329345703 -0.5503876209259033 -0.08527129888534546
0.09691476076841354 -0.5503876209259033 0.19379842281341553
0.09381438791751862 -0.5348837375640869 -0.06976741552352905
0.09922634065151215 -0.5348837375640869 0.19379842281341553
0.09104844927787781 -0.5193798542022705 -0.06976741552352905
0.09048730880022049 -0.5038759708404541 -0.06976741552352905
0.09068062901496887 -0.4883720874786377 -0.06976741552352905
0.09560015052556992 -0.4728682041168213 -0.06976741552352905
0.08581884205341339 -0.4728681743144989 0.20930229127407074
0.08649002760648727 -0.4573643207550049 -0.11627906560897827
0.08710531145334244 -0.4573643207550049 -0.10077518224716187
0.09396474063396454 -0.4573643207550049 -0.08527129888534546
0.08616868406534195 -0.4573643207550049 0.20930230617523193
0.0880487859249115 -0.4418604373931885 -0.11627906560897827
0.09508008509874344 -0.4418604373931885 -0.10077518224716187
0.09078026562929153 -0.42635661363601685 -0.11627906560897827
0.09407776594161987 -0.41085273027420044 -0.11627906560897827
0.09480006992816925 -0.41085273027420044 0.19379842281341553
0.09763261675834656 -0.39534884691238403 -0.11627906560897827
0.0893760472536087 -0.39534884691238403 0.19379840791225433
0.09946097433567047 -0.3798449635505676 -0.11627906560897827
0.10055246949195862 -0.3798449635505676 0.17829453945159912
0.09562026709318161 -0.3643410801887512 -0.11627906560897827
0.09074383974075317 -0.3643410801887512 0.17829453945159912
0.09220105409622192 -0.3488371968269348 -0.11627906560897827
0.09518370777368546 -0.3488371968269348 0.16279065608978271
0.09206295013427734 -0.3333333134651184 -0.11627907305955887
0.0983697772026062 -0.3333333134651184 0.1472867727279663
0.08773697912693024 -0.3333333134651184 0.16279065608978271
0.09453929960727692 -0.317829430103302 -0.11627906560897827
0.09065534174442291 -0.317829430103302 0.1472867727279663
0.09916550666093826 -0.30232560634613037 -0.11627906560897827
0.09334459900856018 -0.30232560634613037 0.1317828893661499
0.08642951399087906 -0.30232560634613037 0.1472867727279663
0.09623774886131287 -0.28682172298431396 0.11627912521362305
0.08865094184875488 -0.28682172298431396 0.1317828893661499
0.08532626181840897 -0.27131783962249756 -0.13178293406963348
0.09758822619915009 -0.27131783962249756 0.10077524185180664
0.08972534537315369 -0.27131783962249756 0.11627912521362305
0.08707842975854874 -0.25581395626068115 -0.13178294897079468
0.09717554599046707 -0.25581395626068115 0.08527135848999023
0.08934216946363449 -0.25581395626068115 0.10077524185180664
0.08535823971033096 -0.25581395626068115 0.11627912521362305
0.08872586488723755 -0.24031007289886475 -0.13178294897079468
0.09457194805145264 -0.24031007289886475 0.06976747512817383
0.08812905848026276 -0.24031007289886475 0.08527135848999023
0.08924538642168045 -0.22480618953704834 -0.13178294897079468
0.09487488865852356 -0.22480618953704834 0.02325582504272461
0.09178072214126587 -0.22480618953704834 0.038759708404541016
0.08934410661458969 -0.22480618953704834 0.05426359176635742
0.08633134514093399 -0.22480618953704834 0.06976747512817383
0.08831963688135147 -0.20930230617523193 -0.13178294897079468
0.08814813196659088 -0.20930232107639313 0.00775194214656949
0.08656205236911774 -0.19379842281341553 -0.13178294897079468
0.09510266035795212 -0.14728683233261108 -0.11627906560897827
0.08574196696281433 -0.1472868174314499 0.007751941680908203
0.0885520875453949 -0.13178294897079468 -0.11627906560897827
0.09408434480428696 -0.13178294897079468 0.02325582504272461
0.09112763404846191 -0.13178294897079468 0.038759708404541016
0.08877215534448624 -0.13178294897079468 0.05426359176635742
0.08596444875001907 -0.13178294897079468 0.06976747512817383
0.09985674172639847 -0.11627906560897827 -0.11627906560897827
0.09627655148506165 -0.11627906560897827 0.08527135848999023
0.08691602945327759 -0.11627906560897827 0.10077523440122604
0.09087391197681427 -0.10077518224716187 0.11627912521362305
0.0929797887802124 -0.08527129888534546 -0.13178294897079468
0.08571645617485046 -0.08527129888534546 0.1317828893661499
0.09504947066307068 -0.06976741552352905 0.1317828893661499
0.08835723251104355 -0.038759708404541016 0.1472867727279663
0.09277195483446121 -0.02325582504272461 0.1472867727279663
0.09626458585262299 -0.007751941680908203 0.1472867727279663
0.09666097164154053 0.007751941680908203 0.1472867727279663
0.09316819906234741 0.02325582504272461 0.1472867727279663
0.0878845825791359 0.038759708404541016 0.1472867727279663
0.09378769993782043 0.05426359176635742 -0.13178294897079468
0.09514577686786652 0.05426359176635742 0.1317828893661499
0.10056733340024948 0.06976747512817383 0.11627912521362305
0.08776292949914932 0.08527135848999023 0.11627912521362305
0.09951227158308029 0.10077524185180664 -0.11627906560897827
0.08823758363723755 0.10077524185180664 0.10077524185180664
0.09132800251245499 0.11627911776304245 -0.11627905815839767
0.09939839690923691 0.11627912521362305 0.06976747512817383
0.08651435375213623 0.11627912521362305 0.08527136594057083
0.08697745949029922 0.1317828893661499 -0.11627906560897827
0.08929022401571274 0.1317828893661499 0.06976747512817383
0.09625230729579926 0.1472867727279663 0.05426359176635742
0.09498481452465057 0.16279065608978271 0.038759708404541016
0.08534476906061172 0.17829453945159912 0.02325582504272461
0.10444413870573044 -0.7364341616630554 -0.02325582504272461
0.1106337308883667 -0.7364341020584106 -0.007751941680908203
0.11473434418439865 -0.7364341020584106 0.007751941680908203
0.11519311368465424 -0.7364341020584106 0.02325582504272461
0.11345252394676208 -0.7364341020584106 0.038759708404541016
0.10892953723669052 -0.7364341020584106 0.05426359176635742
0.10127805173397064 -0.7364341020584106 0.06976747512817383
0.10879382491111755 -0.7209302186965942 -0.038759708404541016
0.10832975804805756 -0.7209302186965942 0.08527135848999023
0.10616327822208405 -0.7054263353347778 -0.05426359176635742
0.10982786118984222 -0.7054263353347778 0.10077524185180664
0.10177934169769287 -0.6899224519729614 -0.06976741552352905
0.11060339212417603 -0.6899224519729614 0.11627912521362305
0.10144999623298645 -0.6899224519729614 0.1317828893661499
0.1104893684387207 -0.674418568611145 -0.06976741552352905
0.11110784858465195 -0.674418568611145 0.1317828893661499
0.1008235290646553 -0.674418568611145 0.1472867727279663
0.10318228602409363 -0.6589146852493286 -0.08527129888534546
0.11073184013366699 -0.6589146852493286 0.1472867727279663
0.10859400033950806 -0.643410861492157 -0.08527129888534546
0.10786131024360657 -0.643410861492157 0.16279065608978271
0.11018173396587372 -0.6279069781303406 -0.08527129888534546
0.11325664818286896 -0.6279069781303406 0.16279065608978271
0.10963979363441467 -0.6124030947685242 -0.08527129888534546
0.10635310411453247 -0.6124030947685242 0.17829453945159912
0.10689860582351685 -0.5968992114067078 -0.08527129888534546
0.10953731089830399 -0.5968992114067078 0.17829453945159912
0.10306036472320557 -0.5813953876495361 -0.08527129888534546
0.11109183728694916 -0.5813953876495361 0.17829453945159912
0.11087682843208313 -0.5658915042877197 -0.06976741552352905
0.11282621324062347 -0.5658915042877197 0.17829453945159912
0.10241743177175522 -0.5503876209259033 -0.06976741552352905
0.11588677763938904 -0.5503876209259033 -0.05426359176635742
0.11469520628452301 -0.5503876209259033 0.17829453945159912
0.10728338360786438 -0.5348837375640869 -0.05426359176635742
0.10548143088817596 -0.5193798542022705 -0.05426359176635742
0.10166855901479721 -0.5193798542022705 0.19379842281341553
0.10518975555896759 -0.5038759708404541 -0.05426359176635742
0.10323207080364227 -0.5038759708404541 0.19379842281341553
0.10500745475292206 -0.4883720874786377 -0.05426359176635742
0.10481254011392593 -0.4883720874786377 0.19379842281341553
0.10816898941993713 -0.4728682041168213 -0.05426359176635742
0.10544861853122711 -0.4728682041168213 0.19379840791225433
0.11059810221195221 -0.4573643207550049 -0.06976741552352905
0.10526159405708313 -0.4573643207550049 0.19379842281341553
0.10382292419672012 -0.44186046719551086 0.19379843771457672
0.1084013357758522 -0.42635661363601685 -0.10077518224716187
0.10146253556013107 -0.42635661363601685 0.19379842281341553
0.11073620617389679 -0.41085273027420044 0.17829453945159912
0.10538125783205032 -0.39534884691238403 0.17829453945159912
0.11063273251056671 -0.3798449635505676 0.16279065608978271
0.11246810108423233 -0.3643410801887512 0.1472867727279663
0.10339337587356567 -0.3643410801887512 0.16279065608978271
0.11250470578670502 -0.3488371968269348 0.1317828893661499
0.10440575331449509 -0.3488371968269348 0.1472867727279663
0.11394018679857254 -0.3333333134651184 0.11627912521362305
0.10463298112154007 -0.3333333134651184 0.1317828893661499
0.10570815205574036 -0.317829430103302 0.11627912521362305
0.10081638395786285 -0.3178294003009796 0.1317828893661499
0.10822398960590363 -0.30232560634613037 0.10077524185180664
0.10184966027736664 -0.30232560634613037 0.11627912521362305
0.10278188437223434 -0.28682172298431396 -0.11627906560897827
0.11149048805236816 -0.28682172298431396 0.08527135848999023
0.10300620645284653 -0.28682172298431396 0.10077524185180664
0.10662221908569336 -0.27131783962249756 -0.11627906560897827
0.11108669638633728 -0.27131783962249756 0.06976747512817383
0.1036682203412056 -0.27131783962249756 0.08527135848999023
0.11017561703920364 -0.25581395626068115 -0.11627906560897827
0.11587055772542953 -0.25581395626068115 0.02325582504272461
0.11218268424272537 -0.25581395626068115 0.038759708404541016
0.10785691440105438 -0.25581395626068115 0.05426359176635742
0.10317330062389374 -0.25581395626068115 0.06976747512817383
0.11308504641056061 -0.24031007289886475 -0.11627906560897827
0.11224083602428436 -0.24031007289886475 0.007751941680908203
0.10603564232587814 -0.24031007289886475 0.02325582504272461
0.10351775586605072 -0.24031007289886475 0.038759708404541016
0.10129523277282715 -0.24031007289886475 0.05426359176635742
0.1147209107875824 -0.22480618953704834 -0.11627906560897827
0.10177065432071686 -0.22480618953704834 0.007751941680908203
0.11528808623552322 -0.20930230617523193 -0.11627906560897827
0.11016105115413666 -0.20930230617523193 -0.007751941680908203
0.11042691022157669 -0.1627907156944275 -0.11627906560897827
0.11564451456069946 -0.14728683233261108 -0.02325582504272461
0.10114847868680954 -0.14728683233261108 -0.007751941680908203
0.1016916036605835 -0.13178294897079468 -0.10077518224716187
0.11474623531103134 -0.13178294897079468 -0.08527129888534546
0.11360543221235275 -0.13178294897079468 -0.038759708404541016
0.10917232930660248 -0.13178294897079468 -0.02325582504272461
0.10579385608434677 -0.13178294897079468 -0.007751941680908203
0.10087624937295914 -0.13178294897079468 0.007751941680908203
0.1151166707277298 -0.11627906560897827 -0.10077518224716187
0.11214444041252136 -0.11627906560897827 0.02325582504272461
0.1083453819155693 -0.11627906560897827 0.038759708404541016
0.10516612231731415 -0.11627906560897827 0.05426359176635742
0.10205218195915222 -0.11627906560897827 0.06976747512817383
0.11468586325645447 -0.10077518224716187 -0.11627906560897827
0.11180875450372696 -0.10077518224716187 0.08527135848999023
0.10270743817090988 -0.10077518224716187 0.10077524185180664
0.11526292562484741 -0.08527129888534546 0.10077524185180664
0.10239267349243164 -0.08527129888534546 0.11627912521362305
0.101202592253685 -0.06976741552352905 -0.13178294897079468
0.11064310371875763 -0.06976741552352905 0.11627912521362305
0.1057157889008522 -0.05426359176635742 -0.13178294897079468
0.11609482765197754 -0.05426359176635742 0.11627912521362305
0.10128593444824219 -0.05426359176635742 0.1317828893661499
0.10869254171848297 -0.038759708404541016 -0.13178294897079468
0.1052699014544487 -0.038759708404541016 0.1317828893661499
0.11024032533168793 -0.02325582504272461 -0.13178294897079468
0.10790926218032837 -0.02325582504272461 0.1317828893661499
0.11035346239805222 -0.007751941680908203 -0.13178294897079468
0.1097254753112793 -0.007751941680908203 0.1317828893661499
0.10936976969242096 0.007751941680908203 -0.13178294897079468
0.10906320810317993 0.007751941680908203 0.1317828893661499
0.10639125108718872 0.02325582504272461 -0.13178294897079468
0.10631177574396133 0.02325582504272461 0.1317828893661499
0.10198120772838593 0.038759708404541016 -0.13178294897079468
0.11453362554311752 0.038759708404541016 0.11627912521362305
0.1021522581577301 0.038759708404541016 0.1317828893661499
0.10757763683795929 0.05426359176635742 0.11627912521362305
0.11605929583311081 0.06976747512817383 -0.11627906560897827
0.11096419394016266 0.06976747512817383 0.10077524185180664
0.10724363476037979 0.08527135848999023 -0.11627906560897827
0.11237002909183502 0.08527135848999023 0.08527135848999023
0.1017848551273346 0.08527135848999023 0.10077524185180664
0.10912884771823883 0.10077524185180664 0.06976747512817383
0.1012849435210228 0.10077524185180664 0.08527135848999023
0.11022451519966125 0.11627912521362305 0.05426359176635742
0.10664956271648407 0.1317828893661499 0.05426359176635742
0.114348404109478 0.1472867727279663 0.038759708404541016
0.10927211493253708 0.16279065608978271 -0.10077518224716187
0.11174100637435913 0.16279065608978271 0.02325582504272461
0.11372912675142288 0.17829453945159912 -0.007751941680908203
0.10271516442298889 0.17829453945159912 0.007751941215246916
0.11755003035068512 -0.7209302186965942 -0.02325582504272461
0.12173514813184738 -0.7209302186965942 -0.007751941680908203
0.1262253373861313 -0.7209302186965942 0.007751941680908203
0.12760046124458313 -0.7209302186965942 0.02325582504272461
0.12577861547470093 -0.7209302186965942 0.038759708404541016
0.12200381606817245 -0.7209302186965942 0.05426359176635742
0.11667761951684952 -0.7209302186965942 0.06976747512817383
0.11854168027639389 -0.7054263949394226 -0.038759708404541016
0.1243157684803009 -0.7054263353347778 -0.02325582504272461
0.12586316466331482 -0.7054263353347778 0.06976747512817383
0.11897311359643936 -0.7054263353347778 0.08527135848999023
0.11684870719909668 -0.6899224519729614 -0.05426359176635742
0.12419900298118591 -0.6899224519729614 -0.038759708404541016
0.12635290622711182 -0.6899224519729614 0.08527135848999023
0.11941774189472198 -0.6899224519729614 0.10077524185180664
0.12283988296985626 -0.674418568611145 -0.05426359176635742
0.12624254822731018 -0.674418568611145 0.10077524185180664
0.11975409835577011 -0.674418568611145 0.11627912521362305
0.11913063377141953 -0.6589146852493286 -0.06976741552352905
0.13099946081638336 -0.6589146852493286 -0.05426359176635742
0.12620386481285095 -0.6589146852493286 0.11627912521362305
0.11970435827970505 -0.6589146852493286 0.1317828893661499
0.12386944890022278 -0.643410861492157 -0.06976741552352905
0.1256142258644104 -0.643410861492157 0.1317828893661499
0.117948979139328 -0.643410861492157 0.1472867727279663
0.12537521123886108 -0.6279069781303406 -0.06976741552352905
0.12984006106853485 -0.6279069781303406 0.1317828893661499
0.12353687733411789 -0.6279069781303406 0.1472867727279663
0.12454914301633835 -0.6124030947685242 -0.06976741552352905
0.1263716220855713 -0.6124030947685242 0.1472867727279663
0.1181742399930954 -0.6124030947685242 0.16279065608978271
0.1212802529335022 -0.5968992114067078 -0.06976741552352905
0.12829945981502533 -0.5968992114067078 0.1472867727279663
0.12108641862869263 -0.5968992114067078 0.16279065608978271
0.11779607087373734 -0.5813953876495361 -0.06976741552352905
0.12734860181808472 -0.5813953876495361 -0.05426359176635742
0.1307411938905716 -0.5813953876495361 0.1472867727279663
0.12278106808662415 -0.5813953876495361 0.16279065608978271
0.12119187414646149 -0.5658915042877197 -0.05426359176635742
0.13143117725849152 -0.5658915042877197 -0.038759708404541016
0.12418018281459808 -0.5658915042877197 0.16279065608978271
0.12344799190759659 -0.5503876209259033 -0.038759708404541016
0.12546885013580322 -0.5503876209259033 0.16279065608978271
0.11929839849472046 -0.5348837375640869 -0.038759708404541016
0.12723109126091003 -0.5348837375640869 0.16279065608978271
0.11670137941837311 -0.5348837375640869 0.17829453945159912
0.11847031116485596 -0.5193798542022705 -0.038759708404541016
0.13040129840373993 -0.5193798542022705 0.16279065608978271
0.11802957206964493 -0.5193798542022705 0.17829453945159912
0.11814586073160172 -0.5038759708404541 -0.038759708404541016
0.11920910328626633 -0.5038759708404541 0.17829453945159912
0.11759227514266968 -0.4883720874786377 -0.038759708404541016
0.13115830719470978 -0.4883720874786377 -0.02325582504272461
0.1203569769859314 -0.4883720874786377 0.17829453945159912
