-0.14728683233261108 0.4418604373931885 0.11252502351999283
-0.14728683233261108 0.4418604373931885 0.17187123000621796
-0.14728683233261108 0.4573643207550049 -0.14031855762004852
-0.14728683233261108 0.4573643207550049 -0.10125826299190521
-0.14728683233261108 0.4573643207550049 0.10427913814783096
-0.14728683233261108 0.4573643207550049 0.16449278593063354
-0.14728683233261108 0.4728682339191437 -0.14302140474319458
-0.14728683233261108 0.4728681743144989 -0.0843685194849968
-0.14728683233261108 0.4728682041168213 0.09649570286273956
-0.14728683233261108 0.4728682041168213 0.15614837408065796
-0.14728683233261108 0.4883720874786377 -0.1425829976797104
-0.14728683233261108 0.4883720874786377 -0.06807168573141098
-0.14728683233261108 0.4883720874786377 0.08994784951210022
-0.14728684723377228 0.4883720874786377 0.14938180148601532
-0.14728683233261108 0.5038759708404541 -0.14002303779125214
-0.14728683233261108 0.5038759708404541 -0.06273942440748215
-0.14728683233261108 0.5038759708404541 0.08387238532304764
-0.14728683233261108 0.5038759708404541 0.14139103889465332
-0.14728683233261108 0.5193798542022705 -0.13550883531570435
-0.14728683233261108 0.5193798542022705 -0.064232736825943
-0.14728683233261108 0.5193798542022705 0.07841352373361588
-0.14728683233261108 0.5193798542022705 0.13620439171791077
-0.14728683233261108 0.5348837375640869 -0.13274332880973816
-0.14728683233261108 0.5348837375640869 -0.06915368139743805
-0.14728683233261108 0.5348837375640869 0.07356227189302444
-0.14728683233261108 0.5348837375640869 0.1287747621536255
-0.14728683233261108 0.5503876209259033 -0.12773017585277557
-0.14728683233261108 0.5503876209259033 -0.07534568011760712
-0.14728683233261108 0.5503876209259033 0.07031498849391937
-0.14728683233261108 0.5503876209259033 0.12436896562576294
-0.14728683233261108 0.5658915042877197 -0.12137490510940552
-0.14728683233261108 0.5658915042877197 -0.0791100561618805
-0.14728683233261108 0.5658915042877197 0.06642453372478485
-0.14728683233261108 0.5658915042877197 0.11938172578811646
-0.14728683233261108 0.5813953876495361 -0.1170886680483818
-0.14728683233261108 0.5813953876495361 -0.08016922324895859
-0.14728683233261108 0.5813953876495361 0.0626220703125
-0.14728683233261108 0.5813953876495361 0.11194070428609848
-0.14728683233261108 0.5968992710113525 -0.10546329617500305
-0.14728683233261108 0.5968992710113525 -0.07785168290138245
-0.14728683233261108 0.5968992710113525 0.05760509520769119
-0.14728683233261108 0.5968992710113525 0.1076246052980423
-0.14728683233261108 0.612403154373169 -0.0942717045545578
-0.14728683233261108 0.612403154373169 -0.0743764266371727
-0.14728683233261108 0.612403154373169 0.053297292441129684
-0.14728683233261108 0.612403154373169 0.10037493705749512
-0.14728683233261108 0.6279069185256958 -0.08758594840765
-0.14728683233261108 0.6279069185256958 -0.07149191200733185
-0.14728683233261108 0.6279069185256958 0.050176892429590225
-0.14728683233261108 0.6279069185256958 0.09454844892024994
-0.14728683233261108 0.6434108018875122 -0.07434511184692383
-0.14728683233261108 0.6434108018875122 -0.0681331530213356
-0.14728683233261108 0.6434108018875122 0.04972570762038231
-0.14728683233261108 0.6434108018875122 0.09154097735881805
-0.14728683233261108 0.6589146852493286 -0.07162062078714371
-0.1472868174314499 0.6589146852493286 -0.06756731122732162
-0.14728683233261108 0.6589146852493286 0.05075337737798691
-0.14728683233261108 0.6589146852493286 0.08896294981241226
-0.14728683233261108 0.674418568611145 -0.0712619423866272
-0.14728683233261108 0.674418568611145 -0.06730183959007263
-0.14728683233261108 0.674418568611145 0.051974937319755554
-0.14728683233261108 0.674418568611145 0.08784879744052887
-0.14728683233261108 0.6899224519729614 -0.0714145079255104
-0.14728683233261108 0.6899224519729614 -0.06680287420749664
-0.14728683233261108 0.6899224519729614 0.05348528176546097
-0.14728683233261108 0.6899224519729614 0.08826281875371933
-0.14728683233261108 0.7054263353347778 -0.07198016345500946
-0.14728683233261108 0.7054263353347778 -0.0657842606306076
-0.14728683233261108 0.7054263353347778 0.05459127947688103
-0.14728683233261108 0.7054263949394226 0.08885402977466583
-0.14728683233261108 0.7209302186965942 -0.07265058159828186
-0.14728683233261108 0.7209302186965942 -0.06462179869413376
-0.14728683233261108 0.7209302186965942 0.05514638498425484
-0.14728683233261108 0.7209302186965942 0.08874624967575073
-0.14728683233261108 0.7364341020584106 -0.07339436560869217
-0.14728683233261108 0.7364341020584106 -0.06357868015766144
-0.14728684723377228 0.7364341020584106 0.05515049397945404
-0.14728683233261108 0.7364340424537659 0.08724497258663177
-0.14728683233261108 0.751937985420227 -0.07394663989543915
-0.14728683233261108 0.751937985420227 -0.062098316848278046
-0.14728683233261108 0.751937985420227 0.052397504448890686
-0.14728683233261108 0.751937985420227 0.08240930736064911
-0.14728683233261108 0.7674418687820435 -0.07429961860179901
-0.14728683233261108 0.7674418687820435 -0.05922119691967964
-0.14728683233261108 0.7674418687820435 0.044089388102293015
-0.14728683233261108 0.7674418687820435 0.07847566157579422
-0.14728683233261108 0.7829457521438599 -0.07456093281507492
-0.14728683233261108 0.7829457521438599 -0.055028051137924194
-0.14728683233261108 0.7829457521438599 0.03876783698797226
-0.14728683233261108 0.7829457521438599 0.07107288390398026
-0.14728683233261108 0.7984496355056763 -0.07431116700172424
-0.14728683233261108 0.7984496355056763 -0.047576408833265305
-0.14728683233261108 0.7984496355056763 0.026058772578835487
-0.14728683233261108 0.7984496355056763 0.063807412981987
-0.14728683233261108 0.8139535188674927 -0.07250948250293732
-0.14728683233261108 0.8139535188674927 -0.03749885782599449
-0.14728683233261108 0.8139535188674927 0.012017030268907547
-0.14728683233261108 0.8139535188674927 0.053809963166713715
-0.14728683233261108 0.8294574022293091 -0.06845517456531525
-0.14728683233261108 0.8294574022293091 0.04670511558651924
-0.14728683233261108 0.8449612855911255 -0.06152354180812836
-0.14728683233261108 0.8449612855911255 0.03556303679943085
-0.14728683233261108 0.8604651689529419 -0.05454358831048012
-0.14728683233261108 0.8604651689529419 0.022652113810181618
-0.14728683233261108 0.8759689331054688 -0.039308227598667145
-0.14728683233261108 0.8759689331054688 0.004824372939765453
-0.13178294897079468 -0.9844961166381836 0.05259459465742111
-0.13178294897079468 -0.9844960570335388 0.0895288810133934
-0.13178294897079468 -0.9689922332763672 0.041255854070186615
-0.13178294897079468 -0.9689922332763672 0.10306411236524582
-0.13178294897079468 -0.9534883499145508 0.03616844117641449
-0.13178294897079468 -0.9534883499145508 0.11089678108692169
-0.13178294897079468 -0.9379844665527344 0.034160830080509186
-0.13178294897079468 -0.9379844665527344 0.1159333810210228
-0.13178294897079468 -0.9224806427955627 0.03297651186585426
-0.13178294897079468 -0.9224807024002075 0.06717947125434875
-0.13178294897079468 -0.9224806427955627 0.08409145474433899
-0.13178294897079468 -0.9224807024002075 0.1227864921092987
-0.13178294897079468 -0.9069768190383911 0.028769373893737793
-0.13178294897079468 -0.9069767594337463 0.06072266399860382
-0.13178294897079468 -0.9069768190383911 0.09443876147270203
-0.13178294897079468 -0.9069767594337463 0.12556546926498413
-0.13178294897079468 -0.8914728164672852 0.02198113314807415
-0.13178294897079468 -0.8914728760719299 0.05565107613801956
-0.13178294897079468 -0.8914728760719299 0.10299773514270782
-0.13178294897079468 -0.8914728760719299 0.13182051479816437
-0.13178294897079468 -0.8759690523147583 0.020587557926774025
-0.13178294897079468 -0.8759689927101135 0.05133991688489914
-0.13178294897079468 -0.8759689331054688 0.11027702689170837
-0.13178294897079468 -0.8759689331054688 0.13631799817085266
-0.13178294897079468 -0.8604650497436523 0.018176138401031494
-0.13178294897079468 -0.8604651093482971 0.04684966802597046
-0.13178296387195587 -0.8604651093482971 0.11692027747631073
-0.13178294897079468 -0.8604651093482971 0.1386396884918213
-0.13178294897079468 -0.8449611663818359 0.011267564259469509
-0.13178294897079468 -0.8449612259864807 0.042581118643283844
-0.13178294897079468 -0.8449612855911255 0.11802414804697037
-0.13178294897079468 -0.8449612259864807 0.13929662108421326
-0.13178294897079468 -0.8294573426246643 0.006476708687841892
-0.13178294897079468 -0.8294573426246643 0.03883352130651474
-0.13178294897079468 -0.8294572830200195 0.11892474442720413
-0.13178294897079468 -0.8294573426246643 0.13985145092010498
-0.13178294897079468 -0.8139535188674927 0.004632505588233471
-0.13178294897079468 -0.8139535188674927 0.037186238914728165
-0.13178294897079468 -0.8139535188674927 0.11943721026182175
-0.13178294897079468 -0.8139535188674927 0.14549343287944794
-0.13178294897079468 -0.7984496355056763 0.002468019723892212
-0.13178294897079468 -0.7984496355056763 0.03556892275810242
-0.13178294897079468 -0.7984496355056763 0.11861095577478409
-0.13178294897079468 -0.7984496355056763 0.14872826635837555
-0.13178294897079468 -0.7829457521438599 0.0016237301751971245
-0.13178294897079468 -0.7829457521438599 0.034142691642045975
-0.13178294897079468 -0.7829457521438599 0.1158275380730629
-0.13178294897079468 -0.7829457521438599 0.14984090626239777
-0.13178294897079468 -0.7674418687820435 0.003610308514907956
-0.13178294897079468 -0.7674418687820435 0.03364389389753342
-0.13178294897079468 -0.7674418687820435 0.10723413527011871
-0.13178294897079468 -0.7674419283866882 0.15075162053108215
-0.13178294897079468 -0.751937985420227 0.00713609904050827
-0.13178294897079468 -0.751937985420227 0.03488844633102417
-0.13178294897079468 -0.751937985420227 0.10200649499893188
-0.13178294897079468 -0.751937985420227 0.15139345824718475
-0.13178294897079468 -0.7364341020584106 0.01985132321715355
-0.13178294897079468 -0.7364341020584106 0.0442289374768734
-0.13178294897079468 -0.7364341020584106 0.0983557477593422
-0.13178294897079468 -0.7364341020584106 0.15154607594013214
-0.13178294897079468 -0.7209302186965942 0.027962589636445045
-0.13178294897079468 -0.7209302186965942 0.06656813621520996
-0.13178294897079468 -0.7209302186965942 0.09308980405330658
-0.13178294897079468 -0.7209302186965942 0.15139319002628326
-0.13178294897079468 -0.7054263353347778 0.034994937479496
-0.13178294897079468 -0.7054263353347778 0.15124639868736267
-0.13178294897079468 -0.6899224519729614 0.03798315301537514
-0.13178294897079468 -0.6899224519729614 0.15099471807479858
-0.13178294897079468 -0.674418568611145 0.04069843515753746
-0.13178294897079468 -0.674418568611145 0.15043796598911285
-0.13178294897079468 -0.6589146852493286 0.041691429913043976
-0.13178294897079468 -0.6589146852493286 0.1498461812734604
-0.13178294897079468 -0.643410861492157 0.038202784955501556
-0.13178294897079468 -0.643410861492157 0.14931103587150574
-0.13178294897079468 -0.6279069781303406 0.035919614136219025
-0.13178294897079468 -0.6279069781303406 0.14887073636054993
-0.13178294897079468 -0.6124030947685242 0.03207291662693024
-0.13178294897079468 -0.6124030351638794 0.14840087294578552
-0.13178294897079468 -0.5968992114067078 0.028139114379882812
-0.13178294897079468 -0.5968992114067078 0.1476190835237503
-0.13178294897079468 -0.5813953876495361 -0.011360004544258118
-0.13178294897079468 -0.5813953876495361 3.4555792808532715e-05
-0.13178294897079468 -0.5813953876495361 0.07698065042495728
-0.13178294897079468 -0.5813953876495361 0.14322397112846375
-0.13178294897079468 -0.5658915042877197 -0.036873407661914825
-0.13178294897079468 -0.5658915042877197 0.005270268768072128
-0.13178294897079468 -0.5658915042877197 0.10395447164773941
-0.13178294897079468 -0.5658915042877197 0.14038947224617004
-0.13178294897079468 -0.5503876209259033 -0.04191555827856064
-0.13178294897079468 -0.5503876209259033 0.0034444229677319527
-0.13178294897079468 -0.5503876209259033 0.10794801265001297
-0.13178294897079468 -0.5503876209259033 0.13889876008033752
-0.13178294897079468 -0.5348837375640869 -0.04052707552909851
-0.13178294897079468 -0.5348837375640869 -0.008288567885756493
-0.13178294897079468 -0.5348837375640869 0.11038710176944733
-0.13178294897079468 -0.5348837375640869 0.13757643103599548
-0.13178294897079468 -0.5193798542022705 0.1109200119972229
-0.13178294897079468 -0.5193798542022705 0.13633182644844055
-0.13178294897079468 -0.5038759708404541 0.11128844320774078
-0.13178294897079468 -0.5038759708404541 0.1357961744070053
-0.13178294897079468 -0.4883720874786377 0.11254319548606873
-0.13178294897079468 -0.4883720874786377 0.13638436794281006
-0.13178294897079468 -0.4728682041168213 0.11528408527374268
-0.13178294897079468 -0.4728682339191437 0.13792487978935242
-0.13178294897079468 -0.4573643207550049 0.1222391277551651
-0.13178294897079468 -0.4573643207550049 0.141556054353714
-0.13178294897079468 -0.4418604373931885 0.12695229053497314
-0.13178294897079468 -0.4418604373931885 0.1477237045764923
-0.13178294897079468 -0.42635661363601685 0.1372024416923523
-0.13178294897079468 -0.42635664343833923 0.15108785033226013
-0.13178294897079468 -0.41085273027420044 0.14118020236492157
-0.13178294897079468 -0.41085273027420044 0.1568058282136917
-0.13178294897079468 -0.39534884691238403 0.15015709400177002
-0.13178294897079468 -0.39534884691238403 0.16647015511989594
-0.13178294897079468 -0.3798449635505676 0.15653599798679352
-0.13178294897079468 -0.3798449635505676 0.17586499452590942
-0.13178294897079468 -0.36434105038642883 0.16754496097564697
-0.13178294897079468 -0.3643410801887512 0.18550695478916168
-0.13178294897079468 -0.3488371968269348 0.1730192005634308
-0.13178294897079468 -0.3488371968269348 0.199497789144516
-0.13178294897079468 -0.3333333134651184 0.18265913426876068
-0.13178294897079468 -0.3333333134651184 0.21400484442710876
-0.13178294897079468 -0.317829430103302 0.1922440081834793
-0.13178294897079468 -0.317829430103302 0.22885046899318695
-0.13178294897079468 -0.30232560634613037 0.20399132370948792
-0.13178294897079468 -0.30232560634613037 0.24409064650535583
-0.13178294897079468 -0.28682172298431396 0.21670475602149963
-0.13178294897079468 -0.28682172298431396 0.2585057318210602
-0.13178294897079468 -0.27131783962249756 0.22876401245594025
-0.13178294897079468 -0.27131783962249756 0.2692956030368805
-0.13178294897079468 -0.25581395626068115 0.23809432983398438
-0.13178294897079468 -0.25581395626068115 0.2798979878425598
-0.13178294897079468 -0.24031007289886475 0.24727335572242737
-0.13178294897079468 -0.24031007289886475 0.2883535623550415
-0.13178294897079468 -0.22480618953704834 0.25425344705581665
-0.13178294897079468 -0.22480618953704834 0.29513007402420044
-0.13178294897079468 -0.20930230617523193 0.2606523334980011
-0.13178294897079468 -0.20930230617523193 0.2994367480278015
-0.13178294897079468 -0.19379842281341553 0.26602208614349365
-0.13178294897079468 -0.19379842281341553 0.30771636962890625
-0.13178294897079468 -0.1782945990562439 0.2716681957244873
-0.13178294897079468 -0.1782945990562439 0.3116365373134613
-0.13178294897079468 -0.1627907156944275 0.2758016884326935
-0.13178294897079468 -0.1627907156944275 0.3178632855415344
-0.13178294897079468 -0.14728683233261108 0.2784866690635681
-0.13178294897079468 -0.14728683233261108 0.32443028688430786
-0.13178294897079468 -0.13178294897079468 0.28051671385765076
-0.13178294897079468 -0.13178294897079468 0.3283694386482239
-0.13178294897079468 -0.11627906560897827 0.28242629766464233
-0.13178294897079468 -0.11627906560897827 0.333498477935791
-0.13178294897079468 -0.10077518224716187 0.2833412289619446
-0.13178294897079468 -0.10077518969774246 0.33740946650505066
-0.13178294897079468 -0.08527129888534546 0.28344452381134033
-0.13178294897079468 -0.08527129888534546 0.33984631299972534
-0.13178294897079468 -0.06976741552352905 0.2831988036632538
-0.13178294897079468 -0.06976741552352905 0.3414008915424347
-0.13178294897079468 -0.05426359176635742 0.28240400552749634
-0.13178294897079468 -0.05426359176635742 0.3428103029727936
-0.13178294897079468 -0.038759708404541016 0.28084439039230347
-0.13178294897079468 -0.038759708404541016 0.34378620982170105
-0.13178294897079468 -0.02325582504272461 0.2788805067539215
-0.13178294897079468 -0.02325582504272461 0.3444380760192871
-0.13178294897079468 -0.007751941680908203 0.27726176381111145
-0.13178294897079468 -0.007751941680908203 0.34447309374809265
-0.13178294897079468 0.00775194214656949 0.2779320478439331
-0.13178294897079468 0.007751941680908203 0.3437943458557129
-0.13178294897079468 0.02325582504272461 0.27885138988494873
-0.13178294897079468 0.02325582504272461 0.34230101108551025
-0.13178294897079468 0.038759708404541016 0.2803897559642792
-0.13178294897079468 0.038759708404541016 0.3404604494571686
-0.13178294897079468 0.05426359176635742 0.2814159393310547
-0.13178294897079468 0.05426359176635742 0.33741286396980286
-0.13178294897079468 0.06976747512817383 0.28159651160240173
-0.13178294897079468 0.06976747512817383 0.3317490518093109
-0.13178294897079468 0.08527135848999023 0.28127190470695496
-0.13178294897079468 0.08527135848999023 0.3268209993839264
-0.13178294897079468 0.10077524185180664 0.28054022789001465
-0.13178294897079468 0.10077524185180664 0.3228510618209839
-0.13178294897079468 0.11627912521362305 0.2789718210697174
-0.13178294897079468 0.11627912521362305 0.3157139718532562
-0.13178294897079468 0.1317828893661499 0.27497217059135437
-0.13178294897079468 0.1317828893661499 0.3114550709724426
-0.13178294897079468 0.1472867727279663 0.2690536081790924
-0.13178294897079468 0.1472867727279663 0.30867859721183777
-0.13178294897079468 0.16279065608978271 0.26116323471069336
-0.13178294897079468 0.16279065608978271 0.3033958971500397
-0.13178294897079468 0.17829453945159912 0.2513279914855957
-0.13178294897079468 0.17829453945159912 0.2973865866661072
-0.13178294897079468 0.19379842281341553 0.24397897720336914
-0.13178294897079468 0.19379842281341553 0.2938997447490692
-0.13178294897079468 0.20930230617523193 0.23773342370986938
-0.13178293406963348 0.20930230617523193 0.2870316803455353
-0.13178294897079468 0.22480618953704834 0.23169752955436707
-0.13178294897079468 0.22480618953704834 0.28062430024147034
-0.13178294897079468 0.24031007289886475 0.22578439116477966
-0.13178294897079468 0.24031007289886475 0.2756327688694
-0.13178294897079468 0.25581395626068115 0.21786364912986755
-0.13178294897079468 0.25581395626068115 0.266741007566452
-0.13178294897079468 0.27131783962249756 0.21182148158550262
-0.13178294897079468 0.27131783962249756 0.26200181245803833
-0.13178294897079468 0.28682172298431396 0.2043725550174713
-0.13178294897079468 0.28682172298431396 0.2526826858520508
-0.13178294897079468 0.30232560634613037 0.19698207080364227
-0.13178294897079468 0.30232560634613037 0.24759331345558167
-0.13178294897079468 0.3178294897079468 0.18812403082847595
-0.13178294897079468 0.3178294897079468 0.23884448409080505
-0.13178294897079468 0.3333333730697632 0.1796455979347229
-0.13178294897079468 0.3333333730697632 0.23293980956077576
-0.13178294897079468 0.3488372564315796 0.16842758655548096
-0.13178294897079468 0.3488372564315796 0.22488561272621155
-0.13178294897079468 0.364341139793396 0.15783759951591492
-0.13178294897079468 0.364341139793396 0.2176017016172409
-0.13178294897079468 0.37984493374824524 0.14770811796188354
-0.13178294897079468 0.37984490394592285 0.20912912487983704
-0.13178294897079468 0.39534878730773926 0.13934950530529022
-0.13178294897079468 0.39534878730773926 0.20198769867420197
-0.13178294897079468 0.41085267066955566 0.13061240315437317
-0.13178294897079468 0.41085267066955566 0.1939675211906433
-0.13178294897079468 0.42635655403137207 0.12155938148498535
-0.13178294897079468 0.42635655403137207 0.18616139888763428
-0.13178294897079468 0.4418604373931885 -0.1330944150686264
-0.13178294897079468 0.4418604373931885 -0.10168790817260742
-0.13178294897079468 0.4418604373931885 0.11280415952205658
-0.13178294897079468 0.4418604373931885 0.17681892216205597
-0.13178294897079468 0.4573643207550049 -0.13809221982955933
-0.13178294897079468 0.4573643207550049 -0.07989189773797989
-0.13178294897079468 0.4573643207550049 0.10455820709466934
-0.13178294897079468 0.4573643207550049 0.16986653208732605
-0.13178294897079468 0.4728682041168213 -0.13937611877918243
-0.13178294897079468 0.4728682041168213 -0.06496694684028625
-0.13178294897079468 0.4728682041168213 0.09689357876777649
-0.13178294897079468 0.4728682041168213 0.16068850457668304
-0.13178294897079468 0.4883720874786377 -0.13874877989292145
-0.13178294897079468 0.4883720874786377 -0.05990774929523468
-0.13178294897079468 0.4883720874786377 0.09051378071308136
-0.13178294897079468 0.4883721172809601 0.15445013344287872
-0.13178294897079468 0.5038759708404541 -0.13661690056324005
-0.13178294897079468 0.5038759708404541 -0.05993642657995224
-0.13178294897079468 0.5038759708404541 0.08490914851427078
-0.13178294897079468 0.5038759708404541 0.14692969620227814
-0.13178294897079468 0.5193798542022705 -0.1342933624982834
-0.13178294897079468 0.5193798542022705 -0.06463787704706192
-0.13178294897079468 0.5193798542022705 0.0799175351858139
-0.13178294897079468 0.5193798542022705 0.14039075374603271
-0.13178294897079468 0.5348837375640869 -0.13291582465171814
-0.13178294897079468 0.5348837375640869 -0.07094067335128784
-0.13178294897079468 0.5348837375640869 0.07619477063417435
-0.13178294897079468 0.5348837375640869 0.13557986915111542
-0.13178294897079468 0.5503876209259033 -0.13093234598636627
-0.13178294897079468 0.5503876209259033 -0.07735924422740936
-0.13178294897079468 0.5503876209259033 0.07485729455947876
-0.13178294897079468 0.5503876209259033 0.1292230784893036
-0.13178294897079468 0.5658915042877197 -0.12350286543369293
-0.13178294897079468 0.5658915042877197 -0.08122535049915314
-0.13178294897079468 0.5658915042877197 0.07178941369056702
-0.13178294897079468 0.5658915042877197 0.12468981742858887
-0.13178294897079468 0.5813953876495361 -0.11828531324863434
-0.13178294897079468 0.5813953876495361 -0.08223046362400055
-0.13178294897079468 0.5813953876495361 0.06783165782690048
-0.13178294897079468 0.5813953876495361 0.12055135518312454
-0.13178294897079468 0.5968992710113525 -0.1076425164937973
-0.13178294897079468 0.5968992710113525 -0.07972176373004913
-0.13178294897079468 0.5968992710113525 0.06307715177536011
-0.13178294897079468 0.5968992710113525 0.11295662820339203
-0.13178294897079468 0.612403154373169 -0.09805505722761154
-0.13178294897079468 0.612403154373169 -0.0754830613732338
-0.13178294897079468 0.612403154373169 0.05840814858675003
-0.13178294897079468 0.612403154373169 0.10799173265695572
-0.13178294897079468 0.6279069185256958 -0.08831270784139633
-0.13178294897079468 0.6279069185256958 -0.0723920464515686
-0.13178294897079468 0.6279069185256958 0.05545419454574585
-0.13178294897079468 0.6279069185256958 0.1021127849817276
-0.13178294897079468 0.6434108018875122 -0.07893052697181702
-0.13178294897079468 0.6434108018875122 -0.06799478083848953
-0.13178294897079468 0.6434108018875122 0.055194199085235596
-0.13178294897079468 0.6434108018875122 0.09651888906955719
-0.13178294897079468 0.6589146852493286 -0.07268986105918884
-0.13178294897079468 0.6589146852493286 -0.06669467687606812
-0.13178294897079468 0.6589146852493286 0.05631908029317856
-0.13178294897079468 0.6589146852493286 0.09397482872009277
-0.13178294897079468 0.674418568611145 -0.0722319707274437
-0.13178294897079468 0.674418568611145 -0.06619355082511902
-0.13178294897079468 0.674418568611145 0.057320486754179
-0.13178294897079468 0.674418568611145 0.093060702085495
-0.13178294897079468 0.6899224519729614 -0.0723113864660263
-0.13178294897079468 0.6899224519729614 -0.0660523921251297
-0.13178294897079468 0.6899224519729614 0.058553654700517654
-0.13178294897079468 0.6899224519729614 0.09324663132429123
-0.13178294897079468 0.7054263353347778 -0.07278402894735336
-0.13178294897079468 0.7054263353347778 -0.06589891761541367
-0.13178294897079468 0.7054263353347778 0.05975829064846039
-0.13178294897079468 0.7054263353347778 0.09375700354576111
-0.13178294897079468 0.7209302186965942 -0.07345300912857056
-0.13178294897079468 0.7209302186965942 -0.06586188077926636
-0.13178294897079468 0.7209302186965942 0.06069757044315338
-0.13178294897079468 0.7209302186965942 0.0939626395702362
-0.13178294897079468 0.7364341020584106 -0.0743282362818718
-0.13178294897079468 0.7364341020584106 -0.06616430729627609
-0.13178294897079468 0.7364341020584106 0.06066440790891647
-0.13178294897079468 0.7364341020584106 0.09355064481496811
-0.13178294897079468 0.751937985420227 -0.07552988827228546
-0.13178294897079468 0.7519380450248718 -0.06589002907276154
-0.13178294897079468 0.751937985420227 0.05858338624238968
-0.13178294897079468 0.751937985420227 0.09161575138568878
-0.13178294897079468 0.7674418687820435 -0.07638856768608093
-0.13178294897079468 0.7674418687820435 -0.06421992182731628
-0.13178294897079468 0.7674418687820435 0.05588705837726593
-0.13178294897079468 0.7674418687820435 0.08620218187570572
-0.13178294897079468 0.7829457521438599 -0.07700761407613754
-0.13178294897079468 0.7829457521438599 -0.061372675001621246
-0.13178294897079468 0.7829457521438599 0.047359880059957504
-0.13178294897079468 0.7829457521438599 0.07937705516815186
-0.13178294897079468 0.7984496355056763 -0.07724267244338989
-0.13178294897079468 0.7984496355056763 -0.057444579899311066
-0.13178294897079468 0.7984496355056763 0.04035409539937973
-0.13178294897079468 0.7984496355056763 0.07346063107252121
-0.13178294897079468 0.8139535188674927 -0.07672514766454697
-0.13178294897079468 0.8139535784721375 -0.050973206758499146
-0.13178294897079468 0.8139535188674927 0.0286870114505291
-0.13178294897079468 0.8139535188674927 0.06472476571798325
-0.13178294897079468 0.8294574022293091 -0.07579779624938965
-0.13178294897079468 0.8294574022293091 -0.04098283126950264
-0.13178294897079468 0.8294574022293091 0.018227985128760338
-0.13178294897079468 0.8294574022293091 0.05767519772052765
-0.13178294897079468 0.8449612855911255 -0.07391117513179779
-0.13178294897079468 0.8449612855911255 -0.015598020516335964
-0.13178294897079468 0.8449612855911255 -0.003874021116644144
-0.13178294897079468 0.8449612855911255 0.049209870398044586
-0.13178294897079468 0.8604651689529419 -0.07047758996486664
-0.13178294897079468 0.8604651689529419 0.038766589015722275
-0.13178294897079468 0.8759689331054688 -0.06214933842420578
-0.13178294897079468 0.8759689331054688 0.02820809744298458
-0.13178294897079468 0.8914728164672852 -0.05448494106531143
-0.13178294897079468 0.8914728164672852 0.013596671633422375
-0.13178294897079468 0.9069766998291016 -0.040018923580646515
-0.13178294897079468 0.9069767594337463 -0.006886701565235853
-0.11627906560897827 -0.9844961166381836 0.04976052790880203
-0.11627906560897827 -0.9844961166381836 0.09646887332201004
-0.11627906560897827 -0.9689922332763672 0.041062112897634506
-0.11627905815839767 -0.9689922332763672 0.10734973847866058
-0.11627906560897827 -0.9534883499145508 0.03634949028491974
-0.11627906560897827 -0.9534883499145508 0.11226463317871094
-0.11627906560897827 -0.9379844665527344 0.034458450973033905
-0.11627906560897827 -0.9379844665527344 0.1185239851474762
-0.11627906560897827 -0.9224807024002075 0.033139921724796295
-0.11627906560897827 -0.9224806427955627 0.1238991767168045
-0.11627905815839767 -0.9069766998291016 0.02876555174589157
-0.11627906560897827 -0.9069768190383911 0.06463775038719177
-0.11627906560897827 -0.9069768190383911 0.09429322183132172
-0.11627906560897827 -0.9069767594337463 0.1258123219013214
-0.11627906560897827 -0.8914728760719299 0.0220764372497797
-0.11627906560897827 -0.8914728164672852 0.058863602578639984
-0.11627906560897827 -0.8914728760719299 0.10338664054870605
-0.11627907305955887 -0.8914728760719299 0.13285037875175476
-0.11627906560897827 -0.8759689927101135 0.020538073033094406
-0.11627906560897827 -0.8759689927101135 0.05313696339726448
-0.11627906560897827 -0.8759689927101135 0.11124904453754425
-0.11627906560897827 -0.8759689927101135 0.13692152500152588
-0.11627906560897827 -0.8604651093482971 0.01808943785727024
-0.11627906560897827 -0.8604651093482971 0.04900671914219856
-0.11627906560897827 -0.8604650497436523 0.11693408340215683
-0.11627906560897827 -0.8604650497436523 0.13885712623596191
-0.11627906560897827 -0.8449612259864807 0.012457754462957382
-0.11627906560897827 -0.8449612259864807 0.045533545315265656
-0.11627906560897827 -0.8449612259864807 0.11793340742588043
-0.11627906560897827 -0.8449611663818359 0.13938656449317932
-0.11627906560897827 -0.8294573426246643 0.006868406198918819
-0.11627906560897827 -0.8294574022293091 0.04236886650323868
-0.11627905815839767 -0.8294572830200195 0.11882811784744263
-0.11627906560897827 -0.8294573426246643 0.1406063437461853
-0.11627906560897827 -0.8139535188674927 0.005004816688597202
-0.11627906560897827 -0.8139535188674927 0.03925260901451111
-0.11627906560897827 -0.8139535188674927 0.11936669796705246
-0.11627906560897827 -0.8139535784721375 0.14774443209171295
-0.11627906560897827 -0.7984496355056763 0.0025164762046188116
-0.11627906560897827 -0.7984496355056763 0.0369744710624218
-0.11627907305955887 -0.798449695110321 0.11841882765293121
-0.11627906560897827 -0.7984496355056763 0.149399995803833
-0.11627906560897827 -0.7829457521438599 0.0009021873120218515
-0.11627906560897827 -0.7829457521438599 0.034968867897987366
-0.11627906560897827 -0.7829457521438599 0.11478569358587265
-0.11627906560897827 -0.7829457521438599 0.15053682029247284
-0.11627906560897827 -0.7674418687820435 0.0021602839697152376
-0.11627906560897827 -0.7674418687820435 0.0341915637254715
-0.11627906560897827 -0.7674418687820435 0.10644897818565369
-0.11627906560897827 -0.7674418687820435 0.15146157145500183
-0.11627906560897827 -0.751937985420227 0.005964172072708607
-0.11627906560897827 -0.751937985420227 0.03528878465294838
-0.11627906560897827 -0.751937985420227 0.10177875310182571
-0.11627906560897827 -0.751937985420227 0.15211232006549835
-0.11627906560897827 -0.7364341020584106 0.017487946897745132
-0.11627906560897827 -0.7364341020584106 0.045674629509449005
-0.11627906560897827 -0.7364341020584106 0.0990677997469902
-0.11627906560897827 -0.7364341020584106 0.1522825062274933
-0.11627906560897827 -0.7209302186965942 0.022769266739487648
-0.11627906560897827 -0.7209302186965942 0.06598684936761856
-0.11627906560897827 -0.7209302186965942 0.09457269310951233
-0.11627906560897827 -0.7209302186965942 0.15216152369976044
-0.11627906560897827 -0.7054263353347778 0.03296560421586037
-0.11627907305955887 -0.7054263353347778 0.15203605592250824
-0.11627906560897827 -0.6899224519729614 0.036691632121801376
-0.11627906560897827 -0.6899224519729614 0.15183565020561218
-0.11627906560897827 -0.674418568611145 0.038045428693294525
-0.11627906560897827 -0.674418568611145 0.15135164558887482
-0.11627906560897827 -0.6589146852493286 0.038299255073070526
-0.11627906560897827 -0.6589146852493286 0.1507907211780548
-0.11627906560897827 -0.6434108018875122 0.03686369210481644
-0.11627906560897827 -0.643410861492157 0.15030519664287567
-0.11627906560897827 -0.6279069781303406 0.03435906022787094
-0.11627906560897827 -0.6279069781303406 0.14991313219070435
-0.11627906560897827 -0.6124030947685242 0.02984342910349369
-0.11627906560897827 -0.6124030947685242 0.14951108396053314
-0.11627906560897827 -0.5968992114067078 0.027081383392214775
-0.11627907305955887 -0.5968992710113525 0.14878393709659576
-0.11627906560897827 -0.5813953876495361 -0.025281064212322235
-0.11627906560897827 -0.5813953876495361 0.004584151320159435
-0.11627906560897827 -0.5813953876495361 0.09118763357400894
-0.11627907305955887 -0.5813953876495361 0.14757511019706726
-0.11627906560897827 -0.5658915042877197 -0.04096893593668938
-0.11627906560897827 -0.5658915042877197 0.0027138497680425644
-0.11627906560897827 -0.5658915042877197 0.10677886009216309
-0.11627906560897827 -0.5658915042877197 0.1422586441040039
-0.11627906560897827 -0.5503876209259033 -0.04414816200733185
-0.11627906560897827 -0.5503876209259033 0.0004305534530431032
-0.11627906560897827 -0.5503876209259033 0.10975191742181778
-0.11627906560897827 -0.5503876209259033 0.13984227180480957
-0.11627906560897827 -0.5348837375640869 -0.04085821285843849
-0.11627906560897827 -0.5348837375640869 -0.012818500399589539
-0.11627906560897827 -0.5348837375640869 0.1120036244392395
-0.11627906560897827 -0.5348837375640869 0.13879738748073578
-0.11627906560897827 -0.5193798542022705 0.112505704164505
-0.11627906560897827 -0.5193798542022705 0.13785280287265778
-0.11627906560897827 -0.5038759708404541 0.1126895546913147
-0.11627906560897827 -0.5038759708404541 0.13734328746795654
-0.11627906560897827 -0.4883720874786377 0.11377876251935959
-0.11627906560897827 -0.4883720874786377 0.13794606924057007
-0.11627906560897827 -0.4728682041168213 0.11677283048629761
-0.11627906560897827 -0.4728682041168213 0.13990190625190735
-0.11627906560897827 -0.4573643207550049 0.12335343658924103
-0.11627906560897827 -0.4573643207550049 0.1451772153377533
-0.11627906560897827 -0.4418604373931885 0.12849220633506775
-0.11627906560897827 -0.4418604373931885 0.14879857003688812
-0.11627906560897827 -0.42635661363601685 0.13863243162631989
-0.11627906560897827 -0.42635661363601685 0.1531348079442978
-0.11627906560897827 -0.41085273027420044 0.14338479936122894
-0.11627906560897827 -0.41085273027420044 0.16319149732589722
-0.11627906560897827 -0.39534884691238403 0.1525966078042984
-0.11627906560897827 -0.39534884691238403 0.1689368486404419
-0.11627906560897827 -0.3798449635505676 0.15926632285118103
-0.11627906560897827 -0.3798449635505676 0.18030521273612976
-0.11627906560897827 -0.3643410801887512 0.16931921243667603
-0.11627906560897827 -0.3643410801887512 0.19174331426620483
-0.11627906560897827 -0.3488371968269348 0.17609050869941711
-0.11627906560897827 -0.3488371968269348 0.20448137819766998
-0.11627906560897827 -0.3333333134651184 0.18472838401794434
-0.11627906560897827 -0.3333333134651184 0.218502014875412
-0.11627906560897827 -0.3178294599056244 0.19543151557445526
-0.11627906560897827 -0.317829430103302 0.23278440535068512
-0.11627906560897827 -0.30232560634613037 0.2068953961133957
-0.11627906560897827 -0.30232560634613037 0.24746054410934448
-0.11627906560897827 -0.28682172298431396 0.21891988813877106
-0.11627906560897827 -0.28682172298431396 0.2617280185222626
-0.11627906560897827 -0.27131783962249756 0.2307673990726471
-0.11627906560897827 -0.27131783962249756 0.27325597405433655
-0.11627906560897827 -0.25581395626068115 0.24016721546649933
-0.11627906560897827 -0.25581395626068115 0.28125861287117004
-0.11627906560897827 -0.24031007289886475 0.24846279621124268
-0.11627906560897827 -0.24031007289886475 0.2912263572216034
-0.11627906560897827 -0.22480618953704834 0.255465567111969
-0.11627906560897827 -0.22480618953704834 0.2961564064025879
-0.11627906560897827 -0.20930230617523193 0.26160508394241333
-0.11627906560897827 -0.20930230617523193 0.3024830222129822
-0.11627906560897827 -0.19379842281341553 0.26714736223220825
-0.11627906560897827 -0.19379842281341553 0.30934780836105347
-0.11627906560897827 -0.1782945990562439 0.2729465961456299
-0.11627906560897827 -0.1782945990562439 0.3131052851676941
-0.11627906560897827 -0.1627907156944275 0.2765253186225891
-0.11627906560897827 -0.1627907156944275 0.32048094272613525
-0.11627906560897827 -0.14728683233261108 0.27907347679138184
-0.11627906560897827 -0.14728683233261108 0.32560935616493225
-0.11627906560897827 -0.13178294897079468 0.2808450162410736
-0.11627906560897827 -0.13178294897079468 0.32983213663101196
-0.11627906560897827 -0.11627906560897827 0.2822761535644531
-0.11627906560897827 -0.11627906560897827 0.3347800672054291
-0.11627906560897827 -0.10077518224716187 0.2825779616832733
-0.11627906560897827 -0.10077518224716187 0.33834099769592285
-0.11627906560897827 -0.08527129888534546 0.282113254070282
-0.11627906560897827 -0.08527129888534546 0.34041833877563477
-0.11627906560897827 -0.06976741552352905 0.2815653681755066
-0.11627906560897827 -0.06976741552352905 0.34192749857902527
-0.11627906560897827 -0.05426359176635742 0.2806735038757324
-0.11627906560897827 -0.05426359176635742 0.3433844745159149
-0.11627906560897827 -0.038759708404541016 0.2792368233203888
-0.11627906560897827 -0.038759708404541016 0.344394713640213
-0.11627906560897827 -0.02325582504272461 0.2773606777191162
-0.11627906560897827 -0.02325582504272461 0.3450835049152374
-0.11627906560897827 -0.007751941680908203 0.2757541835308075
-0.11627906560897827 -0.007751941680908203 0.3451497554779053
-0.11627906560897827 0.007751941680908203 0.276675283908844
-0.11627906560897827 0.007751941680908203 0.34450289607048035
-0.11627906560897827 0.02325582504272461 0.2775546908378601
-0.11627906560897827 0.02325582504272461 0.3430528938770294
-0.11627906560897827 0.038759708404541016 0.27949902415275574
-0.11627906560897827 0.038759708404541016 0.34121036529541016
-0.11627906560897827 0.05426359176635742 0.28045010566711426
-0.11627906560897827 0.05426359176635742 0.33868926763534546
-0.11627906560897827 0.06976747512817383 0.2803177237510681
-0.11627906560897827 0.06976747512817383 0.33400270342826843
-0.11627906560897827 0.08527135848999023 0.27953314781188965
-0.11627906560897827 0.08527135848999023 0.32848498225212097
-0.11627906560897827 0.10077524185180664 0.27834221720695496
-0.11627907305955887 0.10077524185180664 0.3245656490325928
-0.11627907305955887 0.11627912521362305 0.27639010548591614
-0.11627907305955887 0.11627912521362305 0.31915083527565
-0.11627906560897827 0.1317828893661499 0.2725552022457123
-0.11627906560897827 0.1317828893661499 0.3130932152271271
-0.11627906560897827 0.1472867727279663 0.26644790172576904
-0.11627906560897827 0.1472867727279663 0.31018054485321045
-0.11627906560897827 0.16279065608978271 0.2591931223869324
-0.11627906560897827 0.16279065608978271 0.3067139983177185
-0.11627906560897827 0.17829453945159912 0.25109612941741943
-0.11627906560897827 0.17829453945159912 0.2999124228954315
-0.11627906560897827 0.19379842281341553 0.2451179325580597
-0.11627906560897827 0.19379842281341553 0.2956236004829407
-0.11627906560897827 0.20930230617523193 0.24000173807144165
-0.11627906560897827 0.20930230617523193 0.2909613847732544
-0.11627906560897827 0.22480618953704834 0.23390188813209534
-0.11627906560897827 0.22480618953704834 0.28274911642074585
-0.11627906560897827 0.24031007289886475 0.22808939218521118
-0.11627906560897827 0.24031007289886475 0.2783479690551758
-0.11627906560897827 0.25581395626068115 0.22083917260169983
-0.11627906560897827 0.25581395626068115 0.2698354125022888
-0.11627906560897827 0.27131783962249756 0.21400561928749084
-0.11627906560897827 0.27131783962249756 0.2642943263053894
-0.11627906560897827 0.28682172298431396 0.2072017788887024
-0.11627906560897827 0.28682172298431396 0.2570652365684509
-0.11627906560897827 0.30232560634613037 0.1989276111125946
-0.11627906560897827 0.30232560634613037 0.2498892992734909
-0.11627906560897827 0.3178294897079468 0.190861314535141
-0.11627906560897827 0.3178294897079468 0.24368393421173096
-0.11627906560897827 0.3333333730697632 0.1815708726644516
-0.11627906560897827 0.3333333730697632 0.23546400666236877
-0.11627906560897827 0.3488372564315796 0.17034342885017395
-0.11627906560897827 0.3488372564315796 0.22963131964206696
-0.11627906560897827 0.364341139793396 0.15976504981517792
-0.11627906560897827 0.364341139793396 0.2206181287765503
-0.11627906560897827 0.37984490394592285 0.14869360625743866
-0.11627906560897827 0.37984490394592285 0.21432776749134064
-0.11627906560897827 0.39534878730773926 0.14022375643253326
-0.11627906560897827 0.39534878730773926 0.20518609881401062
-0.11627906560897827 0.41085267066955566 0.13089050352573395
-0.11627906560897827 0.41085267066955566 0.19929789006710052
-0.11627906560897827 0.42635655403137207 0.12166787683963776
-0.11627906560897827 0.42635655403137207 0.18971037864685059
-0.11627906560897827 0.4418604373931885 -0.13224095106124878
-0.11627906560897827 0.4418604373931885 -0.09506528079509735
-0.11627906560897827 0.4418604373931885 0.11272898316383362
-0.11627906560897827 0.4418604373931885 0.18294984102249146
-0.11627906560897827 0.4573643207550049 -0.13516734540462494
-0.11627906560897827 0.4573643207550049 -0.07152419537305832
-0.11627906560897827 0.4573643207550049 0.10415882617235184
-0.11627906560897827 0.4573643207550049 0.17320959270000458
-0.11627906560897827 0.4728682041168213 -0.13569119572639465
-0.11627906560897827 0.4728682041168213 -0.059710875153541565
-0.11627906560897827 0.4728682041168213 0.09633152931928635
-0.11627906560897827 0.4728682041168213 0.16651055216789246
-0.11627906560897827 0.4883720874786377 -0.13519851863384247
-0.11627906560897827 0.4883720874786377 -0.05597788468003273
-0.11627906560897827 0.4883720874786377 0.08945775777101517
-0.11627906560897827 0.4883720874786377 0.15771247446537018
-0.11627906560897827 0.5038759708404541 -0.13451308012008667
-0.11627906560897827 0.5038759708404541 -0.058197006583213806
-0.11627906560897827 0.5038759708404541 0.08355539292097092
-0.11627906560897827 0.5038759708404541 0.15192782878875732
-0.11627906560897827 0.5193798542022705 -0.13377201557159424
-0.11627907305955887 0.5193798542022705 -0.06472642719745636
-0.11627906560897827 0.5193798542022705 0.07949914783239365
-0.11627906560897827 0.5193798542022705 0.1445585936307907
-0.11627906560897827 0.5348837375640869 -0.1330452412366867
-0.11627906560897827 0.5348837375640869 -0.0715433806180954
-0.11627906560897827 0.5348837375640869 0.07724766433238983
-0.11627906560897827 0.5348837375640869 0.13983388245105743
-0.11627906560897827 0.5503876209259033 -0.13201889395713806
-0.11627906560897827 0.5503876209259033 -0.07787894457578659
-0.11627906560897827 0.5503876209259033 0.07700484991073608
-0.11627906560897827 0.5503876209259033 0.13589982688426971
-0.11627907305955887 0.5658915042877197 -0.12521466612815857
-0.11627906560897827 0.5658915042877197 -0.08138655126094818
-0.11627906560897827 0.5658915042877197 0.074806347489357
-0.11627906560897827 0.5658915042877197 0.1299266368150711
-0.11627906560897827 0.5813953876495361 -0.11925487220287323
-0.11627906560897827 0.5813953876495361 -0.08209969848394394
-0.11627905815839767 0.5813953876495361 0.07110197842121124
-0.11627906560897827 0.5813953876495361 0.12500730156898499
-0.11627906560897827 0.5968992710113525 -0.10965217649936676
-0.11627906560897827 0.5968992710113525 -0.0795457661151886
-0.11627906560897827 0.5968992710113525 0.06590687483549118
-0.11627906560897827 0.5968992710113525 0.12060736119747162
-0.11627906560897827 0.612403154373169 -0.10093128681182861
-0.11627906560897827 0.612403154373169 -0.07503143697977066
-0.11627906560897827 0.612403154373169 0.06150126829743385
-0.11627906560897827 0.612403154373169 0.11284493654966354
-0.11627906560897827 0.6279069185256958 -0.08891324698925018
-0.11627906560897827 0.6279069185256958 -0.07148434966802597
-0.11627906560897827 0.6279069185256958 0.058841995894908905
-0.11627906560897827 0.6279069185256958 0.1080092042684555
-0.11627906560897827 0.6434108018875122 -0.08391263335943222
-0.11627907305955887 0.6434108018875122 -0.0669042095541954
-0.11627906560897827 0.6434108018875122 0.05892322212457657
-0.11627906560897827 0.6434108018875122 0.1034320667386055
-0.11627906560897827 0.6589146852493286 -0.0738852322101593
-0.11627906560897827 0.6589146852493286 -0.06517098844051361
-0.11627906560897827 0.6589146852493286 0.06033534184098244
-0.11627906560897827 0.6589146852493286 0.09997071325778961
-0.11627906560897827 0.674418568611145 -0.07325673848390579
-0.11627906560897827 0.674418568611145 -0.0645761489868164
-0.11627906560897827 0.674418568611145 0.061568524688482285
-0.11627906560897827 0.674418568611145 0.09805591404438019
-0.11627906560897827 0.6899224519729614 -0.07345594465732574
-0.11627906560897827 0.6899224519729614 -0.0647047832608223
-0.11627906560897827 0.6899224519729614 0.06300599128007889
-0.11627906560897827 0.6899224519729614 0.09865160286426544
-0.11627906560897827 0.7054263353347778 -0.07415773719549179
-0.11627906560897827 0.7054263353347778 -0.06522546708583832
-0.11627906560897827 0.7054263353347778 0.06452595442533493
-0.11627906560897827 0.7054263353347778 0.10007096081972122
-0.11627906560897827 0.7209302186965942 -0.07545484602451324
-0.11627906560897827 0.7209302186965942 -0.06621528416872025
-0.11627906560897827 0.7209302186965942 0.06638363003730774
-0.11627906560897827 0.7209302186965942 0.1004110723733902
-0.11627906560897827 0.7364341020584106 -0.08531066030263901
-0.11627906560897827 0.7364341020584106 -0.06762727349996567
-0.11627906560897827 0.7364341020584106 0.06784703582525253
-0.11627906560897827 0.7364341020584106 0.09840752184391022
-0.11627906560897827 0.751937985420227 -0.08657759428024292
-0.11627906560897827 0.751937985420227 -0.06825834512710571
-0.11627906560897827 0.751937985420227 0.0658615231513977
-0.11627906560897827 0.751937985420227 0.0951484963297844
-0.11627906560897827 0.7674418687820435 -0.08728314191102982
-0.11627906560897827 0.7674418687820435 -0.06725302338600159
-0.11627906560897827 0.7674418687820435 0.06014135479927063
-0.11627906560897827 0.7674418687820435 0.09255008399486542
-0.11627906560897827 0.7829457521438599 -0.0876883864402771
-0.11627906560897827 0.7829457521438599 -0.06518633663654327
-0.11627907305955887 0.7829457521438599 0.056046485900878906
-0.11627906560897827 0.7829457521438599 0.08685468882322311
-0.11627906560897827 0.7984496355056763 -0.08785010874271393
-0.11627906560897827 0.7984496355056763 -0.062114786356687546
-0.11627906560897827 0.7984496355056763 0.047691989690065384
-0.11627906560897827 0.7984496355056763 0.07942460477352142
-0.11627906560897827 0.8139535188674927 -0.08721262961626053
-0.11627906560897827 0.8139535188674927 -0.05806751549243927
-0.11627906560897827 0.8139535188674927 0.040119439363479614
-0.11627906560897827 0.8139535188674927 0.07367420941591263
-0.11627906560897827 0.8294574022293091 -0.08632722496986389
-0.11627906560897827 0.8294574022293091 -0.052198849618434906
-0.11627906560897827 0.8294574618339539 0.028980202972888947
-0.11627906560897827 0.8294574022293091 0.06514238566160202
-0.11627906560897827 0.8449612855911255 -0.08535759150981903
-0.11627906560897827 0.8449612855911255 -0.041424985975027084
-0.11627906560897827 0.8449612855911255 0.019313979893922806
-0.11627906560897827 0.8449612855911255 0.05902156978845596
-0.11627906560897827 0.8604651689529419 -0.08245547860860825
-0.11627906560897827 0.8604651689529419 -0.014032779261469841
-0.11627906560897827 0.8604651689529419 -0.003908932209014893
-0.11627906560897827 0.8604651689529419 0.04990876093506813
-0.11627907305955887 0.8759689331054688 -0.0788186639547348
-0.11627906560897827 0.8759689331054688 0.04042951017618179
-0.11627906560897827 0.8914728164672852 -0.07451528310775757
-0.11627906560897827 0.8914728164672852 0.029817312955856323
-0.11627906560897827 0.9069766998291016 -0.06838101148605347
-0.11627906560897827 0.9069766998291016 0.016250764951109886
-0.11627906560897827 0.922480583190918 -0.05805157870054245
-0.11627906560897827 0.922480583190918 0.0005340229254215956
-0.11627906560897827 0.9379844665527344 -0.04726623371243477
-0.11627906560897827 0.9379844665527344 -0.019641781225800514
-0.10077518224716187 -0.9844961166381836 0.04857674241065979
-0.10077518224716187 -0.9844961166381836 0.10030986368656158
-0.10077517479658127 -0.9689922332763672 0.041887495666742325
-0.10077518224716187 -0.9689922332763672 0.10897806286811829
-0.10077518224716187 -0.9534883499145508 0.03678947314620018
-0.10077518224716187 -0.9534883499145508 0.11273136734962463
-0.10077518224716187 -0.9379844665527344 0.03482664376497269
-0.10077518224716187 -0.9379844665527344 0.11927257478237152
