0.02325582504272461 -0.05426359176635742 -0.33426156640052795
0.02325582504272461 -0.05426359176635742 -0.19865775108337402
0.02325582504272461 -0.05426359176635742 0.15525107085704803
0.02325582504272461 -0.05426359176635742 0.31658637523651123
0.02325582504272461 -0.038759708404541016 -0.33519911766052246
0.02325582504272461 -0.038759708404541016 -0.19983088970184326
0.02325582504272461 -0.038759708404541016 0.1565016508102417
0.02325582504272461 -0.038759708404541016 0.3205301761627197
0.02325582504272461 -0.02325582504272461 -0.3364361524581909
0.02325582504272461 -0.02325582504272461 -0.20086535811424255
0.02325582504272461 -0.02325582504272461 0.1601674109697342
0.02325582504272461 -0.02325582504272461 0.32358109951019287
0.02325582504272461 -0.007751941680908203 -0.3374340236186981
0.02325582504272461 -0.007751941680908203 -0.20135492086410522
0.02325582504272461 -0.007751941680908203 0.16305255889892578
0.02325582504272461 -0.007751941680908203 0.32578611373901367
0.02325582504272461 0.007751941680908203 -0.33788353204727173
0.02325582504272461 0.007751941680908203 -0.20150429010391235
0.02325582504272461 0.007751941680908203 0.1631886512041092
0.02325582504272461 0.007751941680908203 0.32840895652770996
0.02325582504272461 0.02325582504272461 -0.33769768476486206
0.02325582504272461 0.02325582504272461 -0.2024105042219162
0.02325582504272461 0.02325582504272461 0.15826882421970367
0.02325582504272461 0.02325582504272461 0.3310256004333496
0.02325582504272461 0.038759708404541016 -0.3373074531555176
0.02325582504272461 0.038759708404541016 -0.2036043107509613
0.02325582504272461 0.038759708404541016 0.15273362398147583
0.02325582504272461 0.038759708404541016 0.33351290225982666
0.02325582504272461 0.05426359176635742 -0.337028443813324
0.02325582504272461 0.05426359176635742 -0.2060070037841797
0.02325582504272461 0.05426359176635742 0.14601869881153107
0.02325582504272461 0.05426359176635742 0.33456239104270935
0.02325582504272461 0.06976747512817383 -0.3368251323699951
0.02325582504272461 0.06976748257875443 -0.2086394727230072
0.02325582504272461 0.06976747512817383 0.14370442926883698
0.02325582504272461 0.06976747512817383 0.33543863892555237
0.02325582504272461 0.08527135848999023 -0.3367537558078766
0.02325582504272461 0.08527135848999023 -0.210759699344635
0.02325582504272461 0.08527135848999023 0.14218208193778992
0.02325582504272461 0.08527135848999023 0.33613330125808716
0.02325582504272461 0.10077524185180664 -0.336844801902771
0.02325582504272461 0.10077524185180664 -0.21332034468650818
0.02325582504272461 0.10077524185180664 0.1451719105243683
0.02325582504272461 0.10077524185180664 0.33677297830581665
0.02325582504272461 0.11627912521362305 -0.3368370831012726
0.02325582504272461 0.11627912521362305 -0.21627357602119446
0.02325582504272461 0.11627912521362305 0.15767955780029297
0.02325582504272461 0.11627912521362305 0.3374141454696655
0.02325582504272461 0.1317828893661499 -0.33687299489974976
0.02325582504272461 0.1317828893661499 -0.2190159559249878
0.02325582504272461 0.1317828893661499 0.17150679230690002
0.02325582504272461 0.1317828893661499 0.3379904329776764
0.02325582504272461 0.1472867727279663 -0.337022602558136
0.02325582504272461 0.1472867727279663 -0.22206655144691467
0.02325582504272461 0.1472867727279663 0.18480053544044495
0.02325582504272461 0.1472867727279663 0.33858656883239746
0.02325582504272461 0.16279065608978271 -0.3371707499027252
0.02325582504272461 0.16279065608978271 -0.22421041131019592
0.02325582504272461 0.16279065608978271 0.195151686668396
0.02325582504272461 0.16279065608978271 0.3392326235771179
0.02325582504272461 0.17829453945159912 -0.3371264338493347
0.02325582504272461 0.17829453945159912 -0.2245837301015854
0.02325582504272461 0.17829453945159912 0.19964900612831116
0.02325582504272461 0.17829453945159912 0.3398926854133606
0.02325582504272461 0.19379842281341553 -0.3366844356060028
0.02325582504272461 0.19379842281341553 -0.22406966984272003
0.02325582504272461 0.19379842281341553 0.20218908786773682
0.02325582504272461 0.19379842281341553 0.3406659960746765
0.02325582504272461 0.20930230617523193 -0.33546945452690125
0.02325582504272461 0.20930230617523193 -0.22249965369701385
0.02325582504272461 0.20930230617523193 0.2016308754682541
0.02325582504272461 0.20930230617523193 0.3415548801422119
0.02325582504272461 0.22480618953704834 -0.3338986039161682
0.02325582504272461 0.22480618953704834 -0.22089450061321259
0.02325582690536976 0.22480618953704834 0.19868865609169006
0.02325582504272461 0.22480618953704834 0.34234219789505005
0.02325582318007946 0.24031007289886475 -0.33205997943878174
0.02325582504272461 0.24031007289886475 -0.22012022137641907
0.02325582504272461 0.24031007289886475 0.19438819587230682
0.02325582504272461 0.24031007289886475 0.34306633472442627
0.02325582504272461 0.25581395626068115 -0.3305348753929138
0.02325582504272461 0.25581395626068115 -0.21923483908176422
0.02325582504272461 0.25581395626068115 0.1875307559967041
0.02325582504272461 0.25581395626068115 0.34341561794281006
0.02325582504272461 0.27131783962249756 -0.329508513212204
0.02325582504272461 0.27131783962249756 -0.21842598915100098
0.02325582504272461 0.27131783962249756 0.18123531341552734
0.02325582504272461 0.27131783962249756 0.34346139430999756
0.02325582318007946 0.28682172298431396 -0.3286588490009308
0.02325582504272461 0.28682172298431396 -0.21792295575141907
0.02325582504272461 0.28682172298431396 0.17117154598236084
0.02325582504272461 0.28682172298431396 0.34306639432907104
0.02325582504272461 0.30232560634613037 -0.3277880549430847
0.02325582504272461 0.30232560634613037 -0.21628108620643616
0.02325582318007946 0.30232560634613037 0.1491275131702423
0.02325582504272461 0.30232560634613037 0.34210607409477234
0.02325582504272461 0.3178294897079468 -0.3266156017780304
0.02325582504272461 0.3178294897079468 -0.21546132862567902
0.02325582504272461 0.3178294897079468 0.13854707777500153
0.02325582504272461 0.3178294897079468 0.34099021553993225
0.02325582504272461 0.3333333730697632 -0.3250250816345215
0.02325582504272461 0.3333333730697632 -0.21508334577083588
0.02325582504272461 0.3333333730697632 0.1308455616235733
0.02325582504272461 0.3333333730697632 0.34006428718566895
0.02325582504272461 0.3488372564315796 -0.32270026206970215
0.02325582504272461 0.3488372564315796 -0.2144668698310852
0.02325582504272461 0.3488372564315796 0.12251825630664825
0.02325582504272461 0.3488372564315796 0.3390047550201416
0.02325582504272461 0.364341139793396 -0.3201669752597809
0.02325582504272461 0.364341139793396 -0.21306577324867249
0.02325582504272461 0.364341139793396 0.11122722178697586
0.02325582504272461 0.364341139793396 0.3376280665397644
0.02325582504272461 0.37984490394592285 -0.31726253032684326
0.02325582504272461 0.37984490394592285 -0.21043747663497925
0.02325582504272461 0.37984490394592285 0.09392306208610535
0.02325582504272461 0.37984490394592285 0.33580508828163147
0.02325582504272461 0.39534878730773926 -0.3129122257232666
0.02325582504272461 0.39534878730773926 -0.2075340747833252
0.02325582504272461 0.39534878730773926 0.07955572754144669
0.02325582504272461 0.39534875750541687 0.3336469531059265
0.02325582504272461 0.41085267066955566 -0.30903810262680054
0.02325582504272461 0.41085267066955566 -0.20379558205604553
0.02325582504272461 0.41085267066955566 0.06623350828886032
0.02325582504272461 0.41085267066955566 0.32961174845695496
0.02325582504272461 0.42635655403137207 -0.30400213599205017
0.02325582504272461 0.42635655403137207 -0.20077598094940186
0.02325582504272461 0.42635655403137207 0.0556584969162941
0.02325582504272461 0.42635655403137207 0.32513731718063354
0.02325582504272461 0.4418604373931885 -0.2989691495895386
0.02325582504272461 0.4418604373931885 -0.19905273616313934
0.02325582504272461 0.4418604373931885 0.04356975108385086
0.02325582504272461 0.4418604373931885 0.32037511467933655
0.02325582504272461 0.4573643207550049 -0.2944473624229431
0.02325582504272461 0.4573643207550049 -0.1986650824546814
0.02325582504272461 0.4573643207550049 0.028319237753748894
0.02325582504272461 0.4573643207550049 0.31552112102508545
0.02325582504272461 0.4728682041168213 -0.2885599732398987
0.02325582504272461 0.4728682041168213 -0.19910766184329987
0.02325582504272461 0.4728682041168213 0.0035622294526547194
0.02325582504272461 0.4728682041168213 0.31049543619155884
0.02325582504272461 0.4883720874786377 -0.2840772271156311
0.02325582504272461 0.4883720874786377 -0.20145082473754883
0.02325582504272461 0.4883720874786377 -0.022284584119915962
0.02325582504272461 0.4883720874786377 0.30603617429733276
0.02325582504272461 0.5038759708404541 -0.2807726562023163
0.02325582504272461 0.5038759708404541 -0.20422926545143127
0.02325582504272461 0.5038759708404541 -0.01848132535815239
0.02325582504272461 0.5038759708404541 0.30159640312194824
0.02325582504272461 0.5193798542022705 -0.2764308452606201
0.02325582504272461 0.5193798542022705 -0.20734339952468872
0.02325582504272461 0.5193798542022705 -0.010103710927069187
0.02325582504272461 0.5193798542022705 0.2970793843269348
0.02325582504272461 0.5348837375640869 -0.2729322910308838
0.02325582504272461 0.5348837375640869 -0.20946955680847168
0.02325582504272461 0.5348837375640869 -0.008134900592267513
0.02325582504272461 0.5348837375640869 0.2938767671585083
0.02325582690536976 0.5503876209259033 -0.27047380805015564
0.02325582504272461 0.5503876209259033 -0.21070441603660583
0.02325582504272461 0.5503876209259033 -0.005157241132110357
0.02325582504272461 0.5503876209259033 0.2891319692134857
0.02325582504272461 0.5658915042877197 -0.26841408014297485
0.02325582504272461 0.5658915042877197 -0.2106631100177765
0.02325582504272461 0.5658915042877197 -0.007345019839704037
0.02325582504272461 0.5658915042877197 0.28243565559387207
0.02325582504272461 0.5813953876495361 -0.26679614186286926
0.02325582504272461 0.5813953876495361 -0.210630401968956
0.02325582318007946 0.5813953876495361 -0.0066944328136742115
0.02325582504272461 0.5813953876495361 0.2773090600967407
0.02325582504272461 0.5968992710113525 -0.2650127410888672
0.02325582504272461 0.5968992710113525 -0.21001510322093964
0.02325582504272461 0.5968992710113525 -0.010203514248132706
0.02325582504272461 0.5968992710113525 0.2684723734855652
0.02325582504272461 0.612403154373169 -0.2622581720352173
0.02325582504272461 0.612403154373169 -0.20937003195285797
0.02325582504272461 0.612403154373169 -0.01062929630279541
0.02325582504272461 0.612403154373169 0.2615438401699066
0.02325582504272461 0.6279069185256958 -0.259002685546875
0.02325582504272461 0.6279069185256958 -0.20734532177448273
0.02325582504272461 0.6279069185256958 -0.014828043058514595
0.02325582504272461 0.6279069185256958 0.2519802749156952
0.02325582504272461 0.6434108018875122 -0.25517523288726807
0.02325582504272461 0.6434108018875122 -0.20424248278141022
0.02325582504272461 0.6434108018875122 -0.021588748320937157
0.02325582504272461 0.6434108018875122 0.2447807490825653
0.02325582504272461 0.6589146852493286 -0.251201868057251
0.02325582504272461 0.6589146852493286 -0.20086577534675598
0.02325582504272461 0.6589146852493286 -0.023398902267217636
0.02325582504272461 0.6589146852493286 0.2358979731798172
0.02325582504272461 0.674418568611145 -0.24848303198814392
0.02325582504272461 0.674418568611145 -0.19693168997764587
0.02325582504272461 0.674418568611145 -0.029252704232931137
0.02325582504272461 0.674418568611145 0.22948865592479706
0.02325582504272461 0.6899224519729614 -0.24477024376392365
0.02325582504272461 0.6899224519729614 -0.19328780472278595
0.02325582504272461 0.6899224519729614 -0.02897573634982109
0.02325582504272461 0.6899224519729614 0.22072207927703857
0.02325582504272461 0.7054263353347778 -0.24031999707221985
0.02325582504272461 0.7054263353347778 -0.18541133403778076
0.02325582504272461 0.7054263353347778 -0.029050808399915695
0.02325582504272461 0.7054263353347778 0.21403996646404266
0.02325582318007946 0.7209302186965942 -0.23552146553993225
0.02325582504272461 0.7209302186965942 -0.17888011038303375
0.02325582504272461 0.7209302186965942 -0.02972245402634144
0.02325582504272461 0.7209302186965942 0.20494690537452698
0.02325582504272461 0.7364341020584106 -0.23254714906215668
0.02325582504272461 0.7364341020584106 -0.16850632429122925
0.02325582690536976 0.7364341616630554 -0.03451257199048996
0.02325582504272461 0.7364341020584106 0.19836248457431793
0.02325582504272461 0.751937985420227 -0.22733834385871887
0.02325582504272461 0.751937985420227 -0.15751729905605316
0.02325582504272461 0.751937985420227 -0.04238234460353851
0.02325582504272461 0.751937985420227 0.18869587779045105
0.02325582504272461 0.7674418687820435 -0.22146788239479065
0.02325582504272461 0.7674418687820435 -0.14737147092819214
0.02325582504272461 0.7674418687820435 -0.05564573407173157
0.02325582504272461 0.7674418687820435 0.17960688471794128
0.02325582504272461 0.7829457521438599 -0.21243087947368622
0.02325582504272461 0.7829457521438599 -0.13635201752185822
0.02325582504272461 0.7829457521438599 -0.07372042536735535
0.02325582504272461 0.7829457521438599 0.16995131969451904
0.02325582504272461 0.7984496355056763 -0.20141227543354034
0.02325582504272461 0.7984496355056763 -0.12771029770374298
0.02325582504272461 0.7984496355056763 -0.08390866965055466
0.02325582504272461 0.7984496355056763 0.15774518251419067
0.02325582504272461 0.8139535188674927 -0.18989898264408112
0.02325582504272461 0.8139535784721375 -0.11354184150695801
0.02325582504272461 0.8139535188674927 -0.09595946222543716
0.02325582504272461 0.8139535188674927 0.1458171308040619
0.02325582504272461 0.8294574022293091 -0.18092185258865356
0.02325582690536976 0.8294574022293091 0.1347980499267578
0.02325582504272461 0.8449612855911255 -0.1764928549528122
0.02325582504272461 0.8449612855911255 0.12307512760162354
0.02325582504272461 0.8604651689529419 -0.1713823676109314
0.02325582504272461 0.8604651689529419 0.11018642038106918
0.02325582504272461 0.8759689331054688 -0.1666002869606018
0.02325582504272461 0.8759689331054688 0.09652256220579147
0.02325582504272461 0.8914728164672852 -0.16248705983161926
0.02325582504272461 0.8914728164672852 0.08077257871627808
0.02325582504272461 0.9069766998291016 -0.15579567849636078
0.02325582504272461 0.9069766998291016 0.061388056725263596
0.02325582504272461 0.922480583190918 -0.148134246468544
0.02325582504272461 0.922480583190918 0.037392694503068924
0.02325582504272461 0.9379844665527344 -0.13951608538627625
0.02325582504272461 0.9379844665527344 0.010880121029913425
0.02325582504272461 0.9534883499145508 -0.12868405878543854
0.02325582504272461 0.9534883499145508 -0.015344159677624702
0.02325582504272461 0.9689922332763672 -0.11875735968351364
0.02325582504272461 0.9689922332763672 -0.04040445014834404
0.02325582504272461 0.9844961166381836 -0.0970122367143631
0.02325582504272461 0.9844961762428284 -0.06693122535943985
0.038759708404541016 -0.968992292881012 -0.005374143831431866
0.03875970467925072 -0.9689922332763672 0.03890863060951233
0.038759708404541016 -0.9534883499145508 -0.03966515138745308
0.038759708404541016 -0.9534883499145508 0.043042853474617004
0.038759708404541016 -0.9379844665527344 -0.05928671360015869
0.038759708404541016 -0.9379844665527344 0.04344777390360832
0.03875970467925072 -0.9224806427955627 -0.0673995241522789
0.038759708404541016 -0.9224806427955627 0.04248855262994766
0.038759708404541016 -0.9069767594337463 -0.07613742351531982
0.038759708404541016 -0.9069768190383911 0.0416111946105957
0.038759708404541016 -0.8914729356765747 -0.08217129111289978
0.03875970467925072 -0.8914728164672852 0.040227003395557404
0.038759708404541016 -0.8759689331054688 -0.09051527082920074
0.038759708404541016 -0.8759690523147583 0.03800931200385094
0.038759708404541016 -0.8604650497436523 -0.0950806736946106
0.038759708404541016 -0.8604650497436523 0.03552371636033058
0.038759708404541016 -0.8449612259864807 -0.10165805369615555
0.038759708404541016 -0.8449612259864807 0.03360385820269585
0.038759708404541016 -0.8294573426246643 -0.10739940404891968
0.038759708404541016 -0.8294573426246643 0.03220399096608162
0.038759708404541016 -0.8139535188674927 -0.11087597906589508
0.038759708404541016 -0.8139535188674927 0.032406751066446304
0.038759712129831314 -0.7984496355056763 -0.1159820482134819
0.038759708404541016 -0.7984496355056763 0.033850062638521194
0.038759708404541016 -0.7829457521438599 -0.12133699655532837
0.038759708404541016 -0.7829457521438599 0.03497495874762535
0.038759708404541016 -0.7674418687820435 -0.12442412972450256
0.038759708404541016 -0.7674418687820435 0.035395022481679916
0.038759708404541016 -0.751937985420227 -0.12749533355236053
0.038759708404541016 -0.751937985420227 0.036172255873680115
0.038759708404541016 -0.7364341020584106 -0.13172286748886108
0.038759708404541016 -0.7364341020584106 0.0367722287774086
0.038759708404541016 -0.7209302186965942 -0.13641223311424255
0.038759708404541016 -0.7209302186965942 0.03744662553071976
0.038759708404541016 -0.7054263353347778 -0.14073655009269714
0.038759708404541016 -0.7054263353347778 0.039244525134563446
0.038759708404541016 -0.6899224519729614 -0.1478947401046753
0.038759708404541016 -0.6899224519729614 0.04086921736598015
0.038759708404541016 -0.674418568611145 -0.15701620280742645
0.038759708404541016 -0.674418568611145 0.0424417145550251
0.038759708404541016 -0.6589146852493286 -0.16651976108551025
0.038759708404541016 -0.6589146852493286 0.043621957302093506
0.038759708404541016 -0.643410861492157 -0.1749996691942215
0.038759708404541016 -0.643410861492157 0.044822193682193756
0.038759708404541016 -0.6279069781303406 -0.18584395945072174
0.038759708404541016 -0.6279069781303406 0.046051688492298126
0.038759708404541016 -0.6124030947685242 -0.1939045786857605
0.038759708404541016 -0.6124030947685242 0.04729456827044487
0.038759708404541016 -0.5968992114067078 -0.20468546450138092
0.038759708404541016 -0.5968992114067078 0.0484723225235939
0.038759708404541016 -0.5813953876495361 -0.21405881643295288
0.038759708404541016 -0.5813953876495361 0.0498572438955307
0.038759708404541016 -0.5658915042877197 -0.22212429344654083
0.038759708404541016 -0.5658915042877197 -0.04941866174340248
0.038759708404541016 -0.5658915042877197 -0.016536135226488113
0.038759708404541016 -0.5658915042877197 0.05142915993928909
0.038759708404541016 -0.5503876209259033 -0.23136663436889648
0.038759708404541016 -0.5503876209259033 -0.05544745922088623
0.038759708404541016 -0.5503876209259033 -0.009700519032776356
0.038759708404541016 -0.5503876209259033 0.05357736721634865
0.038759708404541016 -0.5348837375640869 -0.23809903860092163
0.038759708404541016 -0.5348837375640869 -0.058235496282577515
0.038759708404541016 -0.5348837375640869 -0.005015741102397442
0.038759708404541016 -0.5348837375640869 0.05582110211253166
0.038759708404541016 -0.5193798542022705 -0.24536888301372528
0.038759708404541016 -0.5193798542022705 -0.061952948570251465
0.038759708404541016 -0.5193798542022705 -0.0008230488747358322
0.038759708404541016 -0.5193798542022705 0.058929692953825
0.038759708404541016 -0.5038759708404541 -0.25178462266921997
0.038759708404541016 -0.5038759708404541 -0.0630660206079483
0.038759708404541016 -0.5038759708404541 0.0030134913977235556
0.038759708404541016 -0.5038759708404541 0.06240834295749664
0.038759708404541016 -0.4883720874786377 -0.2573864758014679
0.038759708404541016 -0.4883720874786377 -0.06319795548915863
0.038759708404541016 -0.4883720874786377 0.007085749879479408
0.038759708404541016 -0.4883720874786377 0.06670600175857544
0.038759708404541016 -0.4728682041168213 -0.2636771500110626
0.038759708404541016 -0.4728682041168213 -0.06413264572620392
0.038759708404541016 -0.4728681743144989 0.009979067370295525
0.038759708404541016 -0.4728682041168213 0.07342762500047684
0.038759708404541016 -0.4573643207550049 -0.27015766501426697
0.038759708404541016 -0.45736435055732727 -0.06639933586120605
0.038759708404541016 -0.45736435055732727 0.013162359595298767
0.038759708404541016 -0.4573643207550049 0.0801454558968544
0.038759708404541016 -0.4418604373931885 -0.2765626311302185
0.038759708404541016 -0.4418604373931885 -0.07038291543722153
0.038759708404541016 -0.4418604373931885 0.01734877936542034
0.038759708404541016 -0.4418604373931885 0.08984129875898361
0.038759708404541016 -0.42635664343833923 -0.28369808197021484
0.038759708404541016 -0.42635661363601685 -0.07424619793891907
0.038759708404541016 -0.42635661363601685 0.023379260674118996
0.038759712129831314 -0.42635664343833923 0.10154139250516891
0.038759708404541016 -0.41085273027420044 -0.289651483297348
0.038759708404541016 -0.41085273027420044 -0.07757550477981567
0.038759708404541016 -0.4108527600765228 0.028631139546632767
0.038759708404541016 -0.41085273027420044 0.1145336702466011
0.038759708404541016 -0.39534884691238403 -0.295091837644577
0.038759708404541016 -0.39534884691238403 -0.08066286146640778
0.038759708404541016 -0.39534884691238403 0.035279832780361176
0.038759708404541016 -0.39534884691238403 0.1279858648777008
0.038759708404541016 -0.3798449635505676 -0.29984742403030396
0.038759708404541016 -0.3798449635505676 -0.15144595503807068
0.038759708404541016 -0.3798449635505676 -0.11932233721017838
0.038759708404541016 -0.3798449635505676 -0.08611419051885605
0.038759708404541016 -0.3798449635505676 0.039192598313093185
0.038759708404541016 -0.3798449635505676 0.14045123755931854
0.038759708404541016 -0.3643410801887512 -0.3035440444946289
0.038759708404541016 -0.3643410801887512 -0.15510442852973938
0.038759712129831314 -0.3643410801887512 0.04064829275012016
0.038759708404541016 -0.3643410801887512 0.15258170664310455
0.038759708404541016 -0.3488371968269348 -0.30643633008003235
0.038759708404541016 -0.3488371968269348 -0.15678107738494873
0.038759708404541016 -0.3488371968269348 0.04054998978972435
0.038759708404541016 -0.3488371968269348 0.16248762607574463
0.038759708404541016 -0.3333333134651184 -0.30959534645080566
0.038759708404541016 -0.3333333134651184 -0.1586586982011795
0.03875970467925072 -0.3333333134651184 0.03905359283089638
0.038759708404541016 -0.3333333134651184 0.17158272862434387
0.038759708404541016 -0.317829430103302 -0.3125278949737549
0.038759708404541016 -0.317829430103302 -0.16240884363651276
0.038759708404541016 -0.317829430103302 0.037842340767383575
0.038759708404541016 -0.317829430103302 0.18285343050956726
0.038759708404541016 -0.30232560634613037 -0.3161536753177643
0.038759708404541016 -0.30232560634613037 -0.16582924127578735
0.038759712129831314 -0.30232560634613037 0.03891381248831749
0.038759708404541016 -0.30232560634613037 0.19246438145637512
0.038759708404541016 -0.28682172298431396 -0.31902459263801575
0.038759708404541016 -0.28682172298431396 -0.16838020086288452
0.038759708404541016 -0.28682172298431396 0.04203405976295471
0.038759708404541016 -0.28682172298431396 0.20244139432907104
0.038759708404541016 -0.27131783962249756 -0.3209134340286255
0.038759708404541016 -0.27131783962249756 -0.17126713693141937
0.038759708404541016 -0.27131783962249756 0.04810178652405739
0.038759708404541016 -0.27131783962249756 0.2126341164112091
0.038759708404541016 -0.25581395626068115 -0.32267332077026367
0.038759708404541016 -0.25581395626068115 -0.17545215785503387
0.038759708404541016 -0.25581395626068115 0.06115589290857315
0.038759708404541016 -0.25581395626068115 0.22080451250076294
0.038759708404541016 -0.24031007289886475 -0.32433509826660156
0.038759708404541016 -0.24031007289886475 -0.18080416321754456
0.038759708404541016 -0.24031007289886475 0.0806979238986969
0.038759708404541016 -0.24031008780002594 0.23108823597431183
0.038759708404541016 -0.22480618953704834 -0.32567137479782104
0.038759708404541016 -0.22480618953704834 -0.18537026643753052
0.038759708404541016 -0.22480618953704834 0.09770570695400238
0.038759708404541016 -0.22480618953704834 0.23880523443222046
0.038759708404541016 -0.20930230617523193 -0.32688039541244507
0.038759708404541016 -0.20930229127407074 -0.1897078901529312
0.038759708404541016 -0.20930230617523193 0.11257331818342209
0.038759708404541016 -0.20930230617523193 0.24804449081420898
0.038759708404541016 -0.19379842281341553 -0.32794100046157837
0.038759708404541016 -0.19379842281341553 -0.19431208074092865
0.038759708404541016 -0.19379842281341553 0.1310569941997528
0.038759708404541016 -0.19379842281341553 0.25718504190444946
0.038759708404541016 -0.1782945990562439 -0.3285573422908783
0.038759708404541016 -0.1782945990562439 -0.19734802842140198
0.038759708404541016 -0.1782945990562439 0.14559650421142578
0.038759708404541016 -0.1782945990562439 0.26487115025520325
0.038759708404541016 -0.1627907156944275 -0.32905542850494385
0.038759708404541016 -0.1627907156944275 -0.19859278202056885
0.038759708404541016 -0.1627907156944275 0.15288066864013672
0.038759708404541016 -0.1627907156944275 0.2734176814556122
0.038759708404541016 -0.14728683233261108 -0.32969096302986145
0.038759708404541016 -0.14728683233261108 -0.19904223084449768
0.038759708404541016 -0.14728683233261108 0.1561242640018463
0.038759708404541016 -0.14728683233261108 0.28052276372909546
0.038759708404541016 -0.13178294897079468 -0.330417662858963
0.038759708404541016 -0.13178294897079468 -0.19880858063697815
0.038759708404541016 -0.13178294897079468 0.15775266289710999
0.038759708404541016 -0.13178294897079468 0.288602352142334
0.038759708404541016 -0.11627906560897827 -0.33131539821624756
0.038759708404541016 -0.11627906560897827 -0.19825690984725952
0.038759708404541016 -0.11627906560897827 0.15982812643051147
0.038759708404541016 -0.11627906560897827 0.2947286367416382
0.03875970467925072 -0.10077517479658127 -0.33230724930763245
0.038759708404541016 -0.10077518224716187 -0.19777968525886536
0.038759708404541016 -0.10077518224716187 0.16055727005004883
0.038759708404541016 -0.10077518224716187 0.30119338631629944
0.038759708404541016 -0.08527129888534546 -0.3331299424171448
0.038759708404541016 -0.08527129888534546 -0.1981252133846283
0.038759708404541016 -0.08527129888534546 0.15949802100658417
0.038759708404541016 -0.08527129888534546 0.30727797746658325
0.038759708404541016 -0.06976741552352905 -0.3336672782897949
0.038759708404541016 -0.06976741552352905 -0.19851960241794586
0.038759708404541016 -0.06976741552352905 0.1586683839559555
0.038759708404541016 -0.06976741552352905 0.3111315369606018
0.038759708404541016 -0.05426359176635742 -0.33427390456199646
0.038759708404541016 -0.05426359176635742 -0.19894090294837952
0.038759708404541016 -0.05426359176635742 0.15834297239780426
0.038759708404541016 -0.05426359176635742 0.31564003229141235
0.038759708404541016 -0.038759708404541016 -0.3352411985397339
0.038759708404541016 -0.038759708404541016 -0.19997674226760864
0.038759708404541016 -0.038759708404541016 0.15934054553508759
0.038759708404541016 -0.038759708404541016 0.3198351263999939
0.038759708404541016 -0.02325582504272461 -0.3364752233028412
0.038759708404541016 -0.02325582504272461 -0.20100536942481995
0.038759708404541016 -0.02325582504272461 0.1625811755657196
0.038759708404541016 -0.02325582504272461 0.32303768396377563
0.038759708404541016 -0.007751941680908203 -0.3374781012535095
0.038759708404541016 -0.007751941680908203 -0.2015102207660675
0.038759708404541016 -0.00775194214656949 0.16491389274597168
0.038759708404541016 -0.007751941680908203 0.3252526521682739
0.038759708404541016 0.007751941680908203 -0.3379429578781128
0.038759708404541016 0.007751941680908203 -0.20163923501968384
0.038759708404541016 0.007751941215246916 0.16493287682533264
0.038759708404541016 0.007751941680908203 0.3276255428791046
0.038759708404541016 0.02325582504272461 -0.3377699851989746
0.038759708404541016 0.02325582504272461 -0.20249801874160767
0.038759708404541016 0.02325582504272461 0.1607690155506134
0.038759708404541016 0.02325582504272461 0.33013153076171875
0.038759708404541016 0.038759708404541016 -0.3373824656009674
0.038759708404541016 0.038759708404541016 -0.20367148518562317
0.038759708404541016 0.038759708404541016 0.15623846650123596
0.038759708404541016 0.038759708404541016 0.3326747417449951
0.038759708404541016 0.05426359176635742 -0.33709466457366943
0.038759708404541016 0.05426359176635742 -0.20611059665679932
0.038759708404541016 0.05426359176635742 0.15090113878250122
0.038759708404541016 0.05426359176635742 0.3340538740158081
0.038759708404541016 0.06976747512817383 -0.33688414096832275
0.038759708404541016 0.06976747512817383 -0.20888830721378326
0.038759708404541016 0.06976747512817383 0.14952385425567627
0.038759708404541016 0.06976747512817383 0.3349105715751648
0.038759708404541016 0.08527135848999023 -0.3368092477321625
0.038759708404541016 0.08527135848999023 -0.21119841933250427
0.038759708404541016 0.08527135103940964 0.14953088760375977
0.038759708404541016 0.08527136594057083 0.33559954166412354
0.038759708404541016 0.10077524185180664 -0.33689427375793457
0.038759708404541016 0.10077524185180664 -0.21397419273853302
0.038759708404541016 0.10077524185180664 0.15797270834445953
0.038759708404541016 0.10077524185180664 0.33624333143234253
0.038759708404541016 0.11627912521362305 -0.33688122034072876
0.038759708404541016 0.11627912521362305 -0.2170846164226532
0.038759708404541016 0.11627913266420364 0.16802959144115448
0.038759708404541016 0.11627912521362305 0.33690184354782104
0.038759708404541016 0.1317828893661499 -0.3369203507900238
0.038759708404541016 0.1317828893661499 -0.2199895679950714
0.038759708404541016 0.1317828893661499 0.17862257361412048
0.038759708404541016 0.1317828893661499 0.3375108540058136
0.038759708404541016 0.1472867727279663 -0.3370761573314667
0.038759708404541016 0.1472867727279663 -0.22324387729167938
0.038759708404541016 0.1472867727279663 0.1924237459897995
0.038759708404541016 0.1472867727279663 0.3381577730178833
0.038759708404541016 0.16279065608978271 -0.3372228145599365
0.038759708404541016 0.16279065608978271 -0.22550852596759796
0.038759708404541016 0.16279065608978271 0.20370027422904968
0.038759708404541016 0.16279065608978271 0.3388405442237854
0.038759708404541016 0.17829453945159912 -0.3371897339820862
0.038759708404541016 0.17829453945159912 -0.2259923666715622
0.038759708404541016 0.17829453945159912 0.20948144793510437
0.038759708404541016 0.17829453945159912 0.33950257301330566
0.038759708404541016 0.19379842281341553 -0.3367527723312378
0.038759708404541016 0.19379842281341553 -0.22579647600650787
0.038759708404541016 0.19379840791225433 0.21164833009243011
0.038759708404541016 0.19379842281341553 0.3402211666107178
0.038759708404541016 0.20930230617523193 -0.33553415536880493
0.03875970467925072 0.20930230617523193 -0.22472910583019257
0.038759708404541016 0.20930230617523193 0.2101024091243744
0.038759708404541016 0.20930230617523193 0.3410092890262604
0.038759708404541016 0.22480618953704834 -0.33393916487693787
0.038759708404541016 0.22480617463588715 -0.2232302576303482
0.038759708404541016 0.22480618953704834 0.20519554615020752
0.038759708404541016 0.22480618953704834 0.3416901230812073
0.03875970467925072 0.24031007289886475 -0.33208149671554565
0.038759708404541016 0.24031007289886475 -0.2225710153579712
0.038759708404541016 0.24031007289886475 0.1988031566143036
0.038759708404541016 0.24031007289886475 0.34229522943496704
0.038759708404541016 0.25581395626068115 -0.33051812648773193
0.038759708404541016 0.25581395626068115 -0.2218644917011261
0.038759708404541016 0.25581395626068115 0.1917688399553299
0.038759708404541016 0.25581395626068115 0.34249842166900635
0.038759708404541016 0.27131783962249756 -0.32946351170539856
0.038759708404541016 0.27131783962249756 -0.22126129269599915
0.038759708404541016 0.27131783962249756 0.18546417355537415
0.038759708404541016 0.27131783962249756 0.34240326285362244
0.038759708404541016 0.28682172298431396 -0.3285980820655823
0.038759708404541016 0.28682172298431396 -0.22090882062911987
0.038759708404541016 0.28682172298431396 0.17860852181911469
0.038759708404541016 0.28682172298431396 0.34193775057792664
0.038759708404541016 0.30232560634613037 -0.3277169466018677
0.038759708404541016 0.30232560634613037 -0.2191842943429947
0.038759708404541016 0.30232560634613037 0.16041825711727142
0.038759708404541016 0.30232560634613037 0.341094970703125
0.038759708404541016 0.3178294897079468 -0.3265291452407837
0.038759708404541016 0.3178294897079468 -0.21831047534942627
0.038759708404541016 0.3178294897079468 0.14584897458553314
0.038759708404541016 0.3178294897079468 0.3402252793312073
0.038759708404541016 0.3333333730697632 -0.324914813041687
0.038759708404541016 0.3333333730697632 -0.21786782145500183
0.038759708404541016 0.3333333730697632 0.1381092071533203
0.038759708404541016 0.3333333730697632 0.3394266963005066
0.038759708404541016 0.3488372564315796 -0.32257264852523804
0.038759708404541016 0.3488372564315796 -0.21718372404575348
0.038759708404541016 0.3488372564315796 0.12849897146224976
0.038759708404541016 0.3488372564315796 0.33830419182777405
0.038759708404541016 0.364341139793396 -0.3200516700744629
0.038759708404541016 0.364341139793396 -0.2156863957643509
0.038759708404541016 0.364341139793396 0.11668654531240463
0.038759708404541016 0.364341139793396 0.33684036135673523
0.03875970467925072 0.37984490394592285 -0.3170626759529114
0.038759708404541016 0.37984490394592285 -0.2130971997976303
0.038759708404541016 0.37984493374824524 0.10078500956296921
0.038759708404541016 0.37984490394592285 0.334983229637146
0.038759708404541016 0.39534878730773926 -0.31281185150146484
0.038759708404541016 0.39534878730773926 -0.21041589975357056
0.038759708404541016 0.39534878730773926 0.08724084496498108
0.038759708404541016 0.39534878730773926 0.3326414227485657
0.038759708404541016 0.41085267066955566 -0.3089958727359772
0.038759708404541016 0.41085267066955566 -0.20665568113327026
0.038759708404541016 0.41085267066955566 0.07443412393331528
0.038759708404541016 0.41085267066955566 0.32832106947898865
0.038759708404541016 0.42635655403137207 -0.3040127158164978
0.038759708404541016 0.42635655403137207 -0.2034323811531067
0.038759708404541016 0.42635655403137207 0.06419312208890915
0.038759708404541016 0.42635655403137207 0.32418394088745117
0.038759708404541016 0.4418604373931885 -0.2990075945854187
0.038759708404541016 0.4418604373931885 -0.2015259861946106
0.038759708404541016 0.4418604373931885 0.0531146340072155
0.038759708404541016 0.4418604373931885 0.31933414936065674
0.038759708404541016 0.4573643207550049 -0.2945905923843384
0.038759708404541016 0.4573643207550049 -0.20093375444412231
0.038759708404541016 0.45736435055732727 0.04065270349383354
0.038759708404541016 0.4573643207550049 0.3142907917499542
0.038759708404541016 0.4728682041168213 -0.28871849179267883
0.038759708404541016 0.4728682041168213 -0.20113743841648102
0.038759712129831314 0.4728682339191437 0.025433532893657684
0.038759708404541016 0.4728682339191437 0.3094947934150696
0.038759708404541016 0.4883720874786377 -0.28414344787597656
0.038759708404541016 0.4883720576763153 -0.2031884789466858
0.038759708404541016 0.4883720874786377 0.004972886294126511
0.038759708404541016 0.4883720874786377 0.30465933680534363
0.038759708404541016 0.5038759708404541 -0.2810192108154297
0.038759708404541016 0.5038759708404541 -0.20562216639518738
0.038759708404541016 0.5038759708404541 -0.00963921844959259
0.038759708404541016 0.5038759708404541 0.3000361919403076
0.038759708404541016 0.5193798542022705 -0.27698349952697754
0.038759708404541016 0.5193798542022705 -0.20838557183742523
0.038759708404541016 0.5193798542022705 -0.00838792696595192
0.038759708404541016 0.5193798542022705 0.2958245277404785
0.038759708404541016 0.5348837375640869 -0.27356216311454773
0.038759708404541016 0.5348837375640869 -0.20985235273838043
0.038759708404541016 0.5348837375640869 -0.00801871344447136
0.038759708404541016 0.5348837375640869 0.292520672082901
0.038759708404541016 0.5503875613212585 -0.27129054069519043
0.038759708404541016 0.5503876209259033 -0.2108490914106369
0.038759708404541016 0.5503876209259033 -0.0029246436897665262
0.038759708404541016 0.5503876209259033 0.28725409507751465
0.038759708404541016 0.5658915042877197 -0.26901161670684814
0.038759708404541016 0.5658915042877197 -0.2106810361146927
0.038759708404541016 0.5658915042877197 -0.002310770796611905
0.038759708404541016 0.5658915042877197 0.2812916934490204
0.038759708404541016 0.5813953876495361 -0.26730549335479736
0.038759708404541016 0.5813953876495361 -0.2106253206729889
0.038759708404541016 0.5813953876495361 0.002861011540517211
0.038759708404541016 0.5813953876495361 0.2758265435695648
0.038759708404541016 0.5968992710113525 -0.26560476422309875
0.038759708404541016 0.5968992710113525 -0.21010956168174744
0.038759708404541016 0.5968992710113525 0.0008682126644998789
0.038759708404541016 0.5968992710113525 0.267279714345932
0.038759708404541016 0.612403154373169 -0.26310449838638306
0.038759708404541016 0.612403154373169 -0.20954352617263794
0.038759708404541016 0.612403154373169 0.00024003605358302593
0.038759708404541016 0.612403154373169 0.2600930631160736
0.038759708404541016 0.6279069185256958 -0.2599708139896393
0.038759708404541016 0.6279069185256958 -0.20803970098495483
0.038759708404541016 0.6279069185256958 -0.004770133178681135
0.038759708404541016 0.6279069185256958 0.25096940994262695
0.038759708404541016 0.6434108018875122 -0.25630441308021545
0.038759708404541016 0.6434108018875122 -0.20525167882442474
0.038759708404541016 0.6434108018875122 -0.010670715942978859
0.038759708404541016 0.643410861492157 0.2432928830385208
0.038759708404541016 0.6589146852493286 -0.25187456607818604
0.038759708404541016 0.6589146852493286 -0.202021062374115
0.038759708404541016 0.6589146852493286 -0.012025551870465279
0.038759708404541016 0.6589146852493286 0.23500365018844604
0.038759708404541016 0.674418568611145 -0.24914172291755676
0.038759708404541016 0.674418568611145 -0.197932168841362
0.038759708404541016 0.674418568611145 -0.018308866769075394
0.038759708404541016 0.6744186282157898 0.22797417640686035
0.038759708404541016 0.6899224519729614 -0.24576270580291748
0.038759708404541016 0.6899224519729614 -0.19444052875041962
0.038759708404541016 0.6899224519729614 -0.017732346430420876
0.038759708404541016 0.6899224519729614 0.21970617771148682
0.038759708404541016 0.7054263353347778 -0.2413635551929474
0.038759708404541016 0.7054263353347778 -0.18717846274375916
0.038759708404541016 0.7054263353347778 -0.017646130174398422
0.038759708404541016 0.7054263353347778 0.21243906021118164
0.038759708404541016 0.7209302186965942 -0.23626144230365753
0.038759708404541016 0.7209302186965942 -0.18022234737873077
0.038759708404541016 0.7209302186965942 -0.018936313688755035
0.038759708404541016 0.7209302186965942 0.20385992527008057
0.038759708404541016 0.7364341020584106 -0.23338235914707184
0.038759708404541016 0.7364341020584106 -0.17059077322483063
0.038759708404541016 0.7364341020584106 -0.026018964126706123
0.038759708404541016 0.7364341020584106 0.19653348624706268
0.038759708404541016 0.751937985420227 -0.22864240407943726
0.038759708404541016 0.751937985420227 -0.16040606796741486
0.038759708404541016 0.751937985420227 -0.03753267973661423
0.038759708404541016 0.751937985420227 0.18758170306682587
0.038759708404541016 0.7674418687820435 -0.2223866879940033
0.038759708404541016 0.7674418687820435 -0.14813056588172913
0.038759708404541016 0.7674418687820435 -0.05276688188314438
0.038759708404541016 0.7674418687820435 0.17740899324417114
0.038759708404541016 0.7829457521438599 -0.21369831264019012
0.038759708404541016 0.7829457521438599 -0.13720032572746277
0.038759708404541016 0.7829457521438599 -0.07224734872579575
0.038759708404541016 0.7829457521438599 0.1680816411972046
0.038759708404541016 0.7984496355056763 -0.20248198509216309
0.038759708404541016 0.7984496355056763 -0.12915873527526855
0.038759708404541016 0.7984496355056763 -0.08294649422168732
0.038759708404541016 0.7984496355056763 0.1562127023935318
0.038759708404541016 0.8139535188674927 -0.1906159520149231
0.038759708404541016 0.8139535188674927 -0.11639006435871124
0.038759708404541016 0.8139535188674927 -0.09551847726106644
0.038759708404541016 0.8139535188674927 0.14336168766021729
0.038759708404541016 0.8294574022293091 -0.18147806823253632
0.038759708404541016 0.8294574618339539 0.13189157843589783
0.038759708404541016 0.8449613451957703 -0.1770096719264984
0.038759708404541016 0.8449612855911255 0.11991458386182785
0.038759708404541016 0.8604651689529419 -0.1719186007976532
0.038759708404541016 0.8604651093482971 0.10704469680786133
0.038759708404541016 0.8759689331054688 -0.16699975728988647
0.038759708404541016 0.8759689331054688 0.09274831414222717
0.038759708404541016 0.8914728164672852 -0.16290850937366486
0.038759708404541016 0.8914728164672852 0.07646329700946808
0.038759708404541016 0.9069766998291016 -0.15611717104911804
0.038759708404541016 0.9069766998291016 0.05559493601322174
0.038759708404541016 0.922480583190918 -0.14814114570617676
0.038759708404541016 0.922480583190918 0.032806143164634705
0.038759708404541016 0.9379844665527344 -0.13906008005142212
0.038759708404541016 0.9379844665527344 0.005542967468500137
0.038759708404541016 0.9534884095191956 -0.12789472937583923
0.038759708404541016 0.9534883499145508 -0.01779560185968876
0.038759708404541016 0.9689922332763672 -0.11793195456266403
0.038759708404541016 0.9689922332763672 -0.04130762070417404
0.038759708404541016 0.9844961762428284 -0.09638932347297668
0.038759708404541016 0.9844961166381836 -0.06838460266590118
0.05426359176635742 -0.9534883499145508 -0.015396758913993835
0.05426359176635742 -0.9534883499145508 0.029285257682204247
0.05426359176635742 -0.9379844665527344 -0.052006565034389496
0.05426359176635742 -0.9379844665527344 0.03332345560193062
0.05426359549164772 -0.9224806427955627 -0.06469808518886566
0.05426359176635742 -0.9224807024002075 0.03410755470395088
0.05426359176635742 -0.9069768190383911 -0.0736028403043747
0.05426359176635742 -0.9069766998291016 0.033073946833610535
0.05426359176635742 -0.8914729356765747 -0.07956754416227341
0.05426359176635742 -0.8914728164672852 0.030788373202085495
0.05426359176635742 -0.8759689927101135 -0.0875261053442955
0.05426359176635742 -0.8759689927101135 0.02825365588068962
0.05426359176635742 -0.8604651689529419 -0.09329551458358765
0.05426359176635742 -0.8604651093482971 0.027007952332496643
0.05426359176635742 -0.8449611663818359 -0.0981324315071106
0.05426359176635742 -0.8449612259864807 0.026172084733843803
0.05426359176635742 -0.8294573426246643 -0.10541974008083344
0.05426359176635742 -0.8294573426246643 0.02572469227015972
0.05426359176635742 -0.8139535188674927 -0.10934872925281525
0.05426359176635742 -0.8139535188674927 0.02641291543841362
0.05426359176635742 -0.7984496355056763 -0.11348557472229004
0.05426359176635742 -0.7984496355056763 0.028074953705072403
0.05426359176635742 -0.7829457521438599 -0.1192401647567749
0.05426359176635742 -0.7829457521438599 0.02955261990427971
0.05426359176635742 -0.7674418687820435 -0.12307433784008026
0.05426359176635742 -0.7674418687820435 0.03043511137366295
0.05426359176635742 -0.751937985420227 -0.12585797905921936
0.05426359176635742 -0.751937985420227 0.0312943235039711
0.05426359176635742 -0.7364341020584106 -0.12936636805534363
0.05426359176635742 -0.7364341020584106 0.03181888535618782
0.05426359176635742 -0.7209302186965942 -0.13424575328826904
0.05426359176635742 -0.7209302186965942 0.03242594748735428
0.05426359176635742 -0.7054263353347778 -0.1391434520483017
0.05426359176635742 -0.7054263353347778 0.034166861325502396
0.05426359176635742 -0.6899224519729614 -0.14518064260482788
0.05426359176635742 -0.6899224519729614 0.03661193326115608
0.05426359176635742 -0.674418568611145 -0.155267596244812
0.05426359176635742 -0.674418568611145 0.03910957649350166
0.05426359176635742 -0.6589146852493286 -0.16385513544082642
0.05426359176635742 -0.6589146852493286 0.04040617495775223
0.05426359176635742 -0.643410861492157 -0.17377869784832
0.05426359176635742 -0.643410861492157 0.04187342897057533
0.05426359176635742 -0.6279069781303406 -0.18354439735412598
0.05426359176635742 -0.6279069781303406 0.04342141002416611
0.05426359176635742 -0.6124030947685242 -0.19189703464508057
0.05426359176635742 -0.6124030947685242 0.04484068602323532
0.05426359176635742 -0.5968992114067078 -0.20307448506355286
0.05426359176635742 -0.5968992114067078 0.04604121670126915
0.05426359176635742 -0.5813953876495361 -0.21117787063121796
0.05426359176635742 -0.5813953876495361 0.04730759188532829
0.05426359549164772 -0.5658915042877197 -0.22053217887878418
0.05426359176635742 -0.5658915042877197 -0.03956284001469612
0.05426359176635742 -0.5658915042877197 -0.035690512508153915
0.05426359176635742 -0.5658915042877197 0.04864541441202164
0.05426359176635742 -0.5503876209259033 -0.22857338190078735
0.05426359176635742 -0.5503876209259033 -0.04931202158331871
0.05426359176635742 -0.5503876209259033 -0.017733711749315262
0.05426359176635742 -0.5503876209259033 0.0502607561647892
0.05426359176635742 -0.5348837375640869 -0.23627939820289612
0.05426359176635742 -0.5348837375640869 -0.054582029581069946
0.05426359176635742 -0.5348837375640869 -0.011734134517610073
0.05426359176635742 -0.5348837375640869 0.053254954516887665
0.05426359176635742 -0.5193798542022705 -0.24283266067504883
0.05426359176635742 -0.5193798542022705 -0.058070771396160126
0.05426359176635742 -0.5193798542022705 -0.006003201007843018
0.05426359176635742 -0.5193798542022705 0.056541718542575836
0.05426359176635742 -0.5038759708404541 -0.24981698393821716
0.05426359176635742 -0.5038759708404541 -0.059387486428022385
0.05426359176635742 -0.5038759708404541 -0.002111830748617649
0.05426359176635742 -0.5038759708404541 0.06082940846681595
0.05426359549164772 -0.4883720874786377 -0.25536176562309265
0.05426359176635742 -0.4883720874786377 -0.060074999928474426
0.05426359176635742 -0.4883720874786377 0.0023735901340842247
0.05426359176635742 -0.4883720874786377 0.06483924388885498
0.05426359176635742 -0.4728682041168213 -0.26148557662963867
0.05426359176635742 -0.4728682041168213 -0.061382003128528595
0.05426359176635742 -0.4728682041168213 0.0073182908818125725
0.05426359549164772 -0.4728682041168213 0.07124227285385132
0.05426359176635742 -0.4573643207550049 -0.26815858483314514
0.05426359176635742 -0.4573643207550049 -0.06389959901571274
0.05426359176635742 -0.4573643207550049 0.010344808921217918
0.05426359176635742 -0.4573643207550049 0.07830855995416641
0.05426359176635742 -0.4418604373931885 -0.27482369542121887
0.05426359176635742 -0.4418604373931885 -0.06806107610464096
0.05426359176635742 -0.4418604373931885 0.014299330301582813
0.05426359176635742 -0.4418604373931885 0.0877264067530632
0.05426359549164772 -0.42635661363601685 -0.2820655107498169
0.05426359176635742 -0.42635661363601685 -0.07209920883178711
0.05426359176635742 -0.42635661363601685 0.020356468856334686
0.05426359176635742 -0.42635661363601685 0.09936752170324326
0.05426359176635742 -0.41085273027420044 -0.28845900297164917
0.05426359176635742 -0.41085273027420044 -0.07592189311981201
0.05426359176635742 -0.41085273027420044 0.027373939752578735
0.05426359176635742 -0.41085273027420044 0.11252667009830475
0.05426359176635742 -0.39534884691238403 -0.293771892786026
0.05426359549164772 -0.39534884691238403 -0.0794464722275734
0.05426359176635742 -0.39534884691238403 0.03424756973981857
0.05426359176635742 -0.39534884691238403 0.12626324594020844
0.05426359176635742 -0.37984493374824524 -0.2984636723995209
0.05426359176635742 -0.3798449635505676 -0.15497106313705444
0.05426359176635742 -0.3798449635505676 -0.11949436366558075
0.05426359176635742 -0.3798449635505676 -0.08549661189317703
0.05426359549164772 -0.3798449635505676 0.03918876498937607
0.05426359176635742 -0.3798449635505676 0.13926227390766144
0.05426359176635742 -0.3643410801887512 -0.30280858278274536
