-0.23462995886802673 0.5813953876495361 -0.4728682041168213
-0.23657028377056122 0.5813953876495361 -0.08527129888534546
-0.23888128995895386 0.5968992710113525 -0.08527129888534546
-0.2313786745071411 0.5968992710113525 0.007751941680908203
-0.23171201348304749 0.6279069185256958 -0.007751941680908203
-0.22673587501049042 0.6434108018875122 -0.06976741552352905
-0.22790665924549103 0.6589146852493286 -0.06976741552352905
-0.23369477689266205 0.6589146852493286 -0.02325582504272461
-0.22528380155563354 0.674418568611145 -0.3643410801887512
-0.22527754306793213 0.674418568611145 -0.06976741552352905
-0.23574498295783997 0.6899224519729614 -0.038759708404541016
-0.23623627424240112 0.7054263353347778 -0.41085273027420044
-0.2308964729309082 0.7054263353347778 -0.22480618953704834
-0.23064979910850525 0.7054263353347778 -0.08527129888534546
-0.23899345099925995 0.7209302186965942 -0.3488371968269348
-0.2362774759531021 0.7209302186965942 -0.25581395626068115
-0.22599871456623077 0.7209302186965942 -0.19379842281341553
-0.2400672733783722 0.7209302186965942 -0.1782945990562439
-0.23808525502681732 0.7209302186965942 -0.10077518224716187
-0.23611022531986237 0.7209302186965942 -0.05426359176635742
-0.23283067345619202 0.7364341020584106 -0.3333333134651184
-0.23250755667686462 0.7364341020584106 -0.317829430103302
-0.2324991226196289 0.7364341020584106 -0.30232560634613037
-0.236175537109375 0.7364341020584106 -0.28682172298431396
-0.23555053770542145 0.7364341020584106 -0.27131783962249756
-0.2290785312652588 0.7364341020584106 -0.25581395626068115
-0.22492285072803497 0.7364341020584106 -0.1782945990562439
-0.23762516677379608 0.7364341020584106 -0.1627907156944275
-0.22504162788391113 0.7364341020584106 -0.10077518224716187
-0.2301120162010193 0.751937985420227 -0.3798449635505676
-0.22567524015903473 0.751937985420227 -0.30232560634613037
-0.2294476181268692 0.751937985420227 -0.28682172298431396
-0.23002317547798157 0.751937985420227 -0.27131783962249756
-0.22487492859363556 0.751937985420227 -0.25581395626068115
-0.23281311988830566 0.751937985420227 -0.14728683233261108
-0.23406390845775604 0.751937985420227 -0.13178294897079468
-0.22542701661586761 0.751937985420227 -0.11627906560897827
-0.2314864844083786 0.751937985420227 -0.06976741552352905
-0.2253222018480301 0.7674418687820435 -0.28682172298431396
-0.22589758038520813 0.7674418687820435 -0.27131783962249756
-0.235282763838768 0.7674418687820435 -0.08527129888534546
-0.23082396388053894 0.7829457521438599 -0.3643410801887512
-0.23785977065563202 0.7829458117485046 -0.10077518224716187
-0.23292407393455505 0.8139535188674927 -0.3488371968269348
-0.2381962537765503 0.8294574022293091 -0.333333283662796
-0.23508945107460022 0.8449612855911255 -0.317829430103302
-0.239027202129364 0.8449612855911255 -0.30232560634613037
-0.23963633179664612 0.8449612855911255 -0.1627907156944275
-0.22680161893367767 0.8449612855911255 -0.14728683233261108
-0.22796174883842468 0.8604651689529419 -0.30232560634613037
-0.23251096904277802 0.8604651689529419 -0.28682172298431396
-0.23531466722488403 0.8604651689529419 -0.27131783962249756
-0.23684124648571014 0.8604651689529419 -0.25581395626068115
-0.23758427798748016 0.8604651689529419 -0.24031007289886475
-0.23832446336746216 0.8604651689529419 -0.22480618953704834
-0.23927797377109528 0.8604651689529419 -0.20930230617523193
-0.23876571655273438 0.8604652285575867 -0.19379843771457672
-0.23564842343330383 0.8604651689529419 -0.1782945990562439
-0.22549498081207275 0.8604651689529419 -0.1627907156944275
-0.22654472291469574 0.8759689331054688 -0.25581395626068115
-0.22855524718761444 0.8759689331054688 -0.24031007289886475
-0.229098379611969 0.8759689331054688 -0.22480618953704834
-0.22869837284088135 0.8759689331054688 -0.20930230617523193
-0.22623339295387268 0.8759689331054688 -0.19379842281341553
-0.22195300459861755 -0.5348837375640869 -0.24031007289886475
-0.2097877562046051 -0.5348837375640869 -0.1627907156944275
-0.2101304829120636 -0.4883720874786377 -0.22480618953704834
-0.21488726139068604 -0.4883720874786377 -0.1627907156944275
-0.22044694423675537 -0.4728682041168213 -0.24031007289886475
-0.22290700674057007 -0.4728682041168213 -0.14728683233261108
-0.21238447725772858 -0.4573643207550049 -0.25581395626068115
-0.21108968555927277 -0.4573643207550049 -0.13178294897079468
-0.22176820039749146 -0.4418604373931885 -0.3643410801887512
-0.21812275052070618 -0.4418604075908661 -0.06976741552352905
-0.2125973105430603 -0.42635661363601685 -0.05426359176635742
-0.21428561210632324 -0.41085273027420044 -0.30232560634613037
-0.22073456645011902 -0.39534884691238403 -0.317829430103302
-0.21824857592582703 -0.39534884691238403 -0.11627907305955887
-0.2223246991634369 -0.3798449635505676 -0.02325582690536976
-0.22313162684440613 -0.36434105038642883 -0.007751941215246916
-0.21198740601539612 -0.3643410801887512 0.007751941680908203
-0.21568557620048523 -0.3488371968269348 0.02325582504272461
-0.21136684715747833 -0.3333333134651184 -0.3488371968269348
-0.21582135558128357 -0.3333333134651184 -0.06976741552352905
-0.21057556569576263 -0.3333333134651184 -0.05426359176635742
-0.21849478781223297 -0.3333333134651184 0.038759708404541016
-0.21083271503448486 -0.317829430103302 -0.42635661363601685
-0.2240181714296341 -0.317829430103302 -0.038759708404541016
-0.21206730604171753 -0.317829430103302 -0.02325582504272461
-0.21931874752044678 -0.317829430103302 0.05426359176635742
-0.22012896835803986 -0.30232560634613037 -0.007751941680908203
-0.21040432155132294 -0.30232560634613037 0.007751941680908203
-0.21725857257843018 -0.30232560634613037 0.06976747512817383
-0.21389058232307434 -0.28682172298431396 0.02325582504272461
-0.21128340065479279 -0.28682172298431396 0.08527135848999023
-0.21594557166099548 -0.27131783962249756 -0.3643410801887512
-0.2151336371898651 -0.27131783962249756 0.038759708404541016
-0.2215929925441742 -0.27131783962249756 0.08527135848999023
-0.21322882175445557 -0.25581395626068115 0.05426359176635742
-0.21694548428058624 -0.25581395626068115 0.10077524185180664
-0.21887633204460144 -0.22480618953704834 0.06976747512817383
-0.2209642231464386 -0.22480618953704834 0.11627912521362305
-0.21567052602767944 -0.20930230617523193 0.1317828893661499
-0.22251643240451813 -0.19379842281341553 -0.4883720874786377
-0.21694564819335938 -0.19379842281341553 0.08527135848999023
-0.21007247269153595 -0.19379842281341553 0.1472867727279663
-0.22130972146987915 -0.1782945990562439 0.1472867727279663
-0.2174387127161026 -0.1627907156944275 0.10077524185180664
-0.2166106104850769 -0.1627907156944275 0.16279065608978271
-0.21099814772605896 -0.14728683233261108 0.17829453945159912
-0.21679314970970154 -0.13178294897079468 0.11627912521362305
-0.2197336107492447 -0.13178294897079468 0.17829453945159912
-0.2120029181241989 -0.11627906560897827 0.19379842281341553
-0.21862301230430603 -0.10077518224716187 0.19379842281341553
-0.21706648170948029 -0.08527129888534546 0.1317828893661499
-0.2242836356163025 -0.08527129888534546 0.19379842281341553
-0.20941850543022156 -0.06976741552352905 -0.3643410801887512
-0.2175651490688324 -0.06976741552352905 0.1472867727279663
-0.21506036818027496 -0.06976741552352905 0.20930230617523193
-0.21001054346561432 -0.05426359176635742 -0.5038759708404541
-0.21302156150341034 -0.05426359176635742 0.16279065608978271
-0.22100093960762024 -0.05426358804106712 0.20930230617523193
-0.21698273718357086 -0.038759708404541016 -0.5038759708404541
-0.21607419848442078 -0.038759708404541016 0.16279065608978271
-0.2215016484260559 -0.02325582504272461 -0.5038759708404541
-0.20976142585277557 -0.02325582504272461 0.22480618953704834
-0.21976661682128906 -0.007751941680908203 0.1317828893661499
-0.21582689881324768 0.007751941680908203 0.11627912521362305
-0.22401390969753265 0.007751941680908203 0.20930230617523193
-0.21413874626159668 0.02325582504272461 0.10077524185180664
-0.22314289212226868 0.02325582504272461 0.20930230617523193
-0.22231623530387878 0.038759708404541016 -0.5038759708404541
-0.21144145727157593 0.038759708404541016 0.10077524185180664
-0.22322754561901093 0.038759708404541016 0.20930230617523193
-0.22151143848896027 0.05426359176635742 -0.5038759708404541
-0.21465981006622314 0.05426359176635742 0.10077524185180664
-0.2224513441324234 0.05426359176635742 0.20930230617523193
-0.22032581269741058 0.06976747512817383 -0.5038759708404541
-0.2148289829492569 0.06976747512817383 0.10077524185180664
-0.22044026851654053 0.06976747512817383 0.20930230617523193
-0.22013461589813232 0.08527135848999023 -0.5038759708404541
-0.22238361835479736 0.08527135848999023 0.08527135848999023
-0.21739961206912994 0.08527135848999023 0.20930230617523193
-0.22119733691215515 0.10077524185180664 -0.5038759708404541
-0.21633106470108032 0.10077524185180664 0.08527135848999023
-0.21233275532722473 0.10077524185180664 0.20930230617523193
-0.2212420105934143 0.11627911776304245 -0.5038759708404541
-0.21426606178283691 0.11627912521362305 0.08527135848999023
-0.22324402630329132 0.11627912521362305 0.19379842281341553
-0.21993622183799744 0.1317828893661499 -0.5038759708404541
-0.2156880795955658 0.1317828893661499 0.08527135848999023
-0.21828751266002655 0.1317828893661499 0.19379842281341553
-0.21896874904632568 0.1472867727279663 -0.5038759708404541
-0.21115733683109283 0.1472867727279663 0.19379842281341553
-0.2175154983997345 0.16279065608978271 -0.5038759708404541
-0.2217494249343872 0.16279065608978271 0.007751941215246916
-0.21964649856090546 0.16279065608978271 0.02325582504272461
-0.2123505026102066 0.16279065608978271 0.06976747512817383
-0.22333601117134094 0.16279065608978271 0.17829453945159912
-0.21472057700157166 0.17829453945159912 -0.5038759708404541
-0.21417966485023499 0.17829453945159912 -0.007751941680908203
-0.2135184407234192 0.17829453945159912 0.17829453945159912
-0.21303604543209076 0.19379842281341553 -0.02325582504272461
-0.2207852452993393 0.20930230617523193 -0.05426358804106712
-0.21305732429027557 0.20930230617523193 0.16279065608978271
-0.22054146230220795 0.22480618953704834 -0.06976741552352905
-0.21604642271995544 0.24031007289886475 -0.06976741552352905
-0.216077983379364 0.24031007289886475 0.1472867727279663
-0.2216978222131729 0.25581395626068115 -0.06976741552352905
-0.21918441355228424 0.27131783962249756 -0.05426359176635742
-0.22400514781475067 0.27131783962249756 0.1317828893661499
-0.22434845566749573 0.28682172298431396 -0.038759708404541016
-0.21146871149539948 0.28682172298431396 -0.02325582504272461
-0.20990821719169617 0.28682172298431396 0.1317828893661499
-0.22424066066741943 0.30232560634613037 -0.007751941680908203
-0.2204870581626892 0.30232560634613037 0.007751941680908203
-0.21881259977817535 0.30232560634613037 0.02325582504272461
-0.21395352482795715 0.30232560634613037 0.038759708404541016
-0.2219255119562149 0.3178294897079468 0.11627912521362305
-0.21642959117889404 0.3333333730697632 -0.42635661363601685
-0.21075284481048584 0.3333333730697632 0.06976747512817383
-0.21103882789611816 0.3333333730697632 0.11627912521362305
-0.21977850794792175 0.364341139793396 0.10077524930238724
-0.20979006588459015 0.37984490394592285 0.05426359176635742
-0.21388889849185944 0.39534878730773926 0.038759708404541016
-0.22179867327213287 0.41085267066955566 0.007751941680908203
-0.21030399203300476 0.41085267066955566 0.02325582504272461
-0.21853549778461456 0.41085267066955566 0.08527135848999023
-0.21406427025794983 0.42635655403137207 0.007751941680908203
-0.21177691221237183 0.42635655403137207 0.08527135848999023
-0.21122078597545624 0.4418604373931885 -0.4418604373931885
-0.22348769009113312 0.4418604373931885 -0.00775194214656949
-0.20989951491355896 0.4418604373931885 0.007751941680908203
-0.21509702503681183 0.4573643207550049 -0.4418604373931885
-0.2190742790699005 0.4573643207550049 -0.007751941680908203
-0.22296041250228882 0.4573643207550049 0.06976747512817383
-0.22451342642307281 0.4728681743144989 -0.4883720874786377
-0.2135126292705536 0.4728682041168213 -0.4418604373931885
-0.2149348258972168 0.4728682041168213 -0.007751941680908203
-0.21392226219177246 0.4728682041168213 0.06976747512817383
-0.22139042615890503 0.4883720874786377 -0.4883720874786377
-0.211513489484787 0.4883720874786377 -0.4418604373931885
-0.2218635380268097 0.4883720874786377 -0.02325582504272461
-0.21195769309997559 0.4883720874786377 -0.007751941680908203
-0.21702133119106293 0.5038759708404541 -0.4883720874786377
-0.2150263488292694 0.5038759708404541 -0.02325582504272461
-0.21964335441589355 0.5038759708404541 0.05426359176635742
-0.21098262071609497 0.5193798542022705 -0.4883720874786377
-0.2161991000175476 0.5193798542022705 -0.038759708404541016
-0.209784597158432 0.5193798542022705 0.05426359176635742
-0.22040100395679474 0.5348837375640869 -0.42635661363601685
-0.21585920453071594 0.5348837375640869 -0.05426359176635742
-0.22391349077224731 0.5348837375640869 0.038759708404541016
-0.21847188472747803 0.5503876209259033 -0.06976741552352905
-0.21576321125030518 0.5503876209259033 0.038759708404541016
-0.21844372153282166 0.5813953876495361 0.02325582504272461
-0.2175115942955017 0.5968992710113525 -0.4728682041168213
-0.21824514865875244 0.5968992710113525 -0.3798449635505676
-0.21144931018352509 0.612403154373169 -0.06976741552352905
-0.21965061128139496 0.612403154373169 0.007751941680908203
-0.21856749057769775 0.6279069185256958 -0.4573643207550049
-0.22077932953834534 0.6279069185256958 -0.06976741552352905
-0.20967628061771393 0.6279069185256958 0.007751941680908203
-0.22012928128242493 0.6434108018875122 -0.007751941680908203
-0.2170008420944214 0.6589146852493286 -0.4418604373931885
-0.2106928825378418 0.6589146852493286 -0.007751941680908203
-0.22161878645420074 0.674418568611145 -0.02325582318007946
-0.21933259069919586 0.6899224519729614 -0.42635661363601685
-0.21125058829784393 0.6899224519729614 -0.3643410801887512
-0.2173670530319214 0.6899224519729614 -0.06976741552352905
-0.21417281031608582 0.6899224519729614 -0.02325582504272461
-0.22335051000118256 0.7054263353347778 -0.038759708404541016
-0.22382840514183044 0.7209302186965942 -0.24031007289886475
-0.2176193743944168 0.7209302186965942 -0.22480618953704834
-0.2175975739955902 0.7209302186965942 -0.20930230617523193
-0.2191157341003418 0.7209302186965942 -0.08527129888534546
-0.21421489119529724 0.7209302186965942 -0.038759708404541016
-0.21863442659378052 0.7364341020584106 -0.39534884691238403
-0.22059476375579834 0.7364341020584106 -0.3488371968269348
-0.21967287361621857 0.7364341020584106 -0.24031007289886475
-0.2122810333967209 0.7364341020584106 -0.22480618953704834
-0.21326510608196259 0.7364341020584106 -0.19379842281341553
-0.2216757833957672 0.7364341616630554 -0.05426359176635742
-0.22300635278224945 0.751937985420227 -0.3333333134651184
-0.224705770611763 0.751937985420227 -0.3178294003009796
-0.2168627679347992 0.751937985420227 -0.24031007289886475
-0.22183337807655334 0.751937985420227 -0.1627907156944275
-0.21541792154312134 0.7674418687820435 -0.3333333134651184
-0.22005918622016907 0.7674418091773987 -0.317829430103302
-0.222079336643219 0.7674418687820435 -0.30232560634613037
-0.220375657081604 0.7674418687820435 -0.25581395626068115
-0.21432581543922424 0.7674418687820435 -0.24031007289886475
-0.21227198839187622 0.7674418687820435 -0.14728683233261108
-0.21552158892154694 0.7674418687820435 -0.13178294897079468
-0.21256975829601288 0.7674418687820435 -0.06976741552352905
-0.2146945744752884 0.7829457521438599 -0.317829430103302
-0.2175247222185135 0.7829457521438599 -0.30232560634613037
-0.21860633790493011 0.7829457521438599 -0.28682172298431396
-0.21542450785636902 0.7829457521438599 -0.27131783962249756
-0.21162225306034088 0.7829457521438599 -0.25581395626068115
-0.20963726937770844 0.7829457521438599 -0.24031007289886475
-0.2169933170080185 0.7829457521438599 -0.08527129888534546
-0.2098989486694336 0.7984496355056763 -0.3643410801887512
-0.21962854266166687 0.7984496355056763 -0.10077518224716187
-0.22159448266029358 0.8139535188674927 -0.11627906560897827
-0.2168227583169937 0.8294574022293091 -0.3488371968269348
-0.22406581044197083 0.8294574022293091 -0.13178294897079468
-0.22367240488529205 0.8449612855911255 -0.3333333134651184
-0.21237856149673462 0.8604651689529419 -0.3333333134651184
-0.2221982181072235 0.8604651689529419 -0.317829430103302
-0.21220731735229492 0.8604651689529419 -0.14728683233261108
-0.21713703870773315 0.8759689331054688 -0.30232560634613037
-0.22151723504066467 0.8759689331054688 -0.28682172298431396
-0.22390517592430115 0.8759689331054688 -0.27131783962249756
-0.22212040424346924 0.8759689331054688 -0.1782945990562439
-0.21217070519924164 0.8759689331054688 -0.1627907156944275
-0.2121220827102661 0.8914728164672852 -0.27131783962249756
-0.21625320613384247 0.8914728164672852 -0.25581395626068115
-0.21827852725982666 0.8914728164672852 -0.24031007289886475
-0.21878209710121155 0.8914728164672852 -0.22480618953704834
-0.21773408353328705 0.8914728164672852 -0.20930230617523193
-0.21409747004508972 0.8914728164672852 -0.19379842281341553
-0.19395752251148224 -0.5348837375640869 -0.25581395626068115
-0.20708067715168 -0.5193798542022705 -0.28682172298431396
-0.19403734803199768 -0.5038759708404541 -0.317829430103302
-0.2002813220024109 -0.4883720874786377 -0.3333333134651184
-0.1948367953300476 -0.4883720874786377 -0.10077518224716187
-0.19531989097595215 -0.4728682041168213 -0.08527129888534546
-0.19505122303962708 -0.4573643207550049 -0.06976741552352905
-0.20520107448101044 -0.4418604373931885 -0.27131783962249756
-0.19444780051708221 -0.4418604373931885 -0.05426359176635742
-0.2031547725200653 -0.42635661363601685 -0.3798449635505676
-0.20531544089317322 -0.42635658383369446 -0.28682172298431396
-0.19389192759990692 -0.42635661363601685 -0.038759708404541016
-0.20614686608314514 -0.41085273027420044 -0.11627906560897827
-0.20885096490383148 -0.41085273027420044 -0.038759708404541016
-0.19447091221809387 -0.41085273027420044 -0.02325582504272461
-0.20367707312107086 -0.39534884691238403 -0.39534884691238403
-0.20743289589881897 -0.39534884691238403 -0.02325582504272461
-0.19646583497524261 -0.39534884691238403 -0.007751941680908203
-0.20621468126773834 -0.37984493374824524 -0.3333333134651184
-0.20780958235263824 -0.3798449635505676 -0.007751941680908203
-0.1998956799507141 -0.3798449635505676 0.007751941680908203
-0.2047109156847 -0.3643410801887512 -0.10077518224716187
-0.20267823338508606 -0.3643410801887512 0.02325582504272461
-0.20424216985702515 -0.3488371968269348 -0.41085273027420044
-0.20311599969863892 -0.3488371968269348 -0.08527129888534546
-0.1944202035665512 -0.3488371968269348 -0.06976741552352905
-0.20457696914672852 -0.3488371968269348 0.038759708404541016
-0.19625650346279144 -0.3488371968269348 0.05426359176635742
-0.20378084480762482 -0.3333333134651184 -0.038759708404541016
-0.19577710330486298 -0.3333333134651184 -0.02325582504272461
-0.20599718391895294 -0.3333333134651184 0.05426359176635742
-0.19591791927814484 -0.3333333134651184 0.06976747512817383
-0.20259182155132294 -0.317829430103302 -0.007751941680908203
-0.1955951601266861 -0.317829430103302 0.007751941680908203
-0.20514169335365295 -0.317829430103302 0.06976747512817383
-0.2077629417181015 -0.30232560634613037 -0.4418604373931885
-0.19990183413028717 -0.30232560634613037 0.02325582504272461
-0.20286418497562408 -0.30232560634613037 0.08527135848999023
-0.19861212372779846 -0.28682172298431396 -0.4573643207550049
-0.19923701882362366 -0.28682172298431396 -0.3643410801887512
-0.20167145133018494 -0.28682172298431396 0.038759708404541016
-0.1970050036907196 -0.28682172298431396 0.10077524185180664
-0.19982363283634186 -0.27131783962249756 0.05426359176635742
-0.20502276718616486 -0.27131783962249756 0.10077524185180664
-0.2069779485464096 -0.25581395626068115 -0.4728682041168213
-0.19558236002922058 -0.25581395626068115 0.06976747512817383
-0.20102465152740479 -0.25581395626068115 0.11627912521362305
-0.20736145973205566 -0.24031007289886475 0.06976747512817383
-0.2092943638563156 -0.24031007289886475 0.11627912521362305
-0.1950363665819168 -0.24031007289886475 0.1317828893661499
-0.19676139950752258 -0.22480618953704834 0.08527135848999023
-0.20473848283290863 -0.22480618953704834 0.1317828893661499
-0.20298320055007935 -0.20930230617523193 -0.4883720874786377
-0.2062820941209793 -0.20930230617523193 0.08527135848999023
-0.20108601450920105 -0.20930230617523193 0.1472867727279663
-0.1952057033777237 -0.19379842281341553 0.10077524185180664
-0.19704636931419373 -0.19379842281341553 0.16279065608978271
-0.20534928143024445 -0.1782945990562439 0.10077523440122604
-0.20621535181999207 -0.1782945990562439 0.1627906709909439
-0.19608525931835175 -0.1627907156944275 0.11627912521362305
-0.20256081223487854 -0.1627907156944275 0.17829453945159912
-0.20574478805065155 -0.14728683233261108 0.11627912521362305
-0.19763191044330597 -0.14728683233261108 0.19379842281341553
-0.1972481906414032 -0.13178294897079468 0.1317828893661499
-0.2049073874950409 -0.13178294897079468 0.19379842281341553
-0.20444414019584656 -0.11627907305955887 0.1317828893661499
-0.1974266767501831 -0.11627906560897827 0.20930230617523193
-0.20927664637565613 -0.10077518224716187 0.1317828893661499
-0.19604003429412842 -0.10077518224716187 0.1472867727279663
-0.20289292931556702 -0.10077518224716187 0.20930230617523193
-0.19505304098129272 -0.08527129888534546 -0.5038759708404541
-0.20252785086631775 -0.08527129888534546 0.1472867727279663
-0.20732855796813965 -0.08527130633592606 0.20930230617523193
-0.20414818823337555 -0.06976741552352905 -0.5038759708404541
-0.20088225603103638 -0.06976741552352905 0.16279065608978271
-0.19776031374931335 -0.06976741552352905 0.22480618953704834
-0.19421394169330597 -0.05426359176635742 0.17829453945159912
-0.20363928377628326 -0.05426359176635742 0.22480618953704834
-0.19641143083572388 -0.038759708404541016 0.17829453945159912
-0.20809254050254822 -0.03875970467925072 0.22480618953704834
-0.20578768849372864 -0.02325582504272461 0.16279065608978271
-0.19626334309577942 -0.007751941680908203 0.1472867727279663
-0.20875446498394012 -0.007751941215246916 0.22480618953704834
-0.19412975013256073 0.007751941680908203 0.1317828893661499
-0.20816126465797424 0.007751941680908203 0.22480618953704834
-0.2008538395166397 0.02325582504272461 0.11627912521362305
-0.20789726078510284 0.02325582504272461 0.22480618953704834
-0.20035254955291748 0.038759708404541016 0.11627912521362305
-0.20754879713058472 0.038759708404541016 0.22480618953704834
-0.20466819405555725 0.05426359176635742 0.11627913266420364
-0.19636718928813934 0.05426359176635742 0.1317828893661499
-0.20594879984855652 0.05426359176635742 0.22480618953704834
-0.20494970679283142 0.06976747512817383 0.11627913266420364
-0.19659532606601715 0.06976747512817383 0.1317828893661499
-0.20313209295272827 0.06976747512817383 0.22480620443820953
-0.20780816674232483 0.08527135848999023 0.10077524185180664
-0.19594691693782806 0.08527135848999023 0.11627912521362305
-0.19860705733299255 0.08527135848999023 0.22480618953704834
-0.19438505172729492 0.10077524185180664 0.10077524185180664
-0.204940527677536 0.11627912521362305 0.20930230617523193
-0.19826094806194305 0.1317828893661499 0.20930230617523193
-0.2019106149673462 0.16279065608978271 0.19379842281341553
-0.19929239153862 0.17829453945159912 0.007751941680908203
-0.20849163830280304 0.19379842281341553 -0.5038759708404541
-0.19605909287929535 0.19379842281341553 -0.007751941680908203
-0.19985315203666687 0.19379842281341553 0.17829453945159912
-0.20347648859024048 0.20930230617523193 -0.5038759708404541
-0.2091808319091797 0.20930230617523193 -0.038759708404541016
-0.19545865058898926 0.20930230617523193 -0.02325582504272461
-0.19679972529411316 0.22480618953704834 -0.5038759708404541
-0.20680974423885345 0.22480618953704834 -0.05426359176635742
-0.19544778764247894 0.22480618953704834 -0.038759708404541016
-0.19690579175949097 0.22480618953704834 0.16279065608978271
-0.20113062858581543 0.24031007289886475 -0.05426359176635742
-0.20334362983703613 0.25581395626068115 -0.05426359176635742
-0.19985736906528473 0.25581395626068115 0.1472867727279663
-0.20269890129566193 0.27131783962249756 -0.038759708404541016
-0.19865168631076813 0.28682172298431396 -0.007751941680908203
-0.1969345062971115 0.30232560634613037 0.1317828893661499
-0.1954730749130249 0.3178294897079468 -0.42635661363601685
-0.20592662692070007 0.3488372564315796 0.06976747512817383
-0.19728609919548035 0.3488372564315796 0.11627912521362305
-0.2072669118642807 0.37984490394592285 0.10077524185180664
-0.19509343802928925 0.39534878730773926 -0.4418604373931885
-0.19387611746788025 0.39534878730773926 0.10077524185180664
-0.20129796862602234 0.41085267066955566 -0.4418604373931885
-0.2061598151922226 0.42635655403137207 -0.4418604373931885
-0.196360245347023 0.42635655403137207 0.02325582504272461
-0.2003638744354248 0.4418604373931885 0.08527135848999023
-0.20617005228996277 0.4573643207550049 0.00775194214656949
-0.20430044829845428 0.4728682041168213 0.007751941680908203
-0.20310890674591064 0.4883720874786377 0.007751941680908203
-0.19980064034461975 0.4883720874786377 0.06976747512817383
-0.20639880001544952 0.5038759708404541 -0.4418604373931885
-0.20753061771392822 0.5038759708404541 -0.007751941680908203
-0.19972367584705353 0.5038759708404541 0.007751941680908203
-0.1985742151737213 0.5193798542022705 -0.4418604373931885
-0.20695213973522186 0.5193798542022705 -0.02325582504272461
-0.20059417188167572 0.5193798542022705 -0.007751941680908203
-0.1940746307373047 0.5193798542022705 0.007751941680908203
-0.20363584160804749 0.5348837375640869 -0.4883720874786377
-0.20389094948768616 0.5348837375640869 -0.038759708404541016
-0.19647005200386047 0.5348837375640869 -0.02325582504272461
-0.19694030284881592 0.5348837375640869 0.05426359176635742
-0.1950550079345703 0.5503876209259033 -0.4883720874786377
-0.20360499620437622 0.5503876209259033 -0.42635661363601685
-0.20560473203659058 0.5503876209259033 -0.05426359176635742
-0.19382093846797943 0.5503876209259033 -0.038759708404541016
-0.20613105595111847 0.5658915042877197 -0.41085273027420044
-0.20916225016117096 0.565891444683075 -0.06976740807294846
-0.20342832803726196 0.5658915042877197 0.038759708404541016
-0.207362562417984 0.5813953876495361 -0.39534884691238403
-0.20329314470291138 0.5813953876495361 -0.06976741552352905
-0.19386442005634308 0.5968992710113525 -0.39534884691238403
-0.200508713722229 0.5968992710113525 -0.06976741552352905
-0.20807084441184998 0.5968992710113525 0.02325582504272461
-0.20450559258460999 0.612403154373169 -0.37984499335289
-0.19834527373313904 0.612403154373169 0.02325582504272461
-0.19728024303913116 0.6279069185256958 -0.3798449635505676
-0.20103046298027039 0.6434108018875122 0.007751941680908203
-0.2020605057477951 0.674418568611145 -0.007751941680908203
-0.19689077138900757 0.7054263353347778 -0.3643410801887512
-0.20784153044223785 0.7054262757301331 -0.06976741552352905
-0.20313404500484467 0.7054263353347778 -0.02325582504272461
-0.20712588727474213 0.7209302186965942 -0.41085273027420044
-0.20867328345775604 0.7364341616630554 -0.20930230617523193
-0.2026294618844986 0.7364341020584106 -0.08527129888534546
-0.20193561911582947 0.7364341020584106 -0.038759708404541016
-0.2063789963722229 0.751937985420227 -0.3488371968269348
-0.20830965042114258 0.751937985420227 -0.22480618953704834
-0.20362800359725952 0.751937985420227 -0.20930230617523193
-0.20312348008155823 0.751937985420227 -0.19379842281341553
-0.20760343968868256 0.751937985420227 -0.1782945990562439
-0.2052716314792633 0.751937985420227 -0.10077518224716187
-0.2064889371395111 0.751937985420227 -0.05426359549164772
-0.20504014194011688 0.7674418687820435 -0.3798449635505676
-0.20592881739139557 0.7674418687820435 -0.22480618953704834
-0.19873222708702087 0.7674418687820435 -0.20930230617523193
-0.19404616951942444 0.7674418687820435 -0.19379842281341553
-0.1991468369960785 0.7674418687820435 -0.1627907156944275
-0.2021569460630417 0.7674418687820435 -0.11627906560897827
-0.2046518325805664 0.7829457521438599 -0.3333333134651184
-0.20294879376888275 0.7829457521438599 -0.22480618953704834
-0.19472193717956543 0.7829457521438599 -0.20930230617523193
-0.20246297121047974 0.7984496355056763 -0.317829430103302
-0.20915110409259796 0.7984496355056763 -0.30232563614845276
-0.2053082138299942 0.7984496355056763 -0.28682172298431396
-0.19957071542739868 0.7984496355056763 -0.27131783962249756
-0.19924485683441162 0.7984496355056763 -0.25581395626068115
-0.20042172074317932 0.7984496355056763 -0.24031007289886475
-0.19696827232837677 0.7984496355056763 -0.22480618953704834
-0.1962507665157318 0.7984496355056763 -0.08527129888534546
-0.19653743505477905 0.8139535188674927 -0.3643410801887512
-0.20096081495285034 0.8139535188674927 -0.10077518224716187
-0.20448802411556244 0.8294574022293091 -0.11627906560897827
-0.2048749476671219 0.8449612855911255 -0.3488371968269348
-0.20774319767951965 0.8449613451957703 -0.13178294897079468
-0.20057597756385803 0.8759689331054688 -0.3333333134651184
-0.20906932651996613 0.8759689331054688 -0.3178294003009796
-0.19844385981559753 0.8759689331054688 -0.14728683233261108
-0.19497142732143402 0.8914728164672852 -0.317829430103302
-0.20398610830307007 0.8914728164672852 -0.30232560634613037
-0.20805828273296356 0.8914728164672852 -0.28682172298431396
-0.20771509408950806 0.8914728164672852 -0.1782945841550827
-0.19835913181304932 0.8914728164672852 -0.1627907156944275
-0.19876345992088318 0.9069766998291016 -0.27131783962249756
-0.20314334332942963 0.9069766998291016 -0.25581395626068115
-0.20512956380844116 0.9069766998291016 -0.24031007289886475
-0.20560505986213684 0.9069766998291016 -0.22480618953704834
-0.20454269647598267 0.9069766998291016 -0.20930230617523193
-0.200698584318161 0.9069766998291016 -0.19379842281341553
-0.18196667730808258 -0.5503876209259033 -0.20930230617523193
-0.18098440766334534 -0.5503876209259033 -0.19379842281341553
-0.18736335635185242 -0.5193798542022705 -0.13178294897079468
-0.180753692984581 -0.5038759708404541 -0.20930230617523193
-0.19189119338989258 -0.5038759708404541 -0.19379840791225433
-0.1887539178133011 -0.5038759708404541 -0.1782945990562439
-0.19207094609737396 -0.5038759708404541 -0.11627906560897827
-0.18819843232631683 -0.4883720874786377 -0.14728683233261108
-0.19103595614433289 -0.4728682041168213 -0.3488371968269348
-0.18002252280712128 -0.4728682041168213 -0.25581395626068115
-0.18454918265342712 -0.4728682041168213 -0.13178294897079468
-0.1798955351114273 -0.4573643207550049 -0.27131783962249756
-0.18145792186260223 -0.4418604373931885 -0.28682172298431396
-0.18610882759094238 -0.42635661363601685 -0.30232560634613037
-0.19310513138771057 -0.42635661363601685 -0.11627906560897827
-0.1796194165945053 -0.42635661363601685 -0.02325582504272461
-0.1887892335653305 -0.41085273027420044 -0.317829430103302
-0.18378371000289917 -0.41085273027420044 -0.007751941680908203
-0.1788766235113144 -0.39534884691238403 -0.3333333134651184
-0.18741407990455627 -0.39534884691238403 0.00775194214656949
-0.1796322762966156 -0.39534884691238403 0.02325582504272461
-0.18990792334079742 -0.3798449635505676 -0.10077518224716187
-0.19002266228199005 -0.3798449635505676 0.02325582504272461
-0.18400445580482483 -0.3798449635505676 0.038759708404541016
-0.18791991472244263 -0.3643410801887512 -0.41085273027420044
-0.18385103344917297 -0.3643410801887512 -0.08527129888534546
-0.19361315667629242 -0.3643410801887512 0.038759708404541016
-0.18643629550933838 -0.3643410801887512 0.05426359176635742
-0.19036392867565155 -0.3488371968269348 -0.3488371968269348
-0.19059288501739502 -0.3488371968269348 -0.05426359176635742
-0.1865181028842926 -0.3488371968269348 -0.038759708404541016
-0.18107731640338898 -0.3488371968269348 -0.02325582504272461
-0.18683801591396332 -0.3488371968269348 0.06976747512817383
-0.18756014108657837 -0.3333333134651184 -0.42635661363601685
-0.18840929865837097 -0.3333333134651184 -0.007751941680908203
-0.1821434497833252 -0.3333333134651184 0.007751941680908203
-0.18572144210338593 -0.3333333134651184 0.08527135848999023
-0.17830993235111237 -0.317829430103302 -0.4418604373931885
-0.18757963180541992 -0.317829430103302 0.02325582504272461
-0.17970381677150726 -0.317829430103302 0.038759708404541016
-0.19225265085697174 -0.3178294003009796 0.08527135848999023
-0.18034210801124573 -0.317829430103302 0.10077524185180664
-0.18312421441078186 -0.30232560634613037 -0.3643410801887512
-0.19122904539108276 -0.30232560634613037 0.038759712129831314
-0.17978346347808838 -0.30232560634613037 0.05426359176635742
-0.18844114243984222 -0.30232560634613037 0.10077524185180664
-0.1898295134305954 -0.28682172298431396 0.05426359176635742
-0.18249183893203735 -0.28682172298431396 0.11627912521362305
-0.18430757522583008 -0.27131783962249756 0.06976747512817383
-0.18985477089881897 -0.27131783962249756 0.11627911776304245
-0.1789625734090805 -0.25581395626068115 0.08527135848999023
-0.186434805393219 -0.25581395626068115 0.1317828893661499
-0.18795368075370789 -0.24031007289886475 0.08527135848999023
-0.18198227882385254 -0.24031007289886475 0.1472867727279663
-0.1826590895652771 -0.22480618953704834 -0.4883720874786377
-0.17933958768844604 -0.22480618953704834 0.10077524185180664
-0.19081123173236847 -0.22480618953704834 0.1472867727279663
-0.18660186231136322 -0.20930230617523193 0.10077524185180664
-0.18757376074790955 -0.20930230617523193 0.16279065608978271
-0.17863968014717102 -0.19379842281341553 0.11627912521362305
-0.18418732285499573 -0.19379842281341553 0.17829453945159912
-0.1870158314704895 -0.1782945990562439 0.11627912521362305
-0.1931648850440979 -0.1782945990562439 0.17829453945159912
-0.1798722743988037 -0.1782945990562439 0.19379842281341553
-0.17993295192718506 -0.1627907156944275 0.1317828893661499
-0.18886993825435638 -0.1627907156944275 0.19379842281341553
-0.18873043358325958 -0.14728683233261108 0.1317828893661499
-0.1832013726234436 -0.14728683233261108 0.20930230617523193
-0.1835218071937561 -0.13178294897079468 0.1472867727279663
-0.1903555691242218 -0.13178294897079468 0.20930230617523193
-0.19115905463695526 -0.11627906560897827 0.1472867727279663
-0.1801479011774063 -0.11627906560897827 0.16279065608978271
-0.18069753050804138 -0.11627906560897827 0.22480618953704834
-0.18681594729423523 -0.10077518224716187 -0.5038759708404541
-0.18479889631271362 -0.10077518224716187 0.16279065608978271
-0.18638849258422852 -0.10077518224716187 0.22480618953704834
-0.19042961299419403 -0.08527129888534546 0.16279065608978271
-0.19063393771648407 -0.08527129888534546 0.22480618953704834
-0.18041540682315826 -0.06976741552352905 -0.3643410801887512
-0.18244940042495728 -0.06976741552352905 0.17829453945159912
-0.18411260843276978 -0.05426359176635742 0.24031007289886475
-0.1888987123966217 -0.038759708404541016 0.24031007289886475
-0.18578052520751953 -0.02325582504272461 0.17829453945159912
-0.19067221879959106 -0.02325582318007946 0.24031007289886475
-0.17987439036369324 -0.007751941680908203 0.16279065608978271
-0.19050180912017822 -0.007751941680908203 0.24031007289886475
-0.1903020739555359 0.007751941680908203 0.24031007289886475
-0.1867382973432541 0.02325582504272461 0.1317828893661499
-0.18964138627052307 0.02325582504272461 0.24031007289886475
-0.19009524583816528 0.038759708404541016 0.1317828893661499
-0.18810084462165833 0.038759708404541016 0.24031007289886475
-0.18572881817817688 0.05426359176635742 0.1472867727279663
-0.18500494956970215 0.05426359176635742 0.24031007289886475
-0.18396493792533875 0.06976747512817383 0.1472867727279663
-0.17894110083580017 0.06976747512817383 0.24031007289886475
-0.17870615422725677 0.08527135848999023 0.1317828893661499
-0.19110725820064545 0.10077524185180664 0.22480618953704834
-0.18375185132026672 0.11627912521362305 0.22480618953704834
-0.18779107928276062 0.1472867727279663 0.20930230617523193
-0.18249672651290894 0.16279065608978271 0.06976747512817383
-0.17867687344551086 0.17829453945159912 0.02325582504272461
-0.188726544380188 0.17829453945159912 0.19379842281341553
-0.18299901485443115 0.20930230617523193 0.17829453945159912
-0.18966037034988403 0.24031008780002594 -0.5038759708404541
-0.18705493211746216 0.24031007289886475 -0.3798449635505676
-0.18404856324195862 0.24031007289886475 -0.038759708404541016
-0.1786760687828064 0.24031007289886475 0.16279065608978271
-0.18504378199577332 0.25581395626068115 -0.5038759708404541
-0.18482978641986847 0.25581395626068115 -0.038759708404541016
-0.18142664432525635 0.27131783962249756 -0.5038759708404541
-0.1848348081111908 0.27131783962249756 -0.02325582504272461
-0.18377190828323364 0.27131783962249756 0.1472867727279663
-0.18053218722343445 0.28682172298431396 0.007751941680908203
-0.1833512932062149 0.3178294897079468 0.1317828893661499
-0.1794627159833908 0.3488372564315796 -0.4418604373931885
-0.1850185990333557 0.364341139793396 -0.4418604373931885
-0.18699723482131958 0.364341139793396 0.06976747512817383
-0.18262380361557007 0.364341139793396 0.11627912521362305
-0.19114868342876434 0.37984490394592285 -0.4418604373931885
-0.1821087896823883 0.41085267066955566 0.038759708404541016
-0.18054735660552979 0.41085267066955566 0.10077524185180664
-0.19030320644378662 0.4418604373931885 0.02325582504272461
-0.18827325105667114 0.4573643207550049 0.02325582504272461
-0.18667960166931152 0.4573643207550049 0.08527135848999023
-0.1913965791463852 0.4728682041168213 0.02325582504272461
-0.19143258035182953 0.4883720874786377 0.02325582690536976
-0.18282318115234375 0.5038759708404541 0.02325582504272461
-0.1846214234828949 0.5038759708404541 0.06976747512817383
-0.1858977973461151 0.5348837375640869 -0.4418604373931885
-0.1866772323846817 0.5348837375640869 -0.007751941680908203
-0.18182946741580963 0.5503876209259033 0.05426359176635742
-0.18363910913467407 0.5658915042877197 -0.4883720874786377
-0.18085192143917084 0.5658915042877197 -0.42635661363601685
-0.1897750347852707 0.5658915042877197 -0.05426359176635742
-0.1865290105342865 0.5813953876495361 -0.41085273027420044
-0.19104163348674774 0.5813953876495361 0.038759708404541016
-0.18199938535690308 0.612403154373169 -0.4728682041168213
-0.18032675981521606 0.612403154373169 -0.39534884691238403
-0.18576741218566895 0.6279069185256958 0.02325582504272461
-0.18165388703346252 0.6434108018875122 -0.4573643207550049
-0.18818381428718567 0.6434108018875122 -0.3798449635505676
-0.18173305690288544 0.6589146852493286 -0.3798449635505676
-0.17926770448684692 0.6589146852493286 -0.05426359176635742
-0.18895675241947174 0.6589146852493286 0.007751941680908203
-0.1903962790966034 0.674418568611145 -0.4418604373931885
-0.1815343201160431 0.674418568611145 -0.05426359176635742
-0.17961256206035614 0.6899224519729614 -0.05426359176635742
-0.19024240970611572 0.6899224519729614 -0.007751941680908203
-0.19115787744522095 0.7054263353347778 -0.42635664343833923
-0.18040579557418823 0.7054263353347778 -0.007751941680908203
-0.18169771134853363 0.7209302186965942 -0.3643410801887512
-0.19360873103141785 0.7209302186965942 -0.06976741552352905
-0.1899382472038269 0.7209302186965942 -0.02325582504272461
-0.1901319921016693 0.751937985420227 -0.39534884691238403
-0.17944000661373138 0.751937985420227 -0.08527129888534546
-0.18663692474365234 0.751937985420227 -0.038759708404541016
-0.1887524127960205 0.7674418687820435 -0.3488371968269348
-0.19375501573085785 0.7674418687820435 -0.1782945990562439
-0.1799595057964325 0.7674418687820435 -0.10077518224716187
-0.1898115873336792 0.7674418687820435 -0.05426359176635742
-0.18723443150520325 0.7829457521438599 -0.3798449635505676
-0.1871827393770218 0.7829457521438599 -0.19379842281341553
-0.1820847988128662 0.7829457521438599 -0.1782945990562439
-0.18002203106880188 0.7829457521438599 -0.1627907156944275
-0.18236272037029266 0.7829457521438599 -0.14728683233261108
-0.18544656038284302 0.7829457521438599 -0.13178294897079468
-0.19197049736976624 0.7829457521438599 -0.06976741552352905
-0.18723344802856445 0.7984496355056763 -0.3333333134651184
-0.18860521912574768 0.7984496355056763 -0.20930230617523193
-0.1794552057981491 0.7984496355056763 -0.19379842281341553
-0.18528106808662415 0.8139535188674927 -0.317829430103302
-0.1904701292514801 0.8139535188674927 -0.30232560634613037
-0.1878541111946106 0.8139535188674927 -0.28682172298431396
-0.18660978972911835 0.8139535188674927 -0.27131783962249756
-0.1887025386095047 0.8139535188674927 -0.25581395626068115
-0.19104619324207306 0.8139535188674927 -0.24031007289886475
-0.18815049529075623 0.8139535188674927 -0.22480618953704834
-0.18089407682418823 0.8139535188674927 -0.20930230617523193
-0.18395110964775085 0.8294574022293091 -0.3643410801887512
-0.17983518540859222 0.8294574022293091 -0.25581395626068115
-0.1810189187526703 0.8294574022293091 -0.24031007289886475
-0.17933861911296844 0.8294574022293091 -0.22480618953704834
-0.1812840849161148 0.8294574022293091 -0.10077518224716187
-0.18806371092796326 0.8449612855911255 -0.11627906560897827
-0.19302773475646973 0.8604651689529419 -0.3488371968269348
-0.19242796301841736 0.8604651689529419 -0.13178294897079468
-0.18000948429107666 0.8759689331054688 -0.3488371968269348
-0.1859961301088333 0.8914728164672852 -0.3333333134651184
-0.18347129225730896 0.8914728164672852 -0.14728683233261108
-0.17836108803749084 0.9069766998291016 -0.317829430103302
-0.18889044225215912 0.9069766998291016 -0.30232560634613037
-0.19314810633659363 0.9069766998291016 -0.28682172298431396
-0.19258689880371094 0.9069766998291016 -0.1782945990562439
-0.18241441249847412 0.9069766998291016 -0.1627907156944275
-0.18294543027877808 0.922480583190918 -0.27131783962249756
-0.18843242526054382 0.922480583190918 -0.25581395626068115
-0.19049325585365295 0.922480583190918 -0.24031007289886475
-0.19094835221767426 0.922480583190918 -0.22480618953704834
-0.189832866191864 0.922480583190918 -0.20930230617523193
-0.18564340472221375 0.922480583190918 -0.19379842281341553
-0.16830477118492126 -0.5503876209259033 -0.22480618953704834
-0.16565744578838348 -0.5503876209259033 -0.1782945990562439
-0.1675592064857483 -0.5348837375640869 -0.27131783962249756
-0.17333614826202393 -0.5348837375640869 -0.14728683233261108
-0.1732955276966095 -0.5193798542022705 -0.30232560634613037
-0.17123885452747345 -0.5038759708404541 -0.1627907156944275
-0.17583595216274261 -0.4883720874786377 -0.24031007289886475
-0.1758006066083908 -0.4573643207550049 -0.3643410801887512
-0.16809457540512085 -0.4573643207550049 -0.05426359176635742
-0.17800751328468323 -0.4418604373931885 -0.11627906560897827
-0.17477169632911682 -0.4418604373931885 -0.038759708404541016
-0.16689103841781616 -0.42635661363601685 -0.007751941680908203
-0.17347489297389984 -0.41085273027420044 -0.39534881711006165
-0.17378553748130798 -0.41085273027420044 0.007751941215246916
-0.16562604904174805 -0.41085273027420044 0.02325582504272461
-0.175482377409935 -0.39534884691238403 -0.10077518224716187
-0.17148596048355103 -0.39534884691238403 0.038759708404541016
-0.1635085642337799 -0.39534884691238403 0.05426359176635742
-0.16735203564167023 -0.3798449635505676 -0.41085273027420044
-0.16329778730869293 -0.3798449635505676 -0.08527129888534546
-0.17461228370666504 -0.3798449635505676 0.05426359549164772
-0.165207639336586 -0.3798449635505676 0.06976747512817383
-0.17247414588928223 -0.3643410801887512 -0.3488371968269348
-0.1734989881515503 -0.3643410801887512 -0.06976741552352905
-0.17037194967269897 -0.3643410801887512 -0.05426359176635742
-0.16848507523536682 -0.3643410801887512 -0.038759708404541016
-0.16551300883293152 -0.3643410801887512 -0.02325582504272461
-0.17545995116233826 -0.3643410801887512 0.06976747512817383
-0.16473735868930817 -0.3643410801887512 0.08527135848999023
-0.16450577974319458 -0.3488371968269348 -0.42635661363601685
-0.17551350593566895 -0.3488371968269348 -0.007751941680908203
-0.1696563959121704 -0.3488371968269348 0.007751941680908203
-0.16403990983963013 -0.3488371968269348 0.02325582504272461
-0.17437317967414856 -0.3488371968269348 0.08527135848999023
-0.17657649517059326 -0.3333333134651184 0.02325582504272461
-0.1672932654619217 -0.3333333134651184 0.038759708404541016
-0.17201605439186096 -0.3333333134651184 0.10077524185180664
-0.16779078543186188 -0.317829430103302 -0.3643410801887512
-0.1681026816368103 -0.317829430103302 0.05426359176635742
-0.16563692688941956 -0.317829430103302 0.11627912521362305
-0.1692231297492981 -0.30232560634613037 -0.4573643207550049
-0.16512957215309143 -0.30232560634613037 0.06976747512817383
-0.17321577668190002 -0.30232560634613037 0.11627912521362305
-0.17606906592845917 -0.28682172298431396 0.06976747512817383
-0.16742396354675293 -0.28682172298431396 0.1317828893661499
-0.17691853642463684 -0.27131783962249756 -0.4728682041168213
-0.1676836907863617 -0.27131783962249756 0.08527135848999023
-0.17539159953594208 -0.27131783962249756 0.1317828893661499
-0.17190870642662048 -0.25581395626068115 0.1472867727279663
-0.17011770606040955 -0.24031007289886475 0.10077524185180664
-0.16821622848510742 -0.24031007289886475 0.16279065608978271
-0.1628805547952652 -0.22480618953704834 0.11627912521362305
-0.1776691973209381 -0.22480620443820953 0.1627906709909439
-0.1639363318681717 -0.22480618953704834 0.17829453945159912
-0.1697969287633896 -0.20930230617523193 0.11627912521362305
-0.1740172654390335 -0.20930230617523193 0.17829453945159912
-0.16284966468811035 -0.19379842281341553 0.1317828893661499
-0.16984015703201294 -0.19379842281341553 0.19379842281341553
-0.17093747854232788 -0.1782945990562439 0.1317828893661499
-0.16368916630744934 -0.1782945990562439 0.20930230617523193
-0.17267760634422302 -0.1627907156944275 -0.3643410801887512
-0.1650521606206894 -0.1627907156944275 0.1472867727279663
-0.17360909283161163 -0.1627907156944275 0.20930230617523193
-0.1747695654630661 -0.14728683233261108 0.1472867727279663
-0.16443279385566711 -0.14728683233261108 0.22480618953704834
-0.1631319224834442 -0.13178294897079468 -0.5038759708404541
-0.1707426905632019 -0.13178294897079468 0.16279065608978271
-0.17334896326065063 -0.13178294897079468 0.22480618953704834
-0.1766643524169922 -0.11627906560897827 -0.5038759708404541
-0.1644771546125412 -0.11627906560897827 0.17829453945159912
-0.16932132840156555 -0.10077518224716187 0.17829453945159912
-0.16370154917240143 -0.10077518224716187 0.24031007289886475
-0.17390163242816925 -0.08527129888534546 0.17829455435276031
-0.16990530490875244 -0.08527129888534546 0.24031007289886475
-0.17606525123119354 -0.06976741552352905 0.24031005799770355
-0.16901300847530365 -0.05426359176635742 0.19379842281341553
-0.175480917096138 -0.038759708404541016 0.19379842281341553
-0.16701506078243256 -0.02325582504272461 0.19379842281341553
-0.16485998034477234 -0.02325582504272461 0.25581395626068115
-0.16325590014457703 -0.007751941680908203 0.17829453945159912
-0.1648280769586563 -0.007751941680908203 0.25581395626068115
-0.17148123681545258 0.007751941680908203 0.1472867727279663
-0.16335129737854004 0.007751941680908203 0.25581395626068115
-0.16461752355098724 0.02325582504272461 0.1472867727279663
-0.177095428109169 0.038759708404541016 0.1472867727279663
-0.17091955244541168 0.08527135848999023 0.24031007289886475
-0.17149153351783752 0.1317828893661499 0.22480618953704834
-0.17516103386878967 0.16279065608978271 0.20930230617523193
-0.1719028651714325 0.19379842281341553 0.19379842281341553
-0.16502177715301514 0.20930230617523193 -0.007751941680908203
-0.1724916398525238 0.22480618953704834 -0.02325582504272461
-0.1637393683195114 0.22480618953704834 0.17829453945159912
-0.16459156572818756 0.24031007289886475 -0.3798449635505676
-0.17797166109085083 0.28682172298431396 -0.5038759708404541
-0.16606274247169495 0.28682172298431396 -0.41085273027420044
