0.22480618953704834 0.5289965867996216 -0.02325582504272461
0.22480618953704834 0.5249869227409363 0.10077524185180664
0.22480618953704834 0.5374809503555298 -0.05426359176635742
0.22480618953704834 0.5404921770095825 0.20930230617523193
0.22480618953704834 0.5579259991645813 -0.25581395626068115
0.22480618953704834 0.5568066239356995 -0.02325582504272461
0.22480618953704834 0.5525078177452087 0.08527135848999023
0.22480618953704834 0.5773875117301941 -0.13178294897079468
0.22480618953704834 0.5752097964286804 -0.11627906560897827
0.22480620443820953 0.5722246170043945 -0.038759708404541016
0.22480618953704834 0.5727637410163879 0.19379842281341553
0.22480618953704834 0.5881713628768921 -0.1782945990562439
0.22480618953704834 0.5917978286743164 -0.1627907156944275
0.22480620443820953 0.5853485465049744 -0.14728683233261108
0.22480618953704834 0.5869007706642151 -0.10077518224716187
0.22480618953704834 0.5935465097427368 -0.038759708404541016
0.22480620443820953 0.5827354788780212 0.06976747512817383
0.22480618953704834 0.5979270339012146 -0.08527129888534546
0.22480618953704834 0.6018421649932861 -0.06976741552352905
0.22480618953704834 0.6020693778991699 -0.05426359176635742
0.22480618953704834 0.6022030711174011 -0.02325582504272461
0.22480618953704834 0.6099302768707275 0.05426359176635742
0.22480618953704834 0.6011490821838379 0.17829455435276031
0.22480618953704834 0.6181348562240601 -0.00775194214656949
0.22480618953704834 0.6273431181907654 0.038759708404541016
0.22480618953704834 0.6260056495666504 0.16279065608978271
0.22480618953704834 0.6287749409675598 0.007751941680908203
0.22480618953704834 0.6335662603378296 0.02325582504272461
0.22480618953704834 0.6583496332168579 -0.24031007289886475
0.22480618953704834 0.6544589996337891 0.1472867727279663
0.22480618953704834 0.6830492615699768 0.1317828893661499
0.22480618953704834 0.7047809958457947 -0.24031007289886475
0.22480618953704834 0.7157483100891113 -0.25581395626068115
0.22480618953704834 0.7082450985908508 0.11627912521362305
0.22480618953704834 0.7285283803939819 0.10077524185180664
0.22480618953704834 0.7456594109535217 0.08527135848999023
0.22480618953704834 0.7606697082519531 -0.27131783962249756
0.22480618953704834 0.7607432007789612 0.06976747512817383
0.22480618953704834 0.7794873118400574 -0.1627907156944275
0.22480618953704834 0.776529848575592 -0.14728683233261108
0.22480618953704834 0.7769300937652588 -0.13178294897079468
0.22480618953704834 0.7812438011169434 -0.11627906560897827
0.22480618953704834 0.7827456593513489 0.038759708404541016
0.22480618953704834 0.774208664894104 0.05426359176635742
0.22480618953704834 0.7979286313056946 -0.1782945990562439
0.22480618953704834 0.7901415824890137 -0.10077518224716187
0.22480618953704834 0.7974674105644226 0.007751941680908203
0.22480618953704834 0.7939503192901611 0.02325582504272461
0.22480618953704834 0.7997556924819946 -0.08527129143476486
0.22480618953704834 0.8070763349533081 -0.06976741552352905
0.22480618953704834 0.8105373382568359 -0.05426359176635742
0.22480618953704834 0.8101636171340942 -0.038759708404541016
0.22480618953704834 0.8076755404472351 -0.02325582504272461
0.22480618953704834 0.8022403120994568 -0.007751941680908203
0.22480618953704834 0.8316426277160645 -0.19379842281341553
0.22480618953704834 0.8552626371383667 -0.20930230617523193
0.22480618953704834 0.8721075057983398 -0.22480618953704834
0.22480618953704834 0.8824554681777954 -0.27131783962249756
0.22480618953704834 0.8871603012084961 -0.25581395626068115
0.22480618953704834 0.8827322721481323 -0.24031008780002594
0.24031007289886475 -0.46213221549987793 -0.13178294897079468
0.24031007289886475 -0.46868211030960083 -0.11627906560897827
0.24031007289886475 -0.4691157042980194 -0.10077518224716187
0.24031007289886475 -0.46416187286376953 -0.08527129888534546
0.24031007289886475 -0.4513663649559021 -0.14728683233261108
0.24031007289886475 -0.45417919754981995 -0.06976741552352905
0.24031007289886475 -0.4367455542087555 -0.1627907156944275
0.24031007289886475 -0.44113391637802124 -0.05426359176635742
0.24031007289886475 -0.42679792642593384 -0.038759708404541016
0.24031007289886475 -0.421231210231781 -0.1782945990562439
0.24031007289886475 -0.41123053431510925 -0.02325582504272461
0.24031007289886475 -0.40312445163726807 -0.19379842281341553
0.24031007289886475 -0.3986477851867676 -0.10077518224716187
0.24031007289886475 -0.3968125879764557 -0.08527129888534546
0.24031007289886475 -0.39103132486343384 -0.11627906560897827
0.24031007289886475 -0.38652119040489197 -0.06976741552352905
0.24031007289886475 -0.395033061504364 -0.007751941680908203
0.24031007289886475 -0.37780919671058655 -0.20930230617523193
0.24031008780002594 -0.37395593523979187 -0.13178294897079468
0.24031007289886475 -0.37383341789245605 -0.05426359549164772
0.24031007289886475 -0.37801408767700195 0.007751941680908203
0.24031007289886475 -0.35290253162384033 -0.14728683233261108
0.24031007289886475 -0.3605537414550781 -0.038759708404541016
0.24031007289886475 -0.36037617921829224 0.02325582318007946
0.24031007289886475 -0.34792619943618774 -0.22480618953704834
0.24031007289886475 -0.3474652171134949 -0.02325582504272461
0.24031007289886475 -0.33479446172714233 -0.007751941680908203
0.24031007289886475 -0.34574422240257263 0.038759708404541016
0.24031007289886475 -0.3191651701927185 -0.24031007289886475
0.24031007289886475 -0.32876136898994446 -0.1627907156944275
0.24031007289886475 -0.3216368854045868 0.007751941680908203
0.24031007289886475 -0.333034485578537 0.05426359176635742
0.24031007289886475 -0.3209110200405121 0.06976747512817383
0.24031007289886475 -0.3028152883052826 -0.1782945990562439
0.24031007289886475 -0.3065294623374939 0.02325582504272461
0.24031007289886475 -0.3055655062198639 0.08527135848999023
0.24031007289886475 -0.29728442430496216 -0.25581395626068115
0.24031007289886475 -0.2892027199268341 0.038759708404541016
0.24031007289886475 -0.2884100675582886 0.10077524185180664
0.24031007289886475 -0.26815468072891235 -0.27131783962249756
0.24031007289886475 -0.2628709673881531 -0.19379842281341553
0.24031007289886475 -0.267657995223999 0.05426359176635742
0.24031007289886475 -0.26979297399520874 0.11627912521362305
0.24031007289886475 -0.24877600371837616 0.1317828893661499
0.24031007289886475 -0.2370021641254425 0.06976747512817383
0.24031007289886475 -0.2258983850479126 0.1472867727279663
0.24031007289886475 -0.21539220213890076 -0.28682172298431396
0.24031007289886475 -0.20364558696746826 0.08527135848999023
0.24031007289886475 -0.20425531268119812 0.16279065608978271
0.24031007289886475 -0.1829826533794403 -0.20930230617523193
0.24031007289886475 -0.1849667876958847 0.10077524185180664
0.24031007289886475 -0.1845754086971283 0.17829453945159912
0.24031007289886475 -0.16859257221221924 0.11627912521362305
0.24031007289886475 -0.16582848131656647 0.1317828893661499
0.24031007289886475 -0.15766826272010803 0.1472867727279663
0.24031007289886475 -0.15793995559215546 0.19379842281341553
0.24031007289886475 -0.13262732326984406 0.16279065608978271
0.24031007289886475 -0.12907300889492035 0.20930230617523193
0.24031007289886475 -0.1153041273355484 -0.22480617463588715
0.24031007289886475 -0.10495101660490036 0.22480618953704834
0.24031007289886475 -0.0713619664311409 0.17829453945159912
0.24031007289886475 -0.07827693969011307 0.24031007289886475
0.24031007289886475 -0.05622422695159912 -0.24031007289886475
0.24031007289886475 -0.0438777431845665 0.25581395626068115
0.24031007289886475 -0.00961493980139494 0.19379842281341553
0.24031007289886475 0.008456802926957607 0.27131783962249756
0.24031007289886475 0.05265268683433533 0.20930230617523193
0.24031007289886475 0.07515288889408112 0.22480618953704834
0.24031007289886475 0.08204418420791626 0.28682172298431396
0.24031007289886475 0.11522307991981506 -0.24031007289886475
0.24031005799770355 0.1842632293701172 0.22480618953704834
0.24031007289886475 0.2075616717338562 -0.22480618953704834
0.24031007289886475 0.19946670532226562 0.20930230617523193
0.24031007289886475 0.215577632188797 0.17829453945159912
0.24031007289886475 0.21026359498500824 0.19379842281341553
0.24031007289886475 0.21886062622070312 0.28682172298431396
0.24031007289886475 0.2297133207321167 0.16279065608978271
0.24031007289886475 0.2998688519001007 -0.28682172298431396
0.24031007289886475 0.2884219288825989 -0.20930230617523193
0.24031007289886475 0.30538952350616455 0.16279065608978271
0.24031007289886475 0.3407523036003113 0.27131783962249756
0.24031007289886475 0.360604465007782 0.16279065608978271
0.24031007289886475 0.3741110563278198 0.1472867727279663
0.24031007289886475 0.39464429020881653 0.1317828893661499
0.24031007289886475 0.3922460675239563 0.25581395626068115
0.24031007289886475 0.4093037545681 -0.19379842281341553
0.24031007289886475 0.4132869839668274 -0.27131783962249756
0.24031007289886475 0.42204490303993225 0.11627912521362305
0.24031007289886475 0.4347462058067322 0.24031007289886475
0.24031007289886475 0.46550092101097107 -0.1782945990562439
0.24031007289886475 0.4702642560005188 0.10077524185180664
0.24031007289886475 0.48305198550224304 0.10077524185180664
0.24031007289886475 0.4808252453804016 0.22480618953704834
0.24031007289886475 0.5156429409980774 -0.25581395626068115
0.24031007289886475 0.5112961530685425 -0.038759708404541016
0.24031007289886475 0.5136537551879883 -0.02325582504272461
0.24031007289886475 0.5176403522491455 0.10077524185180664
0.24031005799770355 0.5263842940330505 -0.05426359176635742
0.24031007289886475 0.5302402377128601 -0.007751941680908203
0.24031007289886475 0.5239532589912415 0.20930230617523193
0.24031007289886475 0.545490562915802 -0.1782945990562439
0.24031007289886475 0.5486231446266174 -0.007751941680908203
0.24031007289886475 0.5567637085914612 -0.13178294897079468
0.24031007289886475 0.552739679813385 -0.11627906560897827
0.24031007289886475 0.5523238182067871 0.08527135848999023
0.24031007289886475 0.5590689182281494 0.19379842281341553
0.24031007289886475 0.5673133134841919 -0.1782945990562439
0.24031007289886475 0.5807135701179504 -0.1627907156944275
0.24031007289886475 0.5725098252296448 -0.14728683233261108
0.24031007289886475 0.575992226600647 -0.10077518224716187
0.24031007289886475 0.5788896083831787 0.06976747512817383
0.24031007289886475 0.5898517370223999 -0.08527129888534546
0.24031007289886475 0.5899822115898132 -0.06976741552352905
0.24031007289886475 0.58902907371521 0.17829453945159912
0.24031007289886475 0.6060493588447571 -0.24031007289886475
0.24031007289886475 0.6111707091331482 -0.007751941680908203
0.24031007289886475 0.6054255962371826 0.05426359176635742
0.24031007289886475 0.6219916939735413 0.007751941680908203
0.24031007289886475 0.6269649267196655 0.02325582504272461
0.24031007289886475 0.622096598148346 0.038759708404541016
0.24031007289886475 0.6161487698554993 0.16279065608978271
0.24031007289886475 0.6422932744026184 0.1472867727279663
0.24031007289886475 0.6710569858551025 0.1317828893661499
0.24031007289886475 0.7049726247787476 -0.25581395626068115
0.24031007289886475 0.7001100182533264 -0.24031007289886475
0.24031007289886475 0.6980112791061401 0.11627912521362305
0.24031007289886475 0.7178662419319153 0.10077524185180664
0.24031007289886475 0.7285376787185669 -0.27131783962249756
0.24031007289886475 0.7348076105117798 0.08527135848999023
0.24031007289886475 0.7493686676025391 0.06976747512817383
0.24031007289886475 0.7657681703567505 -0.1627907156944275
0.24031007289886475 0.7604848146438599 -0.14728683233261108
0.24031007289886475 0.761817216873169 -0.13178294897079468
0.24031007289886475 0.7633281946182251 0.05426359176635742
0.24031007289886475 0.7692070007324219 -0.11627905815839767
0.24031007289886475 0.7818822860717773 -0.10077518224716187
0.24031007289886475 0.7816444635391235 0.02325582504272461
0.24031007289886475 0.7754160761833191 0.038759708404541016
0.24031007289886475 0.7936587333679199 -0.08527129888534546
0.24031007289886475 0.7973679304122925 -0.02325582504272461
0.24031007289886475 0.7941175103187561 -0.007751941680908203
0.24031007289886475 0.7888531684875488 0.007751941680908203
0.24031007289886475 0.8063861727714539 -0.1782945990562439
0.24031007289886475 0.8000905513763428 -0.06976741552352905
0.24031008780002594 0.8024821877479553 -0.05426359176635742
0.24031007289886475 0.8010349869728088 -0.038759708404541016
0.24031008780002594 0.8465428352355957 -0.19379843771457672
0.24031007289886475 0.8724161386489868 -0.20930230617523193
0.24031007289886475 0.8903783559799194 -0.22480618953704834
0.24031007289886475 0.9029456973075867 -0.27131783962249756
0.24031007289886475 0.9038166999816895 -0.25581395626068115
0.24031007289886475 0.8996853828430176 -0.24031007289886475
0.25581395626068115 -0.4425221085548401 -0.13178294897079468
0.25581395626068115 -0.4517051875591278 -0.11627906560897827
0.25581395626068115 -0.4530060887336731 -0.10077518224716187
0.25581395626068115 -0.4491766095161438 -0.08527129888534546
0.25581395626068115 -0.43322932720184326 -0.14728683233261108
0.25581395626068115 -0.4390673041343689 -0.06976741552352905
0.25581395626068115 -0.41983503103256226 -0.1627907156944275
0.25581395626068115 -0.4261928200721741 -0.05426359176635742
0.25581395626068115 -0.4111323654651642 -0.038759708404541016
0.25581395626068115 -0.4048542380332947 -0.1782945990562439
0.25581395626068115 -0.38729745149612427 -0.19379842281341553
0.25581395626068115 -0.393495112657547 -0.02325582318007946
0.25581395626068115 -0.36609798669815063 -0.20930230617523193
0.25581395626068115 -0.3645361661911011 -0.11627906560897827
0.25581395626068115 -0.3715593218803406 -0.10077518224716187
0.25581395626068115 -0.3706127107143402 -0.08527129888534546
0.25581395626068115 -0.36449116468429565 -0.06976741552352905
0.25581395626068115 -0.3762756884098053 -0.007751941680908203
0.25581395626068115 -0.3496397137641907 -0.13178294897079468
0.25581395626068115 -0.35250380635261536 -0.05426359176635742
0.25581395626068115 -0.35922330617904663 0.007751941680908203
0.25581395626068115 -0.3386038541793823 -0.22480618953704834
0.25581395626068115 -0.34072113037109375 -0.038759708404541016
0.25581395626068115 -0.3434814214706421 0.02325582504272461
0.25581395626068115 -0.33255109190940857 -0.14728683233261108
0.25581395626068115 -0.3297306299209595 -0.02325582504272461
0.25581395626068115 -0.3186952769756317 -0.007751941680908203
0.25581395626068115 -0.33090177178382874 0.038759708404541016
0.25581395626068115 -0.3186151683330536 0.05426359176635742
0.25581395626068115 -0.31081706285476685 -0.24031007289886475
0.25581395626068115 -0.3118148744106293 -0.1627907156944275
0.25581395626068115 -0.30623868107795715 0.007751941680908203
0.25581395626068115 -0.3062228560447693 0.06976747512817383
0.25581395626068115 -0.2895185053348541 -0.25581395626068115
0.25581395626068115 -0.28890955448150635 -0.1782945990562439
0.25581395626068115 -0.2918805480003357 0.02325582504272461
0.25581395626068115 -0.2914204001426697 0.08527135848999023
0.25581395626068115 -0.2744426131248474 0.038759708404541016
0.25581395626068115 -0.2749115824699402 0.10077524185180664
0.25581395626068115 -0.25875410437583923 -0.27131783962249756
0.25581395626068115 -0.25745952129364014 0.11627912521362305
0.25581395626068115 -0.24588420987129211 -0.19379842281341553
0.25581395626068115 -0.25098568201065063 0.05426359176635742
0.25581395626068115 -0.23631642758846283 0.1317828893661499
0.25581395626068115 -0.21621167659759521 0.06976747512817383
0.25581395626068115 -0.21483302116394043 0.1472867727279663
0.25581395626068115 -0.20108050107955933 -0.28682172298431396
0.25581395626068115 -0.1946093887090683 0.08527135848999023
0.25581395626068115 -0.1793181598186493 0.10077524185180664
0.25581395626068115 -0.19342085719108582 0.16279065608978271
0.25581395626068115 -0.1760973334312439 -0.20930230617523193
0.25581395626068115 -0.16285721957683563 0.11627912521362305
0.25581395626068115 -0.17278598248958588 0.17829453945159912
0.25581395626068115 -0.1548532247543335 0.1317828893661499
0.25581395626068115 -0.13968530297279358 0.1472867727279663
0.25581395626068115 -0.1458652913570404 0.19379842281341553
0.25581395626068115 -0.11833766102790833 0.20930230617523193
0.25581395626068115 -0.11396710574626923 -0.22480618953704834
0.25581395626068115 -0.09939290583133698 0.16279065608978271
0.25581395626068115 -0.09330540895462036 0.22480618953704834
0.25581395626068115 -0.0691736489534378 -0.24031007289886475
0.25581395626068115 -0.06168919801712036 0.17829453945159912
0.25581395626068115 -0.06425251066684723 0.24031007289886475
0.25581395626068115 -0.02500833384692669 0.25581395626068115
0.25581395626068115 0.00475770328193903 0.19379842281341553
0.25581395626068115 0.03532307967543602 0.27131783962249756
0.25581395626068115 0.05961049720644951 0.20930230617523193
0.25581392645835876 0.08540626615285873 0.22480617463588715
0.25581395626068115 0.10545982420444489 -0.24031007289886475
0.25581395626068115 0.1791832149028778 0.22480618953704834
0.25581395626068115 0.20342318713665009 -0.22480618953704834
0.25581395626068115 0.2050391286611557 0.20930230617523193
0.25581395626068115 0.21953058242797852 0.16279065608978271
0.25581395626068115 0.21076452732086182 0.17829453945159912
0.25581395626068115 0.21238526701927185 0.19379842281341553
0.25581395626068115 0.23339740931987762 0.1472867727279663
0.25581395626068115 0.26378053426742554 -0.28682172298431396
0.25581395626068115 0.27659302949905396 -0.20930230617523193
0.25581395626068115 0.28485217690467834 0.1472867727279663
0.25581395626068115 0.3047669529914856 0.27131783962249756
0.25581395626068115 0.36490917205810547 0.1472867727279663
0.25581395626068115 0.372327983379364 0.25581395626068115
0.25581395626068115 0.3922785520553589 -0.27131783962249756
0.25581395626068115 0.38615682721138 0.1317828893661499
0.25581395626068115 0.41754359006881714 -0.19379842281341553
0.25581395626068115 0.4218425154685974 0.11627912521362305
0.25581395626068115 0.41602063179016113 0.24031007289886475
0.25581395626068115 0.4602869153022766 0.22480618953704834
0.25581395626068115 0.47947850823402405 -0.25581395626068115
0.25581395626068115 0.47564783692359924 -0.1782945990562439
0.25581395626068115 0.5148991346359253 -0.038759708404541016
0.25581395626068115 0.5118943452835083 -0.02325582504272461
0.25581395626068115 0.5059351921081543 0.20930230617523193
0.25581395626068115 0.523126482963562 -0.13178294897079468
0.25581395626068115 0.533484697341919 -0.05426359176635742
0.25581395626068115 0.5238982439041138 -0.007751941680908203
0.25581395626068115 0.5216698050498962 0.10077524930238724
0.25581395626068115 0.54204922914505 -0.11627905815839767
0.25581395626068115 0.5439930558204651 0.19379842281341553
0.25581395626068115 0.5563582181930542 -0.14728683233261108
0.25581395626068115 0.5602818131446838 0.08527135848999023
0.25581395626068115 0.5673626661300659 -0.24031008780002594
0.25581395626068115 0.5671350359916687 -0.1627907156944275
0.25581395626068115 0.5783846378326416 -0.10077518224716187
0.25581395626068115 0.5768942832946777 -0.05426359176635742
0.25581395626068115 0.5675875544548035 -0.007751941680908203
0.25581395626068115 0.5755509734153748 0.17829453945159912
0.25581395626068115 0.5964816212654114 -0.08527129888534546
0.25581395626068115 0.5946950912475586 -0.05426359176635742
0.25581395626068115 0.5843435525894165 0.06976747512817383
0.25581395626068115 0.6009351015090942 -0.06976741552352905
0.25581395626068115 0.6070543527603149 -0.007751941680908203
0.25581395626068115 0.6063224673271179 0.05426359176635742
0.25581395626068115 0.6045844554901123 0.16279065608978271
0.25581395626068115 0.6188651919364929 0.007751941680908203
0.25581395626068115 0.6242587566375732 0.02325582504272461
0.25581395626068115 0.6212470531463623 0.038759708404541016
0.25581395626068115 0.6336735486984253 -0.22480618953704834
0.25581395626068115 0.6304829120635986 0.1472867727279663
0.25581395626068115 0.6588573455810547 0.1317828893661499
0.25581395626068115 0.6857311725616455 0.11627912521362305
0.25581395626068115 0.7017686367034912 -0.25581395626068115
0.25581395626068115 0.6986327767372131 -0.24031007289886475
0.25581395626068115 0.6956433653831482 -0.22480618953704834
0.25581395626068115 0.7184976935386658 -0.27131783962249756
0.25581395626068115 0.7099030613899231 0.10077524185180664
0.25581395626068115 0.7288690805435181 0.08527135848999023
0.25581395626068115 0.7467697262763977 -0.1627907156944275
0.25581395626068115 0.7388551235198975 -0.14728683233261108
0.25581395626068115 0.744482159614563 -0.13178294897079468
0.25581395626068115 0.7510914206504822 0.05426359176635742
0.25581395626068115 0.7422406077384949 0.06976747512817383
0.25581395626068115 0.7529016733169556 -0.11627906560897827
0.25581395626068115 0.763085126876831 0.038759708404541016
0.25581395626068115 0.7684861421585083 -0.10077518224716187
0.25581395626068115 0.7807959318161011 -0.007751941680908203
0.25581395626068115 0.7769362926483154 0.007751941680908203
0.25581395626068115 0.7699898481369019 0.02325582504272461
0.25581395626068115 0.7835798263549805 -0.08527129888534546
0.25581395626068115 0.7912613153457642 -0.06976741552352905
0.25581395626068115 0.7931276559829712 -0.05426359176635742
0.25581395626068115 0.7912508249282837 -0.038759708404541016
0.25581395626068115 0.786669909954071 -0.02325582504272461
0.25581395626068115 0.8041540384292603 -0.1782945990562439
0.25581395626068115 0.8327094316482544 -0.28682172298431396
0.25581395626068115 0.850796639919281 -0.19379842281341553
0.25581395626068115 0.8819181323051453 -0.20930230617523193
0.25581395626068115 0.8954610824584961 -0.28682172298431396
0.25581395626068115 0.9017822742462158 -0.22480618953704834
0.25581395626068115 0.9167499542236328 -0.27131783962249756
0.25581395626068115 0.9171463251113892 -0.25581395626068115
0.25581395626068115 0.9126072525978088 -0.24031005799770355
0.27131783962249756 -0.430314838886261 -0.11627906560897827
0.27131783962249756 -0.4335431754589081 -0.10077518224716187
0.27131783962249756 -0.42862796783447266 -0.08527129888534546
0.27131783962249756 -0.4218946099281311 -0.13178294897079468
0.27131783962249756 -0.42068949341773987 -0.06976741552352905
0.27131783962249756 -0.3984234929084778 -0.1627907156944275
0.27131783962249756 -0.4105125069618225 -0.14728683233261108
0.27131783962249756 -0.40647754073143005 -0.05426359176635742
0.27131783962249756 -0.3854651153087616 -0.1782945990562439
0.27131783962249756 -0.3898114562034607 -0.038759708404541016
0.27131783962249756 -0.3714980483055115 -0.19379842281341553
0.27131783962249756 -0.3720541000366211 -0.02325582504272461
0.27131783962249756 -0.35334551334381104 -0.20930230617523193
0.27131783962249756 -0.3554397225379944 -0.007751941680908203
0.27131783962249756 -0.33889079093933105 -0.11627906560897827
0.27131783962249756 -0.3468262553215027 -0.10077518224716187
0.27131783962249756 -0.3468211591243744 -0.08527129888534546
0.27131783962249756 -0.3404805064201355 -0.06976741552352905
0.27131783962249756 -0.33370041847229004 -0.05426359176635742
0.27131783962249756 -0.34063154458999634 0.007751941680908203
0.27131783962249756 -0.329550176858902 -0.22480618953704834
0.27131783962249756 -0.32736608386039734 -0.13178294897079468
0.27131783962249756 -0.32276830077171326 -0.038759708404541016
0.27131783962249756 -0.3271912932395935 0.02325582504272461
0.27131783962249756 -0.302878201007843 -0.24031007289886475
0.27131783962249756 -0.31344202160835266 -0.14728683233261108
0.27131783962249756 -0.312444806098938 -0.02325582504272461
0.27131783962249756 -0.3025206923484802 -0.007751941680908203
0.27131783962249756 -0.31576815247535706 0.038759708404541016
0.27131783962249756 -0.3038719594478607 0.05426359176635742
0.27131783962249756 -0.2947961986064911 -0.1627907156944275
0.27131783962249756 -0.2906455397605896 0.007751941680908203
0.27131783962249756 -0.2918902039527893 0.06976747512817383
0.27131783962249756 -0.27987319231033325 -0.25581395626068115
0.27131783962249756 -0.27300629019737244 -0.1782945990562439
0.27131783962249756 -0.27663880586624146 0.02325582504272461
0.27131783962249756 -0.2773359417915344 0.08527135848999023
0.27131783962249756 -0.2587486505508423 0.038759708404541016
0.27131783962249756 -0.2613651156425476 0.10077524185180664
0.27131783962249756 -0.2475016713142395 -0.27131783962249756
0.27131783962249756 -0.24389274418354034 0.11627912521362305
0.27131783962249756 -0.22749805450439453 -0.19379842281341553
0.27131783962249756 -0.23169124126434326 0.05426359176635742
0.27131783962249756 -0.22368131577968597 0.1317828893661499
0.27131783962249756 -0.20347899198532104 0.06976747512817383
0.27131783962249756 -0.20358362793922424 0.1472867727279663
0.27131783962249756 -0.17969712615013123 -0.28682172298431396
0.27131783962249756 -0.1887127012014389 0.08527135848999023
0.27131783962249756 -0.1847558468580246 0.16279065608978271
0.27131783962249756 -0.17429159581661224 0.10077524185180664
0.27131783962249756 -0.16207410395145416 -0.20930229127407074
0.27131783962249756 -0.15599459409713745 0.11627912521362305
0.27131783962249756 -0.16066184639930725 0.17829453945159912
0.27131783962249756 -0.14374350011348724 0.1317828893661499
0.27131783962249756 -0.13339193165302277 0.19379842281341553
0.27131783962249756 -0.12042050063610077 0.1472867727279663
0.27131783962249756 -0.1124582588672638 -0.22480618953704834
0.27131783962249756 -0.10746024549007416 0.20930230617523193
0.27131783962249756 -0.08987332880496979 0.16279065608978271
0.27131783962249756 -0.07023129612207413 -0.24031007289886475
0.27131783962249756 -0.08095721155405045 0.22480618953704834
0.27131783962249756 -0.054922591894865036 0.17829453945159912
0.27131783962249756 -0.04809299483895302 0.24031008780002594
0.27131783962249756 -0.0015357208903878927 0.25581395626068115
0.27131783962249756 0.029191840440034866 0.19379842281341553
0.27131783962249756 0.06540709733963013 0.20930230617523193
0.27131783962249756 0.06675061583518982 0.27131783962249756
0.27131783962249756 0.08848702162504196 -0.24031007289886475
0.27131783962249756 0.10616771876811981 0.22480618953704834
0.27131783962249756 0.16715949773788452 0.22480618953704834
0.27131783962249756 0.19768917560577393 -0.22480618953704834
0.27131783962249756 0.21730366349220276 0.16279065608978271
0.27131783962249756 0.2121734321117401 0.17829453945159912
0.27131783962249756 0.21886801719665527 0.19379842281341553
0.27131783962249756 0.21324513852596283 0.20930230617523193
0.27131783962249756 0.23097366094589233 -0.28682172298431396
0.27131783962249756 0.23134639859199524 0.1472867727279663
0.27131783962249756 0.239705428481102 0.27131783962249756
0.27131783962249756 0.26462554931640625 -0.20930230617523193
0.27131783962249756 0.2992022633552551 0.1472867727279663
0.27131783962249756 0.34916260838508606 0.25581395626068115
0.27131783962249756 0.3700180947780609 -0.27131783962249756
0.27131783962249756 0.36611056327819824 0.1472867727279663
0.27131783962249756 0.39099234342575073 0.1317828893661499
0.27131783962249756 0.39723795652389526 0.24031007289886475
0.27131783962249756 0.4304960370063782 -0.19379842281341553
0.27131783962249756 0.4269999563694 0.11627912521362305
0.27131783962249756 0.44011765718460083 0.22480618953704834
0.27131783962249756 0.4499185383319855 -0.25581395626068115
0.27131783962249756 0.4848986864089966 0.20930230617523193
0.27131783962249756 0.49175360798835754 -0.1782945990562439
0.27131783962249756 0.52992844581604 -0.24031007289886475
0.27131783962249756 0.5315402746200562 -0.13178294897079468
0.27131783962249756 0.5297543406486511 -0.038759708404541016
0.27131783962249756 0.5215246677398682 -0.02325582504272461
0.27131783962249756 0.5301862955093384 -0.007751941680908203
0.27131783962249756 0.5269228219985962 0.10077524185180664
0.27131783962249756 0.5269392728805542 0.19379842281341553
0.27131783962249756 0.5497515797615051 -0.14728683233261108
0.27131783962249756 0.5568017959594727 -0.1627907156944275
0.27131783962249756 0.5614818930625916 -0.11627906560897827
0.27131783962249756 0.5630009770393372 -0.007751941680908203
0.27131783962249756 0.561225175857544 0.17829453945159912
0.27131783962249756 0.5752008557319641 -0.038759708404541016
0.27131783962249756 0.5703645944595337 0.08527135848999023
0.27131783962249756 0.5964235663414001 -0.22480618953704834
0.27131783962249756 0.5933069586753845 -0.10077518224716187
0.27131783962249756 0.5905903577804565 0.06976747512817383
0.27131783962249756 0.5914582014083862 0.16279065608978271
0.27131783962249756 0.6124886870384216 -0.08527129888534546
0.27131783962249756 0.6210576295852661 -0.06976741552352905
0.27131783962249756 0.626094400882721 -0.05426359176635742
0.27131783962249756 0.614231526851654 -0.038759708404541016
0.27131783962249756 0.6138960123062134 -0.007751941680908203
0.27131783962249756 0.6216340065002441 0.007751941680908203
0.27131783962249756 0.6275617480278015 0.02325582504272461
0.27131783962249756 0.6265799403190613 0.038759708404541016
0.27131783962249756 0.6124280691146851 0.05426359176635742
0.27131783962249756 0.618996798992157 0.1472867727279663
0.27131783962249756 0.6437584161758423 -0.20930230617523193
0.27131783962249756 0.6461151838302612 0.1317828893661499
0.27131783962249756 0.6730498671531677 0.11627912521362305
0.27131783962249756 0.6827752590179443 -0.19379842281341553
0.27131783962249756 0.7017723321914673 -0.25581395626068115
0.27131783962249756 0.6990272998809814 -0.24031007289886475
0.27131783962249756 0.6981040835380554 -0.22480618953704834
0.27131783962249756 0.6961473226547241 -0.20930230617523193
0.27131783962249756 0.6907011270523071 -0.19379842281341553
0.27131783962249756 0.698699414730072 0.10077524185180664
0.27131783962249756 0.7172657251358032 -0.27131783962249756
0.27131783962249756 0.7168325781822205 -0.1627907156944275
0.27131783962249756 0.7203792929649353 -0.14728683233261108
0.27131783962249756 0.7172881364822388 0.08527135848999023
0.27131783962249756 0.7306697368621826 -0.13178294897079468
0.27131783962249756 0.7327356338500977 0.06976747512817383
0.27131783962249756 0.7404070496559143 -0.11627906560897827
0.27131783962249756 0.7504613995552063 0.038759708404541016
0.27131783962249756 0.7451618313789368 0.05426359176635742
0.27131783962249756 0.7526387572288513 -0.10077518224716187
0.27131783962249756 0.7660790681838989 -0.007751941680908203
0.27131783962249756 0.7620651721954346 0.007751941680908203
0.27131783962249756 0.7580548524856567 0.02325582504272461
0.27131783962249756 0.7691316604614258 -0.08527130633592606
0.27131783962249756 0.7785464525222778 -0.06976741552352905
0.27131783962249756 0.7802619934082031 -0.05426359176635742
0.27131783962249756 0.7777585983276367 -0.038759708404541016
0.27131783962249756 0.7731486558914185 -0.02325582504272461
0.27131783962249756 0.7846115231513977 -0.1782945990562439
0.27131783962249756 0.8073785305023193 -0.28682172298431396
0.27131783962249756 0.8481789827346802 -0.19379842281341553
0.27131783962249756 0.8853905200958252 -0.20930230617523193
0.27131783962249756 0.9120233058929443 -0.28682172298431396
0.27131783962249756 0.9213597774505615 -0.24031007289886475
0.27131783962249756 0.9112364053726196 -0.22480620443820953
0.27131783962249756 0.926762044429779 -0.27131783962249756
0.27131783962249756 0.9269809722900391 -0.25581395626068115
0.28682172298431396 -0.39567673206329346 -0.13178294897079468
0.28682172298431396 -0.40576231479644775 -0.11627906560897827
0.28682172298431396 -0.4082975387573242 -0.10077518224716187
0.28682172298431396 -0.4049808979034424 -0.08527129888534546
0.28682172298431396 -0.38668859004974365 -0.14728683233261108
0.28682172298431396 -0.39397579431533813 -0.06976741552352905
0.28682172298431396 -0.37998974323272705 -0.05426359176635742
0.28682172298431396 -0.374500572681427 -0.1627907156944275
0.28682172298431396 -0.35360947251319885 -0.19379842281341553
0.28682172298431396 -0.36368751525878906 -0.1782945990562439
0.28682172298431396 -0.36404579877853394 -0.038759708404541016
0.28682172298431396 -0.3390064239501953 -0.20930230617523193
0.28682172298431396 -0.34726887941360474 -0.02325582504272461
0.28682172298431396 -0.33426859974861145 -0.007751941680908203
0.28682172298431396 -0.3185437023639679 -0.11627906560897827
0.28682172298431396 -0.3236856460571289 -0.10077518224716187
0.28682172298431396 -0.32404476404190063 -0.08527129888534546
0.28682172298431396 -0.3205762207508087 -0.06976741552352905
0.28682172298431396 -0.32281726598739624 0.007751941680908203
0.28682172298431396 -0.3170211613178253 -0.22480618953704834
0.28682172298431396 -0.30735474824905396 -0.13178294897079468
0.28682172298431396 -0.31317633390426636 -0.05426359176635742
0.28682172298431396 -0.3042304813861847 -0.038759708404541016
0.28682172298431396 -0.3107936382293701 0.02325582504272461
0.28682172298431396 -0.2903280258178711 -0.24031007289886475
0.28682172298431396 -0.2940477132797241 -0.14728683233261108
0.28682172298431396 -0.29363664984703064 -0.02325582504272461
0.28682172298431396 -0.29991650581359863 0.038759708404541016
0.28682172298431396 -0.2888781428337097 0.05426359176635742
0.28682172298431396 -0.2759871184825897 -0.1627907156944275
0.28682172298431396 -0.2844338119029999 -0.007751941680908203
0.28682172298431396 -0.2733285427093506 0.007751941680908203
0.28682172298431396 -0.2767959535121918 0.06976747512817383
0.28682172298431396 -0.2668546140193939 -0.25581395626068115
0.28682172298431396 -0.259480744600296 0.02325582504272461
0.28682172298431396 -0.2627023458480835 0.08527135848999023
0.28682172298431396 -0.25008365511894226 -0.1782945990562439
0.28682172298431396 -0.24061647057533264 0.038759708404541016
0.28682172298431396 -0.246893048286438 0.10077524185180664
0.28682172298431396 -0.2339339256286621 -0.27131783962249756
0.28682172298431396 -0.22929057478904724 0.11627912521362305
0.28682172298431396 -0.21011467278003693 -0.19379842281341553
0.28682172298431396 -0.21265365183353424 0.05426359176635742
0.28682172298431396 -0.20965009927749634 0.1317828893661499
0.28682172298431396 -0.1947699338197708 0.06976747512817383
0.28682172298431396 -0.18350091576576233 0.08527135848999023
0.28682172298431396 -0.19021008908748627 0.1472867727279663
0.28682172298431396 -0.16876912117004395 0.10077524185180664
0.28682172298431396 -0.1711975485086441 0.16279065608978271
0.28682172298431396 -0.14906305074691772 -0.20930230617523193
0.28682172298431396 -0.14828254282474518 0.11627912521362305
0.28682172298431396 -0.13302429020404816 -0.28682172298431396
0.28682172298431396 -0.14673002064228058 0.17829453945159912
0.28682172298431396 -0.12856177985668182 0.1317828893661499
0.28682172298431396 -0.12042120099067688 0.19379842281341553
0.28682172298431396 -0.11183874309062958 -0.22480618953704834
0.28682172298431396 -0.10647576302289963 0.1472867727279663
0.28682172298431396 -0.09465298056602478 0.20930230617523193
0.28682172298431396 -0.06993329524993896 -0.24031007289886475
0.28682172298431396 -0.07801543176174164 0.16279065608978271
0.28682172298431396 -0.06588424742221832 0.22480618953704834
0.28682172298431396 -0.04492567479610443 0.17829453945159912
0.28682172298431396 -0.027931418269872665 0.24031007289886475
0.28682172298431396 0.027313940227031708 0.25581395626068115
0.28682172298431396 0.04081922769546509 0.19379842281341553
0.28682172298431396 0.07227334380149841 -0.24031007289886475
0.28682172298431396 0.08421884477138519 0.20930230617523193
0.28682172298431396 0.12506121397018433 0.27131783962249756
0.28682172298431396 0.16759543120861053 0.27131783962249756
0.28682172298431396 0.1887466013431549 -0.22480618953704834
0.28682172298431396 0.1998480260372162 -0.28682172298431396
0.28682172298431396 0.20724739134311676 0.17829453945159912
0.28682172298431396 0.22398152947425842 0.1472867727279663
0.28682172298431396 0.21095922589302063 0.16279065608978271
0.28682172298431396 0.2172572910785675 0.19379842281341553
0.28682172298431396 0.20961420238018036 0.20930230617523193
0.28682172298431396 0.2538585662841797 -0.20930230617523193
0.28682172298431396 0.3142112195491791 0.1472867727279663
0.28682172298431396 0.31255534291267395 0.25581395626068115
0.28682172298431396 0.34623873233795166 -0.27131783962249756
0.28682172298431396 0.35636186599731445 0.1472867727279663
0.28682172298431396 0.3755480647087097 0.24031007289886475
0.28682172298431396 0.38265979290008545 0.1317828893661499
0.28682172298431396 0.4231164753437042 -0.25581395626068115
0.28682172298431396 0.4225856065750122 0.11627912521362305
0.28682172298431396 0.4196949899196625 0.22480618953704834
0.28682172298431396 0.4427272081375122 -0.19379842281341553
0.28682172298431396 0.46931952238082886 0.10077524185180664
0.28682172298431396 0.46328970789909363 0.20930230617523193
0.28682172298431396 0.4922127425670624 -0.24031007289886475
0.28682172298431396 0.505949854850769 -0.1782946139574051
0.28682172298431396 0.507979154586792 0.19379842281341553
0.28682172298431396 0.5307677388191223 -0.02325582504272461
0.28682172298431396 0.5485909581184387 -0.007751941680908203
0.28682172298431396 0.5451489686965942 0.17829453945159912
0.28682172298431396 0.5603806376457214 -0.22480618953704834
0.28682172298431396 0.5556260943412781 -0.1627907156944275
0.28682172298431396 0.55275559425354 -0.14728683233261108
0.28682172298431396 0.5508632659912109 -0.13178294897079468
0.28682172298431396 0.5534228682518005 -0.007751941680908203
0.28682172298431396 0.5629648566246033 0.08527135848999023
0.28682172298431396 0.5778101682662964 -0.11627906560897827
0.28682172298431396 0.5770058631896973 -0.02325582504272461
0.28682172298431396 0.5771593451499939 0.16279065608978271
0.28682172298431396 0.5844153165817261 0.06976747512817383
0.28682172298431396 0.607218861579895 -0.10077518224716187
0.28682172298431396 0.6076706647872925 0.05426359176635742
0.28682172298431396 0.6059994697570801 0.1472867727279663
0.28682172298431396 0.6181704998016357 -0.20930230617523193
0.28682172298431396 0.6253227591514587 -0.08527129888534546
0.28682172298431396 0.614597737789154 -0.02325582504272461
0.28682172298431396 0.6153267025947571 -0.007751941680908203
0.28682172298431396 0.6206248998641968 0.007751941680908203
0.28682172298431396 0.6261209845542908 0.02325582504272461
0.28682172298431396 0.6249312162399292 0.038759708404541016
0.28682172298431396 0.6333523988723755 -0.06976741552352905
0.28682172298431396 0.6370171904563904 -0.05426359176635742
0.28682172298431396 0.6295786499977112 -0.038759708404541016
0.28682172298431396 0.6325637102127075 0.1317828893661499
0.28682172298431396 0.6523458361625671 -0.19379842281341553
0.28682172298431396 0.6707019805908203 -0.1782945990562439
0.28682172298431396 0.6595980525016785 0.11627912521362305
0.28682172298431396 0.6832956075668335 -0.1627907156944275
0.28682172298431396 0.684573233127594 0.10077524185180664
0.28682172298431396 0.703149139881134 -0.25581395626068115
0.28682172298431396 0.7005231380462646 -0.24031007289886475
0.28682172298431396 0.6999431848526001 -0.22480618953704834
0.28682172298431396 0.699539303779602 -0.20930230617523193
0.28682172298431396 0.700201153755188 -0.19379842281341553
0.28682172298431396 0.7005012631416321 -0.14728683233261108
0.28682172298431396 0.7049233913421631 0.08527135848999023
0.28682172298431396 0.717819333076477 -0.27131783962249756
0.28682172298431396 0.712450385093689 -0.1782945990562439
0.28682172298431396 0.7171258926391602 -0.13178294897079468
0.28682172298431396 0.7201708555221558 0.06976747512817383
0.28682172298431396 0.7305865287780762 -0.11627906560897827
0.28682172298431396 0.7335801124572754 0.05426359176635742
0.28682172298431396 0.7407768964767456 -0.10077518224716187
0.28682172298431396 0.7492168545722961 -0.007751941680908203
0.28682172298431396 0.7474908828735352 0.007751941680908203
0.28682172298431396 0.7462097406387329 0.02325582504272461
0.28682172298431396 0.741331934928894 0.038759708404541016
0.28682172298431396 0.7662081718444824 -0.1782945990562439
0.28682172298431396 0.7533023357391357 -0.08527129888534546
0.28682172298431396 0.7633455395698547 -0.06976741552352905
0.28682172298431396 0.7658213376998901 -0.05426359176635742
0.28682172298431396 0.7620480060577393 -0.038759708404541016
0.28682172298431396 0.7562581300735474 -0.02325582504272461
0.28682172298431396 0.7920377254486084 -0.28682172298431396
0.28682172298431396 0.8406869769096375 -0.19379842281341553
0.28682172298431396 0.8852791786193848 -0.20930230617523193
0.28682172298431396 0.917427659034729 -0.22480618953704834
0.28682172298431396 0.9234122037887573 -0.28682172298431396
0.28682172298431396 0.9363107085227966 -0.27131783962249756
0.28682172298431396 0.9364556670188904 -0.25581395626068115
0.28682172298431396 0.9314623475074768 -0.24031007289886475
0.30232560634613037 -0.3692643344402313 -0.13178294897079468
0.30232560634613037 -0.37607789039611816 -0.11627906560897827
0.30232560634613037 -0.37914177775382996 -0.10077518224716187
0.30232560634613037 -0.37608590722084045 -0.08527129143476486
0.30232560634613037 -0.36898255348205566 -0.06976741552352905
0.30232560634613037 -0.3497615456581116 -0.1627907156944275
0.30232560634613037 -0.35974979400634766 -0.14728683233261108
0.30232560634613037 -0.35723334550857544 -0.05426359176635742
0.30232560634613037 -0.334490567445755 -0.19379842281341553
0.30232560634613037 -0.34274861216545105 -0.1782945990562439
0.30232560634613037 -0.3428967595100403 -0.038759708404541016
0.30232560634613037 -0.3228474259376526 -0.20930230617523193
0.30232560634613037 -0.32802823185920715 -0.02325582504272461
0.30232560634613037 -0.30523213744163513 -0.10077518224716187
0.30232560634613037 -0.3054240942001343 -0.08527129888534546
0.30232560634613037 -0.30241674184799194 -0.06976741552352905
0.30232560634613037 -0.3160414695739746 -0.007751941680908203
0.30232560634613037 -0.3066040873527527 0.007751941680908203
0.30232560634613037 -0.3017835319042206 -0.22480618953704834
0.30232560634613037 -0.289481520652771 -0.13178294897079468
0.30232560634613037 -0.2990822196006775 -0.11627906560897827
0.30232560634613037 -0.2936941385269165 -0.05426359176635742
0.30232560634613037 -0.2955481708049774 0.02325582504272461
0.30232560634613037 -0.276250422000885 -0.24031007289886475
0.30232560634613037 -0.2758198380470276 -0.14728683233261108
0.30232560634613037 -0.2862229347229004 -0.038759708404541016
0.30232560634613037 -0.2754216194152832 -0.02325582504272461
0.30232560634613037 -0.28518912196159363 0.038759708404541016
0.30232560634613037 -0.274277925491333 0.05426359176635742
0.30232560634613037 -0.25704920291900635 -0.1627907156944275
0.30232560634613037 -0.26597267389297485 -0.007751941680908203
0.30232560634613037 -0.2561132609844208 0.007751941680908203
0.30232560634613037 -0.262489914894104 0.06976747512817383
0.30232560634613037 -0.25311681628227234 -0.25581395626068115
0.30232560634613037 -0.2418202906847 0.02325582504272461
0.30232560634613037 -0.2486875057220459 0.08527135848999023
0.30232560634613037 -0.23155762255191803 -0.1782945990562439
0.30232560634613037 -0.2329714000225067 0.10077524185180664
0.30232560634613037 -0.21755635738372803 -0.27131783962249756
0.30232560634613037 -0.2209663689136505 0.038759708404541016
0.30232560634613037 -0.21563202142715454 0.11627912521362305
0.30232560634613037 -0.19587422907352448 -0.19379842281341553
0.30232560634613037 -0.2004992961883545 0.05426359176635742
0.30232560634613037 -0.19722980260849 0.1317828893661499
0.30232560634613037 -0.1892845630645752 0.06976747512817383
0.30232560634613037 -0.17981192469596863 0.08527135848999023
0.30232560634613037 -0.16429166495800018 0.10077524185180664
0.30232560634613037 -0.1771387755870819 0.1472867727279663
0.30232560634613037 -0.15636147558689117 0.16279065608978271
0.30232560634613037 -0.14507721364498138 -0.20930230617523193
0.30232560634613037 -0.13535955548286438 0.11627912521362305
0.30232560634613037 -0.13199160993099213 0.17829453945159912
0.30232560634613037 -0.11147516220808029 -0.22480618953704834
0.30232560634613037 -0.11525736004114151 0.1317828893661499
0.30232560634613037 -0.10786156356334686 0.19379842281341553
0.30232560634613037 -0.098454050719738 -0.28682172298431396
0.30232560634613037 -0.09088152647018433 0.1472867727279663
0.30232560634613037 -0.08109299838542938 0.20930230617523193
0.302325576543808 -0.06902655214071274 -0.24031007289886475
0.30232560634613037 -0.061711303889751434 0.16279065608978271
0.30232560634613037 -0.04897276684641838 0.22480620443820953
0.30232560634613037 -0.032542675733566284 0.17829453945159912
0.30232560634613037 -0.004477115347981453 0.24031007289886475
0.30232560634613037 0.06456535309553146 -0.24031007289886475
0.30232560634613037 0.054521314799785614 0.19379842281341553
0.30232560634613037 0.05841934680938721 0.25581395626068115
0.30232560634613037 0.13819928467273712 -0.28682172298431396
0.30232560634613037 0.13764598965644836 0.20930230617523193
0.30232560634613037 0.18131083250045776 -0.22480618953704834
0.30232560634613037 0.19189459085464478 0.17829453945159912
0.30232560634613037 0.18149909377098083 0.20930230617523193
0.30232560634613037 0.19516333937644958 0.16279065608978271
0.30232560634613037 0.2063388228416443 0.19379842281341553
0.30232560634613037 0.21155397593975067 0.1472867727279663
0.30232560634613037 0.23238642513751984 0.1317828893661499
0.30232560634613037 0.24823713302612305 -0.20930230617523193
0.30232560634613037 0.24526959657669067 0.25581395626068115
0.30232560634613037 0.27963608503341675 0.1317828893661499
0.30232560634613037 0.3182904124259949 -0.27131783962249756
0.30232560634613037 0.3505474925041199 0.24031007289886475
0.30232560634613037 0.3701035678386688 0.1317828893661499
0.30232560634613037 0.4020421504974365 -0.25581395626068115
0.30232560634613037 0.3993677794933319 0.22480618953704834
0.30232560634613037 0.4145210087299347 0.11627912521362305
0.30232560634613037 0.45415055751800537 -0.19379842281341553
0.30232560634613037 0.4544014632701874 0.10077524185180664
0.30232560634613037 0.4425530731678009 0.20930230617523193
0.30232560634613037 0.4643297791481018 -0.24031007289886475
0.30232560634613037 0.4871654510498047 0.19379842281341553
0.30232560634613037 0.5283554792404175 -0.22480618953704834
0.30232560634613037 0.5235757827758789 -0.1782945990562439
0.30232560634613037 0.5262622833251953 0.08527135848999023
0.30232560634613037 0.5277128219604492 0.17829453945159912
0.30232560634613037 0.5598578453063965 -0.1627907156944275
0.30232560634613037 0.5592637062072754 -0.14728683233261108
0.30232560634613037 0.5627793669700623 -0.13178294897079468
0.30232560634613037 0.5565296411514282 -0.02325582504272461
0.30232560634613037 0.5579630136489868 -0.007751941215246916
0.30232560634613037 0.5624701976776123 0.16279065608978271
0.30232560634613037 0.5720888376235962 -0.02325582504272461
0.30232560634613037 0.570216953754425 -0.007751941680908203
0.30232560634613037 0.5661306977272034 0.06976747512817383
0.30232560634613037 0.5892678499221802 -0.11627906560897827
0.30232560634613037 0.5926903486251831 0.05426359176635742
0.30232560634613037 0.5924994945526123 0.1472867727279663
0.30232560634613037 0.5972377061843872 -0.20930230617523193
0.30232560634613037 0.6088307499885559 -0.007751941680908203
0.30232560634613037 0.6180235147476196 -0.10077518224716187
0.30232560634613037 0.6162644624710083 -0.02325582504272461
0.30232560634613037 0.6135820746421814 0.00775194214656949
0.30232560634613037 0.6175380349159241 0.02325582504272461
0.30232560634613037 0.6145305037498474 0.038759708404541016
0.30232560634613037 0.6192792654037476 0.1317828893661499
0.30232560634613037 0.6375432014465332 -0.19379842281341553
0.30232560634613037 0.6344226002693176 -0.08527129888534546
0.30232560634613037 0.6401751041412354 -0.06976741552352905
0.30232560634613037 0.6419488787651062 -0.05426359176635742
0.30232560634613037 0.6331077814102173 -0.038759708404541016
0.30232560634613037 0.6569918394088745 -0.1782945990562439
0.30232560634613037 0.6450607180595398 0.11627912521362305
0.30232560634613037 0.6702060103416443 -0.1627907156944275
