-0.038759708404541016 -0.20930230617523193 0.12750527262687683
-0.038759708404541016 -0.19379842281341553 -0.19254326820373535
-0.038759708404541016 -0.19379842281341553 0.14323748648166656
-0.038759708404541016 -0.1782945990562439 -0.20064035058021545
-0.038759708404541016 -0.1782945990562439 0.15554937720298767
-0.038759708404541016 -0.1627907156944275 -0.21396669745445251
-0.038759708404541016 -0.1627907156944275 0.16559714078903198
-0.038759708404541016 -0.14728683233261108 -0.21825233101844788
-0.038759708404541016 -0.14728683233261108 0.1749650239944458
-0.038759708404541016 -0.13178294897079468 -0.21277263760566711
-0.038759708404541016 -0.13178294897079468 0.18326568603515625
-0.038759708404541016 -0.11627906560897827 -0.5531803965568542
-0.038759708404541016 -0.11627906560897827 -0.5405604243278503
-0.038759708404541016 -0.11627906560897827 -0.5041708946228027
-0.038759708404541016 -0.11627906560897827 -0.44157952070236206
-0.038759708404541016 -0.11627906560897827 -0.21095995604991913
-0.038759708404541016 -0.11627906560897827 0.19017109274864197
-0.038759708404541016 -0.10077518224716187 -0.5657646059989929
-0.038759708404541016 -0.10077518224716187 -0.5487731695175171
-0.038759708404541016 -0.10077518224716187 -0.20951049029827118
-0.038759708404541016 -0.10077518224716187 0.19716876745224
-0.038759708404541016 -0.08527129888534546 -0.20332449674606323
-0.038759708404541016 -0.08527129888534546 0.2029370665550232
-0.038759708404541016 -0.06976741552352905 -0.1972271054983139
-0.038759708404541016 -0.06976741552352905 0.208548903465271
-0.038759708404541016 -0.05426359176635742 -0.19454999268054962
-0.038759708404541016 -0.05426359176635742 0.21455901861190796
-0.038759708404541016 -0.038759708404541016 -0.1946439892053604
-0.038759708404541016 -0.038759708404541016 0.2187352031469345
-0.038759708404541016 -0.02325582504272461 -0.1964971125125885
-0.038759708404541016 -0.02325582504272461 0.2210070639848709
-0.038759708404541016 -0.007751941680908203 -0.19887205958366394
-0.038759708404541016 -0.007751941680908203 0.22158530354499817
-0.038759708404541016 0.007751941680908203 -0.19909068942070007
-0.038759708404541016 0.007751941680908203 0.22095894813537598
-0.038759708404541016 0.02325582504272461 -0.1985010802745819
-0.038759708404541016 0.02325582504272461 0.2191830724477768
-0.038759708404541016 0.038759708404541016 -0.19696363806724548
-0.038759708404541016 0.038759708404541016 0.21622996032238007
-0.038759708404541016 0.05426359176635742 -0.1973799765110016
-0.038759708404541016 0.05426359176635742 0.21148622035980225
-0.038759708404541016 0.06976747512817383 -0.19977331161499023
-0.038759708404541016 0.06976747512817383 0.20678219199180603
-0.038759708404541016 0.08527135848999023 -0.2032710313796997
-0.038759708404541016 0.08527135848999023 0.20256783068180084
-0.038759708404541016 0.10077524185180664 -0.567654013633728
-0.038759708404541016 0.10077524185180664 -0.5643259286880493
-0.038759708404541016 0.10077524185180664 -0.20652607083320618
-0.038759708404541016 0.10077524185180664 0.197701096534729
-0.038759708404541016 0.11627912521362305 -0.5683064460754395
-0.038759708404541016 0.11627912521362305 -0.5448017120361328
-0.038759708404541016 0.11627912521362305 -0.5111840963363647
-0.038759708404541016 0.11627912521362305 -0.439260333776474
-0.038759708404541016 0.11627911776304245 -0.20887668430805206
-0.038759708404541016 0.11627912521362305 0.19139046967029572
-0.038759708404541016 0.1317828893661499 -0.20782701671123505
-0.038759708404541016 0.1317828893661499 0.18524165451526642
-0.038759708404541016 0.1472867727279663 -0.20531249046325684
-0.038759708404541016 0.1472867727279663 0.17581240832805634
-0.038759708404541016 0.16279065608978271 -0.2025635838508606
-0.038759708404541016 0.16279065608978271 0.1659385710954666
-0.038759708404541016 0.17829453945159912 -0.1984180212020874
-0.038759708404541016 0.17829453945159912 0.1527041792869568
-0.038759708404541016 0.19379842281341553 -0.19461460411548615
-0.038759708404541016 0.19379842281341553 0.13672134280204773
-0.038759708404541016 0.20930230617523193 -0.18532690405845642
-0.038759708404541016 0.20930230617523193 0.11923994868993759
-0.038759708404541016 0.22480618953704834 -0.17871905863285065
-0.038759708404541016 0.22480618953704834 0.10062886029481888
-0.038759708404541016 0.24031007289886475 -0.16773943603038788
-0.038759708404541016 0.24031007289886475 0.08161479234695435
-0.038759708404541016 0.25581395626068115 -0.16293658316135406
-0.038759708404541016 0.25581395626068115 0.05881557986140251
-0.038759708404541016 0.27131783962249756 -0.15666323900222778
-0.038759708404541016 0.27131783962249756 0.028571870177984238
-0.038759708404541016 0.28682172298431396 -0.15746432542800903
-0.038759708404541016 0.28682172298431396 -0.008407064713537693
-0.038759708404541016 0.30232560634613037 -0.18838226795196533
-0.038759708404541016 0.30232560634613037 -0.051161013543605804
-0.038759708404541016 0.3178294897079468 -0.24039766192436218
-0.038759708404541016 0.3178294897079468 -0.11153815686702728
-0.038759708404541016 0.3333333730697632 -0.24193651974201202
-0.038759708404541016 0.3333333730697632 -0.2177262008190155
-0.02325582504272461 -0.30232560634613037 -0.2130585014820099
-0.02325582504272461 -0.30232560634613037 -0.11194370687007904
-0.02325582504272461 -0.28682172298431396 -0.14756134152412415
-0.02325582504272461 -0.28682172298431396 -0.029942531138658524
-0.02325582504272461 -0.27131783962249756 -0.13946062326431274
-0.02325582504272461 -0.27131783962249756 0.021337924525141716
-0.02325582504272461 -0.25581395626068115 -0.15174585580825806
-0.02325582504272461 -0.25581395626068115 0.06074594333767891
-0.02325582504272461 -0.24031007289886475 -0.16398164629936218
-0.02325582504272461 -0.24031007289886475 0.09274360537528992
-0.02325582504272461 -0.22480620443820953 -0.17288731038570404
-0.02325582504272461 -0.22480617463588715 0.11869373172521591
-0.02325582504272461 -0.20930230617523193 -0.1815091371536255
-0.02325582504272461 -0.20930230617523193 0.14037203788757324
-0.02325582504272461 -0.19379842281341553 -0.19461196660995483
-0.02325582504272461 -0.19379842281341553 0.15782353281974792
-0.02325582504272461 -0.1782945990562439 -0.2182307243347168
-0.02325582504272461 -0.1782945990562439 0.1712690144777298
-0.02325582504272461 -0.1627907156944275 -0.27315616607666016
-0.02325582690536976 -0.1627907156944275 0.1818762868642807
-0.02325582504272461 -0.14728683233261108 -0.3039325773715973
-0.02325582504272461 -0.14728683233261108 0.19093628227710724
-0.02325582504272461 -0.13178294897079468 -0.46778541803359985
-0.02325582504272461 -0.13178294897079468 -0.4278238117694855
-0.02325582504272461 -0.13178294897079468 -0.29936277866363525
-0.02325582504272461 -0.13178294897079468 0.1993667483329773
-0.02325582504272461 -0.11627906560897827 -0.5548185110092163
-0.02325582504272461 -0.11627906560897827 -0.4196432828903198
-0.02325582504272461 -0.11627907305955887 -0.21968699991703033
-0.02325582504272461 -0.11627906560897827 0.20606806874275208
-0.02325582504272461 -0.10077518224716187 -0.5636676549911499
-0.02325582504272461 -0.10077518224716187 -0.5201078653335571
-0.02325582504272461 -0.10077518224716187 -0.5189748406410217
-0.02325582504272461 -0.10077518224716187 -0.45566505193710327
-0.02325582504272461 -0.10077518224716187 -0.21040764451026917
-0.02325582504272461 -0.10077518969774246 0.21354949474334717
-0.02325582504272461 -0.08527129888534546 -0.20342548191547394
-0.02325582504272461 -0.08527129888534546 0.2202043980360031
-0.02325582504272461 -0.06976741552352905 -0.19681984186172485
-0.02325582504272461 -0.06976741552352905 0.2275872528553009
-0.02325582690536976 -0.05426359176635742 -0.193787083029747
-0.02325582504272461 -0.05426359176635742 0.2338894009590149
-0.02325582504272461 -0.038759708404541016 -0.19334208965301514
-0.02325582504272461 -0.038759708404541016 0.23937727510929108
-0.02325582504272461 -0.02325582504272461 -0.19478562474250793
-0.02325582504272461 -0.02325582504272461 0.2430613934993744
-0.02325582504272461 -0.007751941680908203 -0.19638589024543762
-0.02325582504272461 -0.007751941680908203 0.24370762705802917
-0.02325582504272461 0.007751941680908203 -0.19639982283115387
-0.02325582504272461 0.007751941680908203 0.24265950918197632
-0.02325582504272461 0.02325582504272461 -0.19614730775356293
-0.02325582504272461 0.02325582504272461 0.2397780567407608
-0.02325582504272461 0.038759708404541016 -0.19505542516708374
-0.02325582504272461 0.038759708404541016 0.2357475757598877
-0.02325582504272461 0.05426359176635742 -0.19562676548957825
-0.02325582504272461 0.05426359176635742 0.2304447740316391
-0.02325582504272461 0.06976747512817383 -0.1982291042804718
-0.02325582504272461 0.06976747512817383 0.2244679182767868
-0.02325582504272461 0.08527135848999023 -0.20272064208984375
-0.02325582504272461 0.08527135848999023 0.21937522292137146
-0.02325582504272461 0.10077524185180664 -0.5730463266372681
-0.02325582504272461 0.10077524185180664 -0.5546867847442627
-0.02325582504272461 0.10077524185180664 -0.20742176473140717
-0.02325582318007946 0.10077524185180664 0.21388114988803864
-0.02325582504272461 0.11627912521362305 -0.5680272579193115
-0.02325582504272461 0.11627912521362305 -0.4221850633621216
-0.02325582504272461 0.11627912521362305 -0.2120923399925232
-0.02325582504272461 0.11627912521362305 0.20705188810825348
-0.02325582504272461 0.1317828893661499 -0.4730062484741211
-0.02325582504272461 0.1317828893661499 -0.39353764057159424
-0.02325582504272461 0.1317828893661499 -0.2130454182624817
-0.02325582504272461 0.1317828893661499 0.20056352019309998
-0.02325582504272461 0.1472867727279663 -0.20949123799800873
-0.02325582504272461 0.1472867727279663 0.190496027469635
-0.02325582504272461 0.16279065608978271 -0.2036067098379135
-0.02325582504272461 0.16279065608978271 0.17962029576301575
-0.02325582504272461 0.17829453945159912 -0.19793450832366943
-0.02325582504272461 0.17829453945159912 0.1657249927520752
-0.02325582504272461 0.19379842281341553 -0.19416439533233643
-0.02325582504272461 0.19379843771457672 0.1483805775642395
-0.02325582504272461 0.20930230617523193 -0.18524998426437378
-0.02325582504272461 0.20930230617523193 0.13022612035274506
-0.02325582504272461 0.22480618953704834 -0.17881609499454498
-0.02325582504272461 0.22480618953704834 0.11214017868041992
-0.02325582504272461 0.24031007289886475 -0.16810347139835358
-0.02325582504272461 0.24031007289886475 0.09369298070669174
-0.02325582504272461 0.25581395626068115 -0.16347308456897736
-0.02325582504272461 0.25581395626068115 0.07146529853343964
-0.02325582504272461 0.27131783962249756 -0.15755313634872437
-0.02325582504272461 0.27131783962249756 0.04204302653670311
-0.02325582504272461 0.28682172298431396 -0.15413659811019897
-0.02325582504272461 0.28682172298431396 0.004946357570588589
-0.02325582504272461 0.30232560634613037 -0.16267235577106476
-0.02325582318007946 0.302325576543808 -0.03757403418421745
-0.02325582504272461 0.3178294897079468 -0.2152940332889557
-0.02325582504272461 0.3178294897079468 -0.09505628794431686
-0.02325582504272461 0.3333333730697632 -0.24204370379447937
-0.02325582504272461 0.3333333730697632 -0.189733624458313
-0.007751941215246916 -0.317829430103302 -0.23434370756149292
-0.007751941680908203 -0.317829430103302 -0.190346360206604
-0.007751941680908203 -0.30232560634613037 -0.19610482454299927
-0.007751941680908203 -0.302325576543808 -0.0829085186123848
-0.007751941680908203 -0.28682172298431396 -0.1337159126996994
-0.007751941680908203 -0.28682172298431396 -0.012308739125728607
-0.007751941680908203 -0.27131783962249756 -0.1340746432542801
-0.007751941680908203 -0.27131783962249756 0.03441669046878815
-0.007751941680908203 -0.25581395626068115 -0.14954879879951477
-0.007751941680908203 -0.25581395626068115 0.07153752446174622
-0.007751941680908203 -0.24031007289886475 -0.16304604709148407
-0.007751941680908203 -0.24031007289886475 0.10331714153289795
-0.007751941680908203 -0.22480618953704834 -0.17004084587097168
-0.007751941680908203 -0.22480618953704834 0.13171084225177765
-0.007751941680908203 -0.20930230617523193 -0.18080610036849976
-0.007751941680908203 -0.20930230617523193 0.15484994649887085
-0.007751941680908203 -0.19379842281341553 -0.19835488498210907
-0.007751941680908203 -0.19379842281341553 0.17409884929656982
-0.007751941680908203 -0.1782945990562439 -0.24737532436847687
-0.007751941680908203 -0.1782945990562439 0.18876779079437256
-0.007751941680908203 -0.1627907156944275 -0.293216347694397
-0.007751941680908203 -0.1627907156944275 0.19985711574554443
-0.007751941680908203 -0.14728683233261108 -0.32164791226387024
-0.007751941680908203 -0.14728683233261108 0.20895396173000336
-0.007751941680908203 -0.13178294897079468 -0.3196752667427063
-0.007751941680908203 -0.13178294897079468 0.21773165464401245
-0.007751941680908203 -0.11627906560897827 -0.5543893575668335
-0.007751941680908203 -0.11627906560897827 -0.4246231019496918
-0.007751941680908203 -0.11627906560897827 -0.26550325751304626
-0.007751941680908203 -0.11627906560897827 0.22593629360198975
-0.007751941680908203 -0.10077518224716187 -0.5641865134239197
-0.00775194214656949 -0.10077518224716187 -0.4666832685470581
-0.007751941680908203 -0.10077518224716187 -0.217659592628479
-0.007751941680908203 -0.10077518224716187 0.23396556079387665
-0.007751941680908203 -0.08527129888534546 -0.20399607717990875
-0.007751941680908203 -0.08527129888534546 0.2424725890159607
-0.007751941680908203 -0.06976741552352905 -0.19583338499069214
-0.007751941680908203 -0.06976741552352905 0.24993333220481873
-0.007751941680908203 -0.05426359176635742 -0.19153866171836853
-0.007751941680908203 -0.05426359176635742 0.2576026916503906
-0.007751941680908203 -0.038759708404541016 -0.1907404065132141
-0.007751941680908203 -0.038759708404541016 0.263637900352478
-0.007751941215246916 -0.02325582504272461 -0.19226858019828796
-0.007751941680908203 -0.02325582504272461 0.26717525720596313
-0.007751941680908203 -0.007751941680908203 -0.19381658732891083
-0.007751941680908203 -0.007751941680908203 0.2680160701274872
-0.007751941215246916 0.007751941215246916 -0.19358545541763306
-0.007751941680908203 0.007751941680908203 0.2669978141784668
-0.007751941680908203 0.02325582504272461 -0.1933933049440384
-0.007751941680908203 0.02325582504272461 0.26399722695350647
-0.007751941680908203 0.038759712129831314 -0.19238092005252838
-0.007751941680908203 0.038759708404541016 0.2590738832950592
-0.00775194214656949 0.05426359549164772 -0.19324804842472076
-0.007751941680908203 0.05426359176635742 0.2524683475494385
-0.007751941680908203 0.06976747512817383 -0.19658884406089783
-0.007751941680908203 0.06976747512817383 0.2467915415763855
-0.007751941680908203 0.08527135848999023 -0.20290014147758484
-0.007751941680908203 0.08527135848999023 0.23986320197582245
-0.007751941680908203 0.10077524185180664 -0.577254056930542
-0.007751941680908203 0.10077524185180664 -0.5477852821350098
-0.007751941680908203 0.10077524185180664 -0.20967578887939453
-0.007751941680908203 0.10077524185180664 0.23358027637004852
-0.007751941680908203 0.11627912521362305 -0.5676147937774658
-0.007751941680908203 0.11627912521362305 -0.44085344672203064
-0.007751941680908203 0.11627912521362305 -0.22500649094581604
-0.007751941680908203 0.11627912521362305 0.2262488603591919
-0.007751941680908203 0.1317828893661499 -0.29887133836746216
-0.007751941680908203 0.1317828893661499 0.21817006170749664
-0.007751941680908203 0.1472867727279663 -0.3173063099384308
-0.007751941680908203 0.1472867727279663 0.2071438729763031
-0.007751941215246916 0.16279065608978271 -0.20808982849121094
-0.007751941680908203 0.16279065608978271 0.1958717256784439
-0.007751941680908203 0.17829453945159912 -0.19809846580028534
-0.007751941680908203 0.17829453945159912 0.18110758066177368
-0.007751941215246916 0.19379842281341553 -0.19360654056072235
-0.007751941680908203 0.19379842281341553 0.16293251514434814
-0.007751941215246916 0.20930230617523193 -0.186271071434021
-0.007751941680908203 0.20930230617523193 0.1440134346485138
-0.007751941680908203 0.22480618953704834 -0.18049943447113037
-0.007751941680908203 0.22480618953704834 0.12567196786403656
-0.007751941680908203 0.24031007289886475 -0.17062291502952576
-0.007751941680908203 0.24031007289886475 0.10663560032844543
-0.007751941680908203 0.25581395626068115 -0.16432777047157288
-0.007751941680908203 0.25581395626068115 0.08450126647949219
-0.007751941680908203 0.27131783962249756 -0.15927603840827942
-0.00775194214656949 0.27131783962249756 0.05449580028653145
-0.007751941680908203 0.28682172298431396 -0.15486744046211243
-0.007751941680908203 0.28682172298431396 0.01725742034614086
-0.007751941680908203 0.30232560634613037 -0.15792660415172577
-0.007751941680908203 0.30232560634613037 -0.02513158693909645
-0.007751941680908203 0.3178294897079468 -0.20213629305362701
-0.007751941680908203 0.3178294897079468 -0.07890411466360092
-0.007751941680908203 0.3333333730697632 -0.24160365760326385
-0.007751941680908203 0.3333333730697632 -0.1664610505104065
0.007751941680908203 -0.317829430103302 -0.24249403178691864
0.007751941680908203 -0.317829430103302 -0.15797722339630127
0.00775194214656949 -0.30232560634613037 -0.17652475833892822
0.007751941680908203 -0.30232560634613037 -0.05944245681166649
0.007751941680908203 -0.28682172298431396 -0.12438789010047913
0.007751941680908203 -0.28682172298431396 0.0023941993713378906
0.007751941680908203 -0.27131783962249756 -0.12966853380203247
0.007751941680908203 -0.27131783962249756 0.04598581790924072
0.007751941680908203 -0.25581395626068115 -0.14789673686027527
0.007751941680908203 -0.25581395626068115 0.0819179117679596
0.007751941680908203 -0.24031007289886475 -0.1603684425354004
0.007751941680908203 -0.24031007289886475 0.1141195073723793
0.007751941680908203 -0.22480618953704834 -0.1676206886768341
0.007751941680908203 -0.22480618953704834 0.14343035221099854
0.007751941680908203 -0.20930230617523193 -0.1796010285615921
0.007751941680908203 -0.20930230617523193 0.16895964741706848
0.007751941680908203 -0.19379842281341553 -0.19834375381469727
0.007751941680908203 -0.19379842281341553 0.18913070857524872
0.007751941215246916 -0.1782945990562439 -0.2508481740951538
0.007751941680908203 -0.1782945990562439 0.20435336232185364
0.007751941680908203 -0.1627907156944275 -0.2944645881652832
0.007751941215246916 -0.1627907156944275 0.21628618240356445
0.007751941680908203 -0.14728683233261108 -0.3189237117767334
0.007751941680908203 -0.14728683233261108 0.22701267898082733
0.007751941680908203 -0.13178294897079468 -0.31073513627052307
0.007751941680908203 -0.13178294897079468 0.2365575134754181
0.007751941680908203 -0.11627906560897827 -0.5567563772201538
0.007751941680908203 -0.11627906560897827 -0.44439971446990967
0.007751941680908203 -0.11627905815839767 -0.26868343353271484
0.00775194214656949 -0.11627906560897827 0.2458985447883606
0.007751941680908203 -0.10077518224716187 -0.5698074698448181
0.007751941680908203 -0.10077518224716187 -0.5102975368499756
0.007751941680908203 -0.10077518224716187 -0.22151604294776917
0.007751941680908203 -0.10077518224716187 0.25400134921073914
0.007751941680908203 -0.08527129888534546 -0.5672716498374939
0.007751941680908203 -0.08527129888534546 -0.5611258149147034
0.007751941680908203 -0.08527129888534546 -0.20301587879657745
0.007751941680908203 -0.08527129888534546 0.2630366086959839
0.007751941680908203 -0.06976741552352905 -0.19432023167610168
0.007751941680908203 -0.06976741552352905 0.27137407660484314
0.007751941680908203 -0.05426359176635742 -0.18940632045269012
0.007751941680908203 -0.05426359176635742 0.27860721945762634
0.007751941680908203 -0.038759708404541016 -0.18856467306613922
0.007751941680908203 -0.038759708404541016 0.28342100977897644
0.007751941680908203 -0.02325582504272461 -0.1900746077299118
0.007751941680908203 -0.02325582504272461 0.2875331938266754
0.007751941680908203 -0.007751941680908203 -0.19153915345668793
0.007751941680908203 -0.007751941680908203 0.2888506054878235
0.007751941680908203 0.007751941680908203 -0.19122597575187683
0.007751941215246916 0.007751941215246916 0.2877662181854248
0.007751941680908203 0.02325582690536976 -0.19088739156723022
0.007751941680908203 0.02325582504272461 0.28422972559928894
0.007751941680908203 0.038759708404541016 -0.18985533714294434
0.007751941680908203 0.038759708404541016 0.28004491329193115
0.007751941680908203 0.05426359176635742 -0.19078341126441956
0.007751941680908203 0.05426359176635742 0.2742922306060791
0.007751941680908203 0.06976747512817383 -0.19453458487987518
0.007751941680908203 0.06976747512817383 0.2673431932926178
0.007751941680908203 0.08527135848999023 -0.5733191967010498
0.007751941680908203 0.08527135848999023 -0.5636395215988159
0.007751941680908203 0.08527135848999023 -0.20211684703826904
0.007751941680908203 0.08527135848999023 0.26044726371765137
0.007751941680908203 0.10077524185180664 -0.5842030048370361
0.007751941680908203 0.10077524185180664 -0.5288642644882202
0.007751941680908203 0.10077524185180664 -0.21062354743480682
0.007751941680908203 0.10077524185180664 0.252081036567688
0.007751941680908203 0.11627912521362305 -0.5725382566452026
0.007751941680908203 0.11627912521362305 -0.47418755292892456
0.007751941680908203 0.11627912521362305 -0.25809693336486816
0.00775194214656949 0.11627913266420364 0.24502387642860413
0.007751941680908203 0.1317828893661499 -0.313483327627182
0.007751941680908203 0.1317828893661499 0.2356238067150116
0.00775194214656949 0.1472867727279663 -0.3319704830646515
0.007751941680908203 0.1472867727279663 0.2240058034658432
0.007751941680908203 0.16279065608978271 -0.3056882917881012
0.007751941680908203 0.16279065608978271 -0.22995218634605408
0.007751941680908203 0.16279065608978271 -0.2185463309288025
0.007751941680908203 0.16279065608978271 0.21129442751407623
0.007751941680908203 0.17829453945159912 -0.19737651944160461
0.007751941680908203 0.17829453945159912 0.19617526233196259
0.007751941680908203 0.19379842281341553 -0.19136960804462433
0.007751941680908203 0.19379842281341553 0.17806051671504974
0.007751941215246916 0.20930230617523193 -0.1864248812198639
0.007751941680908203 0.20930230617523193 0.15902943909168243
0.007751941680908203 0.22480618953704834 -0.18236249685287476
0.007751941680908203 0.22480618953704834 0.14056524634361267
0.007751941680908203 0.24031007289886475 -0.1735375076532364
0.007751941680908203 0.24031007289886475 0.12140116095542908
0.007751941680908203 0.25581395626068115 -0.16590999066829681
0.007751941680908203 0.25581395626068115 0.09805887937545776
0.007751941215246916 0.27131780982017517 -0.16240131855010986
0.007751941680908203 0.27131783962249756 0.06688807904720306
0.007751941680908203 0.28682172298431396 -0.1577102243900299
0.007751941680908203 0.28682172298431396 0.028955332934856415
0.007751941680908203 0.30232560634613037 -0.1582135260105133
0.007751941680908203 0.30232560634613037 -0.013501262292265892
0.007751941680908203 0.3178294897079468 -0.19276629388332367
0.007751941680908203 0.3178294897079468 -0.06462185084819794
0.007751941680908203 0.3333333730697632 -0.24377122521400452
0.007751941680908203 0.3333333730697632 -0.15233704447746277
0.02325582504272461 -0.317829430103302 -0.24242159724235535
0.02325582690536976 -0.317829430103302 -0.12789694964885712
0.02325582504272461 -0.30232560634613037 -0.15028367936611176
0.02325582504272461 -0.30232560634613037 -0.04082467779517174
0.02325582504272461 -0.28682172298431396 -0.11780920624732971
0.02325582504272461 -0.28682172298431396 0.014846106991171837
0.02325582504272461 -0.27131783962249756 -0.12507247924804688
0.02325582504272461 -0.27131783962249756 0.056658320128917694
0.02325582690536976 -0.25581395626068115 -0.14499031007289886
0.02325582504272461 -0.25581395626068115 0.09140472114086151
0.02325582504272461 -0.24031007289886475 -0.15601444244384766
0.02325582504272461 -0.24031007289886475 0.12477240711450577
0.02325582504272461 -0.22480618953704834 -0.16533148288726807
0.02325582504272461 -0.22480618953704834 0.1555793434381485
0.02325582690536976 -0.20930230617523193 -0.17541924118995667
0.02325582504272461 -0.20930230617523193 0.1824156492948532
0.02325582504272461 -0.19379842281341553 -0.1900819092988968
0.02325582504272461 -0.19379842281341553 0.20307639241218567
0.02325582504272461 -0.1782945990562439 -0.2280178666114807
0.02325582504272461 -0.1782945990562439 0.21907880902290344
0.02325582504272461 -0.1627907156944275 -0.278444766998291
0.02325582504272461 -0.1627907156944275 0.23180082440376282
0.02325582504272461 -0.14728683233261108 -0.29657411575317383
0.02325582504272461 -0.14728683233261108 0.2431662380695343
0.02325582504272461 -0.13178294897079468 -0.2866843044757843
0.02325582504272461 -0.13178294897079468 0.2528645396232605
0.02325582504272461 -0.11627906560897827 -0.5665546655654907
0.02325582504272461 -0.11627906560897827 -0.48155534267425537
0.02325582504272461 -0.11627906560897827 -0.24275879561901093
0.02325582504272461 -0.11627906560897827 0.26275870203971863
0.02325582504272461 -0.10077518224716187 -0.5756896138191223
0.02325582504272461 -0.10077518224716187 -0.5238975286483765
0.02325582504272461 -0.10077517479658127 -0.20575150847434998
0.02325582504272461 -0.10077518224716187 0.2719959318637848
0.02325582504272461 -0.08527129888534546 -0.5791499018669128
0.02325582504272461 -0.08527129888534546 -0.5460662841796875
0.02325582504272461 -0.08527129888534546 -0.1961490511894226
0.02325582504272461 -0.08527129888534546 0.27999675273895264
0.02325582504272461 -0.06976741552352905 -0.18952567875385284
0.02325582504272461 -0.06976741552352905 0.2882601022720337
0.02325582504272461 -0.05426359176635742 -0.18524125218391418
0.02325582504272461 -0.05426359176635742 0.294697642326355
0.02325582504272461 -0.038759708404541016 -0.1850869059562683
0.02325582504272461 -0.038759708404541016 0.2989124059677124
0.02325582504272461 -0.02325582504272461 -0.18743714690208435
0.02325582504272461 -0.02325582504272461 0.30272185802459717
0.02325582504272461 -0.007751941680908203 -0.1889759600162506
0.02325582504272461 -0.007751941680908203 0.3041630983352661
0.02325582504272461 0.007751941680908203 -0.18850457668304443
0.02325582318007946 0.007751941680908203 0.30349621176719666
0.02325582504272461 0.02325582504272461 -0.18776507675647736
0.02325582504272461 0.02325582504272461 0.3002766966819763
0.02325582504272461 0.038759708404541016 -0.18659675121307373
0.02325582504272461 0.038759708404541016 0.2964778542518616
0.02325582504272461 0.05426359176635742 -0.1874520480632782
0.02325582690536976 0.05426359549164772 0.2914702594280243
0.02325582504272461 0.06976747512817383 -0.19059884548187256
0.02325582504272461 0.06976747512817383 0.2842964828014374
0.02325582504272461 0.08527135848999023 -0.5873439311981201
0.02325582504272461 0.08527135848999023 -0.5490902662277222
0.02325582504272461 0.08527135848999023 -0.19604255259037018
0.02325582504272461 0.08527135848999023 0.2778254449367523
0.02325582504272461 0.10077524185180664 -0.590842068195343
0.02325582504272461 0.10077524930238724 -0.5137658715248108
0.02325582504272461 0.10077524185180664 -0.2040637880563736
0.02325582504272461 0.10077524185180664 0.2685632109642029
0.02325582504272461 0.11627912521362305 -0.584636390209198
0.02325582504272461 0.11627912521362305 -0.48140108585357666
0.02325582504272461 0.11627912521362305 -0.21998330950737
0.02325582504272461 0.11627912521362305 0.26022350788116455
0.02325582504272461 0.1317828893661499 -0.5393896698951721
0.02325582504272461 0.1317828893661499 -0.4877646267414093
0.02325582504272461 0.1317828893661499 -0.2892969250679016
0.02325582504272461 0.1317828893661499 0.2502938508987427
0.02325582504272461 0.1472867727279663 -0.31021082401275635
0.02325582504272461 0.1472867727279663 0.238840252161026
0.02325582504272461 0.16279065608978271 -0.29137828946113586
0.02325582504272461 0.16279065608978271 -0.2589695453643799
0.02325582504272461 0.16279065608978271 -0.20023220777511597
0.02325582504272461 0.16279065608978271 0.22570857405662537
0.02325582504272461 0.17829453945159912 -0.19098469614982605
0.02325582504272461 0.17829453945159912 0.21023407578468323
0.02325582504272461 0.19379842281341553 -0.18472735583782196
0.02325582504272461 0.19379842281341553 0.19257181882858276
0.02325582504272461 0.20930230617523193 -0.18095706403255463
0.02325582504272461 0.20930230617523193 0.1738022267818451
0.02325582504272461 0.22480618953704834 -0.17860516905784607
0.02325582504272461 0.22480618953704834 0.15501783788204193
0.02325582504272461 0.24031007289886475 -0.17137186229228973
0.02325582504272461 0.24031007289886475 0.13562309741973877
0.02325582504272461 0.25581395626068115 -0.16611500084400177
0.02325582504272461 0.25581395626068115 0.11188900470733643
0.02325582504272461 0.27131783962249756 -0.1635604202747345
0.02325582504272461 0.27131783962249756 0.07925014942884445
0.02325582504272461 0.28682172298431396 -0.1604638248682022
0.02325582504272461 0.28682172298431396 0.03914864361286163
0.02325582504272461 0.30232560634613037 -0.15881067514419556
0.02325582504272461 0.30232560634613037 -0.0023932617623358965
0.02325582504272461 0.3178294897079468 -0.1777724176645279
0.02325582504272461 0.3178294897079468 -0.05181018263101578
0.02325582504272461 0.3333333730697632 -0.2533157467842102
0.02325582504272461 0.3333333730697632 -0.13649708032608032
0.038759708404541016 -0.3333333134651184 -0.2566722333431244
0.038759708404541016 -0.3333333134651184 -0.2359601855278015
0.038759708404541016 -0.317829430103302 -0.22996804118156433
0.038759708404541016 -0.317829430103302 -0.10393556207418442
0.038759708404541016 -0.30232560634613037 -0.13495591282844543
0.038759708404541016 -0.30232560634613037 -0.024914203211665154
0.038759708404541016 -0.28682172298431396 -0.11217787861824036
0.038759708404541016 -0.28682172298431396 0.025882823392748833
0.038759708404541016 -0.27131783962249756 -0.12209728360176086
0.038759708404541016 -0.27131783962249756 0.06625829637050629
0.038759708404541016 -0.25581395626068115 -0.14087550342082977
0.038759712129831314 -0.25581395626068115 0.10117649286985397
0.038759708404541016 -0.24031007289886475 -0.15163913369178772
0.038759708404541016 -0.24031008780002594 0.13490357995033264
0.038759708404541016 -0.22480618953704834 -0.1631799191236496
0.038759708404541016 -0.22480618953704834 0.16665303707122803
0.038759708404541016 -0.20930230617523193 -0.16964979469776154
0.038759708404541016 -0.20930230617523193 0.1937125325202942
0.038759708404541016 -0.19379842281341553 -0.18070775270462036
0.038759708404541016 -0.19379842281341553 0.2156684398651123
0.038759708404541016 -0.1782945990562439 -0.19670523703098297
0.038759708404541016 -0.1782945990562439 0.23242618143558502
0.038759708404541016 -0.1627907156944275 -0.22718273103237152
0.038759708404541016 -0.1627907156944275 0.24585047364234924
0.038759708404541016 -0.14728683233261108 -0.2474033534526825
0.038759708404541016 -0.14728683233261108 0.25709739327430725
0.038759708404541016 -0.13178294897079468 -0.20894335210323334
0.038759708404541016 -0.13178294897079468 0.2674516439437866
0.038759708404541016 -0.11627906560897827 -0.5737150311470032
0.038759708404541016 -0.11627906560897827 -0.5216883420944214
0.038759708404541016 -0.11627906560897827 -0.19874048233032227
0.038759708404541016 -0.11627906560897827 0.2777855396270752
0.038759708404541016 -0.10077518224716187 -0.5868394374847412
0.038759708404541016 -0.10077518224716187 -0.5288106203079224
0.038759708404541016 -0.10077518224716187 -0.194721519947052
0.038759708404541016 -0.10077518224716187 0.2859078049659729
0.038759708404541016 -0.08527129888534546 -0.5892578363418579
0.038759708404541016 -0.08527129888534546 -0.5422592163085938
0.038759708404541016 -0.08527129888534546 -0.18882198631763458
0.038759708404541016 -0.08527129888534546 0.294361412525177
0.038759708404541016 -0.06976741552352905 -0.5757739543914795
0.038759708404541016 -0.06976741552352905 -0.5626963973045349
0.038759708404541016 -0.06976741552352905 -0.18235822021961212
0.038759708404541016 -0.06976741552352905 0.30113720893859863
0.038759708404541016 -0.05426359176635742 -0.17934352159500122
0.038759708404541016 -0.05426359176635742 0.3079645335674286
0.038759708404541016 -0.038759708404541016 -0.17980389297008514
0.038759708404541016 -0.038759708404541016 0.3112207055091858
0.038759708404541016 -0.02325582504272461 -0.1831424981355667
0.038759708404541016 -0.02325582504272461 0.3136973977088928
0.038759708404541016 -0.007751941680908203 -0.1856018304824829
0.038759708404541016 -0.007751941680908203 0.31495726108551025
0.038759708404541016 0.007751941680908203 -0.18490199744701385
0.038759708404541016 0.007751941680908203 0.31467685103416443
0.038759708404541016 0.02325582504272461 -0.18340516090393066
0.038759708404541016 0.02325582504272461 0.3125438988208771
0.038759708404541016 0.038759708404541016 -0.18140047788619995
0.038759708404541016 0.038759708404541016 0.30991095304489136
0.038759708404541016 0.05426359176635742 -0.18246647715568542
0.038759708404541016 0.05426359176635742 0.304647296667099
0.038759708404541016 0.06976747512817383 -0.5724366903305054
0.038759708404541016 0.06976747512817383 -0.5656672716140747
0.038759708404541016 0.06976747512817383 -0.18632057309150696
0.038759708404541016 0.06976747512817383 0.29808053374290466
0.038759708404541016 0.08527135848999023 -0.5908342003822327
0.038759708404541016 0.08527135848999023 -0.5462737679481506
0.038759708404541016 0.08527135848999023 -0.1905660629272461
0.038759708404541016 0.08527135848999023 0.2917417287826538
0.038759708404541016 0.10077524185180664 -0.5949904918670654
0.038759708404541016 0.10077524185180664 -0.5180205702781677
0.038759708404541016 0.10077524185180664 -0.1954437792301178
0.038759708404541016 0.10077524185180664 0.28242799639701843
0.038759708404541016 0.11627911776304245 -0.590848445892334
0.038759708404541016 0.11627912521362305 -0.4917641878128052
0.038759708404541016 0.11627912521362305 -0.1998375952243805
0.038759708404541016 0.11627912521362305 0.27358579635620117
0.038759708404541016 0.1317828893661499 -0.5720096826553345
0.038759708404541016 0.1317828893661499 -0.4969497621059418
0.038759708404541016 0.1317828893661499 -0.19968748092651367
0.038759708404541016 0.1317828893661499 0.26304173469543457
0.038759708404541016 0.1472867727279663 -0.19517266750335693
0.038759708404541016 0.1472867727279663 0.2508108615875244
0.038759708404541016 0.16279065608978271 -0.18881714344024658
0.038759708404541016 0.16279065608978271 0.23789530992507935
0.038759708404541016 0.17829453945159912 -0.18275193870067596
0.038759708404541016 0.17829453945159912 0.2227972000837326
0.038759708404541016 0.19379842281341553 -0.1792128086090088
0.038759708404541016 0.19379842281341553 0.20542749762535095
0.038759708404541016 0.20930230617523193 -0.17493203282356262
0.038759708404541016 0.20930230617523193 0.18689501285552979
0.038759708404541016 0.22480618953704834 -0.1705276370048523
0.038759708404541016 0.22480618953704834 0.16778796911239624
0.038759708404541016 0.24031007289886475 -0.16679954528808594
0.038759708404541016 0.24031007289886475 0.1474001407623291
0.038759708404541016 0.25581395626068115 -0.16468244791030884
0.038759708404541016 0.25581395626068115 0.12417276203632355
0.038759708404541016 0.27131783962249756 -0.16336706280708313
0.038759708404541016 0.27131783962249756 0.090081125497818
0.038759708404541016 0.28682172298431396 -0.16118335723876953
0.038759708404541016 0.28682172298431396 0.04832044243812561
0.038759708404541016 0.30232560634613037 -0.15864399075508118
0.038759708404541016 0.30232560634613037 0.005682042799890041
0.038759708404541016 0.3178294897079468 -0.16948534548282623
0.038759708404541016 0.3178294897079468 -0.04178047180175781
0.038759708404541016 0.3333333730697632 -0.25374406576156616
0.038759708404541016 0.3333333730697632 -0.12013034522533417
0.05426359176635742 -0.3333333134651184 -0.2721973657608032
0.05426359176635742 -0.3333333134651184 -0.19854635000228882
0.05426359176635742 -0.317829430103302 -0.20909883081912994
0.05426359176635742 -0.317829430103302 -0.08364538103342056
0.05426359176635742 -0.30232560634613037 -0.12363909184932709
0.05426359176635742 -0.30232560634613037 -0.014165734872221947
0.05426359176635742 -0.28682172298431396 -0.10625316202640533
0.05426359176635742 -0.28682172298431396 0.03473015874624252
0.05426359176635742 -0.27131783962249756 -0.11821333318948746
0.05426359176635742 -0.27131783962249756 0.07386605441570282
0.05426359176635742 -0.25581395626068115 -0.13599547743797302
0.05426359176635742 -0.25581395626068115 0.10844098776578903
0.05426359176635742 -0.24031007289886475 -0.1482677310705185
0.05426359176635742 -0.24031007289886475 0.14267991483211517
0.05426359176635742 -0.22480618953704834 -0.1557290256023407
0.05426359176635742 -0.22480618953704834 0.1750095933675766
0.05426359176635742 -0.20930230617523193 -0.1648045778274536
0.05426359176635742 -0.20930230617523193 0.20245522260665894
0.05426359176635742 -0.19379842281341553 -0.17218682169914246
0.05426359176635742 -0.19379842281341553 0.22519992291927338
0.05426359176635742 -0.1782945990562439 -0.18037019670009613
0.05426358804106712 -0.1782945990562439 0.24335911870002747
0.05426359176635742 -0.1627907156944275 -0.18641085922718048
0.05426359176635742 -0.1627907156944275 0.2573997378349304
0.05426359176635742 -0.14728683233261108 -0.1874910444021225
0.05426359176635742 -0.14728683233261108 0.26949936151504517
0.05426359176635742 -0.13178294897079468 -0.18561232089996338
0.05426359176635742 -0.13178294897079468 0.28070008754730225
0.05426359176635742 -0.11627906560897827 -0.5837327241897583
0.05426359176635742 -0.11627906560897827 -0.5312250256538391
0.05426359176635742 -0.11627906560897827 -0.1857733279466629
0.05426359176635742 -0.11627906560897827 0.2912161946296692
0.05426359176635742 -0.10077518224716187 -0.5914264917373657
0.05426359176635742 -0.10077518224716187 -0.5336228013038635
0.05426359176635742 -0.10077518224716187 -0.18417830765247345
0.05426359176635742 -0.10077518224716187 0.2987147569656372
0.05426359176635742 -0.08527129888534546 -0.5918979644775391
0.05426359176635742 -0.08527129888534546 -0.5457454323768616
0.05426359176635742 -0.08527129888534546 -0.18001456558704376
0.05426359176635742 -0.08527129888534546 0.3073251247406006
0.05426359176635742 -0.06976741552352905 -0.5828086733818054
0.05426359176635742 -0.06976741552352905 -0.5629466772079468
0.05426359176635742 -0.06976741552352905 -0.17600788176059723
0.05426359176635742 -0.06976741552352905 0.312546044588089
0.05426359176635742 -0.05426359176635742 -0.1738656461238861
0.05426359176635742 -0.05426359176635742 0.3187154531478882
0.05426359176635742 -0.038759708404541016 -0.17468224465847015
0.05426359549164772 -0.038759708404541016 0.3234213888645172
0.05426359176635742 -0.02325582504272461 -0.17740273475646973
0.05426359176635742 -0.02325582504272461 0.32575884461402893
0.05426359176635742 -0.007751941680908203 -0.18004703521728516
0.05426359176635742 -0.007751941680908203 0.32671332359313965
0.05426359176635742 0.007751941680908203 -0.17927612364292145
0.05426359176635742 0.007751941680908203 0.32665640115737915
0.05426359176635742 0.02325582504272461 -0.17724964022636414
0.05426359176635742 0.02325582504272461 0.3251407742500305
0.05426359176635742 0.038759708404541016 -0.17545397579669952
0.05426359176635742 0.038759708404541016 0.3217523396015167
0.05426359176635742 0.05426359176635742 -0.17612028121948242
0.05426359176635742 0.05426359176635742 0.3157212436199188
0.05426359176635742 0.06976747512817383 -0.17952854931354523
0.05426359176635742 0.06976747512817383 0.3105674982070923
0.05426359176635742 0.08527135848999023 -0.5900139808654785
0.05426359176635742 0.08527135848999023 -0.5501505136489868
0.05426359176635742 0.08527135848999023 -0.18502625823020935
0.05426358804106712 0.08527135848999023 0.30354756116867065
0.05426358804106712 0.10077524185180664 -0.5957096219062805
0.05426359549164772 0.10077524185180664 -0.5322791337966919
0.05426359176635742 0.10077524185180664 -0.188550665974617
0.05426359176635742 0.10077524185180664 0.29541289806365967
0.05426359176635742 0.11627912521362305 -0.5938932299613953
0.05426359176635742 0.11627912521362305 -0.5143036246299744
0.05426359176635742 0.11627912521362305 -0.18940235674381256
0.05426359176635742 0.11627912521362305 0.28521621227264404
0.05426359176635742 0.1317828893661499 -0.5843382477760315
0.05426359176635742 0.1317828893661499 -0.5214316844940186
0.05426359176635742 0.1317828893661499 -0.1878836452960968
0.05426359176635742 0.1317828893661499 0.2750629186630249
0.05426359176635742 0.1472867727279663 -0.18426108360290527
0.05426359176635742 0.1472867727279663 0.26238319277763367
0.05426359176635742 0.16279065608978271 -0.18020205199718475
0.05426359176635742 0.16279065608978271 0.24889549612998962
0.05426359176635742 0.17829453945159912 -0.1783485859632492
0.05426359176635742 0.17829453945159912 0.2339172661304474
0.05426359176635742 0.19379842281341553 -0.1731652468442917
0.05426359176635742 0.19379842281341553 0.21676212549209595
0.05426359176635742 0.20930230617523193 -0.16719567775726318
0.05426359176635742 0.20930230617523193 0.19793298840522766
0.05426359176635742 0.22480618953704834 -0.16436834633350372
0.05426359176635742 0.22480618953704834 0.17805413901805878
0.05426359176635742 0.24031007289886475 -0.16314642131328583
0.05426359176635742 0.24031007289886475 0.15726804733276367
0.05426358804106712 0.25581395626068115 -0.1613311618566513
0.05426359176635742 0.25581395626068115 0.13362033665180206
0.05426359176635742 0.27131783962249756 -0.1598750650882721
0.05426359176635742 0.27131783962249756 0.0991717278957367
0.05426359176635742 0.28682172298431396 -0.15820500254631042
0.05426359549164772 0.28682175278663635 0.05580606684088707
0.05426359176635742 0.30232560634613037 -0.1556520164012909
0.05426359176635742 0.30232560634613037 0.013050025328993797
0.05426359176635742 0.3178294897079468 -0.16320034861564636
0.05426359176635742 0.3178294897079468 -0.03290010243654251
0.05426359176635742 0.3333333730697632 -0.24079477787017822
0.05426359176635742 0.3333333730697632 -0.10657161474227905
0.05426359176635742 0.3488372564315796 -0.27319765090942383
0.05426359176635742 0.3488372564315796 -0.2310989797115326
0.06976747512817383 -0.3333333134651184 -0.2567935585975647
0.06976747512817383 -0.3333333134651184 -0.16966888308525085
0.06976747512817383 -0.317829430103302 -0.18436510860919952
0.06976747512817383 -0.317829430103302 -0.07025568187236786
0.06976747512817383 -0.30232560634613037 -0.11465562880039215
0.06976747512817383 -0.30232560634613037 -0.0067719221115112305
0.06976747512817383 -0.28682172298431396 -0.09868117421865463
0.06976747512817383 -0.28682172298431396 0.04127082973718643
0.06976747512817383 -0.27131783962249756 -0.10905911028385162
0.06976747512817383 -0.27131783962249756 0.07971906661987305
0.06976747512817383 -0.25581395626068115 -0.12996482849121094
0.06976747512817383 -0.25581395626068115 0.11433713138103485
0.06976747512817383 -0.24031007289886475 -0.1389244645833969
0.06976747512817383 -0.24031007289886475 0.1491679698228836
0.06976747512817383 -0.22480618953704834 -0.14906558394432068
0.06976747512817383 -0.22480618953704834 0.18187786638736725
0.06976747512817383 -0.20930230617523193 -0.156777024269104
0.06976747512817383 -0.20930230617523193 0.20891743898391724
0.06976747512817383 -0.19379842281341553 -0.16466063261032104
0.06976747512817383 -0.19379842281341553 0.23181135952472687
0.06976747512817383 -0.1782945990562439 -0.16849428415298462
0.06976747512817383 -0.1782945990562439 0.2502787113189697
0.06976747512817383 -0.1627907156944275 -0.17289283871650696
0.06976747512817383 -0.1627907156944275 0.26620468497276306
0.06976747512817383 -0.14728683233261108 -0.1740512251853943
0.06976747512817383 -0.14728683233261108 0.2800670266151428
0.06976747512817383 -0.13178294897079468 -0.5722521543502808
0.06976747512817383 -0.13178294897079468 -0.5546789765357971
0.06976747512817383 -0.13178294897079468 -0.17390266060829163
0.06976747512817383 -0.13178294897079468 0.2929755449295044
0.06976747512817383 -0.11627906560897827 -0.5899880528450012
0.06976747512817383 -0.11627906560897827 -0.5428197383880615
0.06976747512817383 -0.11627906560897827 -0.1745150089263916
0.06976747512817383 -0.11627906560897827 0.3023179769515991
0.06976747512817383 -0.10077518224716187 -0.5939627885818481
0.06976747512817383 -0.10077518224716187 -0.5456006526947021
0.06976747512817383 -0.10077518224716187 -0.17394638061523438
0.06976747512817383 -0.10077518224716187 0.3105325996875763
0.06976747512817383 -0.08527129888534546 -0.5906558036804199
0.06976747512817383 -0.08527129888534546 -0.5540273189544678
0.06976747512817383 -0.08527129888534546 -0.17149750888347626
0.06976747512817383 -0.08527129888534546 0.3174140453338623
0.06976747512817383 -0.06976741552352905 -0.5817663669586182
0.06976747512817383 -0.06976741552352905 -0.5734595656394958
0.06976747512817383 -0.06976741552352905 -0.16754403710365295
0.06976747512817383 -0.06976741552352905 0.32454949617385864
0.06976747512817383 -0.05426359176635742 -0.16562065482139587
0.06976747512817383 -0.05426359176635742 0.3283188045024872
0.06976747512817383 -0.038759708404541016 -0.16761711239814758
0.06976747512817383 -0.038759708404541016 0.33281758427619934
0.06976747512817383 -0.02325582504272461 -0.17125914990901947
0.06976747512817383 -0.02325582504272461 0.33642926812171936
0.06976747512817383 -0.007751941680908203 -0.17354442179203033
0.06976747512817383 -0.007751941680908203 0.33815810084342957
0.06976747512817383 0.007751941680908203 -0.1730622798204422
0.06976747512817383 0.007751941680908203 0.3381330370903015
0.06976747512817383 0.02325582504272461 -0.17130552232265472
0.06976747512817383 0.02325582504272461 0.33549556136131287
0.06976747512817383 0.038759708404541016 -0.16949525475502014
0.06976747512817383 0.038759708404541016 0.331403911113739
0.06976747512817383 0.05426359176635742 -0.17024046182632446
0.06976747512817383 0.05426359176635742 0.32695499062538147
0.06976747512817383 0.06976747512817383 -0.172968789935112
0.06976747512817383 0.06976747512817383 0.32180503010749817
0.06976747512817383 0.08527135848999023 -0.5852817893028259
0.06976747512817383 0.08527135103940964 -0.5621823072433472
0.06976747512817383 0.08527135848999023 -0.1763504445552826
0.06976747512817383 0.08527135848999023 0.3136664927005768
0.06976747512817383 0.10077524185180664 -0.5894673466682434
0.06976747512817383 0.10077524185180664 -0.548342227935791
0.06976747512817383 0.10077524185180664 -0.1792518049478531
0.06976747512817383 0.10077524185180664 0.3069087862968445
0.06976747512817383 0.11627912521362305 -0.5914774537086487
0.06976747512817383 0.11627912521362305 -0.5366974472999573
0.06976747512817383 0.11627912521362305 -0.17975157499313354
0.06976747512817383 0.11627912521362305 0.29615676403045654
0.06976747512817383 0.1317828893661499 -0.5870355367660522
0.06976747512817383 0.1317828893661499 -0.5444979071617126
0.06976747512817383 0.1317828893661499 -0.1783953309059143
0.06976747512817383 0.1317828893661499 0.2840704619884491
0.06976747512817383 0.1472867727279663 -0.1755598932504654
0.06976747512817383 0.1472867727279663 0.27131563425064087
0.06976747512817383 0.16279065608978271 -0.17284011840820312
0.06976747512817383 0.16279065608978271 0.2579452097415924
0.06976747512817383 0.17829453945159912 -0.16946157813072205
0.06976747512817383 0.17829453945159912 0.24276576936244965
0.06976747512817383 0.19379842281341553 -0.1643848568201065
0.06976747512817383 0.19379842281341553 0.2244010865688324
0.06976747512817383 0.20930230617523193 -0.16124621033668518
0.06976747512817383 0.20930230617523193 0.20468060672283173
0.06976747512817383 0.22480618953704834 -0.1571221947669983
0.06976747512817383 0.22480618953704834 0.1857677698135376
