0.038759708404541016 -0.643410861492157 0.6847754120826721
0.038759708404541016 -0.6279069781303406 0.4872904121875763
0.038759708404541016 -0.6279069781303406 0.6864957213401794
0.038759708404541016 -0.6124030947685242 0.4759717583656311
0.038759708404541016 -0.6124030947685242 0.6870772242546082
0.038759708404541016 -0.5968992114067078 0.46637922525405884
0.038759708404541016 -0.5968992114067078 0.6867703795433044
0.038759708404541016 -0.5813953876495361 0.45820409059524536
0.038759708404541016 -0.5813953876495361 0.6857373118400574
0.038759708404541016 -0.5658915042877197 0.4503822922706604
0.038759708404541016 -0.5658915042877197 0.684107780456543
0.038759708404541016 -0.5503876209259033 0.43990448117256165
0.038759708404541016 -0.5503876209259033 0.682632565498352
0.038759708404541016 -0.5348837375640869 0.4300225079059601
0.038759708404541016 -0.5348837375640869 0.681031346321106
0.038759708404541016 -0.5193798542022705 0.4184918999671936
0.038759708404541016 -0.5193798542022705 0.6786338090896606
0.038759708404541016 -0.5038759708404541 0.40259498357772827
0.038759708404541016 -0.5038759708404541 0.6758584976196289
0.038759708404541016 -0.4883720874786377 0.3788442015647888
0.038759708404541016 -0.4883720874786377 0.6723289489746094
0.038759708404541016 -0.4728682041168213 0.16793370246887207
0.038759708404541016 -0.4728682041168213 0.6690822243690491
0.038759708404541016 -0.4573643207550049 0.13997429609298706
0.038759708404541016 -0.4573643207550049 0.6654319167137146
0.038759708404541016 -0.4418604373931885 0.11797262728214264
0.038759708404541016 -0.4418604373931885 0.6600974202156067
0.038759708404541016 -0.42635661363601685 0.1003529354929924
0.038759708404541016 -0.42635661363601685 0.6531882286071777
0.038759708404541016 -0.41085273027420044 0.08626964688301086
0.038759708404541016 -0.41085273027420044 0.6464756727218628
0.038759708404541016 -0.39534884691238403 0.07415845990180969
0.038759708404541016 -0.39534884691238403 0.634894609451294
0.038759708404541016 -0.3798449635505676 0.06347345560789108
0.038759708404541016 -0.3798449635505676 0.621198296546936
0.038759708404541016 -0.3643410801887512 0.05359342321753502
0.038759708404541016 -0.3643410801887512 0.6063625812530518
0.038759708404541016 -0.3488371968269348 0.044737059623003006
0.038759708404541016 -0.3488371968269348 0.5906167030334473
0.038759708404541016 -0.3333333134651184 0.03344665840268135
0.038759708404541016 -0.3333333134651184 0.5726644396781921
0.038759708404541016 -0.317829430103302 0.021110543981194496
0.038759708404541016 -0.317829430103302 0.5492967367172241
0.038759708404541016 -0.30232560634613037 0.0063932063058018684
0.038759712129831314 -0.30232560634613037 0.5195341110229492
0.038759708404541016 -0.28682172298431396 -0.009645747020840645
0.038759708404541016 -0.28682172298431396 0.47815150022506714
0.038759708404541016 -0.27131783962249756 -0.024359770119190216
0.038759708404541016 -0.27131783962249756 0.43310070037841797
0.038759708404541016 -0.25581395626068115 -0.037654682993888855
0.038759708404541016 -0.25581395626068115 0.40251320600509644
0.038759708404541016 -0.24031008780002594 -0.04898153245449066
0.038759708404541016 -0.24031007289886475 0.38308724761009216
0.038759708404541016 -0.22480618953704834 -0.06017564982175827
0.038759708404541016 -0.22480618953704834 0.36856117844581604
0.038759708404541016 -0.20930230617523193 -0.07106781005859375
0.038759708404541016 -0.20930230617523193 0.3555760979652405
0.038759708404541016 -0.19379842281341553 -0.08051677793264389
0.038759708404541016 -0.19379842281341553 0.34296512603759766
0.038759708404541016 -0.1782945990562439 -0.09153510630130768
0.038759708404541016 -0.1782945990562439 0.32974591851234436
0.038759708404541016 -0.1627907156944275 -0.10241708159446716
0.038759708404541016 -0.1627907156944275 0.31557679176330566
0.038759708404541016 -0.14728683233261108 -0.11308088898658752
0.038759708404541016 -0.14728683233261108 0.3000916540622711
0.038759708404541016 -0.13178294897079468 -0.12485289573669434
0.038759708404541016 -0.13178294897079468 0.28352269530296326
0.038759708404541016 -0.11627906560897827 -0.13863462209701538
0.038759708404541016 -0.11627906560897827 0.26682987809181213
0.038759708404541016 -0.10077518224716187 -0.15423673391342163
0.038759708404541016 -0.10077518224716187 0.25197070837020874
0.038759708404541016 -0.08527129888534546 -0.17048361897468567
0.038759708404541016 -0.08527129888534546 0.23931437730789185
0.038759708404541016 -0.06976741552352905 -0.1847359836101532
0.038759708404541016 -0.06976741552352905 0.2268713414669037
0.038759708404541016 -0.05426359176635742 -0.19562344253063202
0.038759708404541016 -0.05426359176635742 0.21533998847007751
0.038759708404541016 -0.038759708404541016 -0.20324477553367615
0.038759708404541016 -0.038759708404541016 0.20381247997283936
0.038759708404541016 -0.02325582504272461 -0.6917746067047119
0.038759708404541016 -0.02325582504272461 -0.6836596131324768
0.038759708404541016 -0.02325582504272461 -0.20989778637886047
0.038759708404541016 -0.02325582504272461 0.19385920464992523
0.038759708404541016 -0.007751941680908203 -0.6934448480606079
0.038759708404541016 -0.007751941680908203 -0.6834291219711304
0.038759708404541016 -0.007751941680908203 -0.21270540356636047
0.038759708404541016 -0.007751941680908203 0.1825391799211502
0.038759708404541016 0.007751941680908203 -0.6938138008117676
0.038759708404541016 0.007751941680908203 -0.6843553185462952
0.038759708404541016 0.007751941680908203 -0.2148725539445877
0.038759708404541016 0.007751941680908203 0.16905304789543152
0.038759708404541016 0.02325582504272461 -0.6938639283180237
0.038759708404541016 0.02325582504272461 -0.6847679615020752
0.038759708404541016 0.02325582504272461 -0.21726231276988983
0.038759708404541016 0.02325582504272461 0.1547015905380249
0.038759708404541016 0.038759708404541016 -0.693236231803894
0.038759708404541016 0.038759708404541016 -0.685392439365387
0.03875970467925072 0.03875970467925072 -0.2228507399559021
0.038759708404541016 0.038759708404541016 0.1407874971628189
0.038759708404541016 0.05426359176635742 -0.6919851899147034
0.038759708404541016 0.05426359176635742 -0.686804473400116
0.038759708404541016 0.05426359176635742 -0.23062705993652344
0.038759708404541016 0.05426359176635742 0.127792626619339
0.038759708404541016 0.06976747512817383 -0.6917561888694763
0.038759708404541016 0.06976747512817383 -0.686089038848877
0.038759708404541016 0.06976747512817383 -0.24061799049377441
0.038759708404541016 0.06976747512817383 0.11701603978872299
0.038759708404541016 0.08527135848999023 -0.6921969056129456
0.038759708404541016 0.08527135848999023 -0.6847988963127136
0.038759708404541016 0.08527135848999023 -0.24178294837474823
0.038759708404541016 0.08527135848999023 0.10713839530944824
0.038759708404541016 0.10077524185180664 -0.6927120089530945
0.038759708404541016 0.10077524185180664 -0.6856527328491211
0.038759708404541016 0.10077524185180664 -0.24204029142856598
0.038759708404541016 0.10077524185180664 0.0959494411945343
0.038759708404541016 0.11627912521362305 -0.6926606297492981
0.038759708404541016 0.11627912521362305 -0.687637984752655
0.038759708404541016 0.11627912521362305 -0.2419186383485794
0.038759708404541016 0.11627912521362305 0.08758233487606049
0.038759708404541016 0.1317828893661499 -0.24194002151489258
0.038759708404541016 0.1317828893661499 0.07687908411026001
0.038759708404541016 0.1472867727279663 -0.2423551082611084
0.038759708404541016 0.1472867727279663 0.06496846675872803
0.038759708404541016 0.16279065608978271 -0.24255520105361938
0.038759708404541016 0.16279065608978271 0.05486128106713295
0.038759708404541016 0.17829453945159912 -0.2412768304347992
0.038759708404541016 0.17829453945159912 0.04336100071668625
0.038759708404541016 0.19379842281341553 -0.2337627112865448
0.038759708404541016 0.19379842281341553 0.03080105036497116
0.038759708404541016 0.20930230617523193 -0.2268030047416687
0.038759708404541016 0.20930230617523193 0.017608998343348503
0.038759708404541016 0.22480618953704834 -0.22513629496097565
0.038759708404541016 0.22480618953704834 0.005021962337195873
0.038759708404541016 0.24031007289886475 -0.21607649326324463
0.038759708404541016 0.24031007289886475 -0.006643183529376984
0.038759708404541016 0.25581395626068115 -0.2093845158815384
0.038759708404541016 0.25581395626068115 -0.018081415444612503
0.038759708404541016 0.27131783962249756 -0.2005864977836609
0.038759708404541016 0.27131783962249756 -0.029444999992847443
0.038759708404541016 0.28682172298431396 -0.19463881850242615
0.038759708404541016 0.28682172298431396 -0.038062166422605515
0.038759708404541016 0.30232560634613037 -0.19097818434238434
0.038759708404541016 0.30232560634613037 -0.04725373908877373
0.038759708404541016 0.3178294897079468 -0.18718823790550232
0.038759708404541016 0.3178294897079468 -0.057359497994184494
0.038759708404541016 0.3333333730697632 -0.1857069581747055
0.038759708404541016 0.3333333730697632 -0.0666513442993164
0.038759708404541016 0.3488372564315796 -0.1873948872089386
0.038759708404541016 0.3488372564315796 -0.07815951108932495
0.038759708404541016 0.364341139793396 -0.18994297087192535
0.038759708404541016 0.364341139793396 -0.09112976491451263
0.038759712129831314 0.37984493374824524 -0.19180968403816223
0.038759708404541016 0.37984490394592285 -0.1047026738524437
0.038759708404541016 0.39534878730773926 -0.1942223161458969
0.038759708404541016 0.39534878730773926 -0.11972010135650635
0.038759708404541016 0.41085267066955566 -0.1993141770362854
0.038759708404541016 0.41085267066955566 -0.13619422912597656
0.038759708404541016 0.42635655403137207 -0.21055173873901367
0.038759708404541016 0.42635655403137207 -0.15203653275966644
0.038759708404541016 0.4418604373931885 -0.2245447188615799
0.038759708404541016 0.4418604373931885 -0.16776251792907715
0.03875970467925072 0.4573642909526825 -0.23808403313159943
0.038759708404541016 0.4573643207550049 -0.18300625681877136
0.038759708404541016 0.4728682041168213 -0.2519287168979645
0.038759708404541016 0.4728682041168213 -0.19832254946231842
0.038759708404541016 0.4883720874786377 -0.2608734965324402
0.038759708404541016 0.4883720874786377 -0.21621057391166687
0.038759708404541016 0.5038759708404541 -0.2713661193847656
0.038759708404541016 0.5038759708404541 -0.23399978876113892
0.038759708404541016 0.5193798542022705 -0.27481353282928467
0.038759708404541016 0.5193798542022705 -0.2504645586013794
0.038759708404541016 0.5348837375640869 -0.28512516617774963
0.038759708404541016 0.5348837375640869 -0.26559528708457947
0.038759708404541016 0.5503876209259033 -0.2914164662361145
0.038759708404541016 0.5503876209259033 -0.2805905044078827
0.038759708404541016 0.5658915042877197 -0.3072411119937897
0.038759708404541016 0.5658915042877197 -0.29693397879600525
0.038759708404541016 0.5813953876495361 -0.33101868629455566
0.038759708404541016 0.5813953876495361 -0.3133372664451599
0.038759708404541016 0.5968992710113525 -0.3498787581920624
0.038759708404541016 0.5968992710113525 -0.3287140130996704
0.038759708404541016 0.612403154373169 -0.36342620849609375
0.038759708404541016 0.612403154373169 -0.3438774049282074
0.038759708404541016 0.6279069185256958 -0.3695535659790039
0.038759708404541016 0.6279069185256958 -0.35951054096221924
0.038759708404541016 0.6434108018875122 -0.38290688395500183
0.038759708404541016 0.6434108018875122 -0.37535619735717773
0.038759708404541016 0.6589146852493286 -0.3976401686668396
0.038759708404541016 0.6589146852493286 -0.39030906558036804
0.038759708404541016 0.674418568611145 -0.4123709201812744
0.038759708404541016 0.674418568611145 -0.40502986311912537
0.038759708404541016 0.6899224519729614 -0.426638126373291
0.038759712129831314 0.6899224519729614 -0.42379215359687805
0.038759708404541016 0.7054263353347778 -0.4423486888408661
0.038759708404541016 0.7054263353347778 -0.4299355447292328
0.038759708404541016 0.7209302186965942 -0.4585481584072113
0.038759708404541016 0.7209302186965942 -0.4403245449066162
0.038759708404541016 0.7364341020584106 -0.47381436824798584
0.038759708404541016 0.7364341020584106 -0.45501863956451416
0.038759708404541016 0.751937985420227 -0.4857379198074341
0.038759708404541016 0.751937985420227 -0.4697554409503937
0.038759708404541016 0.7674418687820435 -0.4940653443336487
0.038759708404541016 0.7674418687820435 -0.4844176173210144
0.038759708404541016 0.7829457521438599 -0.507432758808136
0.038759708404541016 0.7829457521438599 -0.5001547336578369
0.038759708404541016 0.7984496355056763 -0.5226982831954956
0.03875970467925072 0.7984496355056763 -0.5166540741920471
0.038759708404541016 0.8139535188674927 -0.5402095317840576
0.038759708404541016 0.8139535188674927 -0.5326425433158875
0.038759708404541016 0.8294574022293091 -0.5673564672470093
0.038759708404541016 0.8294574022293091 -0.5487461686134338
0.038759708404541016 0.8449612855911255 -0.5911466479301453
0.038759708404541016 0.8449613451957703 -0.56416916847229
0.038759708404541016 0.8604651689529419 -0.6093947887420654
0.038759708404541016 0.8604651689529419 -0.5792204141616821
0.038759708404541016 0.8759689331054688 -0.6211931705474854
0.038759708404541016 0.8759689331054688 -0.5950145721435547
0.038759708404541016 0.8914728164672852 -0.6323102712631226
0.038759708404541016 0.8914728164672852 -0.6117281913757324
0.038759708404541016 0.9069766998291016 -0.6448874473571777
0.038759708404541016 0.9069766998291016 -0.6341121792793274
0.038759708404541016 0.922480583190918 -0.6613067984580994
0.038759708404541016 0.922480583190918 -0.6539260149002075
0.038759708404541016 0.9379844665527344 -0.6778868436813354
0.038759708404541016 0.9379844665527344 -0.6680934429168701
0.05426359176635742 -0.7984496355056763 0.5783977508544922
0.05426359176635742 -0.7984496355056763 0.593064546585083
0.05426359176635742 -0.7829457521438599 0.5595841407775879
0.05426359176635742 -0.7829457521438599 0.6215021014213562
0.05426359176635742 -0.7674418687820435 0.5456732511520386
0.05426359176635742 -0.7674418687820435 0.6346375942230225
0.05426359176635742 -0.7519379258155823 0.5367783904075623
0.05426359176635742 -0.751937985420227 0.6476182341575623
0.05426359176635742 -0.7364341020584106 0.5305691957473755
0.05426359176635742 -0.7364341020584106 0.651488721370697
0.05426359176635742 -0.7209302186965942 0.5280374884605408
0.05426359176635742 -0.7209302186965942 0.6537390947341919
0.05426359176635742 -0.7054263353347778 0.5267283320426941
0.05426359176635742 -0.7054263353347778 0.6562364101409912
0.05426359176635742 -0.6899224519729614 0.5247488021850586
0.05426359176635742 -0.6899224519729614 0.6599520444869995
0.05426359176635742 -0.674418568611145 0.5189331769943237
0.05426359176635742 -0.674418568611145 0.6639869213104248
0.05426359176635742 -0.6589146852493286 0.5135737061500549
0.05426359176635742 -0.6589146852493286 0.6677082180976868
0.05426359176635742 -0.643410861492157 0.5067749619483948
0.05426359176635742 -0.643410861492157 0.6699429750442505
0.05426359176635742 -0.6279069781303406 0.49835139513015747
0.05426359176635742 -0.6279069185256958 0.6725755929946899
0.05426359549164772 -0.6124030947685242 0.48929664492607117
0.05426359176635742 -0.6124030947685242 0.6752259731292725
0.05426359176635742 -0.596899151802063 0.47978004813194275
0.05426359176635742 -0.5968992114067078 0.6762281060218811
0.05426359176635742 -0.5813953876495361 0.4705961048603058
0.05426359176635742 -0.5813953876495361 0.6762768626213074
0.05426359176635742 -0.5658915042877197 0.4614255428314209
0.05426359176635742 -0.5658915042877197 0.6757559180259705
0.05426359176635742 -0.5503876209259033 0.45137399435043335
0.05426359176635742 -0.5503876209259033 0.6751506328582764
0.05426359176635742 -0.5348837375640869 0.43932199478149414
0.05426359176635742 -0.5348837375640869 0.6738085150718689
0.05426359176635742 -0.5193798542022705 0.4279537498950958
0.05426359176635742 -0.5193798542022705 0.6716184020042419
0.05426359176635742 -0.5038759708404541 0.41374263167381287
0.05426359176635742 -0.5038759708404541 0.669137716293335
0.05426359176635742 -0.4883720874786377 0.39151233434677124
0.05426359176635742 -0.4883720576763153 0.6641582250595093
0.05426359176635742 -0.4728682041168213 0.19366732239723206
0.05426359176635742 -0.4728682041168213 0.6585650444030762
0.05426359176635742 -0.4573643207550049 0.1514844000339508
0.05426359176635742 -0.4573643207550049 0.6538788080215454
0.05426359176635742 -0.4418604373931885 0.1276029348373413
0.05426359176635742 -0.4418604373931885 0.6499568223953247
0.05426359176635742 -0.42635661363601685 0.11014943569898605
0.05426359176635742 -0.42635658383369446 0.6434560418128967
0.05426359176635742 -0.41085273027420044 0.0950869470834732
0.05426359176635742 -0.41085273027420044 0.6348481774330139
0.05426359176635742 -0.39534884691238403 0.08136839419603348
0.05426359176635742 -0.39534884691238403 0.6239251494407654
0.05426359176635742 -0.3798449635505676 0.06964533776044846
0.05426359176635742 -0.3798449635505676 0.6122458577156067
0.05426359176635742 -0.3643410801887512 0.06028486788272858
0.05426359176635742 -0.3643410801887512 0.5980538725852966
0.05426359176635742 -0.3488371968269348 0.049694307148456573
0.05426359176635742 -0.3488371968269348 0.5820515155792236
0.05426359176635742 -0.3333333134651184 0.03957242891192436
0.05426359176635742 -0.3333333134651184 0.561848521232605
0.05426359176635742 -0.317829430103302 0.027728073298931122
0.05426359176635742 -0.317829430103302 0.5362732410430908
0.05426359176635742 -0.30232560634613037 0.01342887431383133
0.05426359176635742 -0.30232560634613037 0.5011601448059082
0.05426359549164772 -0.28682172298431396 -0.002155531896278262
0.05426359176635742 -0.28682172298431396 0.45565399527549744
0.05426359176635742 -0.27131783962249756 -0.017367349937558174
0.05426359176635742 -0.27131783962249756 0.41534361243247986
0.05426359176635742 -0.25581395626068115 -0.03129560127854347
0.05426359176635742 -0.25581395626068115 0.3920949101448059
0.05426359176635742 -0.24031007289886475 -0.04343940690159798
0.05426359176635742 -0.24031007289886475 0.3769288659095764
0.05426359176635742 -0.22480618953704834 -0.054760005325078964
0.05426359176635742 -0.22480618953704834 0.36431869864463806
0.05426359176635742 -0.20930230617523193 -0.06488650292158127
0.05426359176635742 -0.20930230617523193 0.35135960578918457
0.05426359176635742 -0.19379842281341553 -0.07580934464931488
0.05426359176635742 -0.19379842281341553 0.3381882309913635
0.05426359176635742 -0.1782945990562439 -0.08616948872804642
0.05426359176635742 -0.1782945990562439 0.32497653365135193
0.05426359176635742 -0.1627907156944275 -0.09629678726196289
0.05426359176635742 -0.1627907156944275 0.3110266923904419
0.05426359176635742 -0.14728683233261108 -0.10769306123256683
0.05426359176635742 -0.14728683233261108 0.2960074543952942
0.05426359176635742 -0.13178294897079468 -0.11870771646499634
0.05426359176635742 -0.13178294897079468 0.27999550104141235
0.05426359176635742 -0.11627906560897827 -0.13103561103343964
0.05426359176635742 -0.11627906560897827 0.2638718783855438
0.05426359176635742 -0.10077518224716187 -0.14596936106681824
0.05426359176635742 -0.10077518224716187 0.24912726879119873
0.05426359176635742 -0.08527129888534546 -0.16333319246768951
0.05426359176635742 -0.08527129888534546 0.23569506406784058
0.05426359176635742 -0.06976741552352905 -0.18035218119621277
0.05426359176635742 -0.06976741552352905 0.22279924154281616
0.05426359176635742 -0.05426359176635742 -0.19320720434188843
0.05426359176635742 -0.05426359176635742 0.21167999505996704
0.05426359176635742 -0.038759708404541016 -0.20160934329032898
0.05426359176635742 -0.038759708404541016 0.20058059692382812
0.05426359176635742 -0.02325582504272461 -0.6922166347503662
0.05426359176635742 -0.02325582504272461 -0.6813137531280518
0.05426359176635742 -0.02325582504272461 -0.20959118008613586
0.05426359176635742 -0.02325582504272461 0.1889830231666565
0.05426359176635742 -0.007751941680908203 -0.6936514973640442
0.05426359176635742 -0.007751941680908203 -0.6815794706344604
0.05426359176635742 -0.007751941680908203 -0.21226152777671814
0.05426359176635742 -0.007751941680908203 0.17709669470787048
0.05426359176635742 0.007751941680908203 -0.6939343214035034
0.05426359176635742 0.007751941680908203 -0.6826115846633911
0.05426359176635742 0.007751941680908203 -0.2140638828277588
0.05426359176635742 0.007751941680908203 0.16452550888061523
0.05426359176635742 0.02325582504272461 -0.6940049529075623
0.05426359176635742 0.02325582504272461 -0.6828654408454895
0.05426359176635742 0.02325582504272461 -0.21598060429096222
0.05426359176635742 0.02325582504272461 0.15089979767799377
0.05426359176635742 0.038759708404541016 -0.6937062740325928
0.05426359176635742 0.038759708404541016 -0.6833965182304382
0.05426359176635742 0.038759708404541016 -0.22045040130615234
0.05426359176635742 0.038759708404541016 0.1376870721578598
0.05426359176635742 0.05426359176635742 -0.6935131549835205
0.05426359176635742 0.05426359176635742 -0.6834002137184143
0.05426359176635742 0.05426359176635742 -0.22808466851711273
0.05426359176635742 0.05426359176635742 0.12446337938308716
0.05426359176635742 0.06976747512817383 -0.6935031414031982
0.05426359176635742 0.06976747512817383 -0.6813457012176514
0.05426359176635742 0.06976747512817383 -0.2403644323348999
0.05426359176635742 0.06976747512817383 0.11217698454856873
0.05426359176635742 0.08527135848999023 -0.6933764219284058
0.05426359176635742 0.08527135848999023 -0.6806666851043701
0.05426359176635742 0.08527135848999023 -0.24184076488018036
0.05426359176635742 0.08527135848999023 0.10323106497526169
0.05426359176635742 0.10077524185180664 -0.6934594511985779
0.05426359176635742 0.10077524185180664 -0.6828098297119141
0.05426359176635742 0.10077524185180664 -0.2418498396873474
0.05426359176635742 0.10077524185180664 0.09310425817966461
0.05426359176635742 0.11627912521362305 -0.6934331655502319
0.05426359176635742 0.11627912521362305 -0.6853535175323486
0.05426359176635742 0.11627912521362305 -0.24184651672840118
0.05426359176635742 0.11627912521362305 0.0821911171078682
0.05426359176635742 0.1317828893661499 -0.6923162937164307
0.05426359176635742 0.1317828893661499 -0.6882510185241699
0.05426359176635742 0.1317828893661499 -0.24282333254814148
0.05426359176635742 0.1317828893661499 0.07305946946144104
0.05426359176635742 0.1472867727279663 -0.24709349870681763
0.05426359176635742 0.1472867727279663 0.06199228763580322
0.05426359176635742 0.1627906709909439 -0.2524387538433075
0.05426359176635742 0.16279065608978271 0.049809541553258896
0.05426359176635742 0.17829453945159912 -0.2511956989765167
0.05426359176635742 0.17829453945159912 0.03853641450405121
0.05426359176635742 0.19379842281341553 -0.23630866408348083
0.05426359176635742 0.19379842281341553 0.026862239465117455
0.05426359176635742 0.20930230617523193 -0.22630929946899414
0.05426359176635742 0.20930230617523193 0.014390919357538223
0.05426359176635742 0.22480618953704834 -0.22497178614139557
0.05426359176635742 0.22480618953704834 0.0010632171761244535
0.05426359176635742 0.24031007289886475 -0.21326947212219238
0.05426359176635742 0.24031007289886475 -0.011909421533346176
0.05426359176635742 0.25581395626068115 -0.2079080194234848
0.05426359176635742 0.25581395626068115 -0.022470127791166306
0.05426359176635742 0.27131783962249756 -0.19859009981155396
0.05426359176635742 0.27131783962249756 -0.03278573602437973
0.05426359176635742 0.28682172298431396 -0.19405584037303925
0.05426359176635742 0.28682172298431396 -0.042999811470508575
0.05426359176635742 0.30232560634613037 -0.1899491548538208
0.05426359176635742 0.30232560634613037 -0.050210654735565186
0.05426359176635742 0.3178294897079468 -0.1863463968038559
0.05426359176635742 0.3178294897079468 -0.06097143888473511
0.05426359176635742 0.3333333730697632 -0.18502530455589294
0.05426359176635742 0.3333333730697632 -0.07139623910188675
0.05426359176635742 0.3488372564315796 -0.18659955263137817
0.05426359176635742 0.3488372564315796 -0.08115663379430771
0.05426358804106712 0.364341139793396 -0.18906280398368835
0.05426359176635742 0.364341139793396 -0.09373603016138077
0.05426359176635742 0.37984490394592285 -0.1905829906463623
0.05426359176635742 0.37984490394592285 -0.10788431018590927
0.05426359176635742 0.39534878730773926 -0.192605122923851
0.05426359176635742 0.39534878730773926 -0.1228887215256691
0.05426359176635742 0.41085267066955566 -0.19735585153102875
0.05426359176635742 0.41085267066955566 -0.1387152373790741
0.05426359176635742 0.42635655403137207 -0.20836985111236572
0.05426359176635742 0.42635655403137207 -0.15403738617897034
0.05426359549164772 0.44186046719551086 -0.22281332314014435
0.05426359176635742 0.4418604373931885 -0.16933199763298035
0.05426359176635742 0.4573643207550049 -0.23322027921676636
0.05426359176635742 0.4573643207550049 -0.18427199125289917
0.05426359176635742 0.4728682041168213 -0.24448436498641968
0.05426359176635742 0.4728682041168213 -0.1991904079914093
0.05426359176635742 0.4883720874786377 -0.25667333602905273
0.05426359176635742 0.4883720874786377 -0.21636198461055756
0.05426359176635742 0.5038759708404541 -0.26380035281181335
0.05426359176635742 0.5038759708404541 -0.23368708789348602
0.05426359176635742 0.5193798542022705 -0.2733953893184662
0.05426359176635742 0.5193798542022705 -0.2501588463783264
0.05426359176635742 0.5348837375640869 -0.2866086959838867
0.05426359176635742 0.5348837375640869 -0.26567554473876953
0.05426359176635742 0.5503876209259033 -0.3009061813354492
0.05426359176635742 0.5503876209259033 -0.2810205817222595
0.05426359176635742 0.5658915042877197 -0.3202410936355591
0.05426359549164772 0.5658915042877197 -0.2967175543308258
0.05426359176635742 0.5813953876495361 -0.337687611579895
0.05426359176635742 0.5813953876495361 -0.3130497932434082
0.05426359176635742 0.5968992710113525 -0.3526763617992401
0.05426359176635742 0.5968992710113525 -0.3290932774543762
0.05426359176635742 0.612403154373169 -0.3664335608482361
0.05426359176635742 0.612403154373169 -0.344455361366272
0.05426359176635742 0.6279069185256958 -0.3799651265144348
0.05426359549164772 0.6279069185256958 -0.3596433103084564
0.05426359176635742 0.6434108018875122 -0.38523921370506287
0.05426359176635742 0.6434108018875122 -0.37458887696266174
0.05426359176635742 0.6589146852493286 -0.39866018295288086
0.05426359176635742 0.6589146852493286 -0.3897740840911865
0.05426359176635742 0.674418568611145 -0.413296103477478
0.05426359176635742 0.674418568611145 -0.4046073257923126
0.05426359176635742 0.6899224519729614 -0.42811018228530884
0.05426359176635742 0.6899224519729614 -0.4196322560310364
0.05426359176635742 0.7054263353347778 -0.44308388233184814
0.05426359176635742 0.7054263353347778 -0.4333674907684326
0.05426359176635742 0.7209302186965942 -0.458488404750824
0.05426359176635742 0.7209302186965942 -0.44172587990760803
0.05426359176635742 0.7364341020584106 -0.47344738245010376
0.05426359176635742 0.7364341020584106 -0.45614737272262573
0.05426359176635742 0.751937985420227 -0.4803297221660614
0.05426359176635742 0.751937985420227 -0.4706888198852539
0.05426359176635742 0.7674418687820435 -0.49155259132385254
0.05426359176635742 0.7674418687820435 -0.4859214425086975
0.05426359176635742 0.7829457521438599 -0.5048621892929077
0.05426359176635742 0.7829457521438599 -0.503035306930542
0.05426359176635742 0.8294574022293091 -0.5689421892166138
0.05426359176635742 0.8294574022293091 -0.5582062005996704
0.05426359176635742 0.8449612855911255 -0.597358763217926
0.05426359176635742 0.8449612855911255 -0.5657034516334534
0.05426359176635742 0.8604651689529419 -0.6138225793838501
0.05426359549164772 0.8604651689529419 -0.580613374710083
0.05426359176635742 0.8759689331054688 -0.6258676052093506
0.05426359176635742 0.8759689331054688 -0.5967364311218262
0.05426359176635742 0.8914728164672852 -0.6340922713279724
0.05426359176635742 0.8914728164672852 -0.6149950623512268
0.05426359176635742 0.9069766998291016 -0.6463156938552856
0.05426359176635742 0.9069766998291016 -0.6343852281570435
0.05426359176635742 0.922480583190918 -0.6603519320487976
0.05426359176635742 0.922480583190918 -0.6544938087463379
0.05426359176635742 0.9379844665527344 -0.6773089170455933
0.05426359176635742 0.9379844665527344 -0.6682300567626953
0.06976747512817383 -0.751937985420227 0.5461499691009521
0.06976747512817383 -0.751937985420227 0.5953136682510376
0.06976747512817383 -0.7364341616630554 0.5374299883842468
0.06976747512817383 -0.7364341020584106 0.6062495708465576
0.06976747512817383 -0.7209302186965942 0.5317911505699158
0.06976747512817383 -0.720930278301239 0.6148481369018555
0.06976747512817383 -0.7054263353347778 0.5301973819732666
0.06976747512817383 -0.7054263353347778 0.6195840835571289
0.06976747512817383 -0.6899224519729614 0.5293002128601074
0.06976747512817383 -0.6899224519729614 0.6224021911621094
0.06976747512817383 -0.674418568611145 0.5261979103088379
0.06976747512817383 -0.674418568611145 0.6261886358261108
0.06976747512817383 -0.6589146852493286 0.5181002616882324
0.06976747512817383 -0.6589146852493286 0.6335943937301636
0.06976747512817383 -0.643410861492157 0.5129920244216919
0.06976747512817383 -0.643410861492157 0.6394100785255432
0.06976747512817383 -0.6279069781303406 0.507526695728302
0.06976747512817383 -0.6279069781303406 0.6431531310081482
0.06976747512817383 -0.6124030947685242 0.5013799667358398
0.06976747512817383 -0.6124030947685242 0.6482269763946533
0.06976747512817383 -0.5968992114067078 0.49569886922836304
0.06976747512817383 -0.5968992114067078 0.6507481336593628
0.06976747512817383 -0.5813953876495361 0.4875583052635193
0.06976747512817383 -0.5813953876495361 0.6527382731437683
0.06976747512817383 -0.5658915042877197 0.4789179265499115
0.06976747512817383 -0.5658915042877197 0.6546751260757446
0.06976747512817383 -0.5503876209259033 0.4693036675453186
0.06976747512817383 -0.5503876209259033 0.6560582518577576
0.06976747512817383 -0.5348837375640869 0.4583550691604614
0.06976747512817383 -0.5348837375640869 0.6558334231376648
0.06976747512817383 -0.5193798542022705 0.4463626742362976
0.06976747512817383 -0.5193798542022705 0.6543771028518677
0.06976747512817383 -0.5038759708404541 0.4315411150455475
0.06976747512817383 -0.5038759708404541 0.6519526243209839
0.06976747512817383 -0.4883720874786377 0.4098937511444092
0.06976747512817383 -0.4883720874786377 0.6451935172080994
0.06976747512817383 -0.4728682041168213 0.369168221950531
0.06976747512817383 -0.4728682041168213 0.639533519744873
0.06976747512817383 -0.4573643207550049 0.1723896861076355
0.06976747512817383 -0.4573643207550049 0.6357012987136841
0.06976747512817383 -0.4418604373931885 0.14126840233802795
0.06976747512817383 -0.4418604075908661 0.6311097741127014
0.06976747512817383 -0.42635661363601685 0.12114511430263519
0.06976747512817383 -0.42635661363601685 0.6249462962150574
0.06976747512817383 -0.41085273027420044 0.10518208891153336
0.06976747512817383 -0.41085273027420044 0.6185048222541809
0.06976747512817383 -0.39534884691238403 0.09104466438293457
0.06976747512817383 -0.39534884691238403 0.6087008714675903
0.06976747512817383 -0.3798449635505676 0.07857950031757355
0.06976747512817383 -0.3798449635505676 0.5975139141082764
0.06976747512817383 -0.3643410801887512 0.06688546389341354
0.06976747512817383 -0.3643410801887512 0.583638608455658
0.06976747512817383 -0.3488371670246124 0.056694239377975464
0.06976747512817383 -0.3488371968269348 0.5672211050987244
0.06976747512817383 -0.3333333134651184 0.04504889249801636
0.06976747512817383 -0.3333333134651184 0.5440341234207153
0.06976747512817383 -0.317829430103302 0.031929101794958115
0.06976747512817383 -0.317829430103302 0.5137037038803101
0.06976747512817383 -0.30232560634613037 0.018043482676148415
0.06976748257875443 -0.30232560634613037 0.4732203781604767
0.06976747512817383 -0.28682172298431396 0.0037105425726622343
0.06976747512817383 -0.28682172298431396 0.4303297996520996
0.06976747512817383 -0.27131783962249756 -0.01072981022298336
0.06976747512817383 -0.27131783962249756 0.39803990721702576
0.06976747512817383 -0.25581395626068115 -0.02436215803027153
0.06976747512817383 -0.25581395626068115 0.38196125626564026
0.06976747512817383 -0.24031007289886475 -0.03690033778548241
0.06976747512817383 -0.24031007289886475 0.36951786279678345
0.06976747512817383 -0.22480618953704834 -0.048118822276592255
0.06976747512817383 -0.22480618953704834 0.35732245445251465
0.06976747512817383 -0.20930230617523193 -0.05954725295305252
0.06976747512817383 -0.20930230617523193 0.34530019760131836
0.06976747512817383 -0.19379842281341553 -0.07041814923286438
0.06976747512817383 -0.19379842281341553 0.3329370617866516
0.06976747512817383 -0.1782945990562439 -0.07988554239273071
0.06976747512817383 -0.1782945990562439 0.3195148706436157
0.06976747512817383 -0.1627907156944275 -0.09124669432640076
0.06976747512817383 -0.1627907156944275 0.305091917514801
0.06976747512817383 -0.14728683233261108 -0.10168305784463882
0.06976747512817383 -0.14728683233261108 0.2902797758579254
0.06976747512817383 -0.13178294897079468 -0.11178992688655853
0.06976747512817383 -0.13178294897079468 0.27483394742012024
0.06976747512817383 -0.11627906560897827 -0.12412281334400177
0.06976747512817383 -0.11627906560897827 0.2593938708305359
0.06976747512817383 -0.10077518224716187 -0.1373971849679947
0.06976747512817383 -0.10077518224716187 0.24516412615776062
0.06976747512817383 -0.08527129888534546 -0.15300612151622772
0.06976747512817383 -0.08527129888534546 0.23151326179504395
0.06976747512817383 -0.06976741552352905 -0.17150352895259857
0.06976747512817383 -0.06976741552352905 0.21828803420066833
0.06976747512817383 -0.05426359176635742 -0.1870494782924652
0.06976747512817383 -0.05426359176635742 0.20635676383972168
0.06976747512817383 -0.038759708404541016 -0.19868570566177368
0.06976747512817383 -0.038759708404541016 0.19611278176307678
0.06976747512817383 -0.02325582504272461 -0.20790895819664001
0.06976747512817383 -0.02325582504272461 0.1847524344921112
0.06976747512817383 -0.007751941680908203 -0.21103598177433014
0.06976747512817383 -0.007751941680908203 0.1718401312828064
0.06976747512817383 0.007751941680908203 -0.21226345002651215
0.06976747512817383 0.007751941680908203 0.158559650182724
0.06976747512817383 0.02325582504272461 -0.21291612088680267
0.06976747512817383 0.02325582504272461 0.14541536569595337
0.06976747512817383 0.038759708404541016 -0.21572715044021606
0.06976747512817383 0.03875970467925072 0.1337360292673111
0.06976747512817383 0.05426359176635742 -0.22543112933635712
0.06976747512817383 0.05426358804106712 0.1213482916355133
0.06976747512817383 0.06976747512817383 -0.6922487020492554
0.06976747512817383 0.06976747512817383 -0.6855118870735168
0.06976747512817383 0.06976747512817383 -0.24061760306358337
0.06976747512817383 0.06976747512817383 0.1091964989900589
0.06976747512817383 0.08527135848999023 -0.6931851506233215
0.06976747512817383 0.08527135848999023 -0.6758379936218262
0.06976747512817383 0.08527135848999023 -0.25021061301231384
0.06976747512817383 0.08527135848999023 0.0986698642373085
0.06976747512817383 0.10077524185180664 -0.6932331323623657
0.06976747512817383 0.10077524185180664 -0.680881917476654
0.06976747512817383 0.10077524185180664 -0.24246498942375183
0.06976747512817383 0.10077524185180664 0.09043867141008377
0.06976747512817383 0.11627912521362305 -0.6930459141731262
0.06976747512817383 0.11627912521362305 -0.6853590607643127
0.06976747512817383 0.11627912521362305 -0.24109239876270294
0.06976747512817383 0.11627912521362305 0.07922051101922989
0.06976747512817383 0.1317828893661499 -0.6916298270225525
0.06976747512817383 0.1317828893661499 -0.6886621117591858
0.06976747512817383 0.1317828893661499 -0.24173405766487122
0.06976746767759323 0.1317828893661499 0.0698438286781311
0.06976747512817383 0.1472867727279663 -0.24614813923835754
0.06976747512817383 0.1472867727279663 0.059971243143081665
0.06976747512817383 0.16279065608978271 -0.2528378665447235
0.06976747512817383 0.16279065608978271 0.04750166833400726
0.06976747512817383 0.17829453945159912 -0.2489529699087143
0.06976747512817383 0.17829453945159912 0.0345250740647316
0.06976747512817383 0.19379842281341553 -0.23050105571746826
0.06976747512817383 0.19379842281341553 0.02220330759882927
0.06976747512817383 0.20930230617523193 -0.22562123835086823
0.06976747512817383 0.20930230617523193 0.010073605924844742
0.06976747512817383 0.22480618953704834 -0.2189752161502838
0.06976747512817383 0.22480618953704834 -0.0027617597952485085
0.06976747512817383 0.24031007289886475 -0.210096538066864
0.06976747512817383 0.24031007289886475 -0.015691300854086876
0.06976747512817383 0.25581395626068115 -0.20345130562782288
0.06976747512817383 0.25581395626068115 -0.028067294508218765
0.06976747512817383 0.27131783962249756 -0.19526034593582153
0.06976747512817383 0.27131783962249756 -0.03693842142820358
0.06976747512817383 0.28682172298431396 -0.19099892675876617
0.06976747512817383 0.28682172298431396 -0.046436429023742676
0.06976747512817383 0.30232560634613037 -0.186566561460495
0.06976747512817383 0.30232560634613037 -0.055275678634643555
0.06976747512817383 0.3178294897079468 -0.1840927004814148
0.06976747512817383 0.3178294897079468 -0.06420799344778061
0.06976747512817383 0.3333333730697632 -0.18336734175682068
0.06976747512817383 0.3333333730697632 -0.07618358731269836
0.06976747512817383 0.3488372564315796 -0.18495073914527893
0.06976747512817383 0.3488372564315796 -0.08692651242017746
0.06976747512817383 0.364341139793396 -0.18744467198848724
0.06976747512817383 0.364341139793396 -0.09738822281360626
0.06976747512817383 0.37984490394592285 -0.18876735866069794
0.06976747512817383 0.37984490394592285 -0.11096951365470886
0.06976747512817383 0.39534878730773926 -0.18995703756809235
0.06976747512817383 0.39534878730773926 -0.1259860098361969
0.06976747512817383 0.41085267066955566 -0.19472810626029968
0.06976747512817383 0.41085267066955566 -0.14159782230854034
0.06976747512817383 0.42635655403137207 -0.20454126596450806
0.06976747512817383 0.42635655403137207 -0.15671971440315247
0.06976747512817383 0.4418604373931885 -0.21965785324573517
0.06976747512817383 0.4418604373931885 -0.17173919081687927
0.06976747512817383 0.4573643207550049 -0.23132458329200745
0.06976747512817383 0.4573643207550049 -0.18657277524471283
0.06976747512817383 0.4728682041168213 -0.24199143052101135
0.06976747512817383 0.4728682041168213 -0.20163393020629883
0.06976747512817383 0.4883720874786377 -0.2530466318130493
0.06976747512817383 0.4883720874786377 -0.21847912669181824
0.06976747512817383 0.5038759708404541 -0.2620026767253876
0.06976747512817383 0.5038759708404541 -0.23507441580295563
0.06976747512817383 0.5193798542022705 -0.2745056748390198
0.06976747512817383 0.5193798542022705 -0.2513904869556427
0.06976747512817383 0.5348837375640869 -0.2903057038784027
0.06976747512817383 0.5348837375640869 -0.26706406474113464
0.06976747512817383 0.5503876209259033 -0.3081279397010803
0.06976747512817383 0.5503876209259033 -0.2827841639518738
0.06976747512817383 0.5658915042877197 -0.3278447389602661
0.06976747512817383 0.5658915042877197 -0.29872453212738037
0.06976747512817383 0.5813953876495361 -0.34685978293418884
0.06976747512817383 0.5813953876495361 -0.3150050640106201
0.06976747512817383 0.5968992710113525 -0.3584385812282562
0.06976747512817383 0.5968992710113525 -0.3309478163719177
0.06976747512817383 0.612403154373169 -0.368823766708374
0.06976747512817383 0.6124030947685242 -0.3460870087146759
0.06976747512817383 0.6279069185256958 -0.38189059495925903
0.06976747512817383 0.6279069185256958 -0.3611545264720917
0.06976747512817383 0.6434108018875122 -0.3954947888851166
0.06976747512817383 0.6434108018875122 -0.3758687973022461
0.06976747512817383 0.6589146852493286 -0.4007405638694763
0.06976747512817383 0.6589146852493286 -0.3906630575656891
0.06976747512817383 0.674418568611145 -0.41438978910446167
0.06976747512817383 0.674418568611145 -0.40549054741859436
0.06976747512817383 0.6899224519729614 -0.4290827512741089
0.06976747512817383 0.6899224519729614 -0.4203757643699646
0.06976747512817383 0.7054263353347778 -0.44409966468811035
0.06976747512817383 0.7054263353347778 -0.4345337748527527
0.06976747512817383 0.7209302186965942 -0.4593009054660797
0.06976747512817383 0.7209302186965942 -0.4478502869606018
0.06976747512817383 0.7364341020584106 -0.4742988049983978
0.06976747512817383 0.7364341020584106 -0.4606122076511383
0.06976747512817383 0.751937985420227 -0.4884144067764282
0.06976747512817383 0.7519379258155823 -0.47223731875419617
0.06976747512817383 0.7674418687820435 -0.49253541231155396
0.06976747512817383 0.7674418091773987 -0.48720288276672363
0.06976747512817383 0.7829457521438599 -0.5081140995025635
0.06976747512817383 0.7829458117485046 -0.5027214288711548
0.06976747512817383 0.7984496355056763 -0.5218323469161987
0.06976747512817383 0.7984496355056763 -0.5187326669692993
0.06976747512817383 0.8294574022293091 -0.5716538429260254
0.06976747512817383 0.8294574022293091 -0.5597929954528809
0.06976747512817383 0.8449612855911255 -0.6000831127166748
0.06976747512817383 0.8449612855911255 -0.5709936618804932
0.06976747512817383 0.8604651689529419 -0.6156861186027527
0.06976747512817383 0.8604651689529419 -0.5866413116455078
0.06976747512817383 0.8759689331054688 -0.6284953355789185
0.06976747512817383 0.8759689331054688 -0.6029603481292725
0.06976747512817383 0.8914728164672852 -0.6343397498130798
0.06976747512817383 0.8914728164672852 -0.6187977194786072
0.06976747512817383 0.9069766998291016 -0.6463974118232727
0.06976747512817383 0.9069766998291016 -0.6354455351829529
0.06976747512817383 0.922480583190918 -0.6598969101905823
0.06976747512817383 0.922480583190918 -0.6541109085083008
0.06976747512817383 0.9379844665527344 -0.676085352897644
0.06976747512817383 0.9379844665527344 -0.6683210134506226
0.06976747512817383 0.9534883499145508 -0.675372302532196
0.06976746767759323 0.9534883499145508 -0.6743541955947876
0.08527135848999023 -0.7209302186965942 0.5496376752853394
0.08527135848999023 -0.7209302186965942 0.5728245973587036
0.08527135848999023 -0.7054263353347778 0.5460349917411804
0.08527135848999023 -0.7054263353347778 0.5823726654052734
0.08527135848999023 -0.6899224519729614 0.545706033706665
0.08527135848999023 -0.6899224519729614 0.5850792527198792
0.08527135848999023 -0.674418568611145 0.544655442237854
0.08527135848999023 -0.674418568611145 0.5897824764251709
0.08527135848999023 -0.6589146852493286 0.5355930328369141
0.08527135848999023 -0.6589147448539734 0.598750114440918
0.08527135848999023 -0.643410861492157 0.5293374061584473
0.08527135848999023 -0.643410861492157 0.6063399910926819
0.08527135848999023 -0.6279069781303406 0.5227178931236267
0.08527135848999023 -0.6279069781303406 0.6130253076553345
0.08527135848999023 -0.6124030947685242 0.5188261270523071
0.08527135848999023 -0.6124030947685242 0.6181479692459106
0.08527135848999023 -0.5968992114067078 0.5163460969924927
0.08527135848999023 -0.5968992114067078 0.621280312538147
0.08527135848999023 -0.5813953876495361 0.5132216811180115
0.08527135848999023 -0.5813953876495361 0.6231310367584229
0.08527135848999023 -0.5658915042877197 0.5091167092323303
0.08527135848999023 -0.5658915042877197 0.6246945858001709
0.08527135848999023 -0.5503876209259033 0.5019567012786865
0.08527135848999023 -0.5503876209259033 0.6265004873275757
0.08527135848999023 -0.5348837375640869 0.4926654100418091
0.08527135848999023 -0.5348837375640869 0.6264938116073608
0.08527135848999023 -0.5193798542022705 0.4811965227127075
0.08527135848999023 -0.5193798542022705 0.6246274709701538
0.08527135848999023 -0.5038759708404541 0.46960878372192383
0.08527135848999023 -0.5038759708404541 0.6216306090354919
0.08527135848999023 -0.4883720874786377 0.4530945420265198
0.08527135848999023 -0.4883720874786377 0.6176209449768066
0.08527135848999023 -0.4728682041168213 0.42197445034980774
0.08527135848999023 -0.4728682041168213 0.6115016341209412
0.08527135848999023 -0.4573643207550049 0.224502831697464
0.08527135848999023 -0.4573643207550049 0.6085314750671387
0.08527135848999023 -0.4418604373931885 0.16175693273544312
0.08527135848999023 -0.4418604373931885 0.6060115098953247
0.08527135848999023 -0.42635661363601685 0.13601800799369812
0.08527135848999023 -0.42635661363601685 0.601793646812439
0.08527135848999023 -0.41085273027420044 0.11794675886631012
0.08527135848999023 -0.41085273027420044 0.5937736630439758
0.08527135848999023 -0.39534884691238403 0.10223272442817688
0.08527135848999023 -0.39534884691238403 0.5854928493499756
0.08527135848999023 -0.3798449635505676 0.08851061761379242
0.08527135848999023 -0.3798449635505676 0.5739360451698303
0.08527135848999023 -0.3643410801887512 0.07608920335769653
0.08527135848999023 -0.3643410801887512 0.5596095323562622
0.08527135848999023 -0.3488371968269348 0.0635315403342247
0.08527135848999023 -0.3488371968269348 0.5399213433265686
0.08527135848999023 -0.3333333134651184 0.05066165700554848
0.08527135848999023 -0.3333333134651184 0.5105692744255066
0.08527135848999023 -0.317829430103302 0.03932691365480423
0.08527135848999023 -0.3178294003009796 0.47349053621292114
0.08527135848999023 -0.30232560634613037 0.026884913444519043
0.08527135848999023 -0.30232560634613037 0.4366610646247864
0.08527135848999023 -0.28682172298431396 0.012913590297102928
0.08527135848999023 -0.28682172298431396 0.4000934362411499
0.08527135848999023 -0.27131783962249756 -0.002077730605378747
0.08527136594057083 -0.27131783962249756 0.3813011646270752
0.08527135848999023 -0.25581395626068115 -0.016761519014835358
0.08527135848999023 -0.25581395626068115 0.36987680196762085
0.08527135848999023 -0.24031007289886475 -0.029992152005434036
0.08527135848999023 -0.24031007289886475 0.3594655990600586
0.08527135848999023 -0.22480618953704834 -0.04205717146396637
0.08527135848999023 -0.22480618953704834 0.3489314615726471
0.08527136594057083 -0.20930232107639313 -0.053364984691143036
0.08527135848999023 -0.20930230617523193 0.33661192655563354
0.08527135848999023 -0.19379842281341553 -0.06382323056459427
0.08527135848999023 -0.19379842281341553 0.3234294056892395
0.08527135848999023 -0.1782945990562439 -0.07503508776426315
0.08527135848999023 -0.1782945990562439 0.30997228622436523
0.08527135848999023 -0.1627907156944275 -0.08576340973377228
0.08527135848999023 -0.1627907156944275 0.29566335678100586
0.08527135848999023 -0.14728683233261108 -0.09531337022781372
0.08527135848999023 -0.14728683233261108 0.28108105063438416
0.08527135848999023 -0.13178294897079468 -0.10602171719074249
0.08527135848999023 -0.13178294897079468 0.2661544680595398
0.08527135848999023 -0.11627906560897827 -0.1169854998588562
0.08527135848999023 -0.11627906560897827 0.2513306438922882
0.08527135848999023 -0.10077518224716187 -0.12873618304729462
0.08527135848999023 -0.10077518224716187 0.23750704526901245
0.08527135848999023 -0.08527129888534546 -0.14249321818351746
0.08527135103940964 -0.08527129143476486 0.22481094300746918
0.08527135848999023 -0.06976741552352905 -0.15917138755321503
0.08527135848999023 -0.06976741552352905 0.21284635365009308
0.08527136594057083 -0.05426359176635742 -0.17672523856163025
0.08527135848999023 -0.05426359176635742 0.20104405283927917
0.08527135848999023 -0.038759708404541016 -0.18984459340572357
0.08527135848999023 -0.038759708404541016 0.1895727813243866
0.08527135848999023 -0.02325582504272461 -0.19919349253177643
0.08527136594057083 -0.02325582504272461 0.17889666557312012
0.08527135848999023 -0.007751941680908203 -0.20401431620121002
0.08527135848999023 -0.007751941680908203 0.16666921973228455
0.08527135848999023 0.007751941680908203 -0.20590674877166748
0.08527135848999023 0.007751941680908203 0.1535426825284958
0.08527135848999023 0.02325582504272461 -0.20565535128116608
0.08527135848999023 0.02325582504272461 0.14009806513786316
