0.17240478098392487 -0.11627906560897827 0.3178294897079468
0.16594257950782776 -0.11627906560897827 0.3333333730697632
0.17181727290153503 -0.10077518224716187 0.30232560634613037
0.1647425889968872 -0.10077518224716187 0.3178294897079468
0.17165401577949524 -0.08527129888534546 -0.24031007289886475
0.1725449562072754 -0.08527129888534546 0.28682172298431396
0.16577672958374023 -0.08527129888534546 0.30232560634613037
0.1782880276441574 -0.06976741552352905 -0.24031007289886475
0.1756144016981125 -0.06976741552352905 0.27131783962249756
0.16775688529014587 -0.06976741552352905 0.28682172298431396
0.17152588069438934 -0.05426359176635742 0.27131783962249756
0.1705569326877594 -0.038759708404541016 -0.25581395626068115
0.1683920919895172 -0.038759708404541016 0.27131783962249756
0.17569084465503693 -0.02325582504272461 -0.25581395626068115
0.1738908290863037 -0.02325582504272461 0.25581395626068115
0.1774185448884964 -0.007751941680908203 0.24031007289886475
0.16663537919521332 -0.007751941680908203 0.25581395626068115
0.17335699498653412 0.007751941680908203 -0.27131783962249756
0.16372831165790558 0.007751941680908203 0.02325582504272461
0.16646021604537964 0.007751941680908203 0.038759708404541016
0.16904012858867645 0.007751941680908203 0.24031007289886475
0.17138421535491943 0.02325582504272461 -0.9534883499145508
0.17062275111675262 0.02325582504272461 -0.9379844665527344
0.17496083676815033 0.02325582504272461 -0.9224807024002075
0.17756761610507965 0.02325582504272461 0.20930230617523193
0.16855618357658386 0.02325582504272461 0.22480618953704834
0.1752597540616989 0.038759708404541016 -0.9534883499145508
0.17358753085136414 0.038759708404541016 -0.9379844665527344
0.17500314116477966 0.038759708404541016 -0.9224806427955627
0.17466109991073608 0.038759708404541016 -0.28682172298431396
0.17623746395111084 0.038759708404541016 0.19379842281341553
0.1673503965139389 0.038759708404541016 0.20930229127407074
0.1662105768918991 0.05426359176635742 -0.30232560634613037
0.1748325526714325 0.05426359176635742 0.17829453945159912
0.1658787876367569 0.05426359176635742 0.19379842281341553
0.17351362109184265 0.06976747512817383 0.16279065608978271
0.16456863284111023 0.06976747512817383 0.17829453945159912
0.165962353348732 0.08527135848999023 -0.317829430103302
0.17288678884506226 0.08527135848999023 0.1472867727279663
0.16300852596759796 0.08527135848999023 0.16279065608978271
0.17720144987106323 0.10077524185180664 -0.317829430103302
0.1730104684829712 0.10077524185180664 0.1317828893661499
0.1726703941822052 0.11627912521362305 0.11627912521362305
0.16822747886180878 0.1317828893661499 -0.3333333134651184
0.1779838502407074 0.1317828893661499 0.08527135848999023
0.17145150899887085 0.1317828893661499 0.10077524185180664
0.1711171418428421 0.1472867727279663 -0.3333333134651184
0.17657619714736938 0.1472867727279663 0.06976747512817383
0.16974756121635437 0.1472867727279663 0.08527135848999023
0.17238253355026245 0.16279065608978271 -0.3333333134651184
0.17427657544612885 0.16279065608978271 0.05426359176635742
0.16681185364723206 0.16279065608978271 0.06976747512817383
0.17289094626903534 0.17829453945159912 -0.3333333134651184
0.17815732955932617 0.17829453945159912 0.02325582504272461
0.1712469607591629 0.17829453945159912 0.038759708404541016
0.1635408252477646 0.17829453945159912 0.05426359549164772
0.1731356978416443 0.19379842281341553 -0.3333333134651184
0.17385588586330414 0.19379842281341553 0.007751941680908203
0.16779576241970062 0.19379842281341553 0.02325582504272461
0.17362767457962036 0.20930230617523193 -0.3333333134651184
0.17169681191444397 0.20930230617523193 -0.007751941680908203
0.1741786003112793 0.22480618953704834 -0.3333333134651184
0.17013098299503326 0.22480618953704834 -0.02325582504272461
0.17424637079238892 0.24031007289886475 -0.3333333134651184
0.1759340465068817 0.24031007289886475 -0.05426359176635742
0.16753630340099335 0.24031007289886475 -0.038759708404541016
0.17364579439163208 0.25581395626068115 -0.3333333134651184
0.17275935411453247 0.25581395626068115 -0.06976741552352905
0.16300393640995026 0.25581395626068115 -0.05426359176635742
0.1724812537431717 0.27131783962249756 -0.3333333134651184
0.1747686266899109 0.27131783962249756 -0.10077518224716187
0.16928055882453918 0.27131783962249756 -0.08527129888534546
0.17057156562805176 0.28682172298431396 -0.3333333134651184
0.17526361346244812 0.28682172298431396 -0.13178294897079468
0.1706668883562088 0.28682172298431396 -0.11627906560897827
0.16843467950820923 0.30232560634613037 -0.3333333134651184
0.1748773157596588 0.30232560634613037 -0.1627907156944275
0.1708899438381195 0.30232560634613037 -0.14728683233261108
0.16499224305152893 0.30232560634613037 -0.13178294897079468
0.16648952662944794 0.3178294897079468 -0.3333333134651184
0.1761990636587143 0.3178294897079468 -0.317829430103302
0.1766408085823059 0.3178294897079468 -0.20930230617523193
0.17339913547039032 0.3178294897079468 -0.19379842281341553
0.1702871173620224 0.3178294897079468 -0.1782945990562439
0.16637200117111206 0.3178294897079468 -0.1627907156944275
0.16492438316345215 0.3333333730697632 -0.3333333134651184
0.17272469401359558 0.3333333730697632 -0.317829430103302
0.17772559821605682 0.3333333730697632 -0.30232560634613037
0.1775355190038681 0.3333333730697632 -0.27131783962249756
0.17554457485675812 0.3333333730697632 -0.25581395626068115
0.1742507666349411 0.3333333730697632 -0.24031007289886475
0.17248181998729706 0.3333333730697632 -0.22480618953704834
0.1699618399143219 0.3333333730697632 -0.20930230617523193
0.16617101430892944 0.3333333730697632 -0.19379842281341553
0.1630883365869522 0.3488372564315796 -0.3333333432674408
0.169358491897583 0.3488372564315796 -0.317829430103302
0.17308954894542694 0.3488372564315796 -0.30232560634613037
0.17297732830047607 0.3488372564315796 -0.28682172298431396
0.1720380187034607 0.3488372564315796 -0.27131783962249756
0.17090138792991638 0.3488372564315796 -0.25581395626068115
0.16929152607917786 0.3488372564315796 -0.24031007289886475
0.16631193459033966 0.3488372564315796 -0.22480618953704834
0.1655586063861847 0.364341139793396 -0.317829430103302
0.16907376050949097 0.364341139793396 -0.30232560634613037
0.16926981508731842 0.364341139793396 -0.28682172298431396
0.16772857308387756 0.364341139793396 -0.27131783962249756
0.16469381749629974 0.364341139793396 -0.25581395626068115
0.16438733041286469 0.37984490394592285 -0.30232560634613037
0.1636955887079239 0.37984490394592285 -0.28682172298431396
0.1631297469139099 0.4883720874786377 -0.41085273027420044
0.16395054757595062 0.5038759708404541 -0.42635661363601685
0.16348432004451752 0.5193798542022705 -0.4418604075908661
0.1645788699388504 0.5193798542022705 -0.42635661363601685
0.16786137223243713 0.5348837375640869 -0.4418604373931885
0.17112722992897034 0.5503876209259033 -0.4573643207550049
0.16476009786128998 0.5503876209259033 -0.4418604075908661
0.170847088098526 0.5658915042877197 -0.4728682041168213
0.17066368460655212 0.5658915042877197 -0.4573643207550049
0.16642287373542786 0.5813953876495361 -0.4883720874786377
0.1776241511106491 0.5813953876495361 -0.4728682041168213
0.16811761260032654 0.5968992710113525 -0.4728682041168213
0.17442062497138977 0.612403154373169 -0.5038759708404541
0.1760469526052475 0.612403154373169 -0.4883720874786377
0.16664792597293854 0.6434108018875122 -0.5038759708404541
0.1646450012922287 0.6899224519729614 -0.5348837375640869
0.17249447107315063 0.7054263353347778 -0.5503876209259033
0.167018860578537 0.751937985420227 -0.5813953876495361
0.17314279079437256 0.7674418687820435 -0.5968992114067078
0.16409869492053986 0.8139535188674927 -0.6279069781303406
0.16968119144439697 0.8449612855911255 -0.6589146852493286
0.1703377664089203 0.8604651689529419 -0.6589146852493286
0.17870789766311646 -0.42635661363601685 0.1472867876291275
0.18205256760120392 -0.42635661363601685 0.16279065608978271
0.1834772229194641 -0.42635658383369446 0.17829453945159912
0.18297399580478668 -0.42635661363601685 0.19379842281341553
0.18131773173809052 -0.42635661363601685 0.20930230617523193
0.18019595742225647 -0.42635661363601685 0.22480618953704834
0.17909449338912964 -0.42635661363601685 0.24031008780002594
0.1796269565820694 -0.41085273027420044 0.10077524185180664
0.1839519739151001 -0.41085273027420044 0.11627912521362305
0.18687337636947632 -0.41085273027420044 0.1317828893661499
0.1888895034790039 -0.41085273027420044 0.1472867727279663
0.1903470754623413 -0.41085273027420044 0.16279065608978271
0.19058547914028168 -0.41085273027420044 0.17829453945159912
0.1903434693813324 -0.41085273027420044 0.19379842281341553
0.18976573646068573 -0.41085273027420044 0.20930230617523193
0.18892709910869598 -0.41085273027420044 0.22480618953704834
0.18762679398059845 -0.41085273027420044 0.24031007289886475
0.18586644530296326 -0.41085273027420044 0.25581395626068115
0.18275177478790283 -0.41085273027420044 0.27131783962249756
0.178594708442688 -0.41085273027420044 0.28682172298431396
0.18190428614616394 -0.39534884691238403 0.06976747512817383
0.18767163157463074 -0.39534884691238403 0.08527135848999023
0.18972022831439972 -0.39534884691238403 0.10077524185180664
0.19150972366333008 -0.39534884691238403 0.11627912521362305
0.19352884590625763 -0.39534884691238403 0.1317828893661499
0.19002480804920197 -0.39534884691238403 0.27131783962249756
0.1873207986354828 -0.39534884691238403 0.28682172298431396
0.1832212656736374 -0.39534881711006165 0.30232560634613037
0.17833936214447021 -0.39534884691238403 0.3178294897079468
0.18120524287223816 -0.37984499335289 0.038759712129831314
0.18842929601669312 -0.3798449635505676 0.05426359176635742
0.191585510969162 -0.3798449635505676 0.06976747512817383
0.1899624466896057 -0.3798449635505676 0.30232560634613037
0.1862490475177765 -0.3798449635505676 0.3178294897079468
0.1812892109155655 -0.3798449635505676 0.3333333730697632
0.17894704639911652 -0.3643410801887512 0.007751941680908203
0.1873050034046173 -0.3643410801887512 0.02325582504272461
0.19209393858909607 -0.3643410801887512 0.038759708404541016
0.19349373877048492 -0.3643410801887512 0.3178294897079468
0.18737369775772095 -0.3643410801887512 0.3333333730697632
0.18222327530384064 -0.3643410801887512 0.3488372564315796
0.18391957879066467 -0.3488371968269348 -0.007751941680908203
0.191033735871315 -0.3488371968269348 0.007751941680908203
0.18711742758750916 -0.3488371968269348 0.3488372564315796
0.18081891536712646 -0.3488371968269348 0.364341139793396
0.17946569621562958 -0.3333333134651184 -0.038759708404541016
0.18859249353408813 -0.3333333134651184 -0.02325582504272461
0.19152072072029114 -0.3333333134651184 0.3488372564315796
0.18541373312473297 -0.3333333134651184 0.364341139793396
0.18508796393871307 -0.317829430103302 -0.05426359176635742
0.1927807629108429 -0.317829430103302 -0.038759708404541016
0.18832097947597504 -0.317829430103302 0.364341139793396
0.18216189742088318 -0.317829430103302 0.37984490394592285
0.18807250261306763 -0.30232560634613037 -0.06976741552352905
0.1904202401638031 -0.30232560634613037 0.364341139793396
0.18568316102027893 -0.30232560634613037 0.37984490394592285
0.1813736855983734 -0.30232560634613037 0.39534878730773926
0.19025097787380219 -0.28682172298431396 -0.08527129888534546
0.19205214083194733 -0.28682172298431396 0.364341139793396
0.1883223056793213 -0.28682172298431396 0.37984490394592285
0.18492403626441956 -0.28682172298431396 0.39534878730773926
0.18038687109947205 -0.28682172298431396 0.41085267066955566
0.19185739755630493 -0.27131783962249756 -0.10077518224716187
0.1937122792005539 -0.27131783962249756 0.364341139793396
0.18955086171627045 -0.27131783962249756 0.37984490394592285
0.18621143698692322 -0.27131783962249756 0.39534878730773926
0.18208558857440948 -0.27131783962249756 0.41085267066955566
0.1787213534116745 -0.27131783962249756 0.4263565242290497
0.17876467108726501 -0.25581395626068115 -0.13178294897079468
0.19373926520347595 -0.25581395626068115 -0.11627906560897827
0.19025741517543793 -0.25581395626068115 0.37984490394592285
0.18699945509433746 -0.25581395626068115 0.39534878730773926
0.18315885961055756 -0.25581395626068115 0.41085267066955566
0.1799478381872177 -0.25581395626068115 0.42635655403137207
0.19031979143619537 -0.24031007289886475 0.37984490394592285
0.18707063794136047 -0.24031007289886475 0.39534878730773926
0.1832403540611267 -0.24031007289886475 0.41085267066955566
0.1798267811536789 -0.24031007289886475 0.42635655403137207
0.1934840828180313 -0.22480618953704834 -0.14728683233261108
0.18972378969192505 -0.22480618953704834 0.37984490394592285
0.18668806552886963 -0.22480618953704834 0.39534878730773926
0.18252339959144592 -0.22480618953704834 0.41085267066955566
0.1783115714788437 -0.22480618953704834 0.42635655403137207
0.18978407979011536 -0.20930230617523193 -0.1627907156944275
0.19111475348472595 -0.20930230617523193 0.364341139793396
0.18784752488136292 -0.20930230617523193 0.37984490394592285
0.1850878745317459 -0.20930230617523193 0.39534878730773926
0.1799701452255249 -0.20930230617523193 0.41085267066955566
0.1834234744310379 -0.19379842281341553 -0.1782945990562439
0.18824903666973114 -0.19379842281341553 0.364341139793396
0.18450403213500977 -0.19379842281341553 0.37984490394592285
0.17946717143058777 -0.19379842281341553 0.39534878730773926
0.18982228636741638 -0.1782945990562439 0.3488372564315796
0.18480385839939117 -0.1782945990562439 0.364341139793396
0.1784270703792572 -0.1782946139574051 0.37984490394592285
0.1843152940273285 -0.1627907156944275 -0.19379842281341553
0.19060121476650238 -0.1627907156944275 0.3333333730697632
0.18494412302970886 -0.1627907156944275 0.3488372564315796
0.19042661786079407 -0.14728683233261108 0.3178294897079468
0.18432463705539703 -0.14728683233261108 0.3333333730697632
0.1833486557006836 -0.13178294897079468 -0.20930230617523193
0.18910256028175354 -0.13178294897079468 0.30232560634613037
0.18263813853263855 -0.13178294897079468 0.3178294897079468
0.18718281388282776 -0.11627906560897827 0.28682172298431396
0.18063026666641235 -0.11627906560897827 0.30232560634613037
0.18373748660087585 -0.10077518224716187 -0.22480618953704834
0.18697214126586914 -0.10077518224716187 0.27131783962249756
0.17974013090133667 -0.10077518224716187 0.28682172298431396
0.19201894104480743 -0.08527129888534546 -0.22480618953704834
0.19009044766426086 -0.08527129888534546 0.25581395626068115
0.18132555484771729 -0.08527129888534546 0.27131783962249756
0.18562619388103485 -0.06976741552352905 0.25581395626068115
0.18683093786239624 -0.05426359176635742 -0.24031007289886475
0.19224153459072113 -0.05426359176635742 0.24031007289886475
0.1823253333568573 -0.05426359176635742 0.25581395626068115
0.19128555059432983 -0.038759708404541016 -0.24031007289886475
0.18890760838985443 -0.038759708404541016 0.24031007289886475
0.17917504906654358 -0.038759712129831314 0.25581395626068115
0.19309568405151367 -0.02325582504272461 0.22480618953704834
0.18556004762649536 -0.02325582504272461 0.24031007289886475
0.19287656247615814 -0.007751941680908203 -0.9534883499145508
0.1858070194721222 -0.007751941680908203 -0.25581395626068115
0.18754282593727112 -0.007751941680908203 0.22480618953704834
0.1798657327890396 0.007751941680908203 -0.9534883499145508
0.18066191673278809 0.007751941680908203 -0.9379844665527344
0.19243726134300232 0.007751941680908203 -0.25581395626068115
0.1881730556488037 0.007751941680908203 0.20930230617523193
0.17865009605884552 0.00775194214656949 0.22480618953704834
0.18605303764343262 0.02325582504272461 -0.9689922332763672
0.18959538638591766 0.02325582504272461 -0.9069768190383911
0.18510903418064117 0.02325582504272461 -0.27131783962249756
0.18756574392318726 0.02325582504272461 0.19379842281341553
0.18697033822536469 0.038759708404541016 -0.9069768190383911
0.19269505143165588 0.038759708404541016 0.16279065608978271
0.18679696321487427 0.038759708404541016 0.17829453945159912
0.19002680480480194 0.05426359176635742 -0.9379844665527344
0.19116924703121185 0.05426359176635742 -0.922480583190918
0.18710064888000488 0.05426359176635742 -0.28682172298431396
0.19097355008125305 0.05426359176635742 0.1472867727279663
0.18527302145957947 0.05426359176635742 0.16279065608978271
0.1789209395647049 0.06976747512817383 -0.302325576543808
0.1901976764202118 0.06976747512817383 0.1317828893661499
0.1837250292301178 0.06976747512817383 0.1472867727279663
0.18841424584388733 0.08527135848999023 -0.30232560634613037
0.18979547917842865 0.08527135848999023 0.11627912521362305
0.1836075633764267 0.08527135848999023 0.1317828893661499
0.18871329724788666 0.10077524185180664 0.10077524185180664
0.18336725234985352 0.10077524185180664 0.11627912521362305
0.18440628051757812 0.11627912521362305 -0.317829430103302
0.18790555000305176 0.11627912521362305 0.08527135848999023
0.18083618581295013 0.11627912521362305 0.10077524185180664
0.18685831129550934 0.1317828893661499 -0.317829430103302
0.19236764311790466 0.1317828893661499 0.05426359176635742
0.18686383962631226 0.1317828893661499 0.06976747512817383
0.18815885484218597 0.1472867727279663 -0.317829430103302
0.1904257982969284 0.1472867727279663 0.038759708404541016
0.18513421714305878 0.1472867727279663 0.05426359176635742
0.18876619637012482 0.16279065608978271 -0.317829430103302
0.18808293342590332 0.16279065608978271 0.02325582504272461
0.18198804557323456 0.16279065608978271 0.038759708404541016
0.18913905322551727 0.17829453945159912 -0.317829430103302
0.18681254982948303 0.17829453945159912 0.007751941680908203
0.1895502805709839 0.19379842281341553 -0.317829430103302
0.1915942132472992 0.19379842281341553 -0.02325582504272461
0.18561381101608276 0.19379842281341553 -0.007751941680908203
0.19012965261936188 0.20930230617523193 -0.317829430103302
0.18979217112064362 0.20930230617523193 -0.038759708404541016
0.1837841123342514 0.20930230617523193 -0.02325582504272461
0.19039011001586914 0.22480618953704834 -0.317829430103302
0.1884087473154068 0.22480618953704834 -0.05426359176635742
0.1803552210330963 0.22480618953704834 -0.038759708404541016
0.1897992044687271 0.24031007289886475 -0.317829430103302
0.19177232682704926 0.24031007289886475 -0.08527129888534546
0.1862868368625641 0.24031007289886475 -0.06976741552352905
0.1886063814163208 0.25581395626068115 -0.317829430103302
0.19325974583625793 0.25581395626068115 -0.11627906560897827
0.1880614310503006 0.25581395626068115 -0.10077518224716187
0.18182772397994995 0.25581395626068115 -0.08527129888534546
0.1871066391468048 0.27131783962249756 -0.317829430103302
0.19075582921504974 0.27131783962249756 -0.14728683233261108
0.1874588429927826 0.27131783962249756 -0.13178294897079468
0.18336647748947144 0.27131783962249756 -0.11627906560897827
0.18438643217086792 0.28682172298431396 -0.317829430103302
0.18971829116344452 0.28682172298431396 -0.30232560634613037
0.19252508878707886 0.28682172298431396 -0.28682172298431396
0.19278334081172943 0.28682172298431396 -0.22480618953704834
0.19124580919742584 0.28682172298431396 -0.20930230617523193
0.18960435688495636 0.28682172298431396 -0.19379842281341553
0.18755754828453064 0.28682172298431396 -0.1782945990562439
0.18543827533721924 0.28682172298431396 -0.1627907156944275
0.1815348118543625 0.28682172298431396 -0.14728683233261108
0.1802215278148651 0.30232560634613037 -0.317829430103302
0.18616725504398346 0.30232560634613037 -0.30232560634613037
0.18767988681793213 0.30232560634613037 -0.28682172298431396
0.18810352683067322 0.30232560634613037 -0.27131783962249756
0.18765048682689667 0.30232560634613037 -0.25581395626068115
0.18716096878051758 0.30232560634613037 -0.24031007289886475
0.18632535636425018 0.30232560634613037 -0.22480618953704834
0.184928297996521 0.30232560634613037 -0.20930230617523193
0.18251420557498932 0.30232560634613037 -0.19379840791225433
0.17893365025520325 0.302325576543808 -0.1782945990562439
0.18164990842342377 0.3178294897079468 -0.30232560634613037
0.1832256317138672 0.3178294897079468 -0.28682172298431396
0.1833903193473816 0.3178294897079468 -0.27131783962249756
0.18250533938407898 0.3178294897079468 -0.25581395626068115
0.1813150942325592 0.3178294897079468 -0.24031007289886475
0.17952163517475128 0.3178294897079468 -0.22480618953704834
0.1785082370042801 0.3333333730697632 -0.28682172298431396
0.1796792894601822 0.5968993306159973 -0.4883720874786377
0.18074016273021698 0.6279069185256958 -0.5038759708404541
0.18197672069072723 0.6434108018875122 -0.5193798542022705
0.1801474243402481 0.6589146852493286 -0.5348837375640869
0.17888343334197998 0.6589146852493286 -0.5193798542022705
0.18227019906044006 0.674418568611145 -0.5348837375640869
0.18526050448417664 0.6899224519729614 -0.5503876209259033
0.19130071997642517 0.7054263353347778 -0.5658915042877197
0.1808207929134369 0.7209302186965942 -0.5658915042877197
0.18403059244155884 0.7364341020584106 -0.5813953876495361
0.18124668300151825 0.751937985420227 -0.6124030947685242
0.18875062465667725 0.751937985420227 -0.5968992114067078
0.17946380376815796 0.7829457521438599 -0.6124030947685242
0.1810537874698639 0.7984496355056763 -0.643410861492157
0.18362310528755188 0.7984496355056763 -0.6279069781303406
0.18007875978946686 0.8294574022293091 -0.643410861492157
0.18330687284469604 0.8449612855911255 -0.6589146852493286
0.19645550847053528 -0.39534884691238403 0.1472867727279663
0.19877386093139648 -0.39534884691238403 0.16279065608978271
0.19887098670005798 -0.39534884691238403 0.17829453945159912
0.19778966903686523 -0.39534884691238403 0.19379842281341553
0.19693830609321594 -0.39534884691238403 0.20930230617523193
0.19658373296260834 -0.39534884691238403 0.22480618953704834
0.19589956104755402 -0.39534884691238403 0.24031005799770355
0.19403643906116486 -0.39534884691238403 0.25581395626068115
0.19492404162883759 -0.3798449635505676 0.08527135848999023
0.19899511337280273 -0.3798449635505676 0.10077524185180664
0.20213064551353455 -0.3798449635505676 0.11627912521362305
0.20370447635650635 -0.3798449635505676 0.1317828893661499
0.20505675673484802 -0.3798449635505676 0.1472867727279663
0.20584651827812195 -0.3798449635505676 0.16279065608978271
0.2056155949831009 -0.3798449635505676 0.17829453945159912
0.20502279698848724 -0.3798449635505676 0.19379842281341553
0.2042825073003769 -0.3798449635505676 0.20930230617523193
0.20336763560771942 -0.3798449635505676 0.22480618953704834
0.20237195491790771 -0.3798449635505676 0.24031007289886475
0.2012462019920349 -0.3798449635505676 0.25581395626068115
0.1988997906446457 -0.3798449635505676 0.27131783962249756
0.19537946581840515 -0.3798449635505676 0.28682172298431396
0.19822470843791962 -0.3643410801887512 0.05426358804106712
0.20326370000839233 -0.3643410801887512 0.06976747512817383
0.2051224708557129 -0.3643410801887512 0.08527135848999023
0.20645146071910858 -0.3643410801887512 0.10077524185180664
0.20774714648723602 -0.3643410801887512 0.11627912521362305
0.20904338359832764 -0.3643410801887512 0.24031007289886475
0.20667630434036255 -0.3643410801887512 0.25581395626068115
0.2036232054233551 -0.3643410801887512 0.27131783962249756
0.201541930437088 -0.3643410801887512 0.28682172298431396
0.1979333609342575 -0.3643410801887512 0.30232560634613037
0.19750604033470154 -0.3488371670246124 0.02325582318007946
0.20408236980438232 -0.3488371968269348 0.038759708404541016
0.20737069845199585 -0.3488371968269348 0.05426359176635742
0.2055240273475647 -0.3488371968269348 0.28682172298431396
0.20202189683914185 -0.3488371968269348 0.30232560634613037
0.19862639904022217 -0.3488371968269348 0.3178294897079468
0.1938880831003189 -0.3488371968269348 0.3333333432674408
0.19541096687316895 -0.3333333134651184 -0.007751941215246916
0.2032492756843567 -0.3333333134651184 0.007751941680908203
0.20773902535438538 -0.3333333134651184 0.02325582504272461
0.20512938499450684 -0.3333333134651184 0.30232560634613037
0.20157796144485474 -0.3333333134651184 0.3178294897079468
0.1971789300441742 -0.3333333134651184 0.3333333730697632
0.200901597738266 -0.317829430103302 -0.02325582504272461
0.20672103762626648 -0.317829430103302 -0.007751941680908203
0.2075548619031906 -0.317829430103302 0.30232560634613037
0.20342203974723816 -0.317829430103302 0.3178294897079468
0.19996222853660583 -0.317829430103302 0.3333333730697632
0.1942225992679596 -0.317829430103302 0.3488372564315796
0.19708748161792755 -0.30232560634613037 -0.05426359176635742
0.20465241372585297 -0.30232560634613037 -0.038759708404541016
0.2085396647453308 -0.30232560634613037 0.30232560634613037
0.20483268797397614 -0.30232560634613037 0.3178294897079468
0.20127251744270325 -0.30232560634613037 0.3333333730697632
0.19626665115356445 -0.30232560634613037 0.3488372564315796
0.2005159556865692 -0.28682172298431396 -0.06976741552352905
0.20797529816627502 -0.28682172298431396 -0.05426359176635742
0.20571723580360413 -0.28682172298431396 0.3178294897079468
0.20228977501392365 -0.28682172298431396 0.3333333730697632
0.19828709959983826 -0.28682172298431396 0.3488372564315796
0.2029900848865509 -0.27131783962249756 -0.08527129888534546
0.20615154504776 -0.27131783962249756 0.3178294897079468
0.20298439264297485 -0.27131783962249756 0.3333333730697632
0.1995907425880432 -0.27131783962249756 0.3488372564315796
0.20509198307991028 -0.25581395626068115 -0.10077518224716187
0.206378772854805 -0.25581395626068115 0.3178294897079468
0.20336581766605377 -0.25581395626068115 0.3333333730697632
0.2004210650920868 -0.25581395626068115 0.3488372564315796
0.19525004923343658 -0.25581395626068115 0.364341139793396
0.19518378376960754 -0.24031007289886475 -0.13178294897079468
0.20706361532211304 -0.24031007289886475 -0.11627906560897827
0.20629051327705383 -0.24031007289886475 0.3178294897079468
0.2032577097415924 -0.24031007289886475 0.3333333730697632
0.200450137257576 -0.24031007289886475 0.3488372564315796
0.19548359513282776 -0.24031007289886475 0.364341139793396
0.20791320502758026 -0.22480618953704834 -0.13178294897079468
0.20597052574157715 -0.22480618953704834 0.3178294897079468
0.20272581279277802 -0.22480618953704834 0.3333333730697632
0.1997949182987213 -0.22480618953704834 0.3488372564315796
0.1943534016609192 -0.22480618953704834 0.364341139793396
0.20671772956848145 -0.20930230617523193 -0.14728683233261108
0.2092970758676529 -0.20930230617523193 0.30232560634613037
0.20498476922512054 -0.20930230617523193 0.3178294897079468
0.20137381553649902 -0.20930230617523193 0.3333333730697632
0.19769032299518585 -0.20930232107639313 0.348837286233902
0.203075110912323 -0.19379842281341553 -0.1627907156944275
0.207698792219162 -0.19379842281341553 0.30232560634613037
0.20341531932353973 -0.19379842281341553 0.3178294897079468
0.1994703859090805 -0.19379842281341553 0.3333333730697632
0.19402442872524261 -0.19379843771457672 0.3488372564315796
0.19450749456882477 -0.1782946139574051 -0.1782946139574051
0.2058071792125702 -0.1782945990562439 0.30232560634613037
0.2010464072227478 -0.1782945990562439 0.3178294897079468
0.19620053470134735 -0.1782945990562439 0.3333333432674408
0.20533564686775208 -0.1627907156944275 -0.1782945990562439
0.2077660858631134 -0.1627907156944275 0.28682172298431396
0.20234613120555878 -0.1627907156944275 0.30232560634613037
0.19734802842140198 -0.1627907156944275 0.3178294897079468
0.19404684007167816 -0.14728683233261108 -0.19379842281341553
0.20900024473667145 -0.14728683233261108 0.27131783962249756
0.20315365493297577 -0.14728683233261108 0.28682172298431396
0.19752779603004456 -0.14728683233261108 0.30232560634613037
0.20413272082805634 -0.13178294897079468 -0.19379842281341553
0.2029048204421997 -0.13178294897079468 0.27131783962249756
0.1964772641658783 -0.13178294897079468 0.28682172298431396
0.19433723390102386 -0.11627906560897827 -0.20930232107639313
0.2032206952571869 -0.11627906560897827 0.25581395626068115
0.1955336183309555 -0.11627906560897827 0.27131783962249756
0.20364457368850708 -0.10077518224716187 -0.20930230617523193
0.20571449398994446 -0.10077518224716187 0.24031007289886475
0.19661560654640198 -0.10077518969774246 0.25581395626068115
0.20102867484092712 -0.08527129888534546 0.24031007289886475
0.20066307485103607 -0.06976741552352905 -0.22480618953704834
0.20518705248832703 -0.06976741552352905 0.22480618953704834
0.1965392827987671 -0.06976741552352905 0.24031007289886475
0.2050868421792984 -0.05426359176635742 -0.22480618953704834
0.20818640291690826 -0.05426359176635742 0.20930230617523193
0.20162439346313477 -0.05426359176635742 0.22480618953704834
0.20459793508052826 -0.038759708404541016 0.20930230617523193
0.19816048443317413 -0.038759708404541016 0.22480618953704834
0.19814498722553253 -0.02325582504272461 -0.24031008780002594
0.20631256699562073 -0.02325582504272461 0.19379842281341553
0.20143495500087738 -0.02325582504272461 0.20930230617523193
0.1992928683757782 -0.007751941680908203 -0.9534883499145508
0.20319217443466187 -0.007751941680908203 -0.24031007289886475
0.20684927701950073 -0.007751941680908203 0.17829453945159912
0.2024480700492859 -0.007751941680908203 0.19379842281341553
0.1950725018978119 -0.007751941680908203 0.20930230617523193
0.20676171779632568 0.007751941680908203 0.16279065608978271
0.20267361402511597 0.007751941680908203 0.17829453945159912
0.1958286315202713 0.007751941680908203 0.19379842281341553
0.19826588034629822 0.02325582690536976 -0.9689922332763672
0.2016124725341797 0.02325582504272461 -0.25581395626068115
0.20618018507957458 0.02325582504272461 0.1472867727279663
0.20194214582443237 0.02325582504272461 0.16279065608978271
0.19449488818645477 0.02325582504272461 0.17829453945159912
0.20806223154067993 0.038759708404541016 -0.9534883499145508
0.19444961845874786 0.038759708404541016 -0.27131783962249756
0.20584896206855774 0.038759708404541016 0.1317828893661499
0.2015511691570282 0.038759708404541016 0.1472867727279663
0.19616565108299255 0.05426359176635742 -0.9379844665527344
0.1971866339445114 0.05426359176635742 -0.9224806427955627
0.20403388142585754 0.05426359176635742 -0.27131783962249756
0.20523430407047272 0.05426359176635742 0.11627912521362305
0.20065170526504517 0.05426359176635742 0.1317828893661499
0.1984250247478485 0.06976747512817383 -0.28682172298431396
0.20476792752742767 0.06976747512817383 0.10077524185180664
0.20055465400218964 0.06976747512817383 0.11627912521362305
0.2057671993970871 0.08527135848999023 -0.28682172298431396
0.20416006445884705 0.08527135848999023 0.08527135848999023
0.19962017238140106 0.08527135848999023 0.10077524185180664
0.19789202511310577 0.10077524185180664 -0.30232560634613037
0.2074873447418213 0.10077524185180664 0.05426359176635742
0.2032240331172943 0.10077524185180664 0.06976747512817383
0.1973022222518921 0.10077524185180664 0.08527135848999023
0.20164373517036438 0.11627912521362305 -0.30232560634613037
0.20549604296684265 0.11627912521362305 0.038759708404541016
0.20179033279418945 0.11627912521362305 0.05426359176635742
0.19422514736652374 0.11627912521362305 0.06976747512817383
0.20336520671844482 0.1317828893661499 -0.30232560634613037
0.20919927954673767 0.1317828893661499 0.007751941680908203
0.2041787952184677 0.1317828893661499 0.02325582504272461
0.19987791776657104 0.1317828893661499 0.038759708404541016
0.2045537680387497 0.1472867727279663 -0.30232560634613037
0.20893213152885437 0.1472867727279663 -0.007751941680908203
0.20337960124015808 0.1472867727279663 0.007751941680908203
0.1981363743543625 0.1472867727279663 0.02325582504272461
0.20509828627109528 0.16279065608978271 -0.30232560634613037
0.20817831158638 0.16279065608978271 -0.02325582504272461
0.20297664403915405 0.16279065608978271 -0.007751941680908203
0.19602259993553162 0.16279065608978271 0.00775194214656949
0.20526298880577087 0.17829453945159912 -0.30232560634613037
0.2071329653263092 0.17829453945159912 -0.038759708404541016
0.202275812625885 0.17829453945159912 -0.02325582504272461
0.19427132606506348 0.17829453945159912 -0.007751941680908203
0.20511412620544434 0.19379842281341553 -0.30232560634613037
0.20661526918411255 0.19379842281341553 -0.05426359176635742
0.2012365609407425 0.19379842281341553 -0.038759708404541016
0.20466352999210358 0.20930230617523193 -0.30232560634613037
0.20488624274730682 0.20930230617523193 -0.06976741552352905
0.19929726421833038 0.20930230617523193 -0.05426359176635742
0.20380596816539764 0.22480618953704834 -0.30232560634613037
0.20777827501296997 0.22480618953704834 -0.10077518224716187
0.2025391161441803 0.22480618953704834 -0.08527129888534546
0.1958475112915039 0.22480618953704834 -0.06976741552352905
0.20222878456115723 0.24031007289886475 -0.30232560634613037
0.20671403408050537 0.24031007289886475 -0.28682172298431396
0.20846469700336456 0.24031007289886475 -0.14728683233261108
0.20662963390350342 0.24031007289886475 -0.13178294897079468
0.2035297453403473 0.24031007289886475 -0.11627906560897827
0.199418306350708 0.24031008780002594 -0.10077518224716187
0.1995794177055359 0.25581395626068115 -0.30232560634613037
0.2031012624502182 0.25581395626068115 -0.28682172298431396
0.20508672297000885 0.25581395626068115 -0.27131783962249756
0.20576119422912598 0.25581395626068115 -0.25581395626068115
0.2060992568731308 0.25581395626068115 -0.24031007289886475
0.20608755946159363 0.25581395626068115 -0.22480618953704834
0.20561228692531586 0.25581395626068115 -0.20930230617523193
0.20485293865203857 0.25581395626068115 -0.19379842281341553
0.20383083820343018 0.25581395626068115 -0.1782945990562439
0.20268219709396362 0.25581395626068115 -0.1627907156944275
0.20095691084861755 0.25581395626068115 -0.14728683233261108
0.19824336469173431 0.25581395626068115 -0.13178294897079468
0.19463546574115753 0.27131783962249756 -0.30232560634613037
0.1989109367132187 0.27131783962249756 -0.28682172298431396
0.20037433505058289 0.27131783962249756 -0.27131783962249756
0.20057806372642517 0.27131783962249756 -0.25581395626068115
0.20059257745742798 0.27131783962249756 -0.24031007289886475
0.20023897290229797 0.27131783962249756 -0.22480620443820953
0.19933903217315674 0.27131783962249756 -0.20930230617523193
0.19797833263874054 0.27131783962249756 -0.19379840791225433
0.19600863754749298 0.27131783962249756 -0.1782945990562439
0.19383160769939423 0.27131783962249756 -0.1627907156944275
0.19425904750823975 0.28682172298431396 -0.27131783962249756
0.19426056742668152 0.2868216931819916 -0.25581395626068115
0.1938776969909668 0.28682172298431396 -0.24031007289886475
0.19542622566223145 0.7209302186965942 -0.5813953876495361
0.19648289680480957 0.7364341020584106 -0.5968992114067078
0.19682255387306213 0.751937985420227 -0.6124030947685242
0.1950795203447342 0.7674418091773987 -0.6124030947685242
0.19727551937103271 0.7829458117485046 -0.6279070377349854
0.19830013811588287 0.7984496355056763 -0.643410861492157
0.19386522471904755 0.8139535784721375 -0.643410861492157
0.20937220752239227 -0.3643410801887512 0.1317828893661499
0.21113766729831696 -0.3643410801887512 0.1472867727279663
0.21230986714363098 -0.3643410801887512 0.16279065608978271
0.211729496717453 -0.3643410801887512 0.17829453945159912
0.21076519787311554 -0.3643410801887512 0.19379842281341553
0.21017757058143616 -0.3643410801887512 0.20930230617523193
0.20982418954372406 -0.3643410801887512 0.22480620443820953
0.2101084142923355 -0.3488371968269348 0.06976747512817383
0.21291449666023254 -0.3488371968269348 0.08527135848999023
0.21494781970977783 -0.3488371968269348 0.10077524185180664
0.2166500985622406 -0.3488371968269348 0.11627912521362305
0.21768413484096527 -0.3488371968269348 0.1317828893661499
0.21845749020576477 -0.3488371968269348 0.1472867727279663
0.2187477946281433 -0.3488371968269348 0.16279065608978271
0.21816948056221008 -0.3488371968269348 0.17829453945159912
0.21709299087524414 -0.3488371968269348 0.19379842281341553
0.2158437967300415 -0.3488371968269348 0.20930230617523193
0.21464432775974274 -0.3488371968269348 0.22480618953704834
0.21339401602745056 -0.3488371968269348 0.24031007289886475
0.2120024561882019 -0.3488371968269348 0.25581395626068115
0.20965240895748138 -0.3488371968269348 0.27131783962249756
0.21238821744918823 -0.3333333134651184 0.038759708404541016
0.21760135889053345 -0.3333333134651184 0.05426359176635742
0.21945254504680634 -0.3333333134651184 0.06976747512817383
0.22035923600196838 -0.3333333134651184 0.08527135848999023
0.22084835171699524 -0.3333333134651184 0.10077524185180664
0.22139155864715576 -0.3333333134651184 0.11627912521362305
0.22183045744895935 -0.3333333134651184 0.1317828893661499
0.22226105630397797 -0.3333333134651184 0.1472867727279663
0.22244355082511902 -0.3333333134651184 0.16279065608978271
0.22204050421714783 -0.3333333134651184 0.17829453945159912
0.22113898396492004 -0.3333333134651184 0.19379842281341553
0.21974706649780273 -0.3333333134651184 0.20930230617523193
0.21799147129058838 -0.3333333134651184 0.22480618953704834
0.21620136499404907 -0.3333333134651184 0.24031007289886475
0.21466022729873657 -0.3333333134651184 0.25581395626068115
0.21249552071094513 -0.3333333134651184 0.27131783962249756
0.20955391228199005 -0.3333333134651184 0.28682172298431396
0.21232569217681885 -0.317829430103302 0.007751941680908203
0.21845600008964539 -0.317829430103302 0.02325582504272461
0.22119373083114624 -0.317829430103302 0.038759708404541016
0.22297611832618713 -0.317829430103302 0.05426359176635742
0.22417017817497253 -0.317829430103302 0.06976747512817383
0.22369155287742615 -0.317829430103302 0.19379842281341553
0.22237040102481842 -0.317829430103302 0.20930230617523193
0.22093753516674042 -0.317829430103302 0.22480618953704834
0.21870432794094086 -0.317829430103302 0.24031007289886475
0.21639351546764374 -0.317829430103302 0.25581395626068115
0.21421001851558685 -0.317829430103302 0.27131783962249756
0.21123972535133362 -0.317829430103302 0.28682172298431396
0.21075314283370972 -0.302325576543808 -0.02325582504272461
0.21704551577568054 -0.30232560634613037 -0.007751941680908203
0.2213895171880722 -0.30232560634613037 0.007751941680908203
0.22452205419540405 -0.30232560634613037 0.02325582504272461
0.22285102307796478 -0.30232560634613037 0.22480618953704834
0.22073620557785034 -0.30232560634613037 0.24031007289886475
0.21788182854652405 -0.30232560634613037 0.25581395626068115
0.2152724415063858 -0.30232560634613037 0.27131783962249756
0.21240362524986267 -0.30232560634613037 0.28682172298431396
0.2146679013967514 -0.28682172298431396 -0.038759708404541016
0.21991822123527527 -0.28682172298431396 -0.02325582504272461
0.22440019249916077 -0.28682172298431396 -0.007751941680908203
0.22266697883605957 -0.28682172298431396 0.24031007289886475
0.21960577368736267 -0.28682172298431396 0.25581395626068115
0.21633011102676392 -0.28682172298431396 0.27131783962249756
0.21342407166957855 -0.28682172298431396 0.28682172298431396
0.209323912858963 -0.28682175278663635 0.30232563614845276
0.21000730991363525 -0.27131783962249756 -0.06976741552352905
0.2177964448928833 -0.27131783962249756 -0.05426359176635742
0.22275018692016602 -0.27131783962249756 -0.038759708404541016
0.22458578646183014 -0.27131783962249756 0.24031007289886475
0.2212330847978592 -0.27131783962249756 0.25581395626068115
0.21744415163993835 -0.27131783962249756 0.27131783962249756
0.21425849199295044 -0.27131783962249756 0.28682172298431396
0.21000520884990692 -0.27131783962249756 0.30232560634613037
0.21319736540317535 -0.25581395626068115 -0.08527129888534546
0.21989479660987854 -0.25581395626068115 -0.06976741552352905
0.22228294610977173 -0.25581395626068115 0.25581395626068115
0.21848419308662415 -0.25581395626068115 0.27131783962249756
0.21497860550880432 -0.25581395626068115 0.28682172298431396
0.21063274145126343 -0.25581395626068115 0.30232560634613037
0.2167242169380188 -0.24031007289886475 -0.10077518224716187
0.22157980501651764 -0.24031007289886475 -0.08527129888534546
0.22257553040981293 -0.24031007289886475 0.25581395626068115
0.21882009506225586 -0.24031007289886475 0.27131783962249756
0.21522659063339233 -0.24031007289886475 0.28682172298431396
0.21086004376411438 -0.24031007289886475 0.30232560634613037
0.21882052719593048 -0.22480618953704834 -0.11627906560897827
0.22293803095817566 -0.22480618953704834 -0.10077518224716187
0.2221960425376892 -0.22480618953704834 0.25581395626068115
0.21855533123016357 -0.22480618953704834 0.27131783962249756
0.2150311917066574 -0.22480620443820953 0.28682172298431396
0.21063314378261566 -0.22480618953704834 0.30232560634613037
0.21914047002792358 -0.20930230617523193 -0.13178294897079468
0.22416475415229797 -0.20930230617523193 -0.11627906560897827
0.22114498913288116 -0.20930230617523193 0.25581395626068115
0.21757790446281433 -0.20930230617523193 0.27131783962249756
0.2139795571565628 -0.20930230617523193 0.28682172298431396
0.21834221482276917 -0.19379842281341553 -0.14728683233261108
0.2238651067018509 -0.19379842281341553 0.24031007289886475
0.2201899141073227 -0.19379842281341553 0.25581395626068115
0.21646146476268768 -0.19379842281341553 0.27131783962249756
0.21254315972328186 -0.19379842281341553 0.28682172298431396
0.21438655257225037 -0.1782945990562439 -0.1627907156944275
0.22419126331806183 -0.1782945990562439 -0.14728683233261108
0.22299613058567047 -0.1782945990562439 0.24031007289886475
0.21930229663848877 -0.1782945990562439 0.25581395626068115
0.21520188450813293 -0.1782945990562439 0.27131783962249756
0.21075838804244995 -0.1782945990562439 0.28682172298431396
0.2211126685142517 -0.1627907156944275 -0.1627907156944275
0.22176651656627655 -0.1627907156944275 0.24031007289886475
0.21771618723869324 -0.1627907156944275 0.25581395626068115
0.21302561461925507 -0.1627907156944275 0.27131783962249756
0.21591155230998993 -0.14728683233261108 -0.1782945990562439
0.2239266186952591 -0.14728683233261108 0.22480618953704834
0.2198062539100647 -0.14728683233261108 0.24031007289886475
0.214863121509552 -0.14728683233261108 0.25581395626068115
0.22216537594795227 -0.13178294897079468 -0.1782945990562439
0.2213623970746994 -0.13178294897079468 0.22480618953704834
0.21632292866706848 -0.13178294897079468 0.24031007289886475
0.20992594957351685 -0.13178294897079468 0.25581395626068115
0.21471258997917175 -0.11627906560897827 -0.19379842281341553
0.2228035032749176 -0.11627906560897827 0.20930230617523193
0.21813759207725525 -0.11627906560897827 0.22480618953704834
0.2115420401096344 -0.11627905815839767 0.24031005799770355
0.21988165378570557 -0.10077518224716187 -0.19379842281341553
0.223942831158638 -0.10077518224716187 0.19379842281341553
0.22003623843193054 -0.10077518224716187 0.20930230617523193
0.21407029032707214 -0.10077518224716187 0.22480618953704834
0.21211344003677368 -0.08527129888534546 -0.20930230617523193
0.22138699889183044 -0.08527129888534546 0.19379842281341553
0.21674206852912903 -0.08527129888534546 0.20930230617523193
0.20949627459049225 -0.08527129888534546 0.22480618953704834
0.21758969128131866 -0.06976741552352905 -0.20930230617523193
0.22229695320129395 -0.06976741552352905 0.17829453945159912
0.2183840274810791 -0.06976741552352905 0.19379842281341553
0.21265186369419098 -0.06976741552352905 0.20930230617523193
0.2225581407546997 -0.05426359176635742 -0.20930230617523193
0.22295014560222626 -0.05426359176635742 0.16279065608978271
0.2194429188966751 -0.05426359176635742 0.17829453945159912
0.21497774124145508 -0.05426358804106712 0.19379842281341553
0.21054686605930328 -0.038759708404541016 -0.22480617463588715
0.22406044602394104 -0.038759708404541016 0.1472867727279663
0.22025224566459656 -0.038759708404541016 0.16279065608978271
0.21663615107536316 -0.038759708404541016 0.17829453945159912
0.21075716614723206 -0.038759708404541016 0.19379842281341553
0.21557582914829254 -0.02325582504272461 -0.22480618953704834
0.22123537957668304 -0.02325582504272461 0.1472867727279663
0.2176869511604309 -0.02325582504272461 0.16279065608978271
0.2127128541469574 -0.02325582504272461 0.17829453945159912
0.21947160363197327 -0.007751941680908203 -0.22480618953704834
0.22166545689105988 -0.007751941680908203 0.1317828893661499
0.21832844614982605 -0.007751941680908203 0.1472867727279663
0.2136286050081253 -0.007751941680908203 0.16279065608978271
0.20974354445934296 0.007751941680908203 -0.9534883499145508
0.2104284167289734 0.007751941680908203 -0.9379844069480896
0.21017812192440033 0.007751941215246916 -0.24031007289886475
0.22252173721790314 0.007751941680908203 0.11627912521362305
0.2188224494457245 0.007751941680908203 0.1317828893661499
0.214492529630661 0.007751941680908203 0.1472867727279663
0.21279236674308777 0.02325582504272461 -0.953488290309906
0.21865209937095642 0.02325582504272461 -0.9379844665527344
0.22249777615070343 0.02325582504272461 -0.9224807024002075
0.21508023142814636 0.02325582504272461 -0.9069766998291016
0.21723656356334686 0.02325582504272461 -0.24031007289886475
0.22291260957717896 0.02325582504272461 0.10077524185180664
0.21900051832199097 0.02325582504272461 0.11627912521362305
0.21452149748802185 0.02325582504272461 0.1317828893661499
0.21381419897079468 0.038759708404541016 -0.9379844665527344
0.22063124179840088 0.038759708404541016 -0.9224806427955627
0.213321253657341 0.038759708404541016 -0.9069767594337463
0.21173426508903503 0.038759708404541016 -0.25581395626068115
0.22333237528800964 0.038759708404541016 0.08527135848999023
0.21913373470306396 0.038759708404541016 0.10077524185180664
0.2143358290195465 0.038759708404541016 0.11627912521362305
0.22214630246162415 0.05426359176635742 -0.25581395626068115
0.2224387675523758 0.05426359176635742 0.06976747512817383
0.21885862946510315 0.05426359176635742 0.08527135848999023
0.21402676403522491 0.05426359176635742 0.10077524185180664
0.21594271063804626 0.06976747512817383 -0.27131783962249756
0.22129333019256592 0.06976747512817383 0.05426359176635742
0.21808253228664398 0.06976747512817383 0.06976747512817383
0.21240779757499695 0.06976747512817383 0.08527135848999023
0.22460415959358215 0.08527135848999023 -0.27131783962249756
0.22448183596134186 0.08527135848999023 0.02325582504272461
0.22011137008666992 0.08527135848999023 0.038759708404541016
0.21702060103416443 0.08527135848999023 0.05426359176635742
0.21006201207637787 0.08527135848999023 0.06976746767759323
0.2151004821062088 0.10077524185180664 -0.28682172298431396
0.2215804159641266 0.10077524185180664 0.007751941680908203
0.2187417447566986 0.10077524185180664 0.02325582504272461
0.21511411666870117 0.10077524185180664 0.038759708404541016
0.21804821491241455 0.11627912521362305 -0.28682172298431396
0.22012366354465485 0.11627912521362305 -0.007751941680908203
0.21702176332473755 0.11627912521362305 0.007751941680908203
0.2120765745639801 0.11627912521362305 0.02325582504272461
0.2194364070892334 0.1317828893661499 -0.28682172298431396
0.22052611410617828 0.1317828893661499 -0.02325582504272461
0.21621015667915344 0.1317828893661499 -0.007751941680908203
0.21979042887687683 0.1472867727279663 -0.28682172298431396
0.2210291624069214 0.1472867727279663 -0.038759708404541016
0.21669131517410278 0.1472867727279663 -0.02325582504272461
0.21935826539993286 0.16279065608978271 -0.28682172298431396
0.22113457322120667 0.16279065608978271 -0.05426359176635742
0.21612456440925598 0.16279065608978271 -0.038759708404541016
0.21850726008415222 0.17829453945159912 -0.28682172298431396
0.22407132387161255 0.17829453945159912 -0.27131783962249756
0.220071479678154 0.17829453945159912 -0.06976741552352905
0.2151324450969696 0.17829453945159912 -0.05426359176635742
0.21720266342163086 0.19379842281341553 -0.28682172298431396
0.22150924801826477 0.19379842281341553 -0.27131783962249756
0.22365441918373108 0.19379842281341553 -0.25581395626068115
0.22234337031841278 0.19379842281341553 -0.10077518224716187
0.21801529824733734 0.19379842281341553 -0.08527129888534546
0.21371272206306458 0.19379842281341553 -0.06976741552352905
0.2152748703956604 0.20930229127407074 -0.28682172298431396
0.21884970366954803 0.20930230617523193 -0.27131783962249756
