-0.12789230048656464 -0.42635661363601685 0.6279069185256958
-0.12470613420009613 -0.42635661363601685 0.6434108018875122
-0.1211945042014122 -0.42635661363601685 0.6589146852493286
-0.11664604395627975 -0.41085273027420044 0.39534878730773926
-0.12384417653083801 -0.41085273027420044 0.41085267066955566
-0.1286052018404007 -0.41085273027420044 0.42635655403137207
-0.1303032636642456 -0.41085273027420044 0.6279069185256958
-0.1266123503446579 -0.41085273027420044 0.6434108018875122
-0.12232412397861481 -0.41085273027420044 0.6589146852493286
-0.1237097755074501 -0.39534884691238403 0.364341139793396
-0.12711350619792938 -0.39534884691238403 0.37984490394592285
-0.1294804960489273 -0.39534884691238403 0.39534878730773926
-0.12735584378242493 -0.39534884691238403 0.6434108018875122
-0.12230052798986435 -0.39534884691238403 0.6589146852493286
-0.11822067946195602 -0.3798449635505676 0.3178294897079468
-0.12747548520565033 -0.3798449635505676 0.3333333730697632
-0.1270504891872406 -0.3798449635505676 0.6434108018875122
-0.12070141732692719 -0.3798449635505676 0.6589146852493286
-0.11737574636936188 -0.3643410801887512 0.28682172298431396
-0.1278172731399536 -0.3643410801887512 0.30232560634613037
-0.12547416985034943 -0.3643410801887512 0.6434108018875122
-0.11650317907333374 -0.3643410801887512 0.6589146852493286
-0.12765568494796753 -0.3488371968269348 0.27131783962249756
-0.12945634126663208 -0.3488371968269348 0.6279069185256958
-0.12207502126693726 -0.3488371968269348 0.6434108018875122
-0.12548281252384186 -0.3333333134651184 0.24031007289886475
-0.12595060467720032 -0.3333333134651184 0.6279069185256958
-0.11947648227214813 -0.317829430103302 0.20930230617523193
-0.12920916080474854 -0.317829430103302 0.612403154373169
-0.1196027398109436 -0.317829430103302 0.6279069185256958
-0.12782441079616547 -0.30232560634613037 0.19379842281341553
-0.12281647324562073 -0.30232560634613037 0.612403154373169
-0.12498807907104492 -0.28682172298431396 0.5968992710113525
-0.12041719257831573 -0.27131783962249756 0.1472867727279663
-0.13015341758728027 -0.27131783962249756 0.5813953876495361
-0.12145280092954636 -0.25581395626068115 0.1317828893661499
-0.11814101785421371 -0.24031007289886475 0.11627912521362305
-0.11987090855836868 -0.24031007289886475 0.5658915042877197
-0.12026190012693405 -0.22480618953704834 0.5503876209259033
-0.11978989839553833 -0.20930230617523193 0.5348837375640869
-0.11879587173461914 -0.1627907156944275 0.4883720874786377
-0.12052273750305176 -0.14728683233261108 0.05426359176635742
-0.1251479834318161 -0.14728683233261108 0.4728682041168213
-0.12935253977775574 -0.13178294897079468 0.4573643207550049
-0.13018132746219635 -0.11627906560897827 0.038759708404541016
-0.12503433227539062 -0.06976741552352905 0.007751941680908203
-0.12147381156682968 -0.05426359176635742 0.39534878730773926
-0.12744157016277313 -0.038759708404541016 0.37984490394592285
-0.1255550980567932 -0.02325582504272461 -0.02325582504272461
-0.11781410872936249 0.007751941680908203 0.3488372564315796
-0.12390065938234329 0.02325582504272461 -0.8449612259864807
-0.13088634610176086 0.02325582690536976 -0.05426359549164772
-0.11932617425918579 0.02325582504272461 0.3333333730697632
-0.12005039304494858 0.038759708404541016 -0.06976741552352905
-0.1215505450963974 0.038759708404541016 0.3178294897079468
-0.12570419907569885 0.05426359176635742 0.30232560634613037
-0.13114799559116364 0.06976747512817383 0.28682172298431396
-0.11901265382766724 0.10077524185180664 -0.8449612259864807
-0.11882532387971878 0.10077524185180664 0.27131783962249756
-0.12582151591777802 0.11627912521362305 0.25581395626068115
-0.11955112218856812 0.24031007289886475 0.11627912521362305
-0.13037371635437012 0.25581395626068115 0.08527135848999023
-0.12064890563488007 0.27131783962249756 0.06976747512817383
-0.12743468582630157 0.30232560634613037 0.02325582504272461
-0.11777432262897491 0.3178294897079468 -0.19379842281341553
-0.12561221420764923 0.3178294897079468 0.00775194214656949
-0.12650489807128906 0.3333333730697632 -0.007751941680908203
-0.12810632586479187 0.3488372564315796 -0.02325582504272461
-0.12841597199440002 0.364341139793396 -0.20930230617523193
-0.13002778589725494 0.364341139793396 -0.038759708404541016
-0.11645954102277756 0.37984490394592285 -0.038759708404541016
-0.11675988882780075 0.39534878730773926 -0.22480618953704834
-0.12011325359344482 0.39534878730773926 -0.05426359176635742
-0.12301136553287506 0.41085267066955566 -0.06976741552352905
-0.12496484071016312 0.42635655403137207 -0.08527129888534546
-0.12692791223526 0.4418604373931885 -0.10077517479658127
-0.12892477214336395 0.4573643207550049 -0.11627906560897827
-0.11701592803001404 0.4883720874786377 -0.13178294897079468
-0.12059815227985382 0.5038759708404541 -0.14728683233261108
-0.12493455410003662 0.5193798542022705 -0.1627907156944275
-0.13046365976333618 0.5503876209259033 -0.27131783962249756
-0.12325066328048706 0.5658915042877197 -0.19379842281341553
-0.1270330846309662 0.5968992710113525 -0.28682172298431396
-0.11873450875282288 0.5968992710113525 -0.20930230617523193
-0.12125186622142792 0.6279069185256958 -0.30232560634613037
-0.12244905531406403 0.6434108018875122 -0.24031007289886475
-0.12135408818721771 0.6899224519729614 -0.317829430103302
-0.1265965849161148 0.6899224519729614 -0.27131783962249756
-0.12421227991580963 0.7209302186965942 -0.28682172298431396
-0.1222081184387207 0.751937985420227 -0.30232560634613037
-0.117642343044281 0.7829457521438599 -0.317829430103302
-0.11810909956693649 0.7984496355056763 -0.3333333134651184
-0.1008957102894783 -0.5348837375640869 0.6279069185256958
-0.1017300933599472 -0.5348837375640869 0.6434108018875122
-0.10163816809654236 -0.5348837375640869 0.6589146852493286
-0.10095054656267166 -0.5348837375640869 0.674418568611145
-0.10205608606338501 -0.5193798542022705 0.5813953876495361
-0.10531100630760193 -0.5193798542022705 0.5968992710113525
-0.10728379338979721 -0.5193798542022705 0.612403154373169
-0.1076665148139 -0.5193798542022705 0.6279069185256958
-0.10728983581066132 -0.5193798542022705 0.6434108018875122
-0.10629282891750336 -0.5193798542022705 0.6589146852493286
-0.10461825132369995 -0.5193798542022705 0.674418568611145
-0.1020340695977211 -0.5193798542022705 0.6899224519729614
-0.10250788182020187 -0.5038759708404541 0.5348837375640869
-0.10890763998031616 -0.5038759708404541 0.5503876209259033
-0.11071352660655975 -0.5038759708404541 0.5658915042877197
-0.11118847131729126 -0.5038759708404541 0.5813953876495361
-0.11133162677288055 -0.5038759708404541 0.5968992710113525
-0.11126832664012909 -0.5038759708404541 0.612403154373169
-0.11054764688014984 -0.5038759708404541 0.6279069185256958
-0.10955297946929932 -0.5038759708404541 0.6434108018875122
-0.10841833055019379 -0.5038759708404541 0.6589146852493286
-0.1070101261138916 -0.5038759708404541 0.674418568611145
-0.10416758060455322 -0.5038759708404541 0.6899224519729614
-0.10699360072612762 -0.4883720874786377 0.5038759708404541
-0.11086709797382355 -0.4883720874786377 0.5193798542022705
-0.11367235332727432 -0.4883720874786377 0.5348837375640869
-0.11593540757894516 -0.4883720576763153 0.5503876209259033
-0.11562474817037582 -0.4883720874786377 0.5968992710113525
-0.11475970596075058 -0.4883720874786377 0.612403154373169
-0.11350585520267487 -0.4883720874786377 0.6279069185256958
-0.11211926490068436 -0.4883720874786377 0.6434108018875122
-0.11027165502309799 -0.4883720576763153 0.6589146852493286
-0.10825949162244797 -0.4883720874786377 0.674418568611145
-0.10563097894191742 -0.4883720874786377 0.6899224519729614
-0.1013660877943039 -0.4883720874786377 0.7054263353347778
-0.10827725380659103 -0.4728682041168213 0.4728682041168213
-0.11354652047157288 -0.4728682041168213 0.4883720874786377
-0.11506902426481247 -0.4728682041168213 0.6434108018875122
-0.11275896430015564 -0.4728682041168213 0.6589146852493286
-0.11002235114574432 -0.4728682041168213 0.674418568611145
-0.10724463313817978 -0.4728682041168213 0.6899224519729614
-0.10318458825349808 -0.4728682041168213 0.7054263353347778
-0.11118195950984955 -0.4573643207550049 0.4573643207550049
-0.11558721214532852 -0.4573643207550049 0.6589146852493286
-0.11241692304611206 -0.4573643207550049 0.674418568611145
-0.1094013899564743 -0.4573643207550049 0.6899224519729614
-0.10651904344558716 -0.4573643207550049 0.7054263353347778
-0.10277139395475388 -0.4573643207550049 0.7209302186965942
-0.10681276023387909 -0.4418604373931885 0.42635655403137207
-0.11395309120416641 -0.4418604373931885 0.4418604373931885
-0.11435744166374207 -0.44186046719551086 0.6744186282157898
-0.11112749576568604 -0.4418604373931885 0.6899224519729614
-0.10811899602413177 -0.4418604373931885 0.7054263353347778
-0.10448474436998367 -0.4418604373931885 0.7209302186965942
-0.10322660207748413 -0.42635661363601685 0.39534878730773926
-0.11092564463615417 -0.42635661363601685 0.41085267066955566
-0.11539735645055771 -0.42635661363601685 0.6744185090065002
-0.11118879914283752 -0.42635661363601685 0.6899224519729614
-0.10748732089996338 -0.42635661363601685 0.7054263353347778
-0.10141608119010925 -0.42635661363601685 0.7209302186965942
-0.10660979896783829 -0.41085273027420044 0.364341139793396
-0.11175347864627838 -0.41085273027420044 0.37984490394592285
-0.11518272012472153 -0.41085273027420044 0.674418568611145
-0.1099250391125679 -0.41085273027420044 0.6899224519729614
-0.1028643399477005 -0.41085273027420044 0.7054263353347778
-0.10825193673372269 -0.39534884691238403 0.3333333730697632
-0.11615211516618729 -0.39534884691238403 0.3488372266292572
-0.11401370167732239 -0.39534884691238403 0.6744186282157898
-0.10811683535575867 -0.39534884691238403 0.6899224519729614
-0.10700244456529617 -0.3798449635505676 0.30232560634613037
-0.11197854578495026 -0.37984493374824524 0.674418568611145
-0.10385478287935257 -0.3798449635505676 0.6899224519729614
-0.10625451803207397 -0.3643410801887512 0.27131783962249756
-0.10855840146541595 -0.3643410801887512 0.674418568611145
-0.1015293225646019 -0.3488371968269348 0.24031007289886475
-0.11551482230424881 -0.3488371968269348 0.25581395626068115
-0.11186835914850235 -0.3488371968269348 0.6589146852493286
-0.10142694413661957 -0.3488371968269348 0.674418568611145
-0.11030790209770203 -0.3333333134651184 0.22480617463588715
-0.11502388119697571 -0.3333333134651184 0.6434108018875122
-0.1051030308008194 -0.3333333134651184 0.6589146852493286
-0.10706818103790283 -0.317829430103302 0.6434108018875122
-0.10875175893306732 -0.30232560634613037 0.17829453945159912
-0.10846081376075745 -0.30232560634613037 0.6279069185256958
-0.11460226029157639 -0.28682172298431396 0.16279065608978271
-0.1091357171535492 -0.28682172298431396 0.612403154373169
-0.11072781682014465 -0.27131783962249756 0.5968992710113525
-0.11599456518888474 -0.25581395626068115 0.5813953876495361
-0.1117197722196579 -0.22480618953704834 0.10077524185180664
-0.10250052064657211 -0.20930230617523193 0.08527135848999023
-0.11577765643596649 -0.19379842281341553 0.5193798542022705
-0.11350595206022263 -0.1782945990562439 0.06976747512817383
-0.11359330266714096 -0.1782945990562439 0.5038759708404541
-0.10720948874950409 -0.11627906560897827 0.4573643207550049
-0.10949824005365372 -0.10077518224716187 0.02325582504272461
-0.11126282811164856 -0.10077518224716187 0.4418604373931885
-0.10204359143972397 -0.08527129888534546 -0.8449612259864807
-0.11337883025407791 -0.08527129143476486 0.4263565242290497
-0.10340352356433868 -0.06976741552352905 -0.8449612259864807
-0.11558680236339569 -0.06976741552352905 0.41085267066955566
-0.10489151626825333 -0.05426359176635742 -0.8449611663818359
-0.10993701219558716 -0.05426358804106712 -0.007751941680908203
-0.10641776025295258 -0.038759708404541016 -0.8449612855911255
-0.10527081787586212 -0.038759708404541016 0.39534878730773926
-0.1078554317355156 -0.02325582504272461 -0.8449612259864807
-0.1099158525466919 -0.02325582504272461 0.37984490394592285
-0.10791683197021484 -0.007751941680908203 -0.8449612259864807
-0.11419083178043365 -0.007751941680908203 -0.038759708404541016
-0.11415393650531769 -0.007751941680908203 0.364341139793396
-0.11512284725904465 0.00775194214656949 -0.8449612259864807
-0.10291770845651627 0.007751941680908203 -0.05426359176635742
-0.10664190351963043 0.05426359176635742 -0.08527129888534546
-0.1053352952003479 0.06976747512817383 0.30232560634613037
-0.11021020263433456 0.08527135848999023 0.28682172298431396
-0.11370168626308441 0.10077523440122604 -0.11627906560897827
-0.10388785600662231 0.11627912521362305 -0.8449612259864807
-0.1028701588511467 0.1317828893661499 0.25581395626068115
-0.10733829438686371 0.1472867727279663 0.24031007289886475
-0.1088404506444931 0.16279065608978271 0.22480618953704834
-0.10960559546947479 0.17829453945159912 0.20930230617523193
-0.11170237511396408 0.19379842281341553 -0.1627907156944275
-0.10639241337776184 0.19379842281341553 0.19379842281341553
-0.10948099195957184 0.22480620443820953 0.1472867727279663
-0.10966555774211884 0.25581395626068115 -0.1782945990562439
-0.10859063267707825 0.25581395626068115 0.10077524185180664
-0.11336500942707062 0.28682172298431396 0.05426359176635742
-0.10987454652786255 0.30232560634613037 0.038759708404541016
-0.10828528553247452 0.3178294897079468 0.02325582504272461
-0.10931895673274994 0.3333333730697632 0.007751941680908203
-0.10912088304758072 0.3488372564315796 -0.20930230617523193
-0.11122968792915344 0.3488372564315796 -0.00775194214656949
-0.11370910704135895 0.364341139793396 -0.02325582504272461
-0.10255654156208038 0.37984490394592285 -0.22480618953704834
-0.1032518595457077 0.39534878730773926 -0.038759708404541016
-0.10672782361507416 0.41085267066955566 -0.05426359176635742
-0.10849529504776001 0.42635655403137207 -0.06976741552352905
-0.1099947988986969 0.44186046719551086 -0.08527129888534546
-0.10531149059534073 0.4573643207550049 -0.24031007289886475
-0.11166217923164368 0.4573643207550049 -0.10077518224716187
-0.11405883729457855 0.4728682339191437 -0.11627906560897827
-0.10110335797071457 0.5038759708404541 -0.25581395626068115
-0.10356257110834122 0.5193798542022705 -0.14728683233261108
-0.10867354273796082 0.5348837375640869 -0.1627907156944275
-0.1150575801730156 0.5503876209259033 -0.1782946139574051
-0.11202370375394821 0.5813953876495361 -0.28682172298431396
-0.10667981207370758 0.5813953876495361 -0.19379842281341553
-0.10855598747730255 0.612403154373169 -0.30232560634613037
-0.10122743248939514 0.612403154373169 -0.20930230617523193
-0.11169072985649109 0.6279069185256958 -0.22480618953704834
-0.11046963930130005 0.674418568611145 -0.317829430103302
-0.10896144062280655 0.674418568611145 -0.25581395626068115
-0.11109739542007446 0.751937985420227 -0.3333333134651184
-0.08666115999221802 -0.5658915042877197 0.6589146852493286
-0.08805185556411743 -0.5658915042877197 0.674418568611145
-0.0876556783914566 -0.5658915042877197 0.6899224519729614
-0.08659759163856506 -0.5658915042877197 0.7054263353347778
-0.08589087426662445 -0.5658915042877197 0.7209302186965942
-0.08749448508024216 -0.5503876209259033 0.612403154373169
-0.09340628981590271 -0.5503876209259033 0.6279069185256958
-0.09545473754405975 -0.5503876209259033 0.6434108018875122
-0.09598930925130844 -0.5503876209259033 0.6589146852493286
-0.09573886543512344 -0.5503876209259033 0.674418568611145
-0.09443958103656769 -0.5503876209259033 0.6899224519729614
-0.09281493723392487 -0.5503876209259033 0.7054263353347778
-0.09181481599807739 -0.5503876209259033 0.7209302186965942
-0.09043096750974655 -0.5503876209259033 0.7364341020584106
-0.08780308812856674 -0.5503876209259033 0.751937985420227
-0.0899951234459877 -0.5348837375640869 0.5813953876495361
-0.09545949846506119 -0.5348837375640869 0.5968992710113525
-0.09892631322145462 -0.5348837375640869 0.612403154373169
-0.09865721315145493 -0.5348837375640869 0.6899224519729614
-0.09605090320110321 -0.5348837375640869 0.7054263353347778
-0.09421923756599426 -0.5348837375640869 0.7209302186965942
-0.09284983575344086 -0.5348837375640869 0.7364341020584106
-0.09099297225475311 -0.5348837375640869 0.751937985420227
-0.08602630347013474 -0.5348837375640869 0.7674418687820435
-0.09388481825590134 -0.5193798542022705 0.5503876209259033
-0.09833110123872757 -0.5193798542022705 0.5658915042877197
-0.09864122420549393 -0.5193798542022705 0.7054263353347778
-0.09620312601327896 -0.5193798542022705 0.7209302186965942
-0.09421846270561218 -0.5193798542022705 0.7364341020584106
-0.09229288250207901 -0.5193798542022705 0.751937985420227
-0.08779014647006989 -0.5193798542022705 0.7674418687820435
-0.08742136508226395 -0.5038759708404541 0.5038759708404541
-0.09513282775878906 -0.5038759708404541 0.5193798542022705
-0.1004391461610794 -0.5038759708404541 0.7054263353347778
-0.0969637930393219 -0.5038759708404541 0.7209302186965942
-0.09494369477033615 -0.5038759708404541 0.7364341020584106
-0.0926659032702446 -0.5038759708404541 0.751937985420227
-0.08789452165365219 -0.5038759708404541 0.7674418687820435
-0.09082083404064178 -0.4883720874786377 0.4728682041168213
-0.09904156625270844 -0.4883720874786377 0.4883720874786377
-0.09725529700517654 -0.4883720874786377 0.7209302186965942
-0.09504985809326172 -0.4883720874786377 0.7364341020584106
-0.09266795217990875 -0.4883720874786377 0.751937985420227
-0.08642856776714325 -0.4883720874786377 0.7674418687820435
-0.09633705019950867 -0.4728682041168213 0.4573643207550049
-0.09866227209568024 -0.4728682041168213 0.7209302186965942
-0.0962275043129921 -0.4728682041168213 0.7364341020584106
-0.093541219830513 -0.4728682041168213 0.751937985420227
-0.08557361364364624 -0.4728682041168213 0.7674418687820435
-0.08959020674228668 -0.4573643207550049 0.42635655403137207
-0.1002594530582428 -0.4573643207550049 0.4418604373931885
-0.09825951606035233 -0.4573643207550049 0.7364341020584106
-0.09467040002346039 -0.4573643207550049 0.751937985420227
-0.08566127717494965 -0.4573643207550049 0.7674418687820435
-0.09544986486434937 -0.4418604373931885 0.41085267066955566
-0.0985899567604065 -0.4418604373931885 0.7364341020584106
-0.09433585405349731 -0.4418604373931885 0.751937985420227
-0.08546082675457001 -0.42635661363601685 0.364341139793396
-0.09522263705730438 -0.42635661363601685 0.37984490394592285
-0.09620524197816849 -0.42635661363601685 0.7364341020584106
-0.08937157690525055 -0.42635661363601685 0.751937985420227
-0.09569786489009857 -0.41085273027420044 0.3488372564315796
-0.09599290788173676 -0.41085273027420044 0.7209302186965942
-0.09111671149730682 -0.41085273027420044 0.7364341020584106
-0.09488235414028168 -0.39534884691238403 0.3178294897079468
-0.09783071279525757 -0.39534884691238403 0.7054263353347778
-0.09106019139289856 -0.39534884691238403 0.7209302186965942
-0.09428459405899048 -0.3798449635505676 0.28682172298431396
-0.09412368386983871 -0.3798449635505676 0.7054263353347778
-0.09298159182071686 -0.3643410801887512 0.25581395626068115
-0.0977327823638916 -0.3643410801887512 0.6899224519729614
-0.08847659826278687 -0.3643410801887512 0.7054263353347778
-0.08565695583820343 -0.3488371968269348 0.22480618953704834
-0.09111776202917099 -0.3488371968269348 0.6899224519729614
-0.09304263442754745 -0.3333333134651184 0.20930230617523193
-0.09241155534982681 -0.3333333134651184 0.674418568611145
-0.10031628608703613 -0.317829430103302 0.19379842281341553
-0.09315109997987747 -0.317829430103302 0.6589146852493286
-0.08549178391695023 -0.30232560634613037 0.16279065608978271
-0.09257325530052185 -0.30232560634613037 0.6434108018875122
-0.09029696136713028 -0.28682172298431396 0.1472867727279663
-0.09111586958169937 -0.28682172298431396 0.6279069185256958
-0.09130819141864777 -0.27131783962249756 0.1317828893661499
-0.09003867208957672 -0.27131783962249756 0.612403154373169
-0.0896376371383667 -0.25581395626068115 0.11627912521362305
-0.09014689922332764 -0.25581395626068115 0.5968992710113525
-0.0911966860294342 -0.24031007289886475 0.5813953876495361
-0.09121474623680115 -0.22480618953704834 0.5658915042877197
-0.08774466812610626 -0.20930230617523193 0.5503876209259033
-0.08917506784200668 -0.19379842281341553 0.06976747512817383
-0.09515612572431564 -0.1627907156944275 0.05426359176635742
-0.09983003884553909 -0.13178294897079468 0.03875970467925072
-0.09700504690408707 -0.13178294897079468 0.4728682041168213
-0.08923184871673584 -0.11627906560897827 -0.8449611663818359
-0.09826201945543289 -0.10077518224716187 -0.8449612259864807
-0.09406997263431549 -0.08527129888534546 0.007751941680908203
-0.0919850617647171 -0.08527129888534546 0.4418604373931885
-0.09506148844957352 -0.06976741552352905 0.42635658383369446
-0.09926149249076843 -0.05426359176635742 0.41085267066955566
-0.09773854911327362 -0.038759708404541016 -0.02325582504272461
-0.08818516880273819 -0.02325582504272461 -0.038759708404541016
-0.08777473121881485 -0.007751941680908203 0.37984490394592285
-0.09192463010549545 0.007751941680908203 -0.8449612259864807
-0.09134265780448914 0.007751941680908203 0.364341139793396
-0.09863731265068054 0.02325582504272461 -0.8449612259864807
-0.08928187191486359 0.02325582504272461 -0.06976741552352905
-0.09378600120544434 0.02325582504272461 0.3488372564315796
-0.0981287732720375 0.038759712129831314 -0.8449612855911255
-0.09503286331892014 0.038759708404541016 0.3333333730697632
-0.09430243074893951 0.05426359176635742 -0.8449612259864807
-0.0991402417421341 0.05426359176635742 0.3178294897079468
-0.09316413104534149 0.06976747512817383 -0.10077518224716187
-0.08870059996843338 0.10077524185180664 0.28682172298431396
-0.09097234159708023 0.11627912521362305 -0.13178294897079468
-0.09503083676099777 0.11627912521362305 0.27131783962249756
-0.08838322758674622 0.1317828893661499 -0.8449611663818359
-0.09772968292236328 0.1472867727279663 -0.14728683233261108
-0.09591474384069443 0.20930230617523193 0.17829453945159912
-0.09573177248239517 0.24031007289886475 0.1317828893661499
-0.08769609034061432 0.25581395626068115 0.11627912521362305
-0.100171759724617 0.27131780982017517 0.08527135848999023
-0.0948876291513443 0.28682172298431396 0.06976747512817383
-0.09536069631576538 0.30232560634613037 -0.19379842281341553
-0.09258034825325012 0.30232560634613037 0.05426359176635742
-0.0912618562579155 0.3178294897079468 0.038759708404541016
-0.09067313373088837 0.3333333730697632 -0.20930230617523193
-0.09190021455287933 0.3333333730697632 0.02325582504272461
-0.09419522434473038 0.3488372564315796 0.007751941680908203
-0.08715133368968964 0.364341139793396 -0.22480618953704834
-0.09688202291727066 0.364341139793396 -0.007751941680908203
-0.09999686479568481 0.37984490394592285 -0.02325582504272461
-0.08809390664100647 0.39534878730773926 -0.02325582504272461
-0.0906500369310379 0.41085267066955566 -0.038759708404541016
-0.0922556072473526 0.42635655403137207 -0.24031007289886475
-0.09236782789230347 0.42635655403137207 -0.05426359176635742
-0.09852525591850281 0.4418604373931885 -0.24031007289886475
-0.09343615919351578 0.4418604373931885 -0.06976741552352905
-0.09434431791305542 0.45736435055732727 -0.08527129888534546
-0.09579117596149445 0.4728682041168213 -0.10077518969774246
-0.097050741314888 0.4883720874786377 -0.11627906560897827
-0.09943635761737823 0.5038759708404541 -0.13178294897079468
-0.0967549979686737 0.5348837375640869 -0.27131783962249756
-0.08529884368181229 0.5348837375640869 -0.14728683233261108
-0.0907546803355217 0.5503876209259033 -0.1627907156944275
-0.09253225475549698 0.5658915042877197 -0.28682172298431396
-0.09686166793107986 0.5658915042877197 -0.1782945990562439
-0.09009295701980591 0.5968992710113525 -0.30232560634613037
-0.08936509490013123 0.5968992710113525 -0.19379842281341553
-0.08868157863616943 0.6434108018875122 -0.22480618953704834
-0.09562680125236511 0.6589146852493286 -0.317829430103302
-0.0977252945303917 0.6589146852493286 -0.24031007289886475
-0.10026627033948898 0.7054263353347778 -0.27131783962249756
-0.08579879999160767 0.7209302186965942 -0.3333333134651184
-0.09768503904342651 0.7364340424537659 -0.333333283662796
-0.09700848907232285 0.7364341020584106 -0.28682172298431396
-0.08543401956558228 0.7674418687820435 -0.30232560634613037
-0.09025339037179947 0.8139535188674927 -0.3488371968269348
-0.08600429445505142 0.8294574022293091 -0.3488371968269348
-0.07044269889593124 -0.5968992114067078 0.751937985420227
-0.07065534591674805 -0.5813953876495361 0.6589146852493286
-0.0746021568775177 -0.5813953876495361 0.674418568611145
-0.07637429237365723 -0.5813953876495361 0.6899224519729614
-0.07730566710233688 -0.5813953876495361 0.7054263353347778
-0.07832486927509308 -0.5813953876495361 0.7209302186965942
-0.07840652763843536 -0.5813953876495361 0.7364341020584106
-0.07751183211803436 -0.5813953876495361 0.751937985420227
-0.07571445405483246 -0.5813953876495361 0.7674418687820435
-0.07170603424310684 -0.5813953876495361 0.7829457521438599
-0.07822518050670624 -0.5658915042877197 0.6279069185256958
-0.08334831893444061 -0.5658915042877197 0.6434108018875122
-0.08498318493366241 -0.5658915042877197 0.7364340424537659
-0.08316130191087723 -0.5658915042877197 0.7519380450248718
-0.07927960902452469 -0.5658915042877197 0.7674418687820435
-0.07582288980484009 -0.5658915042877197 0.7829457521438599
-0.07041852176189423 -0.5658915042877197 0.7984496355056763
-0.07974512130022049 -0.5503876209259033 0.5968992710113525
-0.0830874890089035 -0.5503876209259033 0.7674418687820435
-0.07793878018856049 -0.5503876209259033 0.7829457521438599
-0.07340656965970993 -0.5503876209259033 0.7984496355056763
-0.07020328938961029 -0.5348837375640869 0.5503876209259033
-0.08113353699445724 -0.5348837375640869 0.5658915042877197
-0.08001787960529327 -0.5348837375640869 0.7829457521438599
-0.07568879425525665 -0.5348837375640869 0.7984496355056763
-0.07136751711368561 -0.5193798542022705 0.5193798542022705
-0.08271825313568115 -0.5193798542022705 0.5348837375640869
-0.08120086044073105 -0.5193798542022705 0.7829457521438599
-0.07670152932405472 -0.5193798542022705 0.7984496355056763
-0.07819868624210358 -0.5038759708404541 0.4883720874786377
-0.08103711903095245 -0.5038759708404541 0.7829457521438599
-0.07631628215312958 -0.5038759708404541 0.7984496355056763
-0.07628621906042099 -0.4883720874786377 0.4573643207550049
-0.0796220526099205 -0.4883720874786377 0.7829457521438599
-0.07306547462940216 -0.4883720874786377 0.7984496355056763
-0.08206945657730103 -0.4728682041168213 0.4418604373931885
-0.07783862948417664 -0.4728682041168213 0.7829457521438599
-0.07470382004976273 -0.4573643207550049 0.41085267066955566
-0.07638286799192429 -0.4573643207550049 0.7829457521438599
-0.07388681173324585 -0.4418604373931885 0.37984490394592285
-0.08448726683855057 -0.4418604373931885 0.39534878730773926
-0.08282845467329025 -0.4418604373931885 0.7674418687820435
-0.07201611250638962 -0.4418604373931885 0.7829457521438599
-0.07101435214281082 -0.42635661363601685 0.3488372564315796
-0.07895561307668686 -0.42635661363601685 0.7674418687820435
-0.08272449672222137 -0.41085273027420044 0.3333333432674408
-0.07996866106987 -0.41085273027420044 0.751937985420227
-0.0812070295214653 -0.39534884691238403 0.30232560634613037
-0.08007724583148956 -0.39534884691238403 0.7364341020584106
-0.08141452074050903 -0.3798449635505676 0.27131783962249756
-0.08339382708072662 -0.3798449635505676 0.7209302186965942
-0.0738091692328453 -0.3798449635505676 0.7364341020584106
-0.07802540063858032 -0.3643410801887512 0.24031007289886475
-0.0767393484711647 -0.3643410801887512 0.7209302186965942
-0.07828433811664581 -0.3488371968269348 0.7054263353347778
-0.07284334301948547 -0.3333333134651184 0.19379842281341553
-0.07882635295391083 -0.3333333134651184 0.6899224519729614
-0.07938461005687714 -0.317829430103302 0.17829453945159912
-0.07767482846975327 -0.317829430103302 0.674418568611145
-0.07465780526399612 -0.30232560634613037 0.6589146852493286
-0.07036120444536209 -0.28682172298431396 0.6434108018875122
-0.0838095024228096 -0.24031007289886475 0.10077524185180664
-0.07574878633022308 -0.22480618953704834 0.08527135848999023
-0.08112767338752747 -0.19379842281341553 0.5348837375640869
-0.07077807188034058 -0.1782945990562439 0.05426359176635742
-0.07002392411231995 -0.1627907156944275 0.5038759708404541
-0.07539355754852295 -0.14728683233261108 0.038759708404541016
-0.08291193842887878 -0.14728683233261108 0.4883720874786377
-0.0827203169465065 -0.11627906560897827 0.02325582504272461
-0.08109824359416962 -0.10077518224716187 0.4573643207550049
-0.08076723664999008 -0.06976741552352905 -0.007751941680908203
-0.07182155549526215 -0.05426359176635742 0.42635655403137207
-0.07590506225824356 -0.038759708404541016 0.41085267066955566
-0.08204110711812973 -0.02325582504272461 0.39534878730773926
-0.07420665770769119 -0.007751941680908203 -0.8449612855911255
-0.07538039237260818 -0.007751941680908203 -0.05426359176635742
-0.07199135422706604 0.038759708404541016 -0.08527129888534546
-0.08313553035259247 0.06976747512817383 -0.8449612855911255
-0.07362469285726547 0.06976747512817383 0.3178294897079468
-0.07568985223770142 0.08527135848999023 -0.8449612259864807
-0.07519689947366714 0.08527135848999023 -0.11627906560897827
-0.08254557102918625 0.08527135848999023 0.30232560634613037
-0.07210706174373627 0.11627912521362305 -0.8449612259864807
-0.0782410129904747 0.1317828893661499 -0.8449611663818359
-0.07517439126968384 0.1472867727279663 0.25581395626068115
-0.07832252979278564 0.16279065608978271 0.24031007289886475
-0.07628283649682999 0.17829453945159912 -0.1627907156944275
-0.07806948572397232 0.17829453945159912 0.22480618953704834
-0.07583455741405487 0.19379842281341553 0.20930230617523193
-0.0698673278093338 0.20930230617523193 0.19379842281341553
-0.0837484821677208 0.22480618953704834 0.16279065608978271
-0.08121687173843384 0.24031007289886475 -0.1782945990562439
-0.0746542364358902 0.24031007289886475 0.1472867727279663
-0.08085542172193527 0.27131783962249756 0.10077524185180664
-0.07705595344305038 0.28682172298431396 0.08527135848999023
-0.07422460615634918 0.30232560634613037 0.06976747512817383
-0.07329730689525604 0.3178294897079468 0.05426359176635742
-0.0737486407160759 0.3333333730697632 0.038759708404541016
-0.07596384733915329 0.3488372564315796 0.02325582504272461
-0.08021068572998047 0.364341139793396 0.007751941680908203
-0.08430687338113785 0.37984490394592285 -0.007751941680908203
-0.07117927819490433 0.39534878730773926 -0.007751941680908203
-0.08412983268499374 0.41085267066955566 -0.24031007289886475
-0.07419228553771973 0.41085267066955566 -0.02325582504272461
-0.07588567584753036 0.42635655403137207 -0.038759708404541016
-0.07685469090938568 0.4418604373931885 -0.05426359176635742
-0.0772324651479721 0.4573643207550049 -0.06976741552352905
-0.07797497510910034 0.4728682041168213 -0.08527129888534546
-0.07817143946886063 0.4883720874786377 -0.25581395626068115
-0.07826796919107437 0.4883721172809601 -0.10077518224716187
-0.07897364348173141 0.5038759708404541 -0.11627906560897827
-0.07076695561408997 0.5193798542022705 -0.27131783962249756
-0.08061563223600388 0.5193798542022705 -0.13178294897079468
-0.07759082317352295 0.5813953876495361 -0.1782945990562439
-0.07734565436840057 0.6279069185256958 -0.20930230617523193
-0.08157148957252502 0.6434108018875122 -0.317829430103302
-0.07244451344013214 0.6899224519729614 -0.25581395626068115
-0.07230041921138763 0.7984496355056763 -0.3488371968269348
-0.07417403906583786 0.8294574022293091 -0.3643410801887512
-0.08292022347450256 0.8449612855911255 -0.3643411099910736
-0.07562139630317688 0.8604651689529419 -0.3798449635505676
-0.07033079117536545 0.8759689331054688 -0.39534884691238403
-0.07087171822786331 0.9379844665527344 -0.4573643207550049
-0.07312700897455215 0.9534883499145508 -0.4728682041168213
-0.07136455178260803 0.9689922332763672 -0.4883720874786377
-0.058077603578567505 -0.6124030947685242 0.751937985420227
-0.05993778258562088 -0.6124030947685242 0.7674418687820435
-0.05856281518936157 -0.6124030947685242 0.7829457521438599
-0.05667712539434433 -0.6124030947685242 0.7984496355056763
-0.05543462932109833 -0.6124030947685242 0.8139535188674927
-0.05506153777241707 -0.5968992114067078 0.7054263353347778
-0.06288114190101624 -0.5968992114067078 0.7209302186965942
-0.06869646906852722 -0.5968992114067078 0.7364341020584106
-0.06907913833856583 -0.5968992114067078 0.7674418091773987
-0.06532923877239227 -0.5968992114067078 0.7829457521438599
-0.06152179092168808 -0.5968992114067078 0.7984496355056763
-0.05930502712726593 -0.5968992114067078 0.8139535188674927
-0.055012721568346024 -0.5968992114067078 0.8294574022293091
-0.06301753222942352 -0.5813953876495361 0.6434108018875122
-0.06597467511892319 -0.5813953876495361 0.7984496355056763
-0.06173107773065567 -0.5813953876495361 0.8139535188674927
-0.05758296698331833 -0.5813953876495361 0.8294574022293091
-0.05579173564910889 -0.5658915042877197 0.5968992710113525
-0.06839700043201447 -0.5658915042877197 0.612403154373169
-0.0640449970960617 -0.5658915042877197 0.8139535188674927
-0.059955231845378876 -0.5658915042877197 0.8294574022293091
-0.06952349096536636 -0.5503876805305481 0.5813953876495361
-0.06649655103683472 -0.5503876209259033 0.8139535188674927
-0.06148093193769455 -0.5503876209259033 0.8294574022293091
-0.06793757528066635 -0.5348837375640869 0.8139535188674927
-0.06174691021442413 -0.5348837375640869 0.8294574022293091
-0.05916509032249451 -0.5193798542022705 0.5038759708404541
-0.06855159252882004 -0.5193798542022705 0.8139535188674927
-0.06030487269163132 -0.5193798542022705 0.8294574022293091
-0.0639181062579155 -0.5038759708404541 0.4728682041168213
-0.066963329911232 -0.5038759708404541 0.8139535188674927
-0.05537768453359604 -0.5038759708404541 0.8294574022293091
-0.06409619003534317 -0.4883720874786377 0.8139534592628479
-0.06336294114589691 -0.4728682041168213 0.42635655403137207
-0.06694527715444565 -0.4728682041168213 0.7984496355056763
-0.05826027691364288 -0.4728682041168213 0.8139535188674927
-0.06279440969228745 -0.4573643207550049 0.7984496355056763
-0.05739361792802811 -0.4418604373931885 0.7984496355056763
-0.06307384371757507 -0.42635661363601685 0.7829457521438599
-0.06679549068212509 -0.41085273027420044 0.3178294897079468
-0.06699144840240479 -0.41085273027420044 0.7674418687820435
-0.06827174872159958 -0.39534884691238403 0.28682172298431396
-0.06938938796520233 -0.39534884691238403 0.7519379258155823
-0.055625658482313156 -0.39534884691238403 0.7674418687820435
-0.06798342615365982 -0.37984493374824524 0.25581395626068115
-0.06014449894428253 -0.3798449635505676 0.751937985420227
-0.05918850749731064 -0.3643410801887512 0.22480618953704834
-0.06349281966686249 -0.3643410801887512 0.7364341020584106
-0.06686117500066757 -0.3488371968269348 0.20930230617523193
-0.06449919939041138 -0.3488371968269348 0.7209302186965942
-0.0631939023733139 -0.3333333134651184 0.7054263353347778
-0.0582820400595665 -0.317829430103302 0.6899224519729614
-0.05563695356249809 -0.30232560634613037 0.1472867727279663
-0.05710544064640999 -0.28682172298431396 0.1317828893661499
-0.05663103237748146 -0.27131783962249756 0.11627912521362305
-0.06468908488750458 -0.27131783962249756 0.6279069185256958
-0.06078256294131279 -0.25581395626068115 0.612403154373169
-0.05608868598937988 -0.24031007289886475 0.5968992710113525
-0.062209926545619965 -0.20930230617523193 0.06976747512817383
-0.06857632845640182 -0.1782945990562439 0.5193798542022705
-0.06619816273450851 -0.11627906560897827 -0.8449612259864807
-0.06220313906669617 -0.10077518224716187 -0.8449612855911255
-0.06441755592823029 -0.10077518224716187 0.007751941215246916
-0.05503394827246666 -0.08527129888534546 -0.8449612259864807
-0.06642185151576996 -0.06976741552352905 0.4418604373931885
-0.06824781000614166 -0.05426359176635742 -0.02325582504272461
-0.057015616446733475 -0.038759708404541016 -0.038759708404541016
-0.05511298403143883 0.007751941680908203 -0.06976741552352905
-0.05734540522098541 0.038759708404541016 0.3488372564315796
-0.054604750126600266 0.05426359176635742 -0.10077518224716187
-0.06313494592905045 0.05426359176635742 0.3333333730697632
-0.0694330558180809 0.10077524930238724 -0.8449612855911255
-0.05481443554162979 0.11627912521362305 0.28682172298431396
-0.057413823902606964 0.1317828893661499 -0.14728683233261108
-0.0676012709736824 0.1317828893661499 0.27131783962249756
-0.05983899533748627 0.22480618953704834 0.17829453945159912
-0.06592018902301788 0.25581395626068115 0.1317828893661499
-0.05985572934150696 0.27131783962249756 0.11627912521362305
-0.06627114117145538 0.28682172298431396 -0.19379842281341553
-0.05450806766748428 0.28682172298431396 0.10077524185180664
-0.06522025167942047 0.3178294897079468 -0.20930230617523193
-0.06399937719106674 0.3488372564315796 -0.22480618953704834
-0.054294977337121964 0.3488372564315796 0.038759708404541016
-0.0604751855134964 0.364341139793396 0.02325582504272461
-0.06698067486286163 0.37984490394592285 0.007751941680908203
-0.0692816972732544 0.39534878730773926 -0.24031007289886475
-0.05434827879071236 0.41085267066955566 -0.007751941680908203
-0.056814100593328476 0.42635655403137207 -0.02325582504272461
-0.058040864765644073 0.4418604373931885 -0.038759708404541016
-0.057734839618206024 0.4573643207550049 -0.05426359176635742
-0.0576581172645092 0.4728682041168213 -0.25581395626068115
-0.05707189440727234 0.4728682041168213 -0.06976741552352905
-0.055851951241493225 0.4883720874786377 -0.08527129888534546
-0.0547165721654892 0.5038759708404541 -0.10077518224716187
-0.05441218987107277 0.5193798542022705 -0.11627906560897827
-0.05682249367237091 0.5348837375640869 -0.13178294897079468
-0.05811235308647156 0.5503876209259033 -0.28682172298431396
-0.06124022975564003 0.5503876209259033 -0.14728683233261108
-0.06917160749435425 0.5658915042877197 -0.1627907156944275
-0.06583233922719955 0.612403154373169 -0.19379842281341553
-0.057424332946538925 0.674418568611145 -0.24031007289886475
-0.05855335295200348 0.7054263353347778 -0.3333333134651184
-0.06282182037830353 0.8449612855911255 -0.3798449635505676
-0.05748327076435089 0.8914728164672852 -0.41085273027420044
-0.05617991462349892 0.9069766998291016 -0.42635661363601685
-0.0608748197555542 0.922480583190918 -0.4418604373931885
-0.03945498540997505 -0.7054263353347778 0.8294574022293091
-0.04019398242235184 -0.6899224519729614 0.8139535188674927
-0.04088461771607399 -0.6899224519729614 0.8294574022293091
-0.04158364236354828 -0.674418568611145 0.8139535188674927
-0.04188384488224983 -0.674418568611145 0.8294574022293091
-0.0399581678211689 -0.6589146852493286 0.7984496355056763
-0.04461738467216492 -0.6589146852493286 0.8139535188674927
-0.04473588988184929 -0.6589146852493286 0.8294574022293091
-0.03916787728667259 -0.6589146852493286 0.8449612855911255
-0.04384743422269821 -0.643410861492157 0.7984496355056763
-0.04738059639930725 -0.643410861492157 0.8139535188674927
-0.04753848910331726 -0.6434109210968018 0.8294574022293091
-0.041327688843011856 -0.643410861492157 0.8449612855911255
-0.04457683861255646 -0.6279069781303406 0.7829457521438599
-0.04867270961403847 -0.6279069185256958 0.7984496355056763
-0.05053894221782684 -0.6279069781303406 0.8139535188674927
-0.049347274005413055 -0.6279069781303406 0.8294574022293091
-0.04364674538373947 -0.6279069781303406 0.8449612855911255
-0.04174746572971344 -0.6124030947685242 0.7364341020584106
-0.052113596349954605 -0.6124030947685242 0.8294574022293091
-0.04619024693965912 -0.6124030947685242 0.8449612855911255
-0.04438227415084839 -0.5968992114067078 0.674418568611145
-0.048828125 -0.596899151802063 0.6899224519729614
-0.04740038141608238 -0.5968992114067078 0.8449612855911255
-0.05064185708761215 -0.5813953876495361 0.6279069185256958
-0.047995369881391525 -0.5813953876495361 0.8449612855911255
-0.03917820751667023 -0.5658915042877197 0.5813953876495361
-0.04879680275917053 -0.5658915042877197 0.8449612855911255
-0.05376601591706276 -0.5503876209259033 0.5658915042877197
-0.04949058219790459 -0.5503876209259033 0.8449612855911255
-0.04836668819189072 -0.5348837375640869 0.5348837375640869
-0.0484146773815155 -0.5348837375640869 0.8449612855911255
-0.03953699395060539 -0.5193798542022705 0.4883720874786377
-0.04503663629293442 -0.5193798542022705 0.8449612855911255
-0.05278423801064491 -0.4883720874786377 0.44186046719551086
-0.04952903836965561 -0.4883720874786377 0.8294574022293091
-0.042182501405477524 -0.4728682041168213 0.8294574022293091
-0.05372551828622818 -0.4573643207550049 0.39534878730773926
-0.05068911612033844 -0.4573642909526825 0.8139535188674927
-0.05218403786420822 -0.4418604373931885 0.364341139793396
-0.04327378049492836 -0.4418604373931885 0.8139535188674927
-0.04691782593727112 -0.42635661363601685 0.3333333730697632
-0.04734988883137703 -0.42635661363601685 0.7984496355056763
-0.0484359934926033 -0.41085273027420044 0.30232560634613037
-0.05019113048911095 -0.41085273027420044 0.7829458117485046
-0.05292784050107002 -0.39534881711006165 0.27131783962249756
-0.048635464161634445 -0.3798449635505676 0.24031007289886475
-0.04320549592375755 -0.3798449635505676 0.7674418687820435
-0.04683305323123932 -0.3643410801887512 0.751937985420227
-0.03987404704093933 -0.3488371968269348 0.19379842281341553
-0.04801756888628006 -0.3488371968269348 0.7364341020584106
-0.045083388686180115 -0.3333333134651184 0.17829453945159912
-0.04238741844892502 -0.3333333134651184 0.7209302186965942
-0.05112272873520851 -0.317829430103302 0.16279064118862152
-0.050056636333465576 -0.30232560634613037 0.674418568611145
-0.05123224854469299 -0.25581395626068115 0.10077524185180664
-0.03892269358038902 -0.24031007289886475 0.08527135848999023
-0.048658937215805054 -0.22480618953704834 0.5813953876495361
-0.03940737992525101 -0.1627907156944275 0.038759708404541016
-0.049316104501485825 -0.13178294897079468 0.02325582318007946
-0.046518586575984955 -0.11627906560897827 0.4728682041168213
-0.04394581913948059 -0.08527129888534546 -0.007751941680908203
-0.04873033985495567 -0.08527129888534546 0.4573643207550049
-0.05148715525865555 -0.06976741552352905 -0.8449612855911255
-0.042698487639427185 -0.05426359176635742 -0.8449612259864807
-0.04247404634952545 -0.02325582504272461 -0.05426359176635742
-0.05087262764573097 0.02325582504272461 0.364341139793396
-0.04894376918673515 0.10077524185180664 -0.13178294897079468
-0.04166695475578308 0.10077524185180664 0.30232560634613037
-0.044197820127010345 0.16279065608978271 -0.1627907156944275
-0.0505073219537735 0.22480618953704834 -0.1782945990562439
-0.04695090651512146 0.24031007289886475 0.16279065608978271
-0.04236680269241333 0.27131783962249756 -0.19379842281341553
-0.051966194063425064 0.30232560634613037 0.08527135103940964
-0.050479017198085785 0.3178294897079468 0.06976747512817383
-0.0518125481903553 0.3333333730697632 0.05426359549164772
-0.04782182350754738 0.37984490394592285 -0.24031005799770355
-0.0450749397277832 0.37984490394592285 0.02325582504272461
-0.05003811791539192 0.39534878730773926 0.007751941680908203
-0.044893935322761536 0.4573643207550049 -0.25581395626068115
-0.03879215568304062 0.5813953876495361 -0.30232560634613037
-0.05053110793232918 0.5968992710113525 -0.1782945990562439
-0.04624876379966736 0.6589146852493286 -0.22480618953704834
-0.04581065475940704 0.7054263353347778 -0.3333333134651184
-0.046931296586990356 0.7209302186965942 -0.27131783962249756
-0.05348435789346695 0.8604651689529419 -0.39534881711006165
-0.050887856632471085 0.9689922332763672 -0.4883720874786377
-0.02329058013856411 -0.9224806427955627 0.8449612855911255
-0.023301590234041214 -0.9069767594337463 0.8294574022293091
-0.024274323135614395 -0.9069767594337463 0.8449612855911255
-0.025400830432772636 -0.8914728164672852 0.8294574022293091
-0.025197993963956833 -0.8914728760719299 0.8449612855911255
-0.027007758617401123 -0.8759689927101135 0.8294574022293091
-0.025522731244564056 -0.8759690523147583 0.8449612855911255
-0.028638754040002823 -0.8604651689529419 0.8294574022293091
-0.025309257209300995 -0.8604651093482971 0.8449612855911255
-0.02418692037463188 -0.8449612259864807 0.8139535188674927
-0.030090276151895523 -0.8449612259864807 0.8294574022293091
-0.024863043799996376 -0.8449612259864807 0.8449612855911255
-0.025491174310445786 -0.8294573426246643 0.8139535188674927
-0.030927520245313644 -0.8294573426246643 0.8294574022293091
-0.024645425379276276 -0.8294573426246643 0.8449612855911255
-0.025953810662031174 -0.8139535188674927 0.8139535188674927
-0.031191352754831314 -0.8139535188674927 0.8294574022293091
-0.02467358112335205 -0.8139535188674927 0.8449612855911255
-0.02637314982712269 -0.7984496355056763 0.8139535188674927
-0.03139422461390495 -0.7984496355056763 0.8294574022293091
-0.024967167526483536 -0.7984496355056763 0.8449612855911255
-0.02730666846036911 -0.7829457521438599 0.8139535188674927
-0.03181969374418259 -0.7829457521438599 0.8294574022293091
-0.02552218921482563 -0.7829457521438599 0.8449612855911255
-0.028356891125440598 -0.7674418687820435 0.8139535188674927
-0.0323181115090847 -0.7674418687820435 0.8294574022293091
-0.02639053389430046 -0.7674418687820435 0.8449612855911255
-0.029593786224722862 -0.751937985420227 0.8139535188674927
-0.03316691890358925 -0.751937985420227 0.8294574022293091
-0.028199762105941772 -0.751937985420227 0.8449612855911255
-0.031055018305778503 -0.7364341020584106 0.8139535188674927
-0.0344267375767231 -0.7364341020584106 0.8294574022293091
-0.03017617017030716 -0.7364341020584106 0.8449612855911255
-0.025319302454590797 -0.7209302186965942 0.7984496355056763
-0.03380817174911499 -0.7209302186965942 0.8139535188674927
-0.036851365119218826 -0.7209302186965942 0.8294574022293091
-0.03221382200717926 -0.7209302186965942 0.8449612855911255
-0.02938615158200264 -0.7054263353347778 0.7984496355056763
-0.037844788283109665 -0.7054263353347778 0.8139535188674927
-0.033812254667282104 -0.7054263353347778 0.8449612855911255
-0.03264599293470383 -0.6899224519729614 0.7984496355056763
-0.03499758988618851 -0.6899224519729614 0.8449612855911255
-0.03518721088767052 -0.674418568611145 0.7984496355056763
-0.036292918026447296 -0.674418568611145 0.8449612855911255
-0.0277739018201828 -0.6589146852493286 0.7829457521438599
-0.034143902361392975 -0.643410861492157 0.7829457521438599
-0.03389960527420044 -0.6279069185256958 0.7674418687820435
-0.023506876081228256 -0.6124030947685242 0.7364341020584106
-0.035927701741456985 -0.5968992114067078 0.6589146852493286
-0.03446652740240097 -0.5813953876495361 0.612403154373169
-0.029709547758102417 -0.5503876209259033 0.5503876209259033
-0.023880669847130775 -0.5348837375640869 0.5193798542022705
-0.03270753473043442 -0.5038759708404541 0.4573643207550049
-0.03815988078713417 -0.5038759708404541 0.8449612855911255
-0.02850085124373436 -0.4883720874786377 0.8449612855911255
-0.03188447654247284 -0.4728682041168213 0.41085267066955566
-0.033108338713645935 -0.4573643207550049 0.8294574022293091
-0.0312836654484272 -0.42635661363601685 0.8139535188674927
-0.026261769235134125 -0.41085273027420044 0.28682172298431396
-0.03377669304609299 -0.41085273027420044 0.7984496355056763
-0.029583249241113663 -0.39534884691238403 0.25581395626068115
-0.036871396005153656 -0.39534884691238403 0.7829457521438599
-0.03170018643140793 -0.3643410801887512 0.20930230617523193
-0.02876061201095581 -0.317829430103302 0.7054263353347778
-0.03766237571835518 -0.28682172298431396 0.6589146852493286
-0.023390047252178192 -0.27131783962249756 0.6434108018875122
-0.03335274010896683 -0.20930230617523193 0.5658915042877197
-0.02650640904903412 -0.19379842281341553 0.05426359176635742
-0.023842215538024902 -0.05426359176635742 0.4418604373931885
-0.0341062992811203 -0.038759708404541016 -0.8449611663818359
-0.030375931411981583 -0.038759708404541016 0.42635655403137207
-0.03286496922373772 -0.02325582504272461 -0.8449612855911255
