-0.5038759708404541 0.7054263353347778 -0.24449849128723145
-0.5038759708404541 0.7209302186965942 -0.4024727940559387
-0.5038759708404541 0.7209302186965942 -0.24533870816230774
-0.5038759708404541 0.7364341020584106 -0.41286224126815796
-0.5038759708404541 0.7364341020584106 -0.24687066674232483
-0.5038759708404541 0.751937985420227 -0.42342549562454224
-0.5038759708404541 0.751937985420227 -0.25046485662460327
-0.5038759708404541 0.7674418687820435 -0.4369335174560547
-0.5038759708404541 0.7674418687820435 -0.25388839840888977
-0.5038759708404541 0.7829456925392151 -0.455583393573761
-0.5038759708404541 0.7829457521438599 -0.2574928104877472
-0.5038759708404541 0.7984496355056763 -0.4812445044517517
-0.5038759708404541 0.7984496355056763 -0.2625267803668976
-0.5038759708404541 0.8139535188674927 -0.5005055665969849
-0.5038759708404541 0.8139535188674927 -0.26839834451675415
-0.5038759708404541 0.8294574022293091 -0.5104587078094482
-0.5038759708404541 0.8294574022293091 -0.2747846245765686
-0.5038759708404541 0.8449612855911255 -0.5142906308174133
-0.5038759708404541 0.8449612855911255 -0.28160569071769714
-0.5038759708404541 0.8604651689529419 -0.5138334631919861
-0.5038759708404541 0.8604651689529419 -0.2891616225242615
-0.5038759708404541 0.8759689331054688 -0.5104512572288513
-0.5038759708404541 0.8759689331054688 -0.2974602282047272
-0.5038759708404541 0.8914728164672852 -0.5049751400947571
-0.5038759708404541 0.8914728164672852 -0.3068428039550781
-0.5038759708404541 0.9069766998291016 -0.49626290798187256
-0.5038759708404541 0.9069766998291016 -0.31667959690093994
-0.5038759708404541 0.922480583190918 -0.4873034954071045
-0.5038759708404541 0.922480583190918 -0.32855117321014404
-0.5038759708404541 0.9379844665527344 -0.4785017669200897
-0.5038759708404541 0.9379844665527344 -0.34267497062683105
-0.5038759708404541 0.9534883499145508 -0.4670989215373993
-0.5038759708404541 0.9534884095191956 -0.3616933226585388
-0.5038759708404541 0.9689922332763672 -0.4529990553855896
-0.5038759708404541 0.9689922332763672 -0.3868730068206787
-0.4883720874786377 -0.27131783962249756 -0.6285210251808167
-0.4883720874786377 -0.27131783962249756 -0.6266340613365173
-0.4883720874786377 -0.25581395626068115 -0.6336227655410767
-0.4883720874786377 -0.25581395626068115 -0.6133721470832825
-0.4883720874786377 -0.24031007289886475 -0.6345098614692688
-0.4883720576763153 -0.24031007289886475 -0.6119798421859741
-0.4883720874786377 -0.22480618953704834 -0.6313812732696533
-0.4883720874786377 -0.22480618953704834 -0.6172537207603455
-0.4883720874786377 -0.11627906560897827 -0.16192489862442017
-0.4883720874786377 -0.11627906560897827 -0.06651636958122253
-0.4883720874786377 -0.10077518224716187 -0.21250148117542267
-0.4883720874786377 -0.10077518224716187 -0.016792504116892815
-0.4883720874786377 -0.08527129888534546 -0.24738720059394836
-0.4883720874786377 -0.08527129888534546 0.022198975086212158
-0.4883720874786377 -0.06976741552352905 -0.2721598744392395
-0.4883720874786377 -0.06976741552352905 0.05296754837036133
-0.4883720874786377 -0.05426359176635742 -0.28668418526649475
-0.4883720874786377 -0.05426359176635742 0.07445645332336426
-0.4883720874786377 -0.038759708404541016 -0.2957913875579834
-0.4883720874786377 -0.038759708404541016 0.09043391048908234
-0.4883720874786377 -0.02325582504272461 -0.30141976475715637
-0.4883720576763153 -0.02325582504272461 0.10236228257417679
-0.4883720874786377 -0.007751941680908203 -0.3044666647911072
-0.4883720874786377 -0.007751941680908203 0.11183847486972809
-0.4883720874786377 0.007751941680908203 -0.30638644099235535
-0.4883720874786377 0.007751941680908203 0.12153099477291107
-0.4883720874786377 0.02325582504272461 -0.3075917065143585
-0.4883720874786377 0.02325582504272461 0.1290242075920105
-0.4883720874786377 0.038759708404541016 -0.3094077706336975
-0.4883720874786377 0.038759708404541016 0.13748487830162048
-0.4883720874786377 0.05426359176635742 -0.3109976649284363
-0.4883720874786377 0.05426359176635742 0.14397841691970825
-0.4883720874786377 0.06976747512817383 -0.3128228783607483
-0.4883720874786377 0.06976747512817383 0.15135808289051056
-0.4883720576763153 0.08527135103940964 -0.31394094228744507
-0.4883720874786377 0.08527135848999023 0.15618738532066345
-0.4883720576763153 0.10077524185180664 -0.3147953748703003
-0.4883720874786377 0.10077524185180664 0.16060476005077362
-0.4883720874786377 0.11627912521362305 -0.3148159384727478
-0.4883720874786377 0.11627912521362305 0.1643093228340149
-0.4883720874786377 0.1317828893661499 -0.31413912773132324
-0.4883720874786377 0.1317828893661499 0.16695019602775574
-0.4883720874786377 0.1472867727279663 -0.31367993354797363
-0.4883720874786377 0.1472867727279663 0.16925355792045593
-0.4883720874786377 0.16279065608978271 -0.31360554695129395
-0.4883720874786377 0.16279065608978271 0.17151334881782532
-0.4883720874786377 0.17829453945159912 -0.3134973645210266
-0.4883720874786377 0.17829453945159912 0.17388711869716644
-0.4883720874786377 0.19379842281341553 -0.3142310380935669
-0.4883720874786377 0.19379842281341553 0.17656347155570984
-0.4883720576763153 0.20930230617523193 -0.31614959239959717
-0.4883720874786377 0.20930230617523193 0.18074682354927063
-0.4883720874786377 0.22480618953704834 -0.3189622461795807
-0.4883720874786377 0.22480618953704834 0.18425235152244568
-0.4883720874786377 0.24031007289886475 -0.32296493649482727
-0.4883720874786377 0.24031007289886475 0.1880047619342804
-0.4883720874786377 0.25581395626068115 -0.3279530107975006
-0.4883720874786377 0.25581395626068115 0.19153940677642822
-0.4883720874786377 0.27131783962249756 -0.334905743598938
-0.4883720874786377 0.27131783962249756 0.1958719789981842
-0.4883720874786377 0.28682172298431396 -0.3411262035369873
-0.4883721172809601 0.28682172298431396 0.19927403330802917
-0.4883720874786377 0.30232560634613037 -0.3460828363895416
-0.4883720874786377 0.30232560634613037 0.20120996236801147
-0.4883720874786377 0.3178294897079468 -0.3507131338119507
-0.4883720874786377 0.3178294897079468 0.20273634791374207
-0.4883720874786377 0.3333333730697632 -0.35338494181632996
-0.4883720874786377 0.3333333730697632 0.20393873751163483
-0.4883720874786377 0.3488372564315796 -0.35503557324409485
-0.4883720874786377 0.3488372564315796 0.20473612844944
-0.4883720874786377 0.364341139793396 -0.3558804392814636
-0.4883720874786377 0.364341139793396 0.20481908321380615
-0.4883720874786377 0.37984490394592285 -0.35539740324020386
-0.4883720874786377 0.37984490394592285 0.20490609109401703
-0.4883720874786377 0.39534878730773926 -0.353150337934494
-0.4883720874786377 0.39534878730773926 0.20487183332443237
-0.4883720874786377 0.41085267066955566 -0.3512333631515503
-0.4883720874786377 0.41085267066955566 0.20438244938850403
-0.4883720874786377 0.42635655403137207 -0.34989410638809204
-0.4883720874786377 0.42635655403137207 0.20350340008735657
-0.4883720874786377 0.4418604373931885 -0.34921929240226746
-0.4883720874786377 0.4418604373931885 0.20172902941703796
-0.4883720874786377 0.4573643207550049 -0.3489744961261749
-0.4883720874786377 0.4573643207550049 0.19807760417461395
-0.4883720874786377 0.4728682041168213 -0.3481028378009796
-0.4883720874786377 0.4728682041168213 0.19272926449775696
-0.4883720874786377 0.4883720874786377 -0.34655970335006714
-0.4883720874786377 0.4883720874786377 0.18818680942058563
-0.4883720874786377 0.5038759708404541 -0.3452516198158264
-0.4883720874786377 0.5038759708404541 0.1795683205127716
-0.4883720874786377 0.5193798542022705 -0.34343814849853516
-0.4883720874786377 0.5193798542022705 0.17194905877113342
-0.4883720874786377 0.5348837375640869 -0.34086668491363525
-0.4883720874786377 0.5348837375640869 0.16058069467544556
-0.4883720874786377 0.5503876209259033 -0.3392808735370636
-0.4883720874786377 0.5503876209259033 0.1486584097146988
-0.4883720874786377 0.5658915042877197 -0.33828139305114746
-0.4883720874786377 0.5658915042877197 0.1362857222557068
-0.4883720874786377 0.5813953876495361 -0.33888527750968933
-0.4883720576763153 0.5813953876495361 0.12146827578544617
-0.4883720874786377 0.5968992710113525 -0.34312111139297485
-0.4883720874786377 0.5968992710113525 0.1019185334444046
-0.4883720874786377 0.612403154373169 -0.34986594319343567
-0.4883720576763153 0.612403154373169 0.07664868235588074
-0.4883720874786377 0.6279069185256958 -0.35655924677848816
-0.4883720874786377 0.6279069185256958 0.04981929436326027
-0.4883720874786377 0.6434108018875122 -0.36539000272750854
-0.4883720874786377 0.6434108018875122 0.01837531290948391
-0.4883720874786377 0.6589146852493286 -0.37214207649230957
-0.4883720874786377 0.6589146852493286 -0.047309499233961105
-0.4883720874786377 0.674418568611145 -0.3811967670917511
-0.4883720874786377 0.674418568611145 -0.210961252450943
-0.4883720874786377 0.6899224519729614 -0.38779765367507935
-0.4883720874786377 0.6899224519729614 -0.22099274396896362
-0.4883720874786377 0.7054263353347778 -0.3969307243824005
-0.4883720874786377 0.7054263353347778 -0.2265223115682602
-0.4883720576763153 0.7209302186965942 -0.4038448631763458
-0.4883720874786377 0.7209302186965942 -0.23108579218387604
-0.4883720874786377 0.7364341020584106 -0.4134286046028137
-0.4883720874786377 0.7364341020584106 -0.23579168319702148
-0.4883720874786377 0.751937985420227 -0.42220067977905273
-0.4883720874786377 0.751937985420227 -0.24013081192970276
-0.4883720874786377 0.7674418687820435 -0.4327884018421173
-0.4883720874786377 0.7674418687820435 -0.24650779366493225
-0.4883720874786377 0.7829457521438599 -0.44561100006103516
-0.4883720874786377 0.7829457521438599 -0.25192296504974365
-0.4883720874786377 0.7984496355056763 -0.46214181184768677
-0.4883720874786377 0.7984496355056763 -0.2569209635257721
-0.4883720874786377 0.8139535188674927 -0.4778403639793396
-0.4883720874786377 0.8139535188674927 -0.26522940397262573
-0.4883720874786377 0.8294574022293091 -0.4892531931400299
-0.4883720874786377 0.8294574022293091 -0.2709995210170746
-0.4883720874786377 0.8449612855911255 -0.4933716654777527
-0.4883720874786377 0.8449612855911255 -0.28000158071517944
-0.4883720874786377 0.8604651689529419 -0.49317193031311035
-0.4883720576763153 0.8604651093482971 -0.2865374982357025
-0.4883720874786377 0.8759689331054688 -0.4894702434539795
-0.4883720576763153 0.8759689331054688 -0.2965236306190491
-0.4883720874786377 0.8914728164672852 -0.48186707496643066
-0.4883720874786377 0.8914728164672852 -0.3061189651489258
-0.4883721172809601 0.9069766998291016 -0.47254255414009094
-0.4883720874786377 0.9069766998291016 -0.31642118096351624
-0.4883720874786377 0.922480583190918 -0.4607907831668854
-0.4883721172809601 0.922480583190918 -0.329791784286499
-0.4883720874786377 0.9379844665527344 -0.45024633407592773
-0.4883720874786377 0.9379844665527344 -0.3466093838214874
-0.4883720874786377 0.9534883499145508 -0.434431254863739
-0.4883720874786377 0.9534883499145508 -0.3728964626789093
-0.4728682041168213 -0.13178294897079468 -0.15655378997325897
-0.4728682041168213 -0.13178294897079468 -0.06422833353281021
-0.4728682339191437 -0.11627906560897827 -0.2087203860282898
-0.4728682041168213 -0.11627906560897827 -0.011085468344390392
-0.4728682041168213 -0.10077518224716187 -0.24660062789916992
-0.4728682041168213 -0.10077518224716187 0.03346030041575432
-0.4728682041168213 -0.08527129888534546 -0.27399879693984985
-0.4728682041168213 -0.08527129888534546 0.06495446711778641
-0.4728682041168213 -0.06976741552352905 -0.28932785987854004
-0.4728682041168213 -0.06976741552352905 0.08695858716964722
-0.4728682041168213 -0.05426359176635742 -0.29997676610946655
-0.4728682041168213 -0.05426359176635742 0.10231807082891464
-0.4728682041168213 -0.038759708404541016 -0.3063449263572693
-0.4728682041168213 -0.038759708404541016 0.11426298320293427
-0.4728682041168213 -0.02325582504272461 -0.31181156635284424
-0.4728682041168213 -0.02325582504272461 0.12484759092330933
-0.4728682041168213 -0.007751941680908203 -0.3143964409828186
-0.4728682041168213 -0.007751941680908203 0.13403120636940002
-0.4728682041168213 0.007751941680908203 -0.3154112696647644
-0.4728682041168213 0.007751941680908203 0.14255782961845398
-0.4728682041168213 0.02325582504272461 -0.31584087014198303
-0.4728682339191437 0.02325582504272461 0.15075719356536865
-0.4728682041168213 0.038759708404541016 -0.31651216745376587
-0.4728682041168213 0.038759708404541016 0.15849508345127106
-0.4728681743144989 0.05426359176635742 -0.3172459304332733
-0.4728682041168213 0.05426359549164772 0.16603320837020874
-0.4728682041168213 0.06976747512817383 -0.31854766607284546
-0.4728682041168213 0.06976747512817383 0.17253978550434113
-0.4728682041168213 0.08527135848999023 -0.31985220313072205
-0.4728682041168213 0.08527135848999023 0.17769023776054382
-0.4728682041168213 0.10077524185180664 -0.32098737359046936
-0.4728682041168213 0.10077524185180664 0.1825595647096634
-0.4728682041168213 0.11627912521362305 -0.3208443224430084
-0.4728682041168213 0.11627912521362305 0.18553078174591064
-0.4728682041168213 0.1317828893661499 -0.31969234347343445
-0.4728682041168213 0.1317828893661499 0.1880662590265274
-0.4728682041168213 0.1472867727279663 -0.3189154863357544
-0.4728682041168213 0.1472867727279663 0.1907796412706375
-0.4728682041168213 0.16279065608978271 -0.31883546710014343
-0.4728682041168213 0.16279065608978271 0.19335082173347473
-0.4728682041168213 0.17829453945159912 -0.31877201795578003
-0.4728682041168213 0.17829453945159912 0.1960887312889099
-0.4728682041168213 0.19379842281341553 -0.3200187385082245
-0.4728682041168213 0.19379842281341553 0.19849836826324463
-0.4728682041168213 0.20930230617523193 -0.32251840829849243
-0.4728682041168213 0.20930230617523193 0.20145657658576965
-0.4728682041168213 0.22480618953704834 -0.32569819688796997
-0.4728682041168213 0.22480618953704834 0.20461809635162354
-0.4728682041168213 0.24031007289886475 -0.330063134431839
-0.4728682041168213 0.24031007289886475 0.2081734538078308
-0.4728682041168213 0.25581395626068115 -0.33717048168182373
-0.4728682041168213 0.25581395626068115 0.21176522970199585
-0.4728682041168213 0.27131783962249756 -0.3436982035636902
-0.4728682041168213 0.27131783962249756 0.21517784893512726
-0.4728682041168213 0.28682172298431396 -0.35137489438056946
-0.4728682041168213 0.28682172298431396 0.21750785410404205
-0.4728682041168213 0.30232560634613037 -0.35623741149902344
-0.4728682041168213 0.30232560634613037 0.2189282923936844
-0.4728682041168213 0.3178294897079468 -0.35969287157058716
-0.4728682041168213 0.3178294897079468 0.22025738656520844
-0.4728682041168213 0.3333333730697632 -0.3624207675457001
-0.4728682041168213 0.3333333730697632 0.22139504551887512
-0.4728682041168213 0.3488372564315796 -0.36417797207832336
-0.4728682041168213 0.3488372564315796 0.22224503755569458
-0.4728682041168213 0.364341139793396 -0.3644535541534424
-0.4728682041168213 0.364341139793396 0.22239169478416443
-0.4728682041168213 0.37984487414360046 -0.36323681473731995
-0.4728682041168213 0.37984490394592285 0.22260305285453796
-0.4728682041168213 0.39534878730773926 -0.35942164063453674
-0.4728682041168213 0.39534878730773926 0.2226356863975525
-0.4728682041168213 0.41085267066955566 -0.3552709221839905
-0.4728682041168213 0.41085267066955566 0.2220960408449173
-0.4728682041168213 0.42635655403137207 -0.351559579372406
-0.4728682041168213 0.42635655403137207 0.22109562158584595
-0.4728682041168213 0.4418604373931885 -0.3498624265193939
-0.4728682041168213 0.4418604373931885 0.21967637538909912
-0.4728682041168213 0.4573643207550049 -0.3492690622806549
-0.4728682041168213 0.4573643207550049 0.21751752495765686
-0.4728682041168213 0.4728682041168213 -0.34886646270751953
-0.4728682041168213 0.4728682041168213 0.21338620781898499
-0.4728682041168213 0.4883720576763153 -0.3474218249320984
-0.4728682041168213 0.4883720874786377 0.20722100138664246
-0.4728682041168213 0.5038759708404541 -0.34595659375190735
-0.4728682041168213 0.5038759708404541 0.20221470296382904
-0.4728682041168213 0.5193798542022705 -0.34403765201568604
-0.4728682041168213 0.5193798542022705 0.19244453310966492
-0.4728682041168213 0.5348837375640869 -0.3419458270072937
-0.4728681743144989 0.5348837375640869 0.18444281816482544
-0.4728682041168213 0.5503876209259033 -0.341064989566803
-0.4728682041168213 0.5503876209259033 0.17428284883499146
-0.4728682041168213 0.5658915042877197 -0.34108203649520874
-0.4728682041168213 0.5658915042877197 0.16208283603191376
-0.4728682041168213 0.5813953876495361 -0.3428753614425659
-0.4728681743144989 0.5813953876495361 0.15068067610263824
-0.4728682339191437 0.5968993306159973 -0.34859976172447205
-0.4728682041168213 0.5968992710113525 0.1376691460609436
-0.4728682041168213 0.612403154373169 -0.35258862376213074
-0.4728682041168213 0.612403154373169 0.11846363544464111
-0.4728682041168213 0.6279069185256958 -0.3602071702480316
-0.4728682041168213 0.6279069185256958 0.09334304928779602
-0.4728682041168213 0.6434108018875122 -0.36686840653419495
-0.4728682041168213 0.6434108018875122 0.06275041401386261
-0.4728682041168213 0.6589146852493286 -0.3740873634815216
-0.4728682041168213 0.6589146852493286 0.028728313744068146
-0.4728682041168213 0.674418568611145 -0.3820808529853821
-0.4728682041168213 0.674418568611145 -0.15506640076637268
-0.4728682041168213 0.6899224519729614 -0.3888425827026367
-0.4728682041168213 0.6899224519729614 -0.20159438252449036
-0.4728682041168213 0.7054263353347778 -0.39735838770866394
-0.4728682041168213 0.7054263353347778 -0.214277982711792
-0.4728682041168213 0.7209302186965942 -0.40388059616088867
-0.4728682041168213 0.7209302186965942 -0.2218664437532425
-0.4728682041168213 0.7364341020584106 -0.412951797246933
-0.4728682041168213 0.7364341020584106 -0.22946381568908691
-0.4728681743144989 0.751937985420227 -0.4198830723762512
-0.4728682041168213 0.751937985420227 -0.2363155484199524
-0.4728682041168213 0.7674418687820435 -0.42840811610221863
-0.4728682041168213 0.7674418687820435 -0.2422754317522049
-0.4728682041168213 0.7829457521438599 -0.43644195795059204
-0.4728682041168213 0.7829457521438599 -0.2493230104446411
-0.4728682041168213 0.7984496355056763 -0.4463041126728058
-0.4728682041168213 0.7984496355056763 -0.2554737329483032
-0.4728682041168213 0.8139535188674927 -0.45663097500801086
-0.4728682339191437 0.8139535188674927 -0.2648983597755432
-0.4728682041168213 0.8294574022293091 -0.46423476934432983
-0.4728682041168213 0.8294574022293091 -0.27126508951187134
-0.4728682041168213 0.8449613451957703 -0.4683980941772461
-0.4728682041168213 0.8449612855911255 -0.2809121608734131
-0.4728682041168213 0.8604651689529419 -0.4673311114311218
-0.4728682041168213 0.8604651689529419 -0.2879657745361328
-0.4728682041168213 0.8759689331054688 -0.4618911147117615
-0.4728681743144989 0.875968873500824 -0.2978687286376953
-0.4728682041168213 0.8914728164672852 -0.4528310000896454
-0.4728682041168213 0.8914728164672852 -0.3084375858306885
-0.4728682041168213 0.9069766998291016 -0.4403216242790222
-0.4728682041168213 0.9069766998291016 -0.32052916288375854
-0.4728682041168213 0.922480583190918 -0.42519697546958923
-0.4728682041168213 0.922480583190918 -0.33704328536987305
-0.4728681743144989 0.9379844665527344 -0.4079378545284271
-0.4728682041168213 0.9379844665527344 -0.36072051525115967
-0.4573643207550049 -0.4883720874786377 -0.6540666818618774
-0.4573643207550049 -0.4883720874786377 -0.6423726677894592
-0.4573643207550049 -0.4728682041168213 -0.6488101482391357
-0.4573643207550049 -0.4728681743144989 -0.6429107785224915
-0.4573643207550049 -0.14728683233261108 -0.12785537540912628
-0.4573643207550049 -0.14728683233261108 -0.08292854577302933
-0.4573643207550049 -0.13178294897079468 -0.19281987845897675
-0.4573643207550049 -0.13178294897079468 -0.016117336228489876
-0.4573643207550049 -0.11627906560897827 -0.23399952054023743
-0.4573643207550049 -0.11627906560897827 0.03469652682542801
-0.4573643207550049 -0.10077518224716187 -0.26876121759414673
-0.4573643207550049 -0.10077518224716187 0.071383535861969
-0.4573643207550049 -0.08527129888534546 -0.2875726819038391
-0.4573643207550049 -0.08527129888534546 0.09278039634227753
-0.4573643207550049 -0.06976741552352905 -0.3000939190387726
-0.4573643207550049 -0.06976741552352905 0.109187051653862
-0.4573643207550049 -0.05426359176635742 -0.30842503905296326
-0.4573643207550049 -0.05426359176635742 0.12253907322883606
-0.4573643207550049 -0.038759708404541016 -0.3147169351577759
-0.4573643207550049 -0.038759708404541016 0.1339758187532425
-0.4573643207550049 -0.02325582504272461 -0.31849604845046997
-0.4573643207550049 -0.02325582504272461 0.1435464769601822
-0.4573643207550049 -0.007751941680908203 -0.3208814263343811
-0.4573643207550049 -0.007751941680908203 0.15265671908855438
-0.4573643207550049 0.007751941680908203 -0.32201775908470154
-0.4573643207550049 0.007751941680908203 0.16115275025367737
-0.4573643207550049 0.02325582504272461 -0.3226027190685272
-0.4573643207550049 0.02325582504272461 0.16974979639053345
-0.4573643207550049 0.038759708404541016 -0.3235689401626587
-0.4573643207550049 0.038759708404541016 0.17738234996795654
-0.4573643207550049 0.05426359176635742 -0.324611097574234
-0.4573643207550049 0.05426359176635742 0.18511424958705902
-0.4573643207550049 0.06976747512817383 -0.326144814491272
-0.4573643207550049 0.06976747512817383 0.19143925607204437
-0.4573643207550049 0.08527135848999023 -0.32744818925857544
-0.4573643207550049 0.08527135848999023 0.19692569971084595
-0.4573643207550049 0.10077523440122604 -0.32847291231155396
-0.4573643207550049 0.10077524185180664 0.20090267062187195
-0.4573642909526825 0.11627912521362305 -0.3284584879875183
-0.4573643207550049 0.11627912521362305 0.2038998007774353
-0.4573643207550049 0.1317828893661499 -0.3276134133338928
-0.4573643207550049 0.1317828893661499 0.2063819169998169
-0.4573643207550049 0.1472867727279663 -0.32709866762161255
-0.4573643207550049 0.1472867727279663 0.20903803408145905
-0.45736435055732727 0.16279065608978271 -0.3272177278995514
-0.4573643207550049 0.16279065608978271 0.21197770535945892
-0.4573643207550049 0.17829453945159912 -0.3273234963417053
-0.4573643207550049 0.17829453945159912 0.2141578644514084
-0.4573643207550049 0.19379842281341553 -0.3285200297832489
-0.4573643207550049 0.19379842281341553 0.21610750257968903
-0.4573643207550049 0.20930230617523193 -0.33125048875808716
-0.4573643207550049 0.20930230617523193 0.2187025547027588
-0.4573643207550049 0.22480618953704834 -0.3360477685928345
-0.4573643207550049 0.22480618953704834 0.22140800952911377
-0.4573643207550049 0.24031007289886475 -0.3412275016307831
-0.4573643207550049 0.24031007289886475 0.2244628369808197
-0.4573643207550049 0.25581395626068115 -0.34799832105636597
-0.4573643207550049 0.25581395626068115 0.227681502699852
-0.4573643207550049 0.27131783962249756 -0.3551839292049408
-0.4573643207550049 0.27131783962249756 0.2307235300540924
-0.4573643207550049 0.28682172298431396 -0.36127758026123047
-0.4573643207550049 0.28682172298431396 0.23284907639026642
-0.4573643207550049 0.30232560634613037 -0.36637401580810547
-0.4573643207550049 0.30232560634613037 0.2341068685054779
-0.4573643207550049 0.3178294897079468 -0.36893966794013977
-0.4573643207550049 0.3178294897079468 0.23527559638023376
-0.4573643207550049 0.3333333730697632 -0.3701378107070923
-0.4573643207550049 0.3333333730697632 0.23629963397979736
-0.4573643207550049 0.3488372564315796 -0.3703751564025879
-0.4573643207550049 0.3488372564315796 0.23712201416492462
-0.4573643207550049 0.364341139793396 -0.36962199211120605
-0.4573643207550049 0.364341139793396 0.23734599351882935
-0.4573643207550049 0.37984490394592285 -0.3678206503391266
-0.4573643207550049 0.37984490394592285 0.23766618967056274
-0.4573643207550049 0.39534878730773926 -0.36548882722854614
-0.4573643207550049 0.39534878730773926 0.23786412179470062
-0.4573643207550049 0.41085267066955566 -0.3612537384033203
-0.4573643207550049 0.41085267066955566 0.237489253282547
-0.4573643207550049 0.42635655403137207 -0.355795681476593
-0.4573643207550049 0.42635655403137207 0.2366122603416443
-0.4573643207550049 0.4418604373931885 -0.35176509618759155
-0.4573643207550049 0.4418604373931885 0.23540900647640228
-0.4573643207550049 0.4573643207550049 -0.3502098321914673
-0.4573643207550049 0.4573643207550049 0.23367080092430115
-0.4573643207550049 0.4728682041168213 -0.3495050072669983
-0.4573643207550049 0.4728682041168213 0.23050165176391602
-0.4573643207550049 0.4883720874786377 -0.34909144043922424
-0.4573643207550049 0.4883720874786377 0.22441360354423523
-0.4573643207550049 0.5038759708404541 -0.34766265749931335
-0.4573643207550049 0.5038759708404541 0.21988916397094727
-0.4573643207550049 0.5193798542022705 -0.3448230028152466
-0.4573643207550049 0.5193798542022705 0.21212899684906006
-0.4573643207550049 0.5348837375640869 -0.34256666898727417
-0.4573643207550049 0.5348837375640869 0.20455347001552582
-0.4573643207550049 0.5503876209259033 -0.341850221157074
-0.4573643207550049 0.5503876209259033 0.19372102618217468
-0.4573643207550049 0.5658915042877197 -0.34213536977767944
-0.4573643207550049 0.5658915042877197 0.1856847107410431
-0.4573643207550049 0.5813953876495361 -0.34435391426086426
-0.4573643207550049 0.5813953876495361 0.1749744415283203
-0.4573643207550049 0.5968992710113525 -0.3493204116821289
-0.4573643207550049 0.5968992114067078 0.16289296746253967
-0.4573643207550049 0.612403154373169 -0.3534325361251831
-0.4573643207550049 0.612403154373169 0.148973748087883
-0.4573643207550049 0.6279069185256958 -0.360909104347229
-0.4573643207550049 0.6279069185256958 0.13071879744529724
-0.4573643207550049 0.6434108018875122 -0.3673226833343506
-0.4573643207550049 0.6434108018875122 0.10564053058624268
-0.4573643207550049 0.6589146852493286 -0.3743019104003906
-0.4573643207550049 0.6589146852493286 0.06918935477733612
-0.4573643207550049 0.674418568611145 -0.3821737766265869
-0.4573643207550049 0.674418568611145 0.03582720085978508
-0.4573643207550049 0.6899224519729614 -0.3884788155555725
-0.4573643207550049 0.6899224519729614 -0.19331733882427216
-0.4573643207550049 0.7054263353347778 -0.3969131112098694
-0.4573643207550049 0.7054263353347778 -0.20988142490386963
-0.4573643207550049 0.7209302186965942 -0.4025169610977173
-0.4573643207550049 0.7209302186965942 -0.21977007389068604
-0.4573643207550049 0.7364341020584106 -0.4112715721130371
-0.4573643207550049 0.7364341020584106 -0.22772079706192017
-0.4573643207550049 0.751937985420227 -0.41629737615585327
-0.4573643207550049 0.751937985420227 -0.2355487048625946
-0.4573643207550049 0.7674418687820435 -0.4215354323387146
-0.4573643207550049 0.7674418687820435 -0.2422991693019867
-0.4573643207550049 0.7829457521438599 -0.42692041397094727
-0.4573643207550049 0.7829457521438599 -0.24993927776813507
-0.4573643207550049 0.7984496355056763 -0.4310998320579529
-0.4573643207550049 0.7984496355056763 -0.25748151540756226
-0.4573643207550049 0.8139535188674927 -0.4353291690349579
-0.4573643207550049 0.8139535188674927 -0.26692330837249756
-0.4573643207550049 0.8294574022293091 -0.43894797563552856
-0.4573643207550049 0.8294574022293091 -0.27579641342163086
-0.4573643207550049 0.8449612855911255 -0.43985629081726074
-0.4573643207550049 0.8449612855911255 -0.2836093604564667
-0.4573643207550049 0.8604651689529419 -0.4360796809196472
-0.4573643207550049 0.8604651689529419 -0.2931116223335266
-0.4573643207550049 0.8759689331054688 -0.4284367263317108
-0.4573643207550049 0.8759689331054688 -0.3017204701900482
-0.4573643207550049 0.8914728164672852 -0.4176509380340576
-0.4573643207550049 0.8914728164672852 -0.31414109468460083
-0.4573643207550049 0.9069766998291016 -0.40322670340538025
-0.4573643207550049 0.9069766402244568 -0.3301827907562256
-0.4573643207550049 0.922480583190918 -0.3804294168949127
-0.4573643207550049 0.922480583190918 -0.36111655831336975
-0.4418604373931885 -0.4883720874786377 -0.6497678756713867
-0.4418604373931885 -0.4883720874786377 -0.6430076956748962
-0.4418604373931885 -0.14728683233261108 -0.16930720210075378
-0.4418604373931885 -0.14728683233261108 -0.02952554076910019
-0.4418604373931885 -0.13178294897079468 -0.21202296018600464
-0.4418604373931885 -0.13178294897079468 0.02655390277504921
-0.4418604373931885 -0.11627906560897827 -0.24965229630470276
-0.4418604373931885 -0.11627906560897827 0.07091937959194183
-0.4418604373931885 -0.10077518224716187 -0.27958056330680847
-0.4418604373931885 -0.10077518224716187 0.09604214876890182
-0.4418604373931885 -0.08527129888534546 -0.29531362652778625
-0.4418604373931885 -0.08527129888534546 0.11344841122627258
-0.4418604373931885 -0.06976741552352905 -0.30561381578445435
-0.4418604373931885 -0.06976741552352905 0.12774178385734558
-0.4418604373931885 -0.05426359176635742 -0.31439638137817383
-0.4418604373931885 -0.05426359176635742 0.13986915349960327
-0.4418604373931885 -0.038759708404541016 -0.31954821944236755
-0.4418604373931885 -0.038759708404541016 0.15088851749897003
-0.4418604373931885 -0.02325582504272461 -0.324266254901886
-0.4418604373931885 -0.02325582504272461 0.1604813188314438
-0.4418604373931885 -0.007751941680908203 -0.3274950385093689
-0.4418604373931885 -0.007751941680908203 0.1695229411125183
-0.44186046719551086 0.007751941680908203 -0.32885071635246277
-0.4418604373931885 0.007751941680908203 0.17785145342350006
-0.4418604373931885 0.02325582318007946 -0.32966092228889465
-0.4418604373931885 0.02325582504272461 0.18688058853149414
-0.4418604373931885 0.038759708404541016 -0.33055317401885986
-0.4418604373931885 0.038759708404541016 0.19466885924339294
-0.4418604373931885 0.05426359176635742 -0.3314427435398102
-0.4418604373931885 0.05426359176635742 0.20216616988182068
-0.4418604373931885 0.06976747512817383 -0.33262452483177185
-0.4418604373931885 0.06976747512817383 0.20796971023082733
-0.4418604373931885 0.08527135848999023 -0.3339446485042572
-0.44186046719551086 0.08527135848999023 0.21324723958969116
-0.4418604373931885 0.10077524185180664 -0.3355388939380646
-0.4418604373931885 0.10077524185180664 0.2168399840593338
-0.4418604373931885 0.11627912521362305 -0.3360960781574249
-0.4418604373931885 0.11627912521362305 0.2194896638393402
-0.4418604373931885 0.1317828893661499 -0.3356756865978241
-0.4418604373931885 0.1317828893661499 0.22170330584049225
-0.4418604373931885 0.1472867727279663 -0.3359448313713074
-0.4418604373931885 0.1472867727279663 0.22414928674697876
-0.4418604373931885 0.16279065608978271 -0.3372206389904022
-0.4418604373931885 0.16279065608978271 0.22706063091754913
-0.4418604373931885 0.17829453945159912 -0.3385462462902069
-0.4418604373931885 0.17829453945159912 0.22929498553276062
-0.4418604373931885 0.19379842281341553 -0.3407229483127594
-0.4418604373931885 0.19379842281341553 0.23118525743484497
-0.4418604373931885 0.20930230617523193 -0.3439616560935974
-0.4418604373931885 0.20930230617523193 0.2334473729133606
-0.4418604373931885 0.22480620443820953 -0.34848007559776306
-0.4418604373931885 0.22480618953704834 0.23570431768894196
-0.4418604373931885 0.24031007289886475 -0.3535968065261841
-0.4418604373931885 0.24031007289886475 0.2381841540336609
-0.4418604373931885 0.25581395626068115 -0.3592540919780731
-0.4418604373931885 0.25581395626068115 0.24072954058647156
-0.4418604373931885 0.27131783962249756 -0.36603182554244995
-0.4418604373931885 0.27131783962249756 0.24398338794708252
-0.4418604373931885 0.28682172298431396 -0.370830237865448
-0.4418604373931885 0.28682172298431396 0.24638018012046814
-0.4418604373931885 0.30232560634613037 -0.37485170364379883
-0.4418604373931885 0.30232560634613037 0.24785462021827698
-0.4418604373931885 0.3178294897079468 -0.3779640793800354
-0.4418604373931885 0.3178294897079468 0.24910184741020203
-0.4418604373931885 0.3333333730697632 -0.3791883885860443
-0.4418604373931885 0.3333333730697632 0.25004178285598755
-0.4418604373931885 0.3488372564315796 -0.37889373302459717
-0.4418604373931885 0.3488372564315796 0.2507321834564209
-0.4418604373931885 0.364341139793396 -0.3771861493587494
-0.4418604373931885 0.364341139793396 0.250932514667511
-0.4418604373931885 0.37984490394592285 -0.37428051233291626
-0.4418604373931885 0.37984490394592285 0.25121578574180603
-0.4418604373931885 0.39534878730773926 -0.3701162338256836
-0.4418604373931885 0.39534878730773926 0.25145164132118225
-0.4418604373931885 0.41085267066955566 -0.36602556705474854
-0.4418604373931885 0.41085267066955566 0.251246839761734
-0.4418604373931885 0.42635655403137207 -0.3611772954463959
-0.4418604373931885 0.42635655403137207 0.25059330463409424
-0.4418604373931885 0.4418604373931885 -0.3562360405921936
-0.4418604373931885 0.4418604373931885 0.24959182739257812
-0.4418604373931885 0.4573643207550049 -0.3526729941368103
-0.4418604373931885 0.4573643207550049 0.24780790507793427
-0.4418604373931885 0.4728682041168213 -0.3508724570274353
-0.4418604373931885 0.4728682041168213 0.24455392360687256
-0.4418604373931885 0.4883720874786377 -0.35004234313964844
-0.4418604373931885 0.4883720874786377 0.2391459345817566
-0.4418604373931885 0.5038759708404541 -0.34946146607398987
-0.4418604373931885 0.5038759708404541 0.23524963855743408
-0.4418604373931885 0.5193798542022705 -0.34755614399909973
-0.4418604373931885 0.5193798542022705 0.22888076305389404
-0.4418604373931885 0.5348837375640869 -0.34371060132980347
-0.4418604373931885 0.5348837375640869 0.22111503779888153
-0.4418604373931885 0.5503876209259033 -0.3420197367668152
-0.4418604373931885 0.5503876209259033 0.21282121539115906
-0.4418604373931885 0.5658915042877197 -0.3413724899291992
-0.4418604373931885 0.5658915042877197 0.20448534190654755
-0.4418604373931885 0.5813953876495361 -0.3425813913345337
-0.4418604373931885 0.5813953876495361 0.19340120255947113
-0.4418604373931885 0.5968992710113525 -0.347634494304657
-0.4418604373931885 0.5968992710113525 0.18525849282741547
-0.4418604373931885 0.612403154373169 -0.3516228497028351
-0.4418604373931885 0.612403154373169 0.17334379255771637
-0.4418604373931885 0.6279069185256958 -0.3584917187690735
-0.4418604373931885 0.6279069185256958 0.15858307480812073
-0.4418604373931885 0.6434108018875122 -0.3659929633140564
-0.4418604373931885 0.6434108018875122 0.1398395299911499
-0.4418604373931885 0.6589146852493286 -0.3722495436668396
-0.4418604373931885 0.6589146852493286 0.1122497096657753
-0.4418604373931885 0.674418568611145 -0.3807303011417389
-0.4418604373931885 0.674418568611145 0.07471360266208649
-0.4418604373931885 0.6899224519729614 -0.3862255811691284
-0.4418604373931885 0.6899224519729614 -0.19305914640426636
-0.4418604373931885 0.6899224519729614 -0.0764491856098175
-0.4418604373931885 0.6899224519729614 0.036219753324985504
-0.4418604373931885 0.7054263353347778 -0.39393630623817444
-0.4418604373931885 0.7054263353347778 -0.21250063180923462
-0.4418604373931885 0.7209302186965942 -0.399478942155838
-0.4418604373931885 0.7209302186965942 -0.22224605083465576
-0.4418604373931885 0.7364341020584106 -0.4047729969024658
-0.4418604373931885 0.7364341020584106 -0.23072472214698792
-0.4418604373931885 0.751937985420227 -0.41051921248435974
-0.4418604373931885 0.751937985420227 -0.238000750541687
-0.4418604373931885 0.7674418687820435 -0.4130078852176666
-0.4418604373931885 0.7674418687820435 -0.24561050534248352
-0.4418604373931885 0.7829457521438599 -0.41391420364379883
-0.4418604373931885 0.7829458117485046 -0.25297749042510986
-0.4418604373931885 0.7984496355056763 -0.41377395391464233
-0.4418604373931885 0.7984496355056763 -0.261860728263855
-0.4418604373931885 0.8139535188674927 -0.4126967787742615
-0.4418604373931885 0.8139535188674927 -0.27048757672309875
-0.4418604373931885 0.8294574022293091 -0.4106067717075348
-0.4418604373931885 0.8294574022293091 -0.28105905652046204
-0.4418604373931885 0.8449612259864807 -0.4063792824745178
-0.4418604373931885 0.8449612855911255 -0.28944477438926697
-0.4418604373931885 0.8604651689529419 -0.39936307072639465
-0.4418604373931885 0.8604651689529419 -0.2998124957084656
-0.4418604373931885 0.8759689331054688 -0.38820895552635193
-0.4418604373931885 0.8759689331054688 -0.313395231962204
-0.4418604373931885 0.8914728164672852 -0.36985647678375244
-0.4418604373931885 0.8914728760719299 -0.3330481946468353
-0.42635661363601685 -0.1627907156944275 -0.12995503842830658
-0.42635661363601685 -0.1627907156944275 -0.05767984315752983
-0.42635661363601685 -0.14728683233261108 -0.18530483543872833
-0.42635661363601685 -0.14728683233261108 0.009013306349515915
-0.42635661363601685 -0.13178294897079468 -0.22216269373893738
-0.42635661363601685 -0.13178294897079468 0.06500467658042908
-0.42635661363601685 -0.11627906560897827 -0.26084309816360474
-0.42635661363601685 -0.11627906560897827 0.0955447405576706
-0.42635661363601685 -0.10077518224716187 -0.28664684295654297
-0.42635658383369446 -0.10077517479658127 0.11671987920999527
-0.42635661363601685 -0.08527129888534546 -0.30133581161499023
-0.42635661363601685 -0.08527129888534546 0.13145819306373596
-0.42635661363601685 -0.06976741552352905 -0.311850368976593
-0.42635661363601685 -0.06976741552352905 0.14458854496479034
-0.42635661363601685 -0.05426359176635742 -0.31883931159973145
-0.42635661363601685 -0.05426359176635742 0.15623489022254944
-0.42635661363601685 -0.038759708404541016 -0.32563114166259766
-0.42635661363601685 -0.038759708404541016 0.16708716750144958
-0.42635661363601685 -0.02325582504272461 -0.33023375272750854
-0.42635661363601685 -0.02325582504272461 0.1764771044254303
-0.42635661363601685 -0.00775194214656949 -0.3327370285987854
-0.42635661363601685 -0.007751941680908203 0.18561480939388275
-0.42635661363601685 0.007751941680908203 -0.3341013789176941
-0.42635661363601685 0.007751941680908203 0.19415467977523804
-0.42635661363601685 0.02325582504272461 -0.33546093106269836
-0.42635661363601685 0.02325582504272461 0.20317533612251282
-0.42635661363601685 0.038759708404541016 -0.33723220229148865
-0.42635661363601685 0.038759708404541016 0.21071264147758484
-0.42635661363601685 0.05426359176635742 -0.33930379152297974
-0.42635661363601685 0.05426359176635742 0.21771256625652313
-0.42635661363601685 0.06976747512817383 -0.3413901627063751
-0.42635661363601685 0.06976747512817383 0.2227485626935959
-0.42635661363601685 0.08527135848999023 -0.34350186586380005
-0.42635664343833923 0.08527136594057083 0.2275170385837555
-0.42635661363601685 0.10077524185180664 -0.3456590175628662
-0.42635661363601685 0.10077524185180664 0.2312418818473816
-0.42635661363601685 0.11627912521362305 -0.3468534052371979
-0.42635661363601685 0.11627912521362305 0.23362544178962708
-0.42635661363601685 0.1317828893661499 -0.3472664952278137
-0.42635661363601685 0.1317828893661499 0.23555836081504822
-0.42635661363601685 0.1472867727279663 -0.34827721118927
-0.42635661363601685 0.1472867727279663 0.23762133717536926
-0.42635661363601685 0.16279065608978271 -0.35010281205177307
-0.42635661363601685 0.16279065608978271 0.23991216719150543
-0.42635661363601685 0.17829453945159912 -0.35219165682792664
-0.42635661363601685 0.17829453945159912 0.24238784611225128
-0.42635661363601685 0.19379842281341553 -0.3545662760734558
-0.42635661363601685 0.19379842281341553 0.24453909695148468
-0.42635661363601685 0.20930230617523193 -0.35763809084892273
-0.42635661363601685 0.20930230617523193 0.2469346821308136
-0.42635661363601685 0.22480618953704834 -0.36145785450935364
-0.42635661363601685 0.22480618953704834 0.24891671538352966
-0.42635661363601685 0.24031007289886475 -0.3656195402145386
-0.42635661363601685 0.24031007289886475 0.25082075595855713
-0.42635661363601685 0.25581395626068115 -0.37004417181015015
-0.42635661363601685 0.25581395626068115 0.25262850522994995
-0.42635661363601685 0.27131783962249756 -0.37528902292251587
-0.42635661363601685 0.27131783962249756 0.25513818860054016
-0.42635661363601685 0.28682172298431396 -0.38067635893821716
-0.42635661363601685 0.28682172298431396 0.2579706609249115
-0.42635661363601685 0.30232560634613037 -0.38318270444869995
-0.42635661363601685 0.30232560634613037 0.2599382996559143
-0.42635661363601685 0.3178294897079468 -0.3846516013145447
-0.42635661363601685 0.3178294897079468 0.2616739273071289
-0.42635661363601685 0.3333333730697632 -0.38489627838134766
-0.42635661363601685 0.3333333730697632 0.26298296451568604
-0.42635661363601685 0.3488372564315796 -0.3841956555843353
-0.42635661363601685 0.3488372564315796 0.2638850212097168
-0.42635661363601685 0.364341139793396 -0.3826325237751007
-0.42635661363601685 0.364341139793396 0.26412642002105713
-0.42635661363601685 0.37984490394592285 -0.38102707266807556
-0.42635661363601685 0.37984490394592285 0.26443082094192505
-0.42635661363601685 0.39534878730773926 -0.3769529163837433
-0.42635661363601685 0.39534878730773926 0.26469069719314575
-0.42635661363601685 0.41085267066955566 -0.3716144561767578
-0.42635661363601685 0.41085267066955566 0.2644970417022705
-0.42635661363601685 0.42635655403137207 -0.36648255586624146
-0.42635661363601685 0.42635655403137207 0.26378753781318665
-0.42635661363601685 0.4418604373931885 -0.3630577325820923
-0.42635661363601685 0.4418604373931885 0.26253604888916016
-0.42635661363601685 0.4573643207550049 -0.3588811159133911
-0.42635661363601685 0.4573643207550049 0.2604062855243683
-0.42635661363601685 0.4728682041168213 -0.35523730516433716
-0.42635661363601685 0.4728682041168213 0.25668638944625854
-0.42635661363601685 0.4883720874786377 -0.3525571823120117
-0.42635661363601685 0.4883720874786377 0.2526499629020691
-0.42635661363601685 0.5038759708404541 -0.35091152787208557
-0.42635661363601685 0.5038759708404541 0.24958693981170654
-0.42635661363601685 0.5193798542022705 -0.34986817836761475
-0.42635661363601685 0.5193798542022705 0.2434353530406952
-0.42635661363601685 0.5348837375640869 -0.3482595682144165
-0.42635661363601685 0.5348837375640869 0.23657047748565674
-0.42635661363601685 0.5503876209259033 -0.34434711933135986
-0.42635661363601685 0.5503876209259033 0.22985199093818665
-0.42635661363601685 0.5658915042877197 -0.3415908217430115
-0.42635661363601685 0.5658915042877197 0.22111831605434418
-0.42635661363601685 0.5813953876495361 -0.34050223231315613
-0.42635661363601685 0.5813953876495361 0.21203434467315674
-0.42635661363601685 0.5968992710113525 -0.34202468395233154
-0.42635661363601685 0.5968992710113525 0.2039209008216858
-0.42635661363601685 0.612403154373169 -0.34846293926239014
-0.42635661363601685 0.612403154373169 0.19157356023788452
-0.42635661363601685 0.6279069185256958 -0.35299941897392273
-0.42635661363601685 0.6279069185256958 0.17782536149024963
-0.42635661363601685 0.6434108018875122 -0.36224186420440674
-0.42635661363601685 0.6434108018875122 0.16245651245117188
-0.42635661363601685 0.6589146852493286 -0.3683936595916748
-0.42635661363601685 0.6589146852493286 0.1429959237575531
-0.42635661363601685 0.674418568611145 -0.37594151496887207
-0.42635661363601685 0.674418568611145 0.1136150062084198
-0.42635661363601685 0.6899224519729614 -0.3828694522380829
-0.42635658383369446 0.6899224519729614 -0.18872693181037903
-0.42635658383369446 0.6899224519729614 -0.10074813663959503
-0.42635661363601685 0.6899224519729614 0.07335618883371353
-0.42635661363601685 0.7054263353347778 -0.38787728548049927
-0.42635661363601685 0.7054263353347778 -0.21496638655662537
-0.42635661363601685 0.7054263353347778 -0.03635668754577637
-0.42635661363601685 0.7054263353347778 0.024866774678230286
-0.42635661363601685 0.7209302186965942 -0.39467453956604004
-0.42635661363601685 0.7209302186965942 -0.22646325826644897
-0.42635661363601685 0.7364341020584106 -0.39848706126213074
-0.42635661363601685 0.7364341020584106 -0.23507270216941833
-0.42635661363601685 0.751937985420227 -0.40052372217178345
-0.42635661363601685 0.751937985420227 -0.24125897884368896
-0.42635661363601685 0.7674418687820435 -0.4004184603691101
-0.42635661363601685 0.7674418687820435 -0.25036102533340454
-0.42635661363601685 0.7829457521438599 -0.39792394638061523
-0.42635661363601685 0.7829457521438599 -0.25596824288368225
-0.42635661363601685 0.7984496355056763 -0.3932362496852875
-0.42635661363601685 0.7984496355056763 -0.2668469250202179
-0.42635661363601685 0.8139535188674927 -0.38737109303474426
-0.42635661363601685 0.8139535188674927 -0.27740103006362915
-0.42635661363601685 0.8294574022293091 -0.3810819387435913
-0.42635661363601685 0.8294574618339539 -0.28661277890205383
-0.42635661363601685 0.8449612855911255 -0.37206101417541504
-0.42635661363601685 0.8449612855911255 -0.299471378326416
-0.42635661363601685 0.8604651689529419 -0.356086403131485
-0.42635661363601685 0.8604651689529419 -0.3168237507343292
-0.41085273027420044 -0.1627907156944275 -0.15540622174739838
-0.41085273027420044 -0.1627907156944275 -0.018793988972902298
-0.41085273027420044 -0.14728683233261108 -0.19553224742412567
-0.41085273027420044 -0.14728683233261108 0.05205219238996506
-0.41085273027420044 -0.13178294897079468 -0.2324066162109375
-0.41085273027420044 -0.13178294897079468 0.09100363403558731
-0.41085273027420044 -0.11627906560897827 -0.27058711647987366
-0.41085273027420044 -0.11627906560897827 0.11579813808202744
-0.41085273027420044 -0.10077518224716187 -0.29441502690315247
-0.41085273027420044 -0.10077518224716187 0.13323885202407837
-0.41085273027420044 -0.08527129888534546 -0.3068334460258484
-0.41085273027420044 -0.08527129888534546 0.14685487747192383
-0.41085273027420044 -0.06976741552352905 -0.3169233202934265
-0.41085273027420044 -0.06976741552352905 0.1598723828792572
-0.41085273027420044 -0.05426359176635742 -0.3252596855163574
-0.41085273027420044 -0.05426359176635742 0.17099812626838684
-0.41085273027420044 -0.038759708404541016 -0.33131152391433716
-0.41085270047187805 -0.038759708404541016 0.1818787157535553
-0.41085273027420044 -0.02325582504272461 -0.3351918160915375
-0.41085273027420044 -0.02325582504272461 0.1916850507259369
-0.41085273027420044 -0.007751941680908203 -0.339105486869812
-0.41085273027420044 -0.00775194214656949 0.20072107017040253
-0.41085273027420044 0.007751941680908203 -0.34163060784339905
-0.41085273027420044 0.007751941680908203 0.20904242992401123
-0.41085273027420044 0.02325582504272461 -0.34360426664352417
-0.41085273027420044 0.02325582504272461 0.2178703099489212
-0.41085273027420044 0.038759708404541016 -0.34522271156311035
-0.41085273027420044 0.038759708404541016 0.22436071932315826
-0.41085270047187805 0.05426359176635742 -0.3471529483795166
-0.41085273027420044 0.05426359176635742 0.23165690898895264
-0.41085273027420044 0.06976747512817383 -0.34914422035217285
-0.41085273027420044 0.06976747512817383 0.23615813255310059
-0.41085273027420044 0.08527135848999023 -0.3517431914806366
-0.41085273027420044 0.08527135848999023 0.23951147496700287
-0.41085273027420044 0.10077524185180664 -0.35508692264556885
-0.41085273027420044 0.10077524185180664 0.24359111487865448
-0.41085273027420044 0.11627912521362305 -0.35704219341278076
-0.41085273027420044 0.11627911776304245 0.2463931143283844
-0.41085273027420044 0.1317828893661499 -0.3581916093826294
-0.41085273027420044 0.1317828893661499 0.24820980429649353
-0.41085273027420044 0.1472867727279663 -0.3597484827041626
-0.41085273027420044 0.1472867727279663 0.24979738891124725
-0.41085273027420044 0.16279065608978271 -0.3619454503059387
-0.41085273027420044 0.16279065608978271 0.25140008330345154
-0.41085273027420044 0.17829453945159912 -0.36426490545272827
-0.41085273027420044 0.17829453945159912 0.2529907822608948
-0.41085273027420044 0.19379842281341553 -0.3661962151527405
-0.41085273027420044 0.19379842281341553 0.25480833649635315
-0.41085273027420044 0.20930230617523193 -0.36875835061073303
-0.41085273027420044 0.20930230617523193 0.25787532329559326
-0.41085273027420044 0.22480618953704834 -0.3715328574180603
-0.41085273027420044 0.22480618953704834 0.26071473956108093
-0.41085273027420044 0.24031007289886475 -0.3746965229511261
-0.41085273027420044 0.24031007289886475 0.2630424499511719
