-0.5292577743530273 0.9379844665527344 -0.4573643207550049
-0.5241106152534485 0.9534883499145508 -0.4573643207550049
-0.5192654728889465 -0.44186046719551086 -0.4728682041168213
-0.5191836953163147 -0.42635661363601685 -0.4728682041168213
-0.5182818174362183 -0.25581395626068115 -0.4418604373931885
-0.514796793460846 -0.24031007289886475 -0.4418604373931885
-0.5116621851921082 -0.22480618953704834 -0.4418604373931885
-0.5091562271118164 -0.20930230617523193 -0.4418604373931885
-0.5087723731994629 -0.19379842281341553 -0.4418604373931885
-0.5126201510429382 -0.1782945990562439 -0.4418604373931885
-0.5050432682037354 -0.1627907156944275 -0.10077518224716187
-0.5077415704727173 -0.1627907156944275 -0.08527129888534546
-0.5089464783668518 -0.1627907156944275 -0.06976741552352905
-0.5080314874649048 -0.1627907156944275 -0.05426359176635742
-0.5057860016822815 -0.1627907156944275 -0.038759708404541016
-0.5076569318771362 -0.14728683233261108 -0.13178294897079468
-0.5130267143249512 -0.14728683233261108 -0.11627906560897827
-0.5154999494552612 -0.14728683233261108 -0.10077518224716187
-0.516662061214447 -0.14728683233261108 -0.08527129888534546
-0.5173245072364807 -0.14728683233261108 -0.06976741552352905
-0.5166975855827332 -0.14728683233261108 -0.05426359176635742
-0.5153435468673706 -0.14728683233261108 -0.038759708404541016
-0.5135512351989746 -0.14728683233261108 -0.02325582504272461
-0.512006938457489 -0.14728683233261108 -0.007751941680908203
-0.5108469128608704 -0.14728683233261108 0.007751941680908203
-0.509618878364563 -0.14728683233261108 0.02325582504272461
-0.5086894631385803 -0.14728683233261108 0.038759708404541016
-0.5067920684814453 -0.14728683233261108 0.05426359176635742
-0.5040958523750305 -0.14728683233261108 0.06976747512817383
-0.5070298910140991 -0.13178294897079468 -0.1627907156944275
-0.514287531375885 -0.13178294897079468 -0.14728683233261108
-0.5178915858268738 -0.13178294897079468 -0.13178294897079468
-0.5184624195098877 -0.13178294897079468 0.02325582504272461
-0.5174693465232849 -0.13178294897079468 0.038759708404541016
-0.5152743458747864 -0.13178294897079468 0.05426359176635742
-0.5120989680290222 -0.13178294897079468 0.06976747512817383
-0.5074799060821533 -0.13178294897079468 0.08527135848999023
-0.5050323009490967 -0.11627906560897827 -0.19379842281341553
-0.5142219662666321 -0.11627906560897827 -0.1782945990562439
-0.51922208070755 -0.11627906560897827 -0.1627907156944275
-0.5151950120925903 -0.11627907305955887 0.08527135848999023
-0.5093226432800293 -0.11627906560897827 0.10077524185180664
-0.5049341320991516 -0.10077518224716187 -0.22480618953704834
-0.5142776966094971 -0.10077518224716187 -0.20930230617523193
-0.5165156126022339 -0.10077518224716187 0.10077524185180664
-0.5090848207473755 -0.10077518224716187 0.11627912521362305
-0.5123035907745361 -0.08527129888534546 -0.24031007289886475
-0.5151322484016418 -0.08527129888534546 0.11627913266420364
-0.5060742497444153 -0.08527129888534546 0.1317828893661499
-0.5136489272117615 -0.06976741552352905 -0.25581395626068115
-0.5121772289276123 -0.06976741552352905 0.1317828893661499
-0.5107361674308777 -0.05426359176635742 -0.27131783962249756
-0.5166517496109009 -0.05426359176635742 0.1317828893661499
-0.5049660205841064 -0.05426359176635742 0.1472867727279663
-0.5095793604850769 -0.038759708404541016 0.1472867727279663
-0.5073602795600891 -0.02325582504272461 -0.28682172298431396
-0.5120484232902527 -0.02325582504272461 0.1472867727279663
-0.5061397552490234 -0.007751941680908203 -0.4573643207550049
-0.5138564705848694 -0.007751941215246916 -0.28682172298431396
-0.5130311846733093 -0.007751941680908203 0.1472867727279663
-0.5043124556541443 0.007751941680908203 -0.4728682041168213
-0.513077437877655 0.007751941680908203 0.1472867727279663
-0.5120251178741455 0.02325582504272461 0.1472867727279663
-0.5094814896583557 0.038759708404541016 -0.30232560634613037
-0.5102640986442566 0.038759708404541016 0.1472867727279663
-0.5159152150154114 0.05426359176635742 -0.30232560634613037
-0.5072833299636841 0.05426359176635742 0.1472867727279663
-0.5172474384307861 0.06976747512817383 0.1317828893661499
-0.5097554326057434 0.08527135848999023 -0.317829430103302
-0.5150090456008911 0.08527135848999023 0.1317828893661499
-0.5176301002502441 0.10077524185180664 -0.317829430103302
-0.5133289098739624 0.10077524185180664 0.1317828893661499
-0.5112833976745605 0.11627912521362305 0.1317828893661499
-0.5054664015769958 0.1317828893661499 -0.3333333134651184
-0.5086508393287659 0.1317828893661499 0.1317828893661499
-0.5063903331756592 0.1472867727279663 -0.3333333134651184
-0.5185406804084778 0.1472867727279663 0.11627912521362305
-0.5062001943588257 0.1472867727279663 0.1317828893661499
-0.506156861782074 0.16279065608978271 -0.3333333134651184
-0.5169289112091064 0.16279065608978271 0.11627912521362305
-0.5043637156486511 0.17829453945159912 -0.3333333134651184
-0.5154120922088623 0.17829455435276031 0.11627912521362305
-0.5155262351036072 0.19379842281341553 -0.317829430103302
-0.5139604806900024 0.19379840791225433 0.11627912521362305
-0.5096498131752014 0.20930230617523193 -0.317829430103302
-0.5121777653694153 0.20930230617523193 0.11627912521362305
-0.5052860379219055 0.22480618953704834 -0.317829430103302
-0.5169152021408081 0.22480618953704834 -0.30232560634613037
-0.5092293620109558 0.22480618953704834 0.11627912521362305
-0.5122346878051758 0.24031005799770355 -0.30232560634613037
-0.5180081725120544 0.24031007289886475 0.10077524185180664
-0.5050226449966431 0.24031007289886475 0.11627912521362305
-0.508414089679718 0.25581395626068115 -0.30232560634613037
-0.5177938938140869 0.25581395626068115 -0.28682172298431396
-0.5161765813827515 0.25581395626068115 0.10077524185180664
-0.506310760974884 0.27131783962249756 -0.30232560634613037
-0.5150806307792664 0.27131783962249756 -0.28682172298431396
-0.5145919322967529 0.27131783962249756 0.10077524185180664
-0.5053908228874207 0.28682172298431396 -0.30232560634613037
-0.5139865875244141 0.28682172298431396 -0.28682172298431396
-0.5109108090400696 0.28682172298431396 0.10077524185180664
-0.5051609873771667 0.30232560634613037 -0.30232560634613037
-0.5131218433380127 0.30232560634613037 -0.28682172298431396
-0.5175957679748535 0.30232560634613037 0.08527136594057083
-0.5054917931556702 0.3178294897079468 -0.30232560634613037
-0.5124613046646118 0.3178294897079468 -0.28682172298431396
-0.517383337020874 0.3178294897079468 -0.27131783962249756
-0.5153086185455322 0.3178294897079468 0.08527136594057083
-0.5056896209716797 0.3333333730697632 -0.30232560634613037
-0.5114889740943909 0.3333333730697632 -0.28682172298431396
-0.5154116749763489 0.3333333730697632 -0.27131783962249756
-0.510714590549469 0.3333333730697632 0.08527135848999023
-0.5051356554031372 0.3488372564315796 -0.30232560634613037
-0.5098216533660889 0.3488372564315796 -0.28682172298431396
-0.513552188873291 0.3488372564315796 -0.27131783962249756
-0.5167273283004761 0.3488372564315796 0.06976747512817383
-0.5039094090461731 0.364341139793396 -0.30232560634613037
-0.507270872592926 0.364341139793396 -0.28682172298431396
-0.5110377073287964 0.364341139793396 -0.27131783962249756
-0.514756441116333 0.364341139793396 -0.25581395626068115
-0.5134750008583069 0.364341139793396 0.06976747512817383
-0.506982147693634 0.37984490394592285 -0.27131783962249756
-0.5100297927856445 0.37984490394592285 -0.25581395626068115
-0.5146937370300293 0.37984490394592285 -0.24031008780002594
-0.5176094770431519 0.37984490394592285 0.05426359176635742
-0.504723846912384 0.37984490394592285 0.06976747512817383
-0.5066558122634888 0.39534878730773926 -0.24031007289886475
-0.5136232376098633 0.39534878730773926 -0.22480618953704834
-0.5147666931152344 0.39534878730773926 0.05426359176635742
-0.5048563480377197 0.41085267066955566 -0.22480618953704834
-0.5179563760757446 0.41085267066955566 -0.20930229127407074
-0.5175181031227112 0.41085267066955566 0.038759708404541016
-0.5090085864067078 0.41085267066955566 0.05426359176635742
-0.5066403746604919 0.42635655403137207 -0.20930230617523193
-0.5144715309143066 0.42635655403137207 0.038759708404541016
-0.51332688331604 0.4418604373931885 -0.19379842281341553
-0.5161206722259521 0.4418604373931885 0.02325582504272461
-0.5053943991661072 0.4418604373931885 0.038759708404541016
-0.5065963268280029 0.4573643207550049 -0.19379842281341553
-0.5181629657745361 0.4573643207550049 0.007751941680908203
-0.5117073059082031 0.4573643207550049 0.02325582504272461
-0.5165276527404785 0.4728681743144989 -0.4418604373931885
-0.5123647451400757 0.4728682041168213 -0.1782945990562439
-0.5147992372512817 0.4728682041168213 0.007751941680908203
-0.5045626163482666 0.4883720874786377 -0.4573643207550049
-0.5187422633171082 0.4883720874786377 -0.3798449635505676
-0.5042815208435059 0.4883720874786377 -0.1782945990562439
-0.5157009959220886 0.4883720874786377 -0.1627907156944275
-0.5159727334976196 0.4883720576763153 -0.007751941680908203
-0.5083178877830505 0.4883720874786377 0.007751941680908203
-0.5153762102127075 0.5038759708404541 -0.42635661363601685
-0.5086047053337097 0.5038759708404541 -0.1627907156944275
-0.5169949531555176 0.5038759708404541 -0.14728683233261108
-0.5166658759117126 0.5038759708404541 -0.02325582504272461
-0.5115167498588562 0.5038759708404541 -0.007751941680908203
-0.5146275758743286 0.5193798542022705 -0.42635661363601685
-0.510117769241333 0.5193798542022705 -0.14728683233261108
-0.516516387462616 0.5193798542022705 -0.13178294897079468
-0.516543447971344 0.5193798542022705 -0.038759708404541016
-0.512382984161377 0.5193798542022705 -0.02325582504272461
-0.5111355781555176 0.5348837375640869 -0.13178294897079468
-0.5157228112220764 0.5348837375640869 -0.11627906560897827
-0.5181562900543213 0.5348837375640869 -0.10077518224716187
-0.5189938545227051 0.5348837375640869 -0.08527129888534546
-0.5179361701011658 0.5348837375640869 -0.06976741552352905
-0.516080915927887 0.5348837375640869 -0.05426358804106712
-0.5123062133789062 0.5348837375640869 -0.038759708404541016
-0.5040795207023621 0.5348837375640869 -0.02325582504272461
-0.5136777758598328 0.5503876209259033 -0.4573643207550049
-0.5044487714767456 0.5503876209259033 -0.13178294897079468
-0.5107608437538147 0.5503876209259033 -0.11627906560897827
-0.513630211353302 0.5503876209259033 -0.10077518224716187
-0.5146423578262329 0.5503876209259033 -0.08527129888534546
-0.5139233469963074 0.5503876209259033 -0.06976741552352905
-0.511314868927002 0.5503876209259033 -0.05426359176635742
-0.5042089819908142 0.5503876209259033 -0.038759708404541016
-0.5182202458381653 0.5658915042877197 -0.4418604373931885
-0.5039764642715454 0.5658915042877197 -0.11627906560897827
-0.5071170330047607 0.5658915042877197 -0.10077518224716187
-0.5084367394447327 0.5658915042877197 -0.08527129888534546
-0.5066928863525391 0.5658915042877197 -0.06976741552352905
-0.510601818561554 0.7054263353347778 -0.4573643207550049
-0.5083600282669067 0.7364341020584106 -0.4728682041168213
-0.5163232684135437 0.751937985420227 -0.4728682041168213
-0.5057233572006226 0.8449612855911255 -0.4728682041168213
-0.5108904242515564 0.8759689331054688 -0.4573643207550049
-0.5107094645500183 0.8914728164672852 -0.4573643207550049
-0.5182284712791443 0.9069766998291016 -0.4573643207550049
-0.5081059336662292 0.922480583190918 -0.4728682041168213
-0.4979521632194519 -0.3643410801887512 -0.4728682041168213
-0.5011733770370483 -0.3488371968269348 -0.4573643207550049
-0.4989374876022339 -0.3333333134651184 -0.4573643207550049
-0.4922562837600708 -0.317829430103302 -0.4728682041168213
-0.5006985664367676 -0.317829430103302 -0.4573643207550049
-0.5002270936965942 -0.30232560634613037 -0.4728682041168213
-0.5023902654647827 -0.30232560634613037 -0.45736435055732727
-0.5023428797721863 -0.28682172298431396 -0.4728682339191437
-0.5024731159210205 -0.28682172298431396 -0.4573643207550049
-0.5029474496841431 -0.27131783962249756 -0.4728682041168213
-0.5013560056686401 -0.27131783962249756 -0.4573643207550049
-0.5030666589736938 -0.25581395626068115 -0.4728682041168213
-0.49969446659088135 -0.25581395626068115 -0.4573643207550049
-0.5028747320175171 -0.24031005799770355 -0.4728682041168213
-0.49765798449516296 -0.24031007289886475 -0.4573643207550049
-0.502172589302063 -0.22480618953704834 -0.4728682041168213
-0.49532705545425415 -0.22480618953704834 -0.4573643207550049
-0.5006752014160156 -0.20930230617523193 -0.4728682041168213
-0.4925076365470886 -0.20930230617523193 -0.4573643207550049
-0.49872052669525146 -0.19379842281341553 -0.4728682041168213
-0.4898723363876343 -0.19379842281341553 -0.4573643207550049
-0.498926043510437 -0.1782945990562439 -0.4728682041168213
-0.4888722598552704 -0.1782945990562439 -0.4573643207550049
-0.4897797405719757 -0.1782945990562439 -0.11627906560897827
-0.4958694577217102 -0.1782945990562439 -0.10077518224716187
-0.49824073910713196 -0.1782945990562439 -0.08527129888534546
-0.4990811347961426 -0.1782945990562439 -0.06976741552352905
-0.4984906017780304 -0.1782945990562439 -0.05426359176635742
-0.4968094825744629 -0.1782945990562439 -0.038759708404541016
-0.493937611579895 -0.1782945990562439 -0.02325582504272461
-0.4912935495376587 -0.1782945990562439 -0.007751941680908203
-0.48956266045570374 -0.1782945990562439 0.007751941680908203
-0.4885072410106659 -0.1782945990562439 0.02325582504272461
-0.4886394739151001 -0.1782945990562439 0.038759708404541016
-0.5010126233100891 -0.1627907156944275 -0.4728682041168213
-0.4894607663154602 -0.1627907156944275 -0.4573643207550049
-0.4967474937438965 -0.1627907156944275 -0.13178294897079468
-0.5012511014938354 -0.1627907156944275 -0.11627907305955887
-0.5028830766677856 -0.1627907156944275 -0.02325582504272461
-0.5010910034179688 -0.1627907156944275 -0.007751941680908203
-0.5000224113464355 -0.1627907156944275 0.007751941680908203
-0.49913036823272705 -0.1627907156944275 0.02325582504272461
-0.4987194538116455 -0.1627907156944275 0.038759708404541016
-0.4974832534790039 -0.1627907156944275 0.05426359176635742
-0.4951210021972656 -0.1627907156944275 0.06976747512817383
-0.49086469411849976 -0.1627907156944275 0.08527135848999023
-0.5027732849121094 -0.14728683233261108 -0.4728682041168213
-0.4901006519794464 -0.14728683233261108 -0.4573643207550049
-0.49266988039016724 -0.14728683233261108 -0.1627907156944275
-0.5010254979133606 -0.14728683233261108 -0.14728683233261108
-0.4990020990371704 -0.14728683233261108 0.08527135848999023
-0.49331676959991455 -0.14728683233261108 0.10077524185180664
-0.5013412833213806 -0.13178294897079468 -0.4728682041168213
-0.49861204624176025 -0.13178294897079468 -0.1782945990562439
-0.5014789700508118 -0.13178294897079468 0.10077523440122604
-0.4938930571079254 -0.13178294897079468 0.11627912521362305
-0.4895491898059845 -0.11627906560897827 -0.4728682041168213
-0.49661242961883545 -0.11627906560897827 -0.20930230617523193
-0.5017914772033691 -0.11627906560897827 0.11627912521362305
-0.49261972308158875 -0.11627906560897827 0.1317828893661499
-0.4933706521987915 -0.10077518224716187 -0.24031007289886475
-0.49945688247680664 -0.10077518224716187 0.1317828893661499
-0.4986201524734497 -0.08527129888534546 -0.25581395626068115
-0.49512308835983276 -0.08527129888534546 0.1472867727279663
-0.49834442138671875 -0.06976741552352905 -0.27131783962249756
-0.500255286693573 -0.06976741552352905 0.1472867727279663
-0.4902665615081787 -0.05426359176635742 -0.28682172298431396
-0.49151161313056946 -0.05426359176635742 0.16279065608978271
-0.5003068447113037 -0.038759708404541016 -0.28682172298431396
-0.49585747718811035 -0.038759708404541016 0.16279065608978271
-0.49795249104499817 -0.02325582504272461 0.16279065608978271
-0.49879467487335205 -0.007751941680908203 0.16279065608978271
-0.49538475275039673 0.007751941680908203 -0.30232560634613037
-0.4987141489982605 0.007751941680908203 0.16279065608978271
-0.5030819177627563 0.02325582504272461 -0.30232560634613037
-0.4975583255290985 0.02325582504272461 0.16279065608978271
-0.495818555355072 0.038759708404541016 0.16279065608978271
-0.4893887937068939 0.05426359176635742 -0.317829430103302
-0.4930585026741028 0.05426359176635742 0.16279065608978271
-0.5007522106170654 0.06976747512817383 -0.317829430103302
-0.5037350654602051 0.06976748257875443 0.1472867727279663
-0.4894760549068451 0.06976747512817383 0.16279065608978271
-0.5010836124420166 0.08527135848999023 0.1472867727279663
-0.49338293075561523 0.10077524185180664 -0.3333333134651184
-0.4991558790206909 0.10077524185180664 0.1472867727279663
-0.5019315481185913 0.11627912521362305 -0.3333333134651184
-0.49752092361450195 0.11627912521362305 0.1472867727279663
-0.4953184425830841 0.1317828893661499 0.1472867727279663
-0.49310702085494995 0.1472867727279663 0.1472867727279663
-0.5036693811416626 0.16279065608978271 0.1317828893661499
-0.4906275272369385 0.16279065608978271 0.1472867727279663
-0.5015381574630737 0.17829453945159912 0.1317828893661499
-0.49855464696884155 0.19379842281341553 -0.3333333134651184
-0.49977028369903564 0.19379842281341553 0.1317828893661499
-0.4915476441383362 0.20930230617523193 -0.3333333134651184
-0.4983367621898651 0.20930230617523193 0.1317828893661499
-0.49616217613220215 0.22480618953704834 0.1317828893661499
-0.5003743171691895 0.24031007289886475 -0.317829430103302
-0.49296149611473083 0.24031007289886475 0.1317828893661499
-0.4961448311805725 0.25581395626068115 -0.317829430103302
-0.5016539096832275 0.25581395626068115 0.11627912521362305
-0.4946839213371277 0.27131783962249756 -0.317829430103302
-0.500038206577301 0.27131783962249756 0.11627912521362305
-0.49496495723724365 0.28682172298431396 -0.317829430103302
-0.49757862091064453 0.28682172298431396 0.11627912521362305
-0.49628767371177673 0.30232560634613037 -0.317829430103302
-0.5037252902984619 0.30232560634613037 0.10077524185180664
-0.49146148562431335 0.30232560634613037 0.11627912521362305
-0.4979861378669739 0.3178294897079468 -0.317829430103302
-0.5007537603378296 0.3178294897079468 0.10077524185180664
-0.49020153284072876 0.3333333730697632 -0.3333333134651184
-0.49922168254852295 0.3333333730697632 -0.317829430103302
-0.49760904908180237 0.3333333730697632 0.10077524185180664
-0.49154043197631836 0.3488372564315796 -0.3333333134651184
-0.499724805355072 0.3488372266292572 -0.317829430103302
-0.5028427839279175 0.3488372564315796 0.08527135848999023
-0.48953649401664734 0.3488372564315796 0.10077524185180664
-0.4925268292427063 0.364341139793396 -0.3333333134651184
-0.4995519816875458 0.364341139793396 -0.317829430103302
-0.4998003840446472 0.364341139793396 0.08527135848999023
-0.492717444896698 0.37984490394592285 -0.3333333134651184
-0.49832966923713684 0.37984490394592285 -0.317829430103302
-0.5006930828094482 0.37984490394592285 -0.30232560634613037
-0.5037443041801453 0.37984490394592285 -0.28682172298431396
-0.49486207962036133 0.37984490394592285 0.08527135848999023
-0.4909900724887848 0.39534878730773926 -0.3333333134651184
-0.49522560834884644 0.39534878730773926 -0.317829430103302
-0.49695491790771484 0.39534878730773926 -0.30232560634613037
-0.4980594515800476 0.39534878730773926 -0.28682172298431396
-0.4995952844619751 0.39534878730773926 -0.27131783962249756
-0.5034998059272766 0.39534878730773926 -0.25581395626068115
-0.5007970333099365 0.39534878730773926 0.06976747512817383
-0.48919984698295593 0.41085267066955566 -0.317829430103302
-0.49056586623191833 0.41085267066955566 -0.30232560634613037
-0.4919338524341583 0.41085267066955566 -0.28682172298431396
-0.4927874207496643 0.41085267066955566 -0.27131783962249756
-0.4935051202774048 0.41085267066955566 -0.25581395626068115
-0.495686799287796 0.41085267066955566 -0.24031007289886475
-0.49537965655326843 0.41085267066955566 0.06976747512817383
-0.49085718393325806 0.42635655403137207 -0.22480618953704834
-0.5008358955383301 0.42635655403137207 0.05426359176635742
-0.4950815439224243 0.4418604373931885 -0.20930230617523193
-0.49661028385162354 0.4418604373931885 0.05426359176635742
-0.5007445812225342 0.4573643207550049 0.038759708404541016
-0.497604101896286 0.4728682041168213 -0.19379842281341553
-0.5031907558441162 0.4728682041168213 0.02325582504272461
-0.49669480323791504 0.4728682041168213 0.038759708404541016
-0.4957925081253052 0.4883720874786377 -0.4418604373931885
-0.4898754358291626 0.4883720874786377 -0.19379842281341553
-0.5000147819519043 0.4883720874786377 0.02325582504272461
-0.49624407291412354 0.5038759708404541 -0.4573643207550049
-0.4952268600463867 0.5038759708404541 -0.1782945990562439
-0.5018784999847412 0.5038759708404541 0.007751941680908203
-0.4952605366706848 0.5038759708404541 0.02325582504272461
-0.495045006275177 0.5193798542022705 -0.4573643207550049
-0.498494029045105 0.5193798542022705 -0.1627907156944275
-0.5031763911247253 0.5193798542022705 -0.007751941680908203
-0.49866151809692383 0.5193798542022705 0.007751941680908203
-0.5022379159927368 0.5348837375640869 -0.4573642909526825
-0.4893677830696106 0.5348837375640869 -0.1627907156944275
-0.5020541548728943 0.5348837375640869 -0.14728683233261108
-0.4999535083770752 0.5348837375640869 -0.007751941680908203
-0.4911559522151947 0.5348837375640869 0.007751941680908203
-0.502720057964325 0.5503876209259033 -0.4418604373931885
-0.495733380317688 0.5503876209259033 -0.14728683233261108
-0.5003236532211304 0.5503876209259033 -0.02325582504272461
-0.4939243197441101 0.5503876209259033 -0.007751941680908203
-0.488613486289978 0.5658915042877197 -0.14728683233261108
-0.49839913845062256 0.5658915042877197 -0.13178294897079468
-0.503347635269165 0.5658915042877197 -0.05426359176635742
-0.5000253319740295 0.5658915042877197 -0.038759708404541016
-0.4942128658294678 0.5658915042877197 -0.02325582504272461
-0.49142223596572876 0.5813953876495361 -0.13178294897079468
-0.49799954891204834 0.5813953876495361 -0.11627906560897827
-0.5007245540618896 0.5813953876495361 -0.10077518224716187
-0.5015751123428345 0.5813953876495361 -0.08527129888534546
-0.5005750060081482 0.5813953876495361 -0.06976741552352905
-0.4987477660179138 0.5813953876495361 -0.05426359176635742
-0.4926871657371521 0.5813953876495361 -0.038759708404541016
-0.49067676067352295 0.5968992710113525 -0.11627906560897827
-0.4946083426475525 0.5968992710113525 -0.10077518224716187
-0.49583014845848083 0.5968992710113525 -0.08527129888534546
-0.49411696195602417 0.5968992710113525 -0.06976741552352905
-0.48977354168891907 0.5968992710113525 -0.05426359176635742
-0.5034756660461426 0.7209302186965942 -0.4728682041168213
-0.48901137709617615 0.8604651689529419 -0.4728682041168213
-0.4922279715538025 0.8914728164672852 -0.4728682041168213
-0.4989122450351715 0.9069766998291016 -0.4728682041168213
-0.4849757254123688 -0.3488371968269348 -0.4728682041168213
-0.48483169078826904 -0.3333333134651184 -0.4728682339191437
-0.475072979927063 -0.20930230617523193 -0.08527129888534546
-0.4776824414730072 -0.20930230617523193 -0.06976741552352905
-0.47749751806259155 -0.20930230617523193 -0.05426359176635742
-0.4751504063606262 -0.20930230617523193 -0.038759708404541016
-0.47930508852005005 -0.19379842281341553 -0.11627906560897827
-0.4841306507587433 -0.19379842281341553 -0.10077518224716187
-0.48615023493766785 -0.19379842281341553 -0.08527129888534546
-0.4874434769153595 -0.19379843771457672 -0.06976741552352905
-0.4869597554206848 -0.19379843771457672 -0.05426359176635742
-0.48537492752075195 -0.19379842281341553 -0.038759708404541016
-0.4834940731525421 -0.19379840791225433 -0.02325582318007946
-0.4818228483200073 -0.19379842281341553 -0.00775194214656949
-0.48055219650268555 -0.19379842281341553 0.007751941680908203
-0.47964754700660706 -0.19379842281341553 0.02325582504272461
-0.4796733856201172 -0.19379842281341553 0.038759708404541016
-0.4784507751464844 -0.19379842281341553 0.05426359176635742
-0.47596511244773865 -0.19379842281341553 0.06976747512817383
-0.4736877381801605 -0.1782945990562439 -0.14728683233261108
-0.48402637243270874 -0.1782945990562439 -0.13178294897079468
-0.48787274956703186 -0.1782945990562439 0.05426358804106712
-0.4857906103134155 -0.1782945841550827 0.06976747512817383
-0.4810919165611267 -0.1782945990562439 0.08527135848999023
-0.4750126600265503 -0.1782945990562439 0.10077524185180664
-0.47826600074768066 -0.1627907156944275 -0.1627907156944275
-0.48714250326156616 -0.1627907156944275 -0.14728683233261108
-0.4841564893722534 -0.1627907156944275 0.10077524185180664
-0.47622665762901306 -0.1627907156944275 0.11627912521362305
-0.48214399814605713 -0.14728683233261108 -0.1782945990562439
-0.48526886105537415 -0.14728683233261108 0.11627912521362305
-0.4758184850215912 -0.14728683233261108 0.1317828893661499
-0.4878149628639221 -0.13178294897079468 -0.4573643207550049
-0.4752623736858368 -0.13178294897079468 -0.20930230617523193
-0.4856664836406708 -0.13178294897079468 -0.19379842281341553
-0.4840741455554962 -0.13178294897079468 0.1317828893661499
-0.47289279103279114 -0.13178294897079468 0.1472867727279663
-0.4836166203022003 -0.11627906560897827 -0.4573643207550049
-0.48379606008529663 -0.11627906560897827 -0.22480618953704834
-0.4810817241668701 -0.11627906560897827 0.1472867727279663
-0.4777844250202179 -0.10077518224716187 -0.25581395626068115
-0.4882533848285675 -0.10077518969774246 0.1472867727279663
-0.474719375371933 -0.10077518224716187 0.16279065608978271
-0.48112350702285767 -0.08527129888534546 -0.27131783962249756
-0.4814102053642273 -0.08527129888534546 0.16279065608978271
-0.4771295189857483 -0.06976741552352905 -0.28682172298431396
-0.4861891269683838 -0.06976741552352905 0.16279065608978271
-0.47597143054008484 -0.05426359176635742 0.17829453945159912
-0.4731672406196594 -0.038759708404541016 -0.30232560634613037
-0.4803260266780853 -0.038759708404541016 0.17829453945159912
-0.4801953434944153 -0.02325582504272461 -0.30232560634613037
-0.4824857711791992 -0.02325582504272461 0.17829453945159912
-0.488305926322937 -0.007751941680908203 -0.30232563614845276
-0.4833488464355469 -0.00775194214656949 0.17829453945159912
-0.483309805393219 0.007751941680908203 0.17829453945159912
-0.48218077421188354 0.02325582504272461 0.17829453945159912
-0.47685351967811584 0.038759708404541016 -0.317829430103302
-0.48046988248825073 0.038759708404541016 0.17829453945159912
-0.4779179096221924 0.05426359176635742 0.17829453945159912
-0.4747496247291565 0.06976747512817383 0.17829453945159912
-0.4798947274684906 0.08527135848999023 -0.3333333134651184
-0.4863097071647644 0.08527135848999023 0.16279065608978271
-0.48429688811302185 0.10077524185180664 0.16279065608978271
-0.48276418447494507 0.11627912521362305 0.16279065608978271
-0.475212424993515 0.1317828893661499 -0.3488371968269348
-0.4809289574623108 0.1317828893661499 0.16279065608978271
-0.4782055616378784 0.1472867727279663 -0.3488371968269348
-0.4789585471153259 0.1472867727279663 0.16279065608978271
-0.47843122482299805 0.16279065608978271 -0.3488371968269348
-0.4768930673599243 0.16279065608978271 0.16279065608978271
-0.4731912612915039 0.17829453945159912 -0.3488371968269348
-0.4875984191894531 0.17829453945159912 0.1472867727279663
-0.4739052653312683 0.17829453945159912 0.16279065608978271
-0.4853624999523163 0.19379842281341553 0.1472867727279663
-0.4838736057281494 0.20930230617523193 0.1472867727279663
-0.48405328392982483 0.22480618953704834 -0.3333333134651184
-0.482360303401947 0.22480618953704834 0.1472867727279663
-0.47687798738479614 0.24031007289886475 -0.3333333134651184
-0.480141818523407 0.24031007289886475 0.1472867727279663
-0.4739474058151245 0.25581395626068115 -0.3333333134651184
-0.4875538647174835 0.25581395626068115 0.1317828893661499
-0.475513219833374 0.25581395626068115 0.1472867727279663
-0.4744946360588074 0.27131783962249756 -0.3333333134651184
-0.48515400290489197 0.27131783962249756 0.1317828893661499
-0.4773169755935669 0.28682172298431396 -0.3333333134651184
-0.4834226965904236 0.28682172298431396 0.1317828893661499
-0.4820398688316345 0.30232560634613037 -0.3333333134651184
-0.479255735874176 0.30232560634613037 0.1317828893661499
-0.4882860481739044 0.3178294897079468 -0.3333333134651184
-0.4859503507614136 0.3178294897079468 0.11627911776304245
-0.47405776381492615 0.3333333730697632 -0.3488371968269348
-0.4835982322692871 0.3333333730697632 0.11627912521362305
-0.4764411449432373 0.3488372564315796 -0.3488371968269348
-0.47804123163223267 0.3488372564315796 0.11627912521362305
-0.47690844535827637 0.364341139793396 -0.3488371968269348
-0.4851040542125702 0.364341139793396 0.10077524185180664
-0.4737643599510193 0.37984490394592285 -0.3488371968269348
-0.4825619161128998 0.37984490394592285 0.10077524185180664
-0.48593810200691223 0.39534881711006165 0.08527135848999023
-0.4805847406387329 0.41085267066955566 -0.3333333134651184
-0.4793952703475952 0.41085267066955566 0.08527135848999023
-0.4739689230918884 0.42635655403137207 -0.317829430103302
-0.47877711057662964 0.42635655403137207 -0.30232560634613037
-0.4801397919654846 0.42635655403137207 -0.28682172298431396
-0.47930264472961426 0.42635655403137207 -0.27131783962249756
-0.4779519736766815 0.42635655403137207 -0.25581395626068115
-0.4795647859573364 0.42635655403137207 -0.24031007289886475
-0.48409008979797363 0.42635655403137207 0.06976747512817383
-0.4739992618560791 0.4418604373931885 -0.22480618953704834
-0.47860443592071533 0.4418604373931885 0.06976747512817383
-0.48832932114601135 0.4573643207550049 -0.20930230617523193
-0.4870133697986603 0.4573643207550049 0.05426358804106712
-0.47704237699508667 0.4728682041168213 -0.20930230617523193
-0.4844970107078552 0.4728682041168213 0.05426359176635742
-0.4875156879425049 0.4883721172809601 0.038759708404541016
-0.47961920499801636 0.4883720874786377 0.05426359176635742
-0.48380011320114136 0.5038759708404541 -0.4418604373931885
-0.4785473644733429 0.5038759708404541 -0.19379842281341553
-0.48516517877578735 0.5038759708404541 0.038759708404541016
-0.47964543104171753 0.5193798542022705 -0.4418604373931885
-0.4824104607105255 0.5193798542022705 -0.1782945990562439
-0.48708537220954895 0.5193798542022705 0.02325582504272461
-0.48116743564605713 0.5193798542022705 0.038759708404541016
-0.4877645969390869 0.5348837375640869 -0.4418604373931885
-0.48471391201019287 0.5348837375640869 0.02325582504272461
-0.47935187816619873 0.5503876209259033 -0.1627907156944275
-0.4858548045158386 0.5503876209259033 0.007751941680908203
-0.47943347692489624 0.5503876209259033 0.02325582504272461
-0.4864526093006134 0.5658915042877197 -0.007751941680908203
-0.4818834662437439 0.5658915042877197 0.007751941680908203
-0.48041218519210815 0.5813953876495361 -0.14728683233261108
-0.4862236976623535 0.5813953876495361 -0.02325582504272461
-0.48200523853302 0.5813953876495361 -0.007751941680908203
-0.47331702709198 0.5968992710113525 -0.14728683233261108
-0.48407357931137085 0.5968992710113525 -0.13178294897079468
-0.4854329824447632 0.5968992710113525 -0.038759708404541016
-0.48061060905456543 0.5968992710113525 -0.02325582504272461
-0.4752562940120697 0.612403154373169 -0.13178294897079468
-0.48258423805236816 0.612403154373169 -0.11627906560897827
-0.485930860042572 0.612403154373169 -0.10077518224716187
-0.4867435097694397 0.612403154373169 -0.08527129888534546
-0.48543083667755127 0.612403154373169 -0.06976741552352905
-0.48338210582733154 0.612403154373169 -0.05426359176635742
-0.4768012762069702 0.612403154373169 -0.038759708404541016
-0.4741208255290985 0.6279069185256958 -0.11627906560897827
-0.47834157943725586 0.6279069185256958 -0.10077518224716187
-0.47968897223472595 0.6279069185256958 -0.08527129888534546
-0.4775688052177429 0.6279069185256958 -0.06976741552352905
-0.48682671785354614 0.6899224519729614 -0.4573642909526825
-0.4850616157054901 0.7054263353347778 -0.4728682041168213
-0.47722509503364563 0.8604651689529419 -0.4418604373931885
-0.4865284264087677 0.8759689331054688 -0.4728682041168213
-0.4620962142944336 -0.22480618953704834 -0.08527129888534546
-0.4652622938156128 -0.22480618953704834 -0.06976741552352905
-0.4657367467880249 -0.22480618953704834 -0.05426359176635742
-0.46400439739227295 -0.22480618953704834 -0.038759708404541016
-0.4605291783809662 -0.22480618953704834 -0.02325582504272461
-0.4576904773712158 -0.22480618953704834 -0.007751941680908203
-0.46630144119262695 -0.20930230617523193 -0.11627906560897827
-0.4709833860397339 -0.20930230617523193 -0.10077518224716187
-0.471780925989151 -0.20930229127407074 -0.02325582504272461
-0.4699939489364624 -0.20930230617523193 -0.007751941215246916
-0.4689849019050598 -0.20930230617523193 0.007751941680908203
-0.4684329032897949 -0.20930230617523193 0.02325582504272461
-0.4686692953109741 -0.20930230617523193 0.038759708404541016
-0.4676099419593811 -0.20930230617523193 0.05426359176635742
-0.4646940231323242 -0.20930230617523193 0.06976747512817383
-0.4598708152770996 -0.20930230617523193 0.08527135848999023
-0.46006107330322266 -0.19379842281341553 -0.14728683233261108
-0.4701578915119171 -0.19379843771457672 -0.13178294897079468
-0.47116246819496155 -0.19379842281341553 0.08527135848999023
-0.46301817893981934 -0.19379842281341553 0.10077524185180664
-0.463570237159729 -0.1782945990562439 -0.1627907156944275
-0.4645364284515381 -0.1782945990562439 0.11627912521362305
-0.46622636914253235 -0.1627907156944275 -0.1782945990562439
-0.46461784839630127 -0.1627907156944275 0.1317828893661499
-0.4686371386051178 -0.14728683233261108 -0.19379843771457672
-0.4630163311958313 -0.14728683233261108 0.1472867727279663
-0.46443819999694824 -0.13178294897079468 -0.22480618953704834
-0.45863664150238037 -0.13178294897079468 0.16279065608978271
-0.46987396478652954 -0.11627906560897827 -0.24031007289886475
-0.46714746952056885 -0.11627906560897827 0.16279065608978271
-0.4716557562351227 -0.10077518224716187 -0.4728682041168213
-0.46999597549438477 -0.10077518224716187 -0.4573643207550049
-0.4589419364929199 -0.10077518224716187 -0.27131783962249756
-0.45871275663375854 -0.10077518224716187 0.17829453945159912
-0.46571093797683716 -0.08527129888534546 0.17829453945159912
-0.47050711512565613 -0.06976741552352905 0.17829453945159912
-0.46214818954467773 -0.05426359176635742 -0.30232560634613037
-0.46259433031082153 -0.038759708404541016 0.19379842281341553
-0.4652380049228668 -0.02325582504272461 0.19379842281341553
-0.46631258726119995 -0.007751941215246916 0.19379842281341553
-0.4664446711540222 0.007751941680908203 0.19379842281341553
-0.46174582839012146 0.02325582504272461 -0.317829430103302
-0.46541446447372437 0.02325582504272461 0.19379842281341553
-0.4636634886264801 0.038759708404541016 0.19379842281341553
-0.4611726999282837 0.05426359176635742 0.19379842281341553
-0.458601713180542 0.06976747512817383 -0.3333333134651184
-0.45814552903175354 0.06976747512817383 0.19379842281341553
-0.47137075662612915 0.08527135848999023 0.17829453945159912
-0.4692615866661072 0.10077524185180664 0.17829455435276031
-0.46544596552848816 0.11627912521362305 -0.3488371968269348
-0.4676867127418518 0.11627912521362305 0.17829453945159912
-0.4659439027309418 0.1317828893661499 0.17829453945159912
-0.4641715884208679 0.1472867727279663 0.17829453945159912
-0.4624090790748596 0.16279065608978271 0.17829453945159912
-0.4598258435726166 0.17829453945159912 0.17829453945159912
-0.4709678292274475 0.19379842281341553 0.16279065608978271
-0.4690284729003906 0.20930230617523193 0.16279065608978271
-0.46749889850616455 0.22480618953704834 0.16279065608978271
-0.4656686782836914 0.24031007289886475 0.16279065608978271
-0.4618515372276306 0.25581395626068115 0.16279065608978271
-0.47072359919548035 0.27131783962249756 0.1472867727279663
-0.4684469699859619 0.28682172298431396 0.1472867727279663
-0.46539416909217834 0.30232560634613037 0.1472867727279663
-0.4637141525745392 0.3178294897079468 -0.3488371968269348
-0.47160273790359497 0.3178294897079468 0.1317828893661499
-0.45765259861946106 0.3178294897079468 0.1472867727279663
-0.46865302324295044 0.3333333730697632 0.1317828893661499
-0.46453624963760376 0.3488372564315796 0.1317828893661499
-0.4700968563556671 0.364341139793396 0.11627912521362305
-0.459641695022583 0.37984490394592285 -0.3488371968269348
-0.4677662253379822 0.37984490394592285 0.11627912521362305
-0.47110873460769653 0.39534878730773926 0.10077524185180664
-0.4581438899040222 0.39534878730773926 0.11627912521362305
-0.464499831199646 0.41085267066955566 0.10077524185180664
-0.4691642224788666 0.42635655403137207 0.08527135848999023
-0.4622211456298828 0.4418604373931885 0.08527135848999023
-0.47094082832336426 0.4573643207550049 0.06976747512817383
-0.4670422673225403 0.4728681743144989 0.06976747512817383
-0.46499180793762207 0.4883720874786377 -0.20930230617523193
-0.46219968795776367 0.4883720874786377 0.06976747512817383
-0.4700120985507965 0.5038759708404541 0.05426359176635742
-0.46052101254463196 0.5193798542022705 -0.19379842281341553
-0.46632808446884155 0.5193798542022705 0.05426359549164772
-0.46707388758659363 0.5348837375640869 -0.1782945990562439
-0.4715425968170166 0.5348837375640869 0.038759708404541016
-0.4591144323348999 0.5348837375640869 0.05426359176635742
-0.4687047600746155 0.5503876209259033 0.038759708404541016
-0.4695046842098236 0.5658915042877197 -0.1627907156944275
-0.470975786447525 0.5658915042877197 0.02325582504272461
-0.46223872900009155 0.5658915042877197 0.038759708404541016
-0.4601064622402191 0.5813953876495361 -0.1627907156944275
-0.471812903881073 0.5813953876495361 0.007751941680908203
-0.46759122610092163 0.5813953876495361 0.02325582504272461
-0.47155025601387024 0.5968992114067078 -0.007751941680908203
-0.467573344707489 0.5968992710113525 0.007751941680908203
-0.463974267244339 0.612403154373169 -0.14728683233261108
-0.47006621956825256 0.612403154373169 -0.02325582504272461
-0.4647427797317505 0.612403154373169 -0.007751941680908203
-0.4671293795108795 0.6279069185256958 -0.13178294897079468
-0.4727199673652649 0.6279069185256958 -0.05426359176635742
-0.4685460329055786 0.6279069185256958 -0.038759708404541016
-0.46030089259147644 0.6279069185256958 -0.02325582504272461
-0.46081143617630005 0.6434108018875122 -0.13178294897079468
-0.4669469892978668 0.6434108018875122 -0.11627906560897827
-0.47006434202194214 0.6434108018875122 -0.10077518224716187
-0.47067105770111084 0.6434108018875122 -0.08527130633592606
-0.4690069556236267 0.6434108018875122 -0.06976741552352905
-0.4657733142375946 0.6434108018875122 -0.05426359176635742
-0.4597504138946533 0.6589146852493286 -0.11627906560897827
-0.46264755725860596 0.6589146852493286 -0.10077518224716187
-0.46294933557510376 0.6589146852493286 -0.08527129888534546
-0.4597098231315613 0.6589146852493286 -0.06976741552352905
-0.46708178520202637 0.674418568611145 -0.4573642909526825
-0.4626794755458832 0.6899224519729614 -0.4728682041168213
-0.46937838196754456 0.9379844665527344 -0.4728682041168213
-0.44291776418685913 -0.24031007289886475 -0.08527129888534546
-0.4478764533996582 -0.24031007289886475 -0.06976741552352905
-0.4491836428642273 -0.24031007289886475 -0.05426359176635742
-0.447632759809494 -0.24031007289886475 -0.038759708404541016
-0.44404077529907227 -0.24031007289886475 -0.02325582504272461
-0.4419623911380768 -0.24031007289886475 0.038759708404541016
-0.4502032995223999 -0.22480618953704834 -0.11627906560897827
-0.4561779201030731 -0.22480618953704834 -0.10077518224716187
-0.4562821388244629 -0.22480618953704834 0.007751941680908203
-0.4558675289154053 -0.22480618953704834 0.02325582504272461
-0.456503301858902 -0.22480620443820953 0.038759708404541016
-0.455733984708786 -0.22480618953704834 0.05426359176635742
-0.4528452754020691 -0.22480618953704834 0.06976747512817383
-0.44713348150253296 -0.22480618953704834 0.08527135848999023
-0.44347280263900757 -0.20930230617523193 -0.14728683233261108
-0.4553116261959076 -0.20930232107639313 -0.13178294897079468
-0.45053979754447937 -0.20930230617523193 0.10077524185180664
-0.4470765292644501 -0.19379842281341553 -0.1627907156944275
-0.45222383737564087 -0.19379842281341553 0.11627912521362305
-0.4492167830467224 -0.1782945990562439 -0.1782945990562439
-0.4530119299888611 -0.1782945990562439 0.1317828893661499
-0.4516226351261139 -0.1627907156944275 -0.19379842281341553
-0.451768159866333 -0.1627907156944275 0.1472867727279663
-0.45572537183761597 -0.14728683233261108 -0.20930230617523193
-0.44861066341400146 -0.14728683233261108 0.16279065608978271
-0.4480646848678589 -0.13178294897079468 -0.24031007289886475
-0.4429982900619507 -0.13178294897079468 0.17829453945159912
-0.45358526706695557 -0.11627906560897827 -0.25581395626068115
-0.45146360993385315 -0.11627905815839767 0.17829453945159912
-0.4540368914604187 -0.08527129888534546 -0.4728682041168213
-0.45299065113067627 -0.08527129888534546 -0.4573642909526825
-0.4570245146751404 -0.08527129143476486 -0.28682172298431396
-0.4485762119293213 -0.08527129888534546 0.19379842281341553
-0.44323039054870605 -0.06976741552352905 -0.30232560634613037
-0.4534061551094055 -0.06976741552352905 0.19379840791225433
-0.45729702711105347 -0.05426359176635742 0.19379840791225433
-0.4429057836532593 -0.038759708404541016 0.20930230617523193
-0.44644099473953247 -0.02325582504272461 0.20930230617523193
-0.4507792592048645 -0.007751941680908203 -0.4573643207550049
-0.4479055404663086 -0.007751941680908203 0.20930230617523193
-0.44830480217933655 0.007751941680908203 0.20930230617523193
-0.4474460482597351 0.02325582504272461 0.20930230617523193
-0.4457017779350281 0.038759708404541016 0.20930230617523193
-0.4432307779788971 0.05426359176635742 0.20930230617523193
-0.4553297162055969 0.08527135848999023 0.19379842281341553
-0.44286906719207764 0.10077524185180664 -0.3488371968269348
-0.45340055227279663 0.10077523440122604 0.19379842281341553
-0.4518701136112213 0.11627912521362305 0.19379842281341553
-0.4500608444213867 0.1317828893661499 0.19379842281341553
-0.44824039936065674 0.1472867727279663 0.19379842281341553
-0.44649583101272583 0.16279065608978271 0.19379842281341553
-0.44386208057403564 0.17829453945159912 0.19379842281341553
-0.4571082293987274 0.19379842281341553 -0.3488371968269348
-0.4565357565879822 0.19379842281341553 0.17829455435276031
-0.4542330205440521 0.20930230617523193 0.17829453945159912
-0.45238715410232544 0.22480618953704834 0.17829453945159912
-0.45068028569221497 0.24031007289886475 0.17829453945159912
-0.4472808837890625 0.25581395626068115 0.17829453945159912
-0.4562413990497589 0.27131783962249756 0.16279065608978271
-0.4530227482318878 0.28682172298431396 0.16279065608978271
-0.4500793516635895 0.30232560634613037 0.16279065608978271
-0.4424254596233368 0.3178294897079468 0.16279065608978271
-0.4533330202102661 0.3333333730697632 0.1472867727279663
-0.4496224820613861 0.3488372564315796 0.1472867727279663
-0.4443702697753906 0.364341139793396 -0.3488371968269348
-0.4551447629928589 0.364341139793396 0.1317828893661499
-0.4516933858394623 0.37984490394592285 0.1317828893661499
-0.44495564699172974 0.39534878730773926 0.1317828893661499
-0.4532579183578491 0.41085267066955566 -0.3333333134651184
-0.45090001821517944 0.41085267066955566 0.11627912521362305
-0.4451885521411896 0.42635655403137207 -0.317829430103302
-0.4544832110404968 0.42635655403137207 0.10077524185180664
-0.4467995762825012 0.4418604373931885 0.10077524185180664
-0.45585834980010986 0.45736435055732727 0.08527135848999023
-0.4507291316986084 0.4728682041168213 0.08527135848999023
-0.4456881582736969 0.4883720874786377 0.08527135848999023
-0.4424784779548645 0.5038759708404541 -0.20930230617523193
-0.45418623089790344 0.5038759708404541 0.06976747512817383
-0.44884681701660156 0.5193798542022705 0.06976747512817383
-0.44363513588905334 0.5348837375640869 0.06976747512817383
-0.4521709382534027 0.5503876209259033 -0.1782945990562439
-0.45276302099227905 0.5503876209259033 0.05426359176635742
-0.4479512870311737 0.5658915042877197 0.05426359176635742
-0.4535091519355774 0.5813953876495361 0.038759708404541016
-0.4537307024002075 0.5968992710113525 -0.1627907156944275
-0.45616039633750916 0.5968993306159973 0.02325582504272461
-0.4470643401145935 0.5968992710113525 0.038759708404541016
-0.44709455966949463 0.612403154373169 -0.1627907156944275
-0.4553120732307434 0.612403154373169 0.007751941680908203
-0.45026466250419617 0.612403154373169 0.02325582504272461
-0.4570655822753906 0.627906858921051 -0.14728683233261108
-0.4537058174610138 0.6279069185256958 -0.007751941680908203
-0.44658362865448 0.6279069185256958 0.007751941680908203
-0.4514543116092682 0.6434108018875122 -0.14728683233261108
-0.45671337842941284 0.6434108018875122 -0.038759708404541016
-0.45135462284088135 0.6434108018875122 -0.02325582504272461
-0.45262178778648376 0.6589146852493286 -0.45736435055732727
-0.4463375210762024 0.6589146852493286 -0.14728683233261108
-0.4544764757156372 0.6589146852493286 -0.13178294897079468
-0.45477885007858276 0.6589146852493286 -0.05426359176635742
-0.4487527310848236 0.6589146852493286 -0.038759708404541016
-0.44663333892822266 0.674418568611145 -0.4728682041168213
-0.449191153049469 0.674418568611145 -0.13178294897079468
-0.4534785747528076 0.674418568611145 -0.11627906560897827
-0.4551733136177063 0.674418568611145 -0.10077518224716187
-0.454770565032959 0.674418568611145 -0.08527129143476486
-0.45247113704681396 0.674418568611145 -0.06976741552352905
-0.4468803107738495 0.674418568611145 -0.05426359176635742
-0.4431323707103729 0.6899224519729614 -0.13178294897079468
-0.4476912021636963 0.6899224519729614 -0.11627906560897827
-0.4490089416503906 0.6899224519729614 -0.10077518224716187
-0.44794902205467224 0.6899224519729614 -0.08527129888534546
-0.44305577874183655 0.6899224519729614 -0.06976741552352905
-0.4517661929130554 0.7364341020584106 -0.4418604373931885
-0.4454367458820343 0.751937985420227 -0.4418604373931885
-0.4440978765487671 0.8139535188674927 -0.4728682041168213
-0.4487287402153015 0.8294574022293091 -0.4728682041168213
-0.44298404455184937 0.8294574022293091 -0.4418604373931885
-0.4518217444419861 0.8449612855911255 -0.4728682041168213
-0.44997113943099976 0.8449612855911255 -0.4418604373931885
-0.45372915267944336 0.8604651689529419 -0.4728682041168213
-0.4554382860660553 0.8604651689529419 -0.4418604373931885
-0.454266220331192 0.8759689331054688 -0.4728682041168213
-0.45353180170059204 0.8914728760719299 -0.4728682041168213
-0.44245386123657227 0.8914728164672852 -0.4573643207550049
-0.45438703894615173 0.9069766998291016 -0.4728682041168213
-0.44382157921791077 0.9069766998291016 -0.4573643207550049
-0.456752747297287 0.9224805235862732 -0.4728681743144989
-0.4431239664554596 0.922480583190918 -0.4573643207550049
-0.44941747188568115 0.9534883499145508 -0.4573643207550049
-0.4281887710094452 -0.24031007289886475 -0.11627906560897827
-0.4375096559524536 -0.24031007289886475 -0.10077518224716187
-0.4416287839412689 -0.24031005799770355 -0.007751941680908203
-0.44070059061050415 -0.24031007289886475 0.007751941680908203
-0.4408068060874939 -0.24031007289886475 0.02325582504272461
-0.44146430492401123 -0.24031007289886475 0.05426359176635742
-0.43897587060928345 -0.24031007289886475 0.06976747512817383
-0.43316709995269775 -0.24031007289886475 0.08527135848999023
-0.4376639127731323 -0.22480618953704834 -0.13178294897079468
-0.4385245442390442 -0.22480618953704834 0.10077524185180664
-0.4284006357192993 -0.22480618953704834 0.11627912521362305
-0.4402611255645752 -0.20930232107639313 0.11627913266420364
-0.42904433608055115 -0.20930230617523193 0.1317828893661499
-0.4275262653827667 -0.19379842281341553 -0.1782945990562439
-0.4407626688480377 -0.19379840791225433 0.1317828893661499
-0.4291902482509613 -0.19379842281341553 0.1472867727279663
-0.43016085028648376 -0.1782945990562439 -0.19379842281341553
-0.4406653642654419 -0.1782945990562439 0.1472867727279663
-0.4282994568347931 -0.1782945990562439 0.16279065608978271
-0.4349280595779419 -0.1627907156944275 -0.20930230617523193
