0.4560338854789734 0.7364341020584106 -0.5038759708404541
0.450620174407959 0.7364341020584106 -0.4883720874786377
0.4553281366825104 0.7364341020584106 -0.4728682041168213
0.45654648542404175 0.751937985420227 -0.4883720874786377
0.45939505100250244 -0.4418604373931885 -0.038759708404541016
0.4647093117237091 -0.3798449635505676 -0.14728683233261108
0.4618486166000366 -0.3488371968269348 0.11627913266420364
0.4727998375892639 -0.3333333134651184 -0.1627907156944275
0.4663920998573303 -0.27131783962249756 0.11627912521362305
0.4600459933280945 -0.25581395626068115 0.11627912521362305
0.46699774265289307 -0.20930230617523193 0.10077524185180664
0.4616132974624634 -0.19379842281341553 0.10077524185180664
0.4575638771057129 -0.1782945990562439 0.10077524185180664
0.4630890488624573 -0.13178294897079468 -0.1782945990562439
0.47024011611938477 -0.13178294897079468 0.08527135848999023
0.47250664234161377 -0.11627906560897827 -0.1782945990562439
0.4670598804950714 -0.11627906560897827 0.08527135848999023
0.4647168517112732 -0.10077518224716187 0.08527135848999023
0.4626757502555847 -0.08527129888534546 0.08527135848999023
0.46617311239242554 -0.06976741552352905 -0.19379842281341553
0.4607771635055542 -0.06976741552352905 0.08527135848999023
0.4587826132774353 -0.05426359176635742 -0.20930230617523193
0.458646684885025 -0.05426358804106712 0.08527135103940964
0.45825475454330444 -0.038759712129831314 -0.22480618953704834
0.4723219871520996 -0.038759708404541016 0.06976747512817383
0.46110424399375916 -0.02325582504272461 -0.24031007289886475
0.470866322517395 -0.02325582504272461 0.06976747512817383
0.46055862307548523 -0.007751941680908203 -0.25581395626068115
0.4706181287765503 -0.007751941680908203 0.06976747512817383
0.4579838812351227 -0.007751941680908203 0.08527135848999023
0.4723500609397888 0.007751941680908203 -0.25581395626068115
0.47105246782302856 0.007751941680908203 0.06976747512817383
0.46000730991363525 0.007751941680908203 0.08527135848999023
0.4673038125038147 0.02325582504272461 -0.27131783962249756
0.4716340899467468 0.02325582504272461 0.06976747512817383
0.4615781903266907 0.02325582504272461 0.08527135848999023
0.45856285095214844 0.038759708404541016 -0.28682172298431396
0.4720534682273865 0.038759708404541016 0.06976747512817383
0.4625706672668457 0.038759708404541016 0.08527135848999023
0.46811315417289734 0.05426359176635742 -0.28682172298431396
0.47273823618888855 0.05426359176635742 0.06976747512817383
0.46355140209198 0.05426359176635742 0.08527135848999023
0.45975956320762634 0.06976747512817383 -0.30232560634613037
0.4643322229385376 0.06976747512817383 0.08527135848999023
0.4674453139305115 0.08527135848999023 -0.30232560634613037
0.4650108814239502 0.08527135848999023 0.08527135848999023
0.46577972173690796 0.10077524185180664 0.08527135848999023
0.4645282030105591 0.11627912521362305 -0.317829430103302
0.466556191444397 0.11627912521362305 0.08527135848999023
0.4686601161956787 0.1317828893661499 -0.317829430103302
0.4676384925842285 0.1317828893661499 0.08527135848999023
0.45916417241096497 0.1472867727279663 -0.3333333134651184
0.47280246019363403 0.1472867727279663 -0.317829430103302
0.46929931640625 0.1472867727279663 0.08527135848999023
0.4580945074558258 0.1472867727279663 0.10077524185180664
0.4642629623413086 0.16279065608978271 -0.3333333134651184
0.47124341130256653 0.16279065608978271 0.08527135848999023
0.46069151163101196 0.16279065608978271 0.10077524185180664
0.46819448471069336 0.17829453945159912 -0.3333333134651184
0.46326908469200134 0.17829453945159912 0.10077524185180664
0.4583934545516968 0.19379842281341553 -0.3488372266292572
0.4654510021209717 0.19379842281341553 0.10077524185180664
0.4656035900115967 0.20930230617523193 -0.3488371968269348
0.46698588132858276 0.20930230617523193 0.10077524185180664
0.4678238034248352 0.22480618953704834 0.10077524185180664
0.4687885046005249 0.24031007289886475 0.10077524185180664
0.457599401473999 0.24031008780002594 0.11627912521362305
0.46975430846214294 0.25581395626068115 0.10077524185180664
0.4591110944747925 0.25581395626068115 0.11627912521362305
0.4710651934146881 0.27131783962249756 0.10077524185180664
0.4609450399875641 0.27131783962249756 0.11627912521362305
0.47257155179977417 0.28682172298431396 0.10077524185180664
0.4625769257545471 0.28682172298431396 0.11627912521362305
0.4637989401817322 0.30232560634613037 0.11627912521362305
0.4680784046649933 0.3178294897079468 -0.4883720874786377
0.46498560905456543 0.3178294897079468 0.11627912521362305
0.466031551361084 0.3333333730697632 0.11627912521362305
0.46686214208602905 0.3488372564315796 0.11627912521362305
0.46735942363739014 0.364341139793396 0.11627912521362305
0.4675171375274658 0.37984490394592285 0.11627912521362305
0.4674750864505768 0.39534878730773926 0.11627912521362305
0.46684348583221436 0.41085267066955566 0.11627912521362305
0.46570682525634766 0.42635655403137207 0.11627912521362305
0.4633057117462158 0.4418604373931885 0.11627912521362305
0.46310657262802124 0.4573643207550049 -0.4883720874786377
0.4652555584907532 0.4573643207550049 -0.4728682041168213
0.4721592962741852 0.4573643207550049 -0.4418604373931885
0.46076107025146484 0.4573643207550049 -0.42635661363601685
0.470979779958725 0.4573643207550049 0.10077524185180664
0.458599328994751 0.4573643207550049 0.11627911776304245
0.4646846652030945 0.4728682041168213 -0.41085273027420044
0.46949833631515503 0.4728682041168213 0.10077524185180664
0.4662206172943115 0.4883720874786377 0.10077524185180664
0.4712713360786438 0.5038759708404541 -0.4883720874786377
0.4712858200073242 0.5038759708404541 0.08527135848999023
0.4587838053703308 0.5038759708404541 0.10077524185180664
0.46747782826423645 0.5193798542022705 0.08527135848999023
0.4655422866344452 0.5348837375640869 -0.5038759708404541
0.4691550135612488 0.5348837375640869 -0.3643410801887512
0.4709067940711975 0.5348837375640869 0.06976747512817383
0.45916563272476196 0.5348837375640869 0.08527135848999023
0.46498972177505493 0.5503876209259033 0.06976747512817383
0.4675539433956146 0.5658915042877197 0.05426359176635742
0.4643796384334564 0.5813953876495361 -0.3333333134651184
0.46796780824661255 0.5813953876495361 0.038759708404541016
0.46701401472091675 0.5968992710113525 0.02325582504272461
0.4644644260406494 0.612403154373169 0.007751941680908203
0.4709124267101288 0.6279069185256958 -0.30232560634613037
0.4707101285457611 0.6279069185256958 -0.02325582504272461
0.46060508489608765 0.6279069185256958 -0.007751941680908203
0.4675031900405884 0.6434108018875122 -0.038759708404541016
0.46154123544692993 0.6589146852493286 -0.4728682041168213
0.47179535031318665 0.6589146852493286 -0.06976741552352905
0.46227598190307617 0.6589146852493286 -0.05426359176635742
0.4651026129722595 0.674418568611145 -0.25581395626068115
0.4667319059371948 0.674418568611145 -0.08527129888534546
0.4629960060119629 0.6899224519729614 -0.24031007289886475
0.4723624587059021 0.6899224519729614 -0.22480618953704834
0.4699179530143738 0.6899224519729614 -0.13178294897079468
0.46612870693206787 0.6899224519729614 -0.11627906560897827
0.4583207368850708 0.7054263353347778 -0.20930230617523193
0.46028316020965576 0.7054263353347778 -0.19379842281341553
0.4595784544944763 0.7054263353347778 -0.1782945990562439
0.4681384861469269 0.751937985420227 -0.5038759708404541
0.4680567979812622 0.751937985420227 -0.4728682041168213
0.469956636428833 0.7674418687820435 -0.4883720874786377
0.4845031499862671 -0.41085273027420044 0.05426359176635742
0.486554890871048 -0.3643410801887512 0.10077524185180664
0.4826070964336395 -0.3488371968269348 -0.1627907156944275
0.47489917278289795 -0.3333333134651184 0.11627912521362305
0.4788230359554291 -0.317829430103302 0.11627912521362305
0.4779701828956604 -0.30232560634613037 0.11627913266420364
0.47414982318878174 -0.28682172298431396 0.11627913266420364
0.4826542139053345 -0.24031007289886475 0.10077524185180664
0.4753058850765228 -0.22480618953704834 0.10077524185180664
0.4832836389541626 -0.1782945990562439 0.08527135848999023
0.4787921905517578 -0.1627907156944275 0.08527135848999023
0.47473007440567017 -0.14728683233261108 0.08527135848999023
0.4865044355392456 -0.10077518224716187 -0.1782945990562439
0.48460471630096436 -0.10077518224716187 0.06976747512817383
0.4811815023422241 -0.08527129888534546 0.06976747512817383
0.47852739691734314 -0.06976741552352905 0.06976747512817383
0.47830602526664734 -0.05426359176635742 -0.19379842281341553
0.4751879572868347 -0.05426359176635742 0.06976747512817383
0.47340258955955505 -0.038759708404541016 -0.20930230617523193
0.4863888919353485 -0.038759708404541016 0.05426359176635742
0.47490376234054565 -0.02325582504272461 -0.22480618953704834
0.48577743768692017 -0.02325582504272461 -0.20930230617523193
0.48369044065475464 -0.02325582504272461 0.05426359176635742
0.4765291213989258 -0.007751941680908203 -0.24031007289886475
0.48754239082336426 -0.007751941680908203 -0.22480618953704834
0.4826270639896393 -0.007751941680908203 0.05426359176635742
0.4863521158695221 0.007751941680908203 -0.24031007289886475
0.4823451638221741 0.007751941680908203 0.05426359176635742
0.48195838928222656 0.02325582504272461 -0.25581395626068115
0.48231372237205505 0.02325582504272461 0.05426359176635742
0.4757853150367737 0.038759708404541016 -0.27131783962249756
0.48820793628692627 0.038759708404541016 -0.25581395626068115
0.4822629392147064 0.038759708404541016 0.05426359176635742
0.4833606481552124 0.05426359176635742 -0.27131783962249756
0.4824492037296295 0.05426359176635742 0.05426359176635742
0.47638753056526184 0.06976747512817383 -0.28682172298431396
0.4828227460384369 0.06976747512817383 0.05426359176635742
0.47359219193458557 0.06976747512817383 0.06976747512817383
0.48338180780410767 0.08527135848999023 -0.28682172298431396
0.48331618309020996 0.08527135848999023 0.05426359176635742
0.4744892716407776 0.08527135848999023 0.06976747512817383
0.4745640456676483 0.10077524185180664 -0.302325576543808
0.48398879170417786 0.10077524185180664 0.05426359176635742
0.4755288362503052 0.10077524185180664 0.06976747512817383
0.4801074266433716 0.11627912521362305 -0.30232560634613037
0.4848842918872833 0.11627912521362305 0.05426359176635742
0.47666680812835693 0.11627912521362305 0.06976747512817383
0.483950138092041 0.1317828893661499 -0.30232560634613037
0.4863174259662628 0.1317828893661499 0.05426359176635742
0.4782492518424988 0.1317828893661499 0.06976747512817383
0.48805728554725647 0.1472867727279663 -0.30232560634613037
0.48831355571746826 0.1472867727279663 0.05426359176635742
0.4801442325115204 0.1472867727279663 0.06976747512817383
0.4785251021385193 0.16279065608978271 -0.317829430103302
0.4816938638687134 0.16279065608978271 0.06976747512817383
0.48379403352737427 0.17829453945159912 -0.317829430103302
0.4829947352409363 0.17829453945159912 0.06976747512817383
0.47349393367767334 0.17829453945159912 0.08527135103940964
0.4752630591392517 0.19379842281341553 -0.333333283662796
0.4844507575035095 0.19379842281341553 0.06976747512817383
0.47577202320098877 0.19379842281341553 0.08527135848999023
0.4859050512313843 0.20930230617523193 -0.3333333134651184
0.4859851598739624 0.20930230617523193 0.06976747512817383
0.47781968116760254 0.20930230617523193 0.08527135848999023
0.48114722967147827 0.22480618953704834 -0.3488371968269348
0.48725563287734985 0.22480618953704834 0.06976747512817383
0.4791686236858368 0.22480618953704834 0.08527135848999023
0.4829237759113312 0.24031007289886475 -0.3643410801887512
0.4806108772754669 0.24031007289886475 0.08527135848999023
0.48520177602767944 0.25581395626068115 -0.3798449635505676
0.48168742656707764 0.25581395626068115 0.08527135848999023
0.48811885714530945 0.27131783962249756 -0.39534884691238403
0.4827207922935486 0.27131783962249756 0.08527135848999023
0.4799688756465912 0.28682172298431396 -0.41085273027420044
0.4837074279785156 0.28682172298431396 0.08527135848999023
0.48455649614334106 0.30232560634613037 0.08527135848999023
0.47412776947021484 0.30232560634613037 0.10077524185180664
0.48552823066711426 0.3178294897079468 0.08527135848999023
0.4759196639060974 0.3178294599056244 0.10077523440122604
0.4795162081718445 0.3333333730697632 -0.5038759708404541
0.48664459586143494 0.3333333730697632 0.08527135848999023
0.477675199508667 0.3333333730697632 0.10077524185180664
0.4879434406757355 0.3488372564315796 0.08527135848999023
0.47918933629989624 0.3488372564315796 0.10077524185180664
0.4800379276275635 0.364341139793396 0.10077524185180664
0.480151504278183 0.37984490394592285 0.10077524185180664
0.4798359274864197 0.39534878730773926 0.10077524185180664
0.4873497486114502 0.41085267066955566 0.08527135848999023
0.4786728024482727 0.41085270047187805 0.10077524185180664
0.4864276051521301 0.42635655403137207 0.08527135848999023
0.4768517017364502 0.42635655403137207 0.10077524185180664
0.47329139709472656 0.4418604373931885 -0.5038759708404541
0.48552483320236206 0.4418604373931885 0.08527135848999023
0.4733412265777588 0.4418604075908661 0.10077523440122604
0.4844190776348114 0.4573643207550049 0.08527135848999023
0.48222219944000244 0.4728682041168213 0.08527135848999023
0.4865812659263611 0.4883720874786377 0.06976747512817383
0.4766588807106018 0.4883720874786377 0.08527135848999023
0.483747273683548 0.5038759708404541 0.06976747512817383
0.4868566393852234 0.5193798542022705 0.05426359176635742
0.4767167270183563 0.5193798542022705 0.06976747512817383
0.48245543241500854 0.5348837375640869 0.05426359176635742
0.48065584897994995 0.5503876209259033 -0.4573643207550049
0.48190921545028687 0.5503876209259033 -0.3488371968269348
0.4845873713493347 0.5503876209259033 0.038759708404541016
0.47373878955841064 0.5503876209259033 0.05426359176635742
0.48369255661964417 0.5658915042877197 -0.4573643207550049
0.48507431149482727 0.5658915042877197 0.02325582504272461
0.47526440024375916 0.5658915042877197 0.03875970467925072
0.4748924970626831 0.5813953876495361 -0.4573643207550049
0.4852028787136078 0.5813953876495361 0.007751941680908203
0.47567880153656006 0.5813953876495361 0.02325582504272461
0.486558735370636 0.5968992710113525 -0.317829430103302
0.48462194204330444 0.5968992710113525 -0.007751941680908203
0.47504615783691406 0.5968992710113525 0.00775194214656949
0.48297807574272156 0.612403154373169 -0.02325582504272461
0.47299373149871826 0.6124032139778137 -0.007751941680908203
0.47371768951416016 0.6279069185256958 -0.5038759708404541
0.4837677478790283 0.6279069185256958 -0.4728682041168213
0.4807102680206299 0.6279069185256958 -0.038759708404541016
0.476786345243454 0.6434108018875122 -0.28682172298431396
0.4863297641277313 0.6434108018875122 -0.06976741552352905
0.477386474609375 0.6434108018875122 -0.05426359176635742
0.47340697050094604 0.6589146852493286 -0.27131783962249756
0.4815203547477722 0.6589146852493286 -0.25581395626068115
0.48757827281951904 0.6589146852493286 -0.10077518224716187
0.482016384601593 0.6589146852493286 -0.08527129888534546
0.47453272342681885 0.674418568611145 -0.5038759708404541
0.480646550655365 0.674418568611145 -0.4728682041168213
0.47868478298187256 0.674418568611145 -0.24031007289886475
0.4863218665122986 0.674418568611145 -0.22480618953704834
0.4850221276283264 0.674418568611145 -0.13178294897079468
0.48155835270881653 0.674418568611145 -0.11627906560897827
0.4734967350959778 0.674418568611145 -0.10077518224716187
0.4784443974494934 0.6899224519729614 -0.20930230617523193
0.47967422008514404 0.6899224519729614 -0.19379842281341553
0.4792579412460327 0.6899224519729614 -0.1782945990562439
0.4779495596885681 0.6899224519729614 -0.1627907156944275
0.4744967520236969 0.6899224519729614 -0.14728683233261108
0.4837613105773926 0.7674418687820435 -0.5038759708404541
0.4859098196029663 0.7829457521438599 -0.5038759708404541
0.4766772985458374 0.7829457521438599 -0.4883720874786377
0.48173028230667114 0.7984496355056763 -0.4883720874786377
0.48978254199028015 -0.42635661363601685 0.02325582504272461
0.4962676167488098 -0.41085273027420044 -0.13178294897079468
0.5036894679069519 -0.39534884691238403 -0.14728683233261108
0.5014738440513611 -0.39534884691238403 0.06976747512817383
0.5014783143997192 -0.3798449635505676 0.08527135848999023
0.49452394247055054 -0.3643410801887512 -0.1627907156944275
0.5018614530563354 -0.27131783962249756 -0.1782945990562439
0.4999736547470093 -0.27131783962249756 0.10077524185180664
0.5012550354003906 -0.25581395626068115 -0.1782945990562439
0.49193722009658813 -0.25581395626068115 0.10077524185180664
0.5035635828971863 -0.24031007289886475 -0.1782945990562439
0.4953381419181824 -0.20930230617523193 0.08527135848999023
0.4885878264904022 -0.19379842281341553 0.08527135848999023
0.5000181794166565 -0.14728683233261108 0.06976747512817383
0.4948088824748993 -0.13178294897079468 0.06976747512817383
0.48966410756111145 -0.11627906560897827 0.06976747512817383
0.5013152360916138 -0.08527129888534546 -0.1782945990562439
0.5005552768707275 -0.08527129888534546 0.05426359176635742
0.4958178400993347 -0.06976741552352905 0.05426359176635742
0.49099332094192505 -0.05426359549164772 0.05426359549164772
0.4884634017944336 -0.038759708404541016 -0.19379842281341553
0.4999399185180664 -0.038759708404541016 0.038759708404541016
0.4959763288497925 -0.02325582504272461 -0.19379842281341553
0.49604666233062744 -0.02325582504272461 0.038759708404541016
0.4953765273094177 -0.007751941680908203 -0.20930230617523193
0.5017126202583313 -0.007751941680908203 -0.19379842281341553
0.5026007890701294 -0.007751941680908203 0.02325582504272461
0.49349644780158997 -0.007751941680908203 0.038759708404541016
0.4955900311470032 0.007751941680908203 -0.22480618953704834
0.5013483762741089 0.007751941680908203 -0.20930230617523193
0.499228835105896 0.007751941680908203 0.02325582504272461
0.49159732460975647 0.007751941680908203 0.038759708404541016
0.4938465654850006 0.02325582504272461 -0.24031007289886475
0.5013464689254761 0.02325582504272461 -0.22480618953704834
0.49775412678718567 0.02325582504272461 0.02325582504272461
0.4906134605407715 0.02325582690536976 0.038759708404541016
0.4983314275741577 0.038759708404541016 -0.24031007289886475
0.5025731325149536 0.038759708404541016 0.007751941680908203
0.4969292879104614 0.038759708404541016 0.02325582504272461
0.48982152342796326 0.038759708404541016 0.038759708404541016
0.4941410720348358 0.05426359176635742 -0.25581395626068115
0.5024712681770325 0.05426359176635742 -0.24031007289886475
0.5014863014221191 0.05426359176635742 0.007751941680908203
0.4966557025909424 0.05426359176635742 0.02325582504272461
0.48975586891174316 0.05426359176635742 0.038759708404541016
0.4901275038719177 0.06976747512817383 -0.27131783962249756
0.49952638149261475 0.06976747512817383 -0.25581395626068115
0.5014607906341553 0.06976747512817383 0.007751941680908203
0.4968118667602539 0.06976747512817383 0.02325582504272461
0.49023979902267456 0.06976747512817383 0.038759708404541016
0.4960416555404663 0.08527135848999023 -0.27131783962249756
0.5019838809967041 0.08527135848999023 0.007751941680908203
0.4971367120742798 0.08527135848999023 0.02325582504272461
0.4910236597061157 0.08527135848999023 0.038759708404541016
0.48979952931404114 0.10077524185180664 -0.28682172298431396
0.5014351606369019 0.10077524185180664 -0.27131783962249756
0.5027273893356323 0.10077524185180664 0.007751941680908203
0.4975247383117676 0.10077524185180664 0.02325582504272461
0.4919496178627014 0.10077524185180664 0.038759708404541016
0.4942711591720581 0.11627912521362305 -0.28682172298431396
0.4981164038181305 0.11627912521362305 0.02325582504272461
0.49308234453201294 0.11627912521362305 0.038759708404541016
0.49758052825927734 0.1317828893661499 -0.28682172298431396
0.4992468059062958 0.1317828893661499 0.02325582504272461
0.4945995807647705 0.1317828893661499 0.038759708404541016
0.5016664266586304 0.1472867727279663 -0.28682172298431396
0.5009850859642029 0.1472867727279663 0.02325582504272461
0.4961760640144348 0.1472867727279663 0.038759708404541016
0.49424371123313904 0.16279065608978271 -0.30232560634613037
0.5034486055374146 0.16279065608978271 0.02325582504272461
0.49752429127693176 0.16279065608978271 0.038759708404541016
0.4903434216976166 0.16279065608978271 0.05426359176635742
0.500556468963623 0.17829453945159912 -0.30232560634613037
0.4988257884979248 0.17829453945159912 0.038759708404541016
0.4925362467765808 0.17829455435276031 0.05426359549164772
0.4920949935913086 0.19379842281341553 -0.317829430103302
0.5007247924804688 0.19379842281341553 0.038759708404541016
0.49474114179611206 0.19379842281341553 0.05426359176635742
0.5026034712791443 0.20930230617523193 -0.317829430103302
0.5029164552688599 0.20930230617523193 0.038759708404541016
0.4964334964752197 0.20930230617523193 0.05426359176635742
0.5010735988616943 0.22480618953704834 -0.3333333134651184
0.49744826555252075 0.22480618953704834 0.05426359176635742
0.4985600709915161 0.24031007289886475 0.05426359176635742
0.48903584480285645 0.24031007289886475 0.06976747512817383
0.4998939037322998 0.25581395626068115 0.05426359176635742
0.49083054065704346 0.25581395626068115 0.06976747512817383
0.5016586780548096 0.27131783962249756 0.05426359176635742
0.49291330575942993 0.27131783962249756 0.06976747512817383
0.5036689043045044 0.28682172298431396 0.05426359176635742
0.49492812156677246 0.28682172298431396 0.06976747512817383
0.4964383840560913 0.30232560634613037 0.06976747512817383
0.49775439500808716 0.3178294897079468 0.06976747512817383
0.5018439888954163 0.3333333730697632 -0.4883720874786377
0.501623272895813 0.3333333730697632 -0.4728682041168213
0.49458372592926025 0.3333333730697632 -0.4573643207550049
0.4988473653793335 0.3333333730697632 0.06976747512817383
0.49968814849853516 0.3488372564315796 0.06976747512817383
0.5001791715621948 0.364341139793396 0.06976747512817383
0.4890862703323364 0.364341139793396 0.08527135848999023
0.5002680420875549 0.37984490394592285 0.06976747512817383
0.48920726776123047 0.37984490394592285 0.08527136594057083
0.5001569986343384 0.39534878730773926 0.06976747512817383
0.48842543363571167 0.39534881711006165 0.08527135848999023
0.4998150169849396 0.41085267066955566 0.06976747512817383
0.49925482273101807 0.42635655403137207 0.06976747512817383
0.4977957308292389 0.4418604373931885 0.06976747512817383
0.5005065202713013 0.4573643207550049 -0.4418604373931885
0.5029324889183044 0.4573643207550049 0.05426359176635742
0.4949505031108856 0.4573643207550049 0.06976747512817383
0.5015437602996826 0.4728682041168213 0.05426359176635742
0.49016737937927246 0.4728682041168213 0.06976747512817383
0.4990595579147339 0.4883720874786377 0.05426359176635742
0.49095678329467773 0.5038759708404541 -0.4883720576763153
0.5019216537475586 0.5038759708404541 0.038759708404541016
0.49284616112709045 0.5038759708404541 0.05426359176635742
0.49789735674858093 0.5193798542022705 -0.4728682041168213
0.5036085844039917 0.5193798542022705 0.02325582504272461
0.49758002161979675 0.5193798542022705 0.038759708404541016
0.4909133017063141 0.5348837375640869 -0.5038759708404541
0.49975669384002686 0.5348837375640869 0.02325582504272461
0.48911142349243164 0.5348836779594421 0.038759708404541016
0.5022591352462769 0.5503876209259033 -0.5038759708404541
0.50094074010849 0.5503876209259033 0.007751941680908203
0.4915321469306946 0.5503876209259033 0.02325582504272461
0.4944952428340912 0.5658915042877197 -0.3333333134651184
0.5012894868850708 0.5658915042877197 -0.007751941680908203
0.4925942122936249 0.5658915042877197 0.007751941680908203
0.5014746189117432 0.5813953876495361 -0.02325582504272461
0.4928800165653229 0.5813953876495361 -0.007751941680908203
0.4976925849914551 0.5968992710113525 -0.5038759708404541
0.5014185905456543 0.5968992710113525 -0.038759708404541016
0.4923321008682251 0.5968992710113525 -0.02325582504272461
0.4903204143047333 0.612403154373169 -0.5038759708404541
0.49921324849128723 0.612403154373169 -0.4728682041168213
0.4959014654159546 0.612403154373169 -0.30232560634613037
0.5009393692016602 0.612403154373169 -0.05426359176635742
0.4910227954387665 0.612403154373169 -0.038759712129831314
0.4964897632598877 0.6279069185256958 -0.4883720874786377
0.49748921394348145 0.6279069185256958 -0.28682172298431396
0.49911463260650635 0.6279069185256958 -0.06976741552352905
0.48926258087158203 0.6279069185256958 -0.05426359176635742
0.49029234051704407 0.6434108018875122 -0.4883720576763153
0.4917365610599518 0.6434108018875122 -0.27131783962249756
0.4965165853500366 0.6434108018875122 -0.25581395626068115
0.5010284185409546 0.6434108018875122 -0.10077518224716187
0.4950503706932068 0.6434108018875122 -0.08527129888534546
0.49015915393829346 0.6589146852493286 -0.4883721172809601
0.49201396107673645 0.6589146852493286 -0.24031007289886475
0.49799010157585144 0.6589146852493286 -0.22480618953704834
0.5025568008422852 0.6589146852493286 -0.20930230617523193
0.5014897584915161 0.6589146852493286 -0.14728683233261108
0.4989316165447235 0.6589146852493286 -0.13178294897079468
0.49485164880752563 0.6589146852493286 -0.11627906560897827
0.4920448362827301 0.674418568611145 -0.20930229127407074
0.49348732829093933 0.674418568611145 -0.19379842281341553
0.493376761674881 0.674418568611145 -0.1782945990562439
0.4925413429737091 0.674418568611145 -0.1627907156944275
0.4890977442264557 0.674418568611145 -0.14728683233261108
0.49536481499671936 0.7674418687820435 -0.4728682041168213
0.4973048269748688 0.7829457521438599 -0.4728682041168213
0.4891214370727539 0.7984496355056763 -0.5038759708404541
0.5026412010192871 0.7984496355056763 -0.4728682041168213
0.5001078844070435 0.8139535188674927 -0.5038759708404541
0.495120108127594 0.8139535188674927 -0.4883720874786377
0.5188548564910889 -0.42635661363601685 -0.11627906560897827
0.5175225734710693 -0.3798449635505676 -0.1627907156944275
0.5064482092857361 -0.3488371968269348 0.10077524185180664
0.5149756073951721 -0.3333333134651184 -0.1782945990562439
0.5135735869407654 -0.3333333134651184 0.10077524185180664
0.5108801126480103 -0.317829430103302 -0.1782945990562439
0.5149698257446289 -0.317829430103302 0.10077524185180664
0.5078808665275574 -0.30232560634613037 -0.1782946139574051
0.5128399133682251 -0.30232560634613037 0.10077524185180664
0.5047279596328735 -0.28682172298431396 -0.1782945990562439
0.5083696246147156 -0.28682172298431396 0.10077524185180664
0.5117194056510925 -0.24031007289886475 0.08527135848999023
0.508264422416687 -0.22480618953704834 -0.1782945990562439
0.5039411187171936 -0.22480618953704834 0.08527135848999023
0.5177451372146606 -0.19379842281341553 0.06976747512817383
0.5118841528892517 -0.1782945990562439 0.06976747512817383
0.5061084628105164 -0.1627907156944275 0.06976747512817383
0.5190423727035522 -0.13178294897079468 0.05426359176635742
0.5129826068878174 -0.11627906560897827 0.05426359176635742
0.5073666572570801 -0.10077518224716187 0.05426359176635742
0.5186110138893127 -0.08527129888534546 0.038759708404541016
0.5046746134757996 -0.06976741552352905 -0.1782945990562439
0.512362003326416 -0.06976741552352905 0.038759708404541016
0.5048035979270935 -0.05426359176635742 -0.1782945990562439
0.5191882252693176 -0.05426359176635742 0.02325582504272461
0.5062761902809143 -0.05426359176635742 0.038759708404541016
0.5055542588233948 -0.038759708404541016 -0.1782945990562439
0.5124147534370422 -0.038759708404541016 0.02325582504272461
0.5073131918907166 -0.02325582504272461 -0.1782945990562439
0.5170958042144775 -0.02325582504272461 0.007751941680908203
0.5073522925376892 -0.02325582318007946 0.02325582318007946
0.5090207457542419 -0.007751941680908203 -0.1782945990562439
0.5173759460449219 -0.007751941680908203 -0.1627907156944275
0.5119004845619202 -0.007751941680908203 0.007751941680908203
0.5061823725700378 0.007751941680908203 -0.19379842281341553
0.511163055896759 0.007751941680908203 -0.1782945990562439
0.5162359476089478 0.007751941680908203 -0.1627907156944275
0.5140911340713501 0.007751941680908203 -0.007751941680908203
0.5080670118331909 0.007751941680908203 0.007751941680908203
0.5065993070602417 0.02325582504272461 -0.20930230617523193
0.5104777812957764 0.02325582504272461 -0.19379842281341553
0.5128868818283081 0.02325582504272461 -0.1782945990562439
0.5162894129753113 0.02325582504272461 -0.1627907156944275
0.5152966380119324 0.02325582504272461 -0.02325582504272461
0.5114138126373291 0.02325582504272461 -0.007751941680908203
0.5049154758453369 0.02325582504272461 0.007751941680908203
0.505116879940033 0.038759708404541016 -0.22480618953704834
0.5101735591888428 0.038759708404541016 -0.20930230617523193
0.5123773813247681 0.038759708404541016 -0.19379842281341553
0.513648509979248 0.038759708404541016 -0.1782945990562439
0.5163633823394775 0.038759708404541016 -0.1627907156944275
0.5189113616943359 0.038759708404541016 -0.05426359176635742
0.5155581831932068 0.038759708404541016 -0.038759708404541016
0.5124523639678955 0.038759708404541016 -0.02325582504272461
0.508553683757782 0.038759708404541016 -0.007751941680908203
0.5093011856079102 0.05426359176635742 -0.22480618953704834
0.5123469233512878 0.05426359176635742 -0.20930230617523193
0.5136908292770386 0.05426359176635742 -0.19379842281341553
0.5145696401596069 0.05426359176635742 -0.1782945990562439
0.5169627666473389 0.05426359176635742 -0.1627907156944275
0.5171844363212585 0.05426359176635742 -0.05426359176635742
0.5138257741928101 0.05426359176635742 -0.038759708404541016
0.5112844705581665 0.05426359176635742 -0.02325582504272461
0.5066962838172913 0.05426359176635742 -0.00775194214656949
0.5075482726097107 0.06976747512817383 -0.24031007289886475
0.5123071670532227 0.06976747512817383 -0.22480618953704834
0.5145549178123474 0.06976747512817383 -0.20930230617523193
0.515588641166687 0.06976747512817383 -0.19379842281341553
0.5162777304649353 0.06976747512817383 -0.1782945990562439
0.5185381770133972 0.06976747512817383 -0.1627907156944275
0.5171785354614258 0.06976747512817383 -0.05426359176635742
0.513670802116394 0.06976747512817383 -0.038759708404541016
0.5110480189323425 0.06976747512817383 -0.02325582504272461
0.506388247013092 0.06976747512817383 -0.007751941680908203
0.5045134425163269 0.08527135848999023 -0.25581395626068115
0.5116701722145081 0.08527135848999023 -0.24031007289886475
0.5155328512191772 0.08527135848999023 -0.22480618953704834
0.5175758004188538 0.08527135848999023 -0.20930230617523193
0.5184311866760254 0.08527135848999023 -0.19379842281341553
0.5188377499580383 0.08527135848999023 -0.1782945990562439
0.5179316997528076 0.08527135848999023 -0.05426359176635742
0.514123797416687 0.08527135848999023 -0.038759708404541016
0.5114082098007202 0.08527135848999023 -0.02325582504272461
0.506847083568573 0.08527136594057083 -0.007751941680908203
0.5096491575241089 0.10077524185180664 -0.25581395626068115
0.5155286192893982 0.10077524185180664 -0.24031007289886475
0.519232988357544 0.10077524185180664 -0.22480618953704834
0.5189560651779175 0.10077524185180664 -0.05426359176635742
0.5148425102233887 0.10077524185180664 -0.038759708404541016
0.5118954181671143 0.10077524185180664 -0.02325582504272461
0.5075827240943909 0.10077524185180664 -0.007751941680908203
0.5056283473968506 0.11627912521362305 -0.27131783962249756
0.5132440328598022 0.11627912521362305 -0.25581395626068115
0.5191007852554321 0.11627912521362305 -0.24031007289886475
0.5161591172218323 0.11627912521362305 -0.038759708404541016
0.5125910639762878 0.11627912521362305 -0.02325582504272461
0.5088028311729431 0.11627912521362305 -0.007751941680908203
0.5038779973983765 0.11627913266420364 0.007751941680908203
0.5088975429534912 0.1317828893661499 -0.27131783962249756
0.5165156126022339 0.1317828893661499 -0.25581395626068115
0.5179725885391235 0.1317828893661499 -0.038759708404541016
0.5135408639907837 0.1317828893661499 -0.02325582504272461
0.5104234218597412 0.1317828893661499 -0.007751941680908203
0.5051461458206177 0.1317828893661499 0.007751941680908203
0.5127060413360596 0.1472867727279663 -0.27131783962249756
0.5148864984512329 0.1472867727279663 -0.02325582504272461
0.5118514895439148 0.1472867727279663 -0.007751941680908203
0.5068524479866028 0.1472867727279663 0.007751941680908203
0.5079883933067322 0.16279065608978271 -0.28682172298431396
0.5189087390899658 0.16279065608978271 -0.27131783962249756
0.5170356035232544 0.16279065608978271 -0.02325582504272461
0.5130832195281982 0.16279065608978271 -0.007751941680908203
0.5091888904571533 0.16279065608978271 0.007751941215246916
0.5135464072227478 0.17829453945159912 -0.28682172298431396
0.5188714861869812 0.17829453945159912 -0.02325582504272461
0.5142253637313843 0.17829453945159912 -0.007751941680908203
0.5111277103424072 0.17829453945159912 0.007751941680908203
0.5053156018257141 0.17829455435276031 0.02325582504272461
0.5078240633010864 0.19379842281341553 -0.30232560634613037
0.5160507559776306 0.19379842281341553 -0.007751941680908203
0.5125826597213745 0.19379842281341553 0.007751941680908203
0.5074236392974854 0.19379842281341553 0.02325582504272461
0.5159889459609985 0.20930230617523193 -0.30232560634613037
0.5184922218322754 0.20930230617523193 -0.007751941680908203
0.5137248635292053 0.20930230617523193 0.007751941680908203
0.5096315741539001 0.20930230617523193 0.02325582504272461
0.5145249366760254 0.22480618953704834 -0.317829430103302
0.5155066251754761 0.22480618953704834 0.007751941680908203
0.5114420056343079 0.22480618953704834 0.02325582504272461
0.5047153234481812 0.22480618953704834 0.038759708404541016
0.505464494228363 0.24031007289886475 -0.3488372266292572
0.5188420414924622 0.24031007289886475 0.007751941680908203
0.5130629539489746 0.24031007289886475 0.02325582504272461
0.5070104598999023 0.24031007289886475 0.038759708404541016
0.5119189023971558 0.25581395626068115 -0.3643410801887512
0.5151684284210205 0.25581395626068115 0.02325582504272461
0.5095223784446716 0.25581395626068115 0.038759708404541016
0.5191349387168884 0.27131783962249756 -0.3798449635505676
0.5183519124984741 0.27131783962249756 0.02325582504272461
0.5118783116340637 0.27131783962249756 0.038759708404541016
0.5136738419532776 0.28682172298431396 0.038759708404541016
0.514986515045166 0.30232560634613037 0.038759708404541016
0.5057324171066284 0.30232560634613037 0.05426359176635742
0.5153132677078247 0.3178294897079468 -0.42635661363601685
0.5161854028701782 0.3178294897079468 0.038759708404541016
0.507827877998352 0.3178294897079468 0.05426359176635742
0.508663535118103 0.3333333730697632 -0.4418604373931885
0.5174849033355713 0.3333333730697632 0.038759708404541016
0.5098786950111389 0.3333333730697632 0.05426359176635742
0.5075711011886597 0.3488372564315796 -0.5038759708404541
0.5190312266349792 0.3488372564315796 0.038759708404541016
0.5116518139839172 0.3488372564315796 0.05426359176635742
0.5126434564590454 0.364341139793396 0.05426359176635742
0.5128023624420166 0.37984490394592285 0.05426359176635742
0.5124503374099731 0.39534878730773926 0.05426359176635742
0.5184424519538879 0.41085267066955566 0.038759708404541016
0.5114926099777222 0.41085267066955566 0.05426359176635742
0.5174221992492676 0.42635655403137207 0.038759708404541016
0.5099088549613953 0.4263565242290497 0.05426359176635742
0.5165574550628662 0.4418604373931885 0.038759708404541016
0.5065963864326477 0.4418604373931885 0.05426359176635742
0.5117917060852051 0.4573643207550049 -0.42635661363601685
0.5153814554214478 0.4573643207550049 0.038759708404541016
0.5102939605712891 0.4728682041168213 -0.41085273027420044
0.518699049949646 0.4728682041168213 0.02325582504272461
0.5127031207084656 0.4728682041168213 0.038759708404541016
0.5126370191574097 0.4883720874786377 -0.39534884691238403
0.5165348052978516 0.4883720874786377 0.02325582504272461
0.5061328411102295 0.4883720576763153 0.03875970467925072
0.511995255947113 0.5038759708404541 -0.3798449635505676
0.5182489156723022 0.5038759708404541 0.007751941680908203
0.5118420124053955 0.5038759708404541 0.02325582504272461
0.5038907527923584 0.5193798542022705 -0.4883721172809601
0.5115272998809814 0.5193798542022705 -0.3643410801887512
0.5146229267120361 0.5193798542022705 0.007751941680908203
0.5068795680999756 0.5348837375640869 -0.4883720874786377
0.5054677724838257 0.5348837375640869 -0.4728682041168213
0.5161528587341309 0.5348837375640869 -0.3488371968269348
0.516035795211792 0.5348837375640869 -0.007751941680908203
0.5062509179115295 0.5348837375640869 0.007751941680908203
0.5102301239967346 0.5503876209259033 -0.4883720874786377
0.5088874697685242 0.5503876209259033 -0.4728682041168213
0.5168476700782776 0.5503876209259033 -0.02325582504272461
0.5082954168319702 0.5503876209259033 -0.007751941680908203
0.5046694278717041 0.5658915042877197 -0.5038759708404541
0.5125318765640259 0.5658915042877197 -0.4883720874786377
0.5113103985786438 0.5658915042877197 -0.4728682041168213
0.5173086524009705 0.5658915042877197 -0.038759708404541016
0.5090218186378479 0.5658915042877197 -0.02325582504272461
0.5043330788612366 0.5813953876495361 -0.5038759708404541
0.5119897723197937 0.5813953876495361 -0.4883720874786377
0.5105581879615784 0.5813953876495361 -0.4728682041168213
0.5081024765968323 0.5813953876495361 -0.317829430103302
0.5178835391998291 0.5813953876495361 -0.05426359176635742
0.5098075866699219 0.5813953876495361 -0.038759708404541016
0.5089324116706848 0.5968992710113525 -0.4883720874786377
0.5069969296455383 0.5968992710113525 -0.4728681743144989
0.5177634954452515 0.5968992710113525 -0.30232560634613037
0.5175362229347229 0.5968992710113525 -0.06976741552352905
0.5102729797363281 0.5968992710113525 -0.05426359176635742
0.5053213238716125 0.612403154373169 -0.4883720576763153
0.5151016116142273 0.612403154373169 -0.28682172298431396
0.516377329826355 0.612403154373169 -0.08527129888534546
0.5087003707885742 0.612403154373169 -0.06976741552352905
0.5075476169586182 0.6279069185256958 -0.27131783962249756
0.5109665989875793 0.6279069185256958 -0.25581395626068115
0.5162799954414368 0.6279069185256958 -0.24031007289886475
0.5168786644935608 0.6279069185256958 -0.11627906560897827
0.5131099820137024 0.6279069185256958 -0.10077518224716187
0.5056671500205994 0.627906858921051 -0.08527129143476486
0.5043700933456421 0.6434108018875122 -0.24031007289886475
0.5105529427528381 0.6434108018875122 -0.22480617463588715
0.5137836933135986 0.6434108018875122 -0.20930230617523193
0.515329122543335 0.6434108018875122 -0.19379842281341553
0.5155847072601318 0.6434108018875122 -0.1782945990562439
0.5153117775917053 0.6434108018875122 -0.1627907156944275
0.5139909386634827 0.6434108018875122 -0.14728683233261108
0.5112378001213074 0.6434108018875122 -0.13178294897079468
0.5064757466316223 0.6434108018875122 -0.11627906560897827
0.5045977234840393 0.6589146852493286 -0.19379842281341553
0.5048050284385681 0.6589146852493286 -0.1782945990562439
0.5040631890296936 0.6589146852493286 -0.1627907156944275
0.5287133455276489 -0.6124030947685242 -0.5038759708404541
0.5310682058334351 -0.6124030947685242 -0.4883720874786377
0.5266077518463135 -0.5968992114067078 -0.5038759708404541
0.5272103548049927 -0.5968992114067078 -0.4883720874786377
0.5326602458953857 -0.5813953876495361 -0.5038759708404541
0.5320035219192505 -0.5813953876495361 -0.4883720874786377
0.5285794138908386 -0.42635661363601685 0.007751941680908203
0.5289633274078369 -0.41085273027420044 0.038759708404541016
0.5318945646286011 -0.3643410801887512 -0.1782945990562439
0.5271847248077393 -0.3643410801887512 0.08527135848999023
0.5215194225311279 -0.3488371968269348 -0.1782945990562439
0.5285260677337646 -0.27131783962249756 0.08527135848999023
0.5210016369819641 -0.25581395626068115 0.08527135848999023
0.5312848687171936 -0.22480618953704834 0.06976747512817383
0.5220620036125183 -0.20930230617523193 -0.1782945990562439
0.524864912033081 -0.20930230617523193 0.06976747512817383
0.5308429598808289 -0.1627907156944275 0.05426359176635742
0.5257691144943237 -0.14728683233261108 0.05426359176635742
0.5315455794334412 -0.11627906560897827 0.038759708404541016
0.5260610580444336 -0.10077518224716187 0.038759708404541016
0.5323311686515808 -0.08527129888534546 0.02325582504272461
0.526390016078949 -0.06976741552352905 0.02325582504272461
0.5323081016540527 -0.05426359176635742 -0.5038759708404541
0.534460723400116 -0.05426359176635742 -0.4883720874786377
0.529800534248352 -0.05426359176635742 0.007751941680908203
0.5301488637924194 -0.038759708404541016 -0.5038759708404541
0.5324941873550415 -0.038759708404541016 -0.4883720874786377
0.5270594358444214 -0.038759708404541016 -0.1627907156944275
0.5320468544960022 -0.038759708404541016 -0.007751941680908203
0.5238702893257141 -0.038759708404541016 0.007751941680908203
0.5285294055938721 -0.02325582504272461 -0.5038759708404541
0.5314147472381592 -0.02325582504272461 -0.4883720874786377
0.5214252471923828 -0.02325582504272461 -0.1627907156944275
0.5321990251541138 -0.02325582504272461 -0.14728683233261108
0.5321288108825684 -0.02325582504272461 -0.02325582504272461
0.5261312127113342 -0.02325582504272461 -0.007751941680908203
0.5272344350814819 -0.007751941680908203 -0.5038759708404541
0.5311031341552734 -0.007751941680908203 -0.4883720874786377
0.5277103185653687 -0.007751941680908203 -0.14728683233261108
0.5327826142311096 -0.007751941680908203 -0.13178294897079468
0.533573567867279 -0.007751941680908203 -0.05426359176635742
0.5297890305519104 -0.007751941680908203 -0.038759708404541016
0.5262507796287537 -0.00775194214656949 -0.02325582504272461
0.5200533270835876 -0.007751941215246916 -0.007751941215246916
0.5277407169342041 0.007751941680908203 -0.5038759708404541
0.5314285159111023 0.007751941680908203 -0.4883720874786377
0.5245372653007507 0.007751941680908203 -0.14728683233261108
0.5289510488510132 0.007751941680908203 -0.13178294897079468
0.5313133001327515 0.007751941680908203 -0.11627906560897827
0.5324769020080566 0.007751941680908203 -0.10077518224716187
0.5315085053443909 0.007751941680908203 -0.08527129888534546
0.5289320945739746 0.007751941680908203 -0.06976741552352905
0.5271555185317993 0.007751941680908203 -0.05426359176635742
0.5243359804153442 0.007751941680908203 -0.038759708404541016
0.5200694799423218 0.007751941215246916 -0.02325582504272461
0.5281028747558594 0.02325582504272461 -0.5038759708404541
0.5314068794250488 0.02325582504272461 -0.4883720874786377
0.5224666595458984 0.02325582504272461 -0.14728683233261108
0.5273507237434387 0.02325582504272461 -0.13178294897079468
0.5288114547729492 0.02325582504272461 -0.11627906560897827
0.5291503071784973 0.02325582504272461 -0.10077518224716187
0.5280892848968506 0.02325582504272461 -0.08527129888534546
0.5256223678588867 0.02325582504272461 -0.06976741552352905
0.5225650668144226 0.02325582504272461 -0.05426359176635742
0.5195220112800598 0.02325582504272461 -0.038759708404541016
0.5290769934654236 0.038759708404541016 -0.5038759708404541
0.5320041179656982 0.038759708404541016 -0.4883720874786377
0.5212175846099854 0.038759712129831314 -0.14728683233261108
0.5257766842842102 0.038759708404541016 -0.13178294897079468
0.5275283455848694 0.038759708404541016 -0.11627906560897827
0.5276730060577393 0.038759708404541016 -0.10077518224716187
0.5261539220809937 0.038759708404541016 -0.08527129888534546
0.5221940279006958 0.038759708404541016 -0.06976741552352905
0.5309090614318848 0.05426359176635742 -0.5038759708404541
0.5346588492393494 0.05426359176635742 -0.4883720874786377
0.521254301071167 0.05426358804106712 -0.14728683233261108
0.5251801013946533 0.05426359176635742 -0.13178294897079468
0.5268077850341797 0.05426359176635742 -0.11627906560897827
0.5269120931625366 0.05426359176635742 -0.10077518224716187
0.525046169757843 0.05426359176635742 -0.08527129888534546
0.5206698179244995 0.05426359176635742 -0.06976741552352905
0.5228750109672546 0.06976747512817383 -0.14728683233261108
0.5259824991226196 0.06976747512817383 -0.13178294897079468
0.5271232724189758 0.06976747512817383 -0.11627906560897827
0.5271154046058655 0.06976747512817383 -0.10077518224716187
0.5254010558128357 0.06976747512817383 -0.08527129888534546
0.5208950638771057 0.06976747512817383 -0.06976741552352905
0.5212647318840027 0.08527135848999023 -0.1627907156944275
0.5250225067138672 0.08527135848999023 -0.14728683233261108
0.5270298719406128 0.08527135848999023 -0.13178294897079468
0.5276898741722107 0.08527135848999023 -0.11627906560897827
0.5276063084602356 0.08527135848999023 -0.10077518224716187
0.5262002348899841 0.08527135848999023 -0.08527129888534546
0.5218727588653564 0.08527135848999023 -0.06976741552352905
0.5217123031616211 0.10077524185180664 -0.20930230617523193
0.5224002599716187 0.10077524185180664 -0.19379842281341553
0.5224084854125977 0.10077524185180664 -0.1782945990562439
0.5242707133293152 0.10077524185180664 -0.1627907156944275
0.5267850756645203 0.10077524185180664 -0.14728683233261108
0.5278223752975464 0.10077524185180664 -0.13178294897079468
0.5283428430557251 0.10077524185180664 -0.11627906560897827
0.5282312035560608 0.10077524185180664 -0.10077518224716187
0.5269122123718262 0.10077524185180664 -0.08527129888534546
0.5230991840362549 0.10077524185180664 -0.06976741552352905
0.5237120985984802 0.11627912521362305 -0.22480618953704834
0.5258252620697021 0.11627912521362305 -0.20930230617523193
0.5262323021888733 0.11627912521362305 -0.19379842281341553
0.526054322719574 0.11627912521362305 -0.1782945990562439
0.5270676612854004 0.11627912521362305 -0.1627907156944275
0.5282063484191895 0.11627912521362305 -0.14728683233261108
0.5289297699928284 0.11627912521362305 -0.13178294897079468
0.529651939868927 0.11627912521362305 -0.11627906560897827
0.5295154452323914 0.11627912521362305 -0.10077518224716187
0.5278877019882202 0.11627912521362305 -0.08527129888534546
0.5248887538909912 0.11627912521362305 -0.06976741552352905
0.5202965140342712 0.11627913266420364 -0.05426359176635742
0.5232799053192139 0.1317828893661499 -0.24031007289886475
0.5270318984985352 0.1317828893661499 -0.22480618953704834
0.5282872915267944 0.1317828893661499 -0.20930230617523193
0.5286012291908264 0.1317828893661499 -0.19379842281341553
0.5285388827323914 0.1317828893661499 -0.1782945990562439
0.5288310050964355 0.1317828893661499 -0.1627907156944275
0.5296744704246521 0.1317828893661499 -0.14728683233261108
0.5308717489242554 0.1317828893661499 -0.13178294897079468
0.5318500995635986 0.1317828893661499 -0.11627906560897827
0.5316587090492249 0.1317828893661499 -0.10077518224716187
0.5295724868774414 0.1317828893661499 -0.08527129888534546
0.5267332792282104 0.1317828893661499 -0.06976741552352905
0.5222080945968628 0.1317828893661499 -0.05426359176635742
0.5207293033599854 0.1472867727279663 -0.25581395626068115
0.5267050266265869 0.1472867727279663 -0.24031007289886475
0.5289745330810547 0.1472867727279663 -0.22480618953704834
0.5298711657524109 0.1472867727279663 -0.20930230617523193
0.5299301147460938 0.1472867727279663 -0.19379842281341553
0.5297784805297852 0.1472867727279663 -0.1782945990562439
0.5301942229270935 0.1472867727279663 -0.1627907156944275
0.5317078232765198 0.1472867727279663 -0.14728683233261108
0.5332207679748535 0.1472867727279663 -0.13178294897079468
0.5343174934387207 0.1472867727279663 -0.11627906560897827
0.5339696407318115 0.1472867727279663 -0.10077518224716187
0.5316142439842224 0.1472867727279663 -0.08527129888534546
0.5280026793479919 0.1472867727279663 -0.06976741552352905
0.5243023037910461 0.1472867727279663 -0.05426359176635742
0.5196471810340881 0.1472867727279663 -0.038759708404541016
0.5259045958518982 0.16279065608978271 -0.25581395626068115
0.530079185962677 0.16279065608978271 -0.24031007289886475
0.532289981842041 0.16279065608978271 -0.22480618953704834
0.5330847501754761 0.16279065608978271 -0.20930230617523193
0.5327851176261902 0.16279065608978271 -0.19379842281341553
0.5322552919387817 0.16279065608978271 -0.1782945990562439
0.5328015685081482 0.16279065608978271 -0.1627907156944275
