0.22854383289813995 -0.02325582504272461 -0.06976741552352905
0.23042602837085724 -0.02325582504272461 -0.05426359176635742
0.23081326484680176 -0.02325582504272461 -0.038759708404541016
0.23002447187900543 -0.02325582504272461 -0.02325582504272461
0.22804902493953705 -0.02325582504272461 -0.007751941680908203
0.22506965696811676 -0.02325582504272461 0.007751941680908203
0.2274341732263565 -0.007751941680908203 -0.06976741552352905
0.2296661138534546 -0.007751941680908203 -0.05426359176635742
0.23030149936676025 -0.007751941680908203 -0.038759708404541016
0.229414701461792 -0.007751941680908203 -0.02325582504272461
0.22743669152259827 -0.007751941680908203 -0.007751941680908203
0.22484906017780304 -0.007751941680908203 0.007751941680908203
0.22684668004512787 0.007751941680908203 -0.06976741552352905
0.22928985953330994 0.007751941680908203 -0.05426359176635742
0.23015974462032318 0.007751941680908203 -0.038759708404541016
0.2293260097503662 0.00775194214656949 -0.02325582504272461
0.22740213572978973 0.007751941680908203 -0.007751941680908203
0.2249217927455902 0.007751941680908203 0.007751941680908203
0.22646330296993256 0.02325582504272461 -0.06976741552352905
0.22894281148910522 0.02325582504272461 -0.05426359176635742
0.22995586693286896 0.02325582504272461 -0.038759708404541016
0.2292216718196869 0.02325582690536976 -0.02325582690536976
0.22742217779159546 0.02325582504272461 -0.007751941680908203
0.22494864463806152 0.02325582504272461 0.007751941680908203
0.22619551420211792 0.038759708404541016 -0.08527129888534546
0.22974839806556702 0.038759708404541016 -0.06976741552352905
0.23151710629463196 0.038759708404541016 -0.05426359176635742
0.23189228773117065 0.038759708404541016 -0.038759708404541016
0.231174498796463 0.038759708404541016 -0.02325582504272461
0.22960224747657776 0.038759708404541016 -0.00775194214656949
0.2264167219400406 0.038759708404541016 0.007751941215246916
0.2271004468202591 0.05426359176635742 -0.10077517479658127
0.23097655177116394 0.05426359176635742 -0.08527129888534546
0.2329399287700653 0.05426359176635742 -0.06976741552352905
0.23362618684768677 0.05426359176635742 -0.05426359176635742
0.2335561215877533 0.05426359176635742 -0.038759708404541016
0.232896625995636 0.05426359176635742 -0.02325582504272461
0.2315812110900879 0.05426359176635742 -0.007751941215246916
0.2284519076347351 0.05426359176635742 0.007751941680908203
0.22627535462379456 0.06976747512817383 -0.11627907305955887
0.23081882297992706 0.06976747512817383 -0.10077518224716187
0.23312735557556152 0.06976747512817383 -0.08527129888534546
0.23420089483261108 0.06976747512817383 -0.06976741552352905
0.23451364040374756 0.06976747512817383 -0.05426359176635742
0.23439422249794006 0.06976747512817383 -0.038759708404541016
0.23370960354804993 0.06976747512817383 -0.02325582504272461
0.23246225714683533 0.06976747512817383 -0.007751941680908203
0.22945314645767212 0.06976747512817383 0.007751941680908203
0.22820746898651123 0.08527135848999023 -0.11627906560897827
0.2320278286933899 0.08527135848999023 -0.10077518224716187
0.2338520735502243 0.08527135848999023 -0.08527129888534546
0.2347339689731598 0.08527135848999023 -0.06976741552352905
0.23494970798492432 0.08527135848999023 -0.05426359176635742
0.23501025140285492 0.08527135848999023 -0.038759708404541016
0.23410072922706604 0.08527135848999023 -0.02325582504272461
0.23268699645996094 0.08527135848999023 -0.007751941680908203
0.2294040024280548 0.08527135848999023 0.007751941680908203
0.229036346077919 0.10077524185180664 -0.11627906560897827
0.23229119181632996 0.10077524185180664 -0.10077518224716187
0.23396509885787964 0.10077524185180664 -0.08527129888534546
0.2347644567489624 0.10077524185180664 -0.06976741552352905
0.23511932790279388 0.10077524185180664 -0.05426359176635742
0.235164076089859 0.10077524185180664 -0.038759708404541016
0.23401866853237152 0.10077524185180664 -0.02325582504272461
0.23236042261123657 0.10077524185180664 -0.007751941680908203
0.22850216925144196 0.10077524185180664 0.007751941680908203
0.22854536771774292 0.11627912521362305 -0.11627906560897827
0.2319302260875702 0.11627912521362305 -0.10077518224716187
0.23359033465385437 0.11627912521362305 -0.08527129888534546
0.23454013466835022 0.11627912521362305 -0.06976741552352905
0.23499669134616852 0.11627912521362305 -0.05426359176635742
0.23472414910793304 0.11627912521362305 -0.038759708404541016
0.23331838846206665 0.11627912521362305 -0.02325582504272461
0.2312544584274292 0.11627912521362305 -0.00775194214656949
0.22670747339725494 0.11627912521362305 0.007751941680908203
0.22560781240463257 0.1317828893661499 -0.11627906560897827
0.229933962225914 0.1317828893661499 -0.10077518224716187
0.2321341633796692 0.1317828893661499 -0.08527129888534546
0.23327316343784332 0.1317828893661499 -0.06976741552352905
0.23371249437332153 0.1317828893661499 -0.05426359176635742
0.23320716619491577 0.1317828893661499 -0.038759708404541016
0.23173508048057556 0.1317828893661499 -0.02325582504272461
0.22860316932201385 0.1317828893661499 -0.007751941680908203
0.22810083627700806 0.1472867727279663 -0.08527129143476486
0.23018363118171692 0.1472867727279663 -0.06976741552352905
0.2308674454689026 0.1472867727279663 -0.05426359176635742
0.23042821884155273 0.1472867727279663 -0.038759708404541016
0.22817327082157135 0.1472867727279663 -0.02325582504272461
0.22506150603294373 0.1472867727279663 -0.007751941680908203
0.22550241649150848 0.16279065608978271 -0.05426359176635742
0.22547701001167297 0.16279065608978271 -0.038759708404541016
0.22516269981861115 0.17829453945159912 -0.05426359176635742
0.22524788975715637 0.17829453945159912 -0.038759708404541016
0.22538311779499054 0.19379842281341553 -0.05426359176635742
0.22535066306591034 0.19379842281341553 -0.038759708404541016
0.2254960685968399 0.20930229127407074 -0.05426359176635742
0.22548319399356842 0.20930230617523193 -0.038759708404541016
0.22533300518989563 0.24031007289886475 -0.038759708404541016
0.22638635337352753 0.25581395626068115 -0.06976741552352905
0.22807516157627106 0.25581395626068115 -0.05426359176635742
0.22861513495445251 0.25581395626068115 -0.038759708404541016
0.2274002730846405 0.25581395626068115 -0.02325582504272461
0.22505438327789307 0.25581395626068115 -0.007751941680908203
0.22504796087741852 0.27131783962249756 -0.10077518224716187
0.22725917398929596 0.27131783962249756 -0.08527129888534546
0.2293126881122589 0.27131783962249756 -0.06976741552352905
0.23030909895896912 0.27131783962249756 -0.05426359176635742
0.2302873581647873 0.27131783962249756 -0.038759708404541016
0.22862902283668518 0.27131783962249756 -0.02325582504272461
0.22568032145500183 0.27131783962249756 -0.007751941680908203
0.22573056817054749 0.28682175278663635 -0.10077518224716187
0.22824309766292572 0.28682172298431396 -0.08527129888534546
0.22993090748786926 0.28682172298431396 -0.06976741552352905
0.23046593368053436 0.28682172298431396 -0.05426359176635742
0.23001113533973694 0.28682172298431396 -0.038759708404541016
0.22779580950737 0.28682172298431396 -0.02325582504272461
0.22571897506713867 0.30232560634613037 -0.10077518224716187
0.22841596603393555 0.30232560634613037 -0.08527129888534546
0.2299572080373764 0.30232560634613037 -0.06976741552352905
0.2302902489900589 0.30232560634613037 -0.05426359176635742
0.22945639491081238 0.30232560634613037 -0.038759708404541016
0.22674405574798584 0.30232560634613037 -0.02325582504272461
0.22524966299533844 0.3178294897079468 -0.10077518224716187
0.2279980629682541 0.31782951951026917 -0.08527130633592606
0.22983774542808533 0.3178294897079468 -0.06976741552352905
0.2304478883743286 0.3178294897079468 -0.05426359176635742
0.2298165112733841 0.3178294897079468 -0.038759708404541016
0.22715264558792114 0.3178294897079468 -0.02325582504272461
0.22707219421863556 0.3333333432674408 -0.08527129888534546
0.22935739159584045 0.3333333730697632 -0.06976741552352905
0.23028062283992767 0.3333333730697632 -0.05426359176635742
0.22988712787628174 0.3333333730697632 -0.038759708404541016
0.22751185297966003 0.3333333730697632 -0.02325582504272461
0.2253781110048294 0.3488372564315796 -0.08527129888534546
0.2277103066444397 0.3488372564315796 -0.06976741552352905
0.22892093658447266 0.348837286233902 -0.05426359176635742
0.22860202193260193 0.3488372564315796 -0.038759708404541016
0.2264951914548874 0.348837286233902 -0.02325582504272461
0.22491784393787384 0.364341139793396 -0.06976741552352905
0.22591888904571533 0.364341139793396 -0.05426359176635742
0.22576789557933807 0.364341139793396 -0.038759708404541016
0.22486284375190735 0.5968992114067078 -0.05426359176635742
0.2258542776107788 0.612403154373169 -0.06976741552352905
0.2264987826347351 0.612403154373169 -0.05426359176635742
0.22590307891368866 0.6124032139778137 -0.038759708404541016
0.22603149712085724 0.6279069185256958 -0.08527129888534546
0.22742564976215363 0.6279069185256958 -0.06976741552352905
0.22817933559417725 0.6279069185256958 -0.05426359549164772
0.2276603877544403 0.6279069185256958 -0.03875970467925072
0.22622698545455933 0.6279069781303406 -0.02325582690536976
0.22501544654369354 0.6279069185256958 -0.007751941680908203
0.22679349780082703 0.6434108018875122 -0.08527129888534546
0.22836937010288239 0.6434108018875122 -0.06976741552352905
0.22928187251091003 0.6434108018875122 -0.05426359176635742
0.22895848751068115 0.6434108018875122 -0.038759708404541016
0.22748862206935883 0.6434108018875122 -0.02325582504272461
0.22588524222373962 0.643410861492157 -0.007751941680908203
0.22696354985237122 0.6589146256446838 -0.08527129888534546
0.22883476316928864 0.6589146852493286 -0.06976741552352905
0.22995297610759735 0.6589146852493286 -0.05426359176635742
0.22991275787353516 0.6589146852493286 -0.038759708404541016
0.22866658866405487 0.6589146852493286 -0.02325582504272461
0.22667193412780762 0.6589146852493286 -0.007751941680908203
0.22699576616287231 0.674418568611145 -0.08527129888534546
0.22910568118095398 0.674418568611145 -0.06976741552352905
0.23035040497779846 0.674418568611145 -0.05426359176635742
0.2305123209953308 0.674418568611145 -0.038759708404541016
0.22957965731620789 0.674418568611145 -0.02325582504272461
0.2274053543806076 0.674418568611145 -0.007751941680908203
0.22678378224372864 0.6899224519729614 -0.08527129888534546
0.22898486256599426 0.6899224519729614 -0.06976741552352905
0.2302890419960022 0.6899224519729614 -0.05426359176635742
0.23055380582809448 0.6899224519729614 -0.038759708404541016
0.22975794970989227 0.6899224519729614 -0.02325582504272461
0.22761847078800201 0.6899224519729614 -0.007751941680908203
0.2258480191230774 0.7054263353347778 -0.08527129888534546
0.22809739410877228 0.7054263353347778 -0.06976741552352905
0.22954857349395752 0.7054263353347778 -0.05426359176635742
0.22982880473136902 0.7054263353347778 -0.038759708404541016
0.2289276123046875 0.7054263353347778 -0.02325582504272461
0.22673596441745758 0.7054263353347778 -0.007751941680908203
0.2260366678237915 0.7209301590919495 -0.06976740807294846
0.22762352228164673 0.7209302186965942 -0.05426359176635742
0.2278711050748825 0.7209302186965942 -0.038759708404541016
0.22666561603546143 0.7209302186965942 -0.02325582504272461
-0.22480618953704834 -0.7575552463531494 -0.05426359176635742
-0.22480618953704834 -0.7637808918952942 -0.038759708404541016
-0.22480618953704834 -0.7595779895782471 -0.02325582504272461
-0.22480618953704834 -0.7330385446548462 -0.06976741552352905
-0.22480618953704834 -0.7036779522895813 -0.08527129888534546
-0.22480618953704834 -0.6913049817085266 -0.007751941680908203
-0.22480618953704834 -0.6525510549545288 -0.007751941680908203
-0.22480618953704834 -0.6155554056167603 -0.08527129888534546
-0.22480618953704834 -0.5886716842651367 -0.06976741552352905
-0.22480618953704834 -0.5826719403266907 -0.05426359176635742
-0.22480618953704834 -0.5853626728057861 -0.038759708404541016
-0.22480618953704834 -0.5954545140266418 -0.02325582504272461
-0.22480618953704834 -0.11797092854976654 -0.10077518224716187
-0.22480617463588715 -0.125862717628479 -0.08527129888534546
-0.22480618953704834 -0.13035336136817932 -0.06976740807294846
-0.22480618953704834 -0.13166089355945587 -0.05426359176635742
-0.22480617463588715 -0.12966129183769226 -0.038759708404541016
-0.22480618953704834 -0.12432175874710083 -0.02325582504272461
-0.22480618953704834 -0.11392760276794434 -0.007751941680908203
-0.22480618953704834 -0.09556864947080612 -0.11627906560897827
-0.22480618953704834 -0.09361447393894196 0.007751941680908203
-0.22480618953704834 -0.07891885191202164 -0.11627906560897827
-0.22480618953704834 -0.04515950009226799 -0.10077518224716187
-0.22480618953704834 -0.04717027395963669 0.007751941215246916
-0.22480618953704834 -0.01883494108915329 -0.08527129888534546
-0.22480618953704834 0.03651571273803711 -0.08527129888534546
-0.22480618953704834 0.04882824420928955 -0.10077518224716187
-0.22480618953704834 0.039252523332834244 0.007751941680908203
-0.22480618953704834 0.06386609375476837 -0.11627906560897827
-0.22480618953704834 0.10926494002342224 0.007751941680908203
-0.22480618953704834 0.1310260146856308 -0.11627906560897827
-0.22480618953704834 0.1440916657447815 -0.10077518224716187
-0.22480618953704834 0.13922199606895447 -0.007751941680908203
-0.22480618953704834 0.15227782726287842 -0.08527129888534546
-0.22480618953704834 0.1577269732952118 -0.06976741552352905
-0.22480618953704834 0.16017799079418182 -0.05426359176635742
-0.22480618953704834 0.15931598842144012 -0.038759708404541016
-0.22480618953704834 0.15297669172286987 -0.02325582504272461
-0.22480618953704834 0.2508249580860138 -0.05426359176635742
-0.22480618953704834 0.24930590391159058 -0.038759708404541016
-0.22480618953704834 0.26779675483703613 -0.08527129888534546
-0.22480618953704834 0.25705474615097046 -0.06976741552352905
-0.22480620443820953 0.25982987880706787 -0.02325582504272461
-0.22480618953704834 0.27873003482818604 -0.02325582504272461
-0.22480618953704834 0.345885694026947 -0.08527129888534546
-0.22480618953704834 0.35681265592575073 -0.06976741552352905
-0.22480618953704834 0.3608183264732361 -0.05426359176635742
-0.22480618953704834 0.3575435280799866 -0.038759708404541016
-0.22480618953704834 0.635328471660614 -0.05426359176635742
-0.22480618953704834 0.6427504420280457 -0.038759708404541016
-0.22480620443820953 0.6450276374816895 -0.06976741552352905
-0.22480620443820953 0.6626878976821899 -0.02325582504272461
-0.22480618953704834 0.6862682104110718 -0.08527129888534546
-0.22480618953704834 0.6926406025886536 -0.08527129888534546
-0.22480618953704834 0.7189661860466003 -0.06976741552352905
-0.22480618953704834 0.7162621021270752 -0.02325582504272461
-0.22480618953704834 0.7258000373840332 -0.05426359176635742
-0.22480618953704834 0.7250661849975586 -0.038759708404541016
-0.20930230617523193 -0.7906677722930908 -0.06976741552352905
-0.20930230617523193 -0.7957253456115723 -0.05426359176635742
-0.20930230617523193 -0.7961364984512329 -0.038759708404541016
-0.20930230617523193 -0.7937413454055786 -0.02325582504272461
-0.20930230617523193 -0.7877309322357178 -0.007751941680908203
-0.20930230617523193 -0.7800754308700562 -0.08527129888534546
-0.20930230617523193 -0.776749849319458 0.007751941680908203
-0.20930230617523193 -0.760158896446228 -0.10077518224716187
-0.20930230617523193 -0.7555148601531982 0.02325582504272461
-0.20930230617523193 -0.7062448263168335 0.02325582504272461
-0.20930230617523193 -0.697171688079834 -0.11627906560897827
-0.20930230617523193 -0.7030580043792725 0.02325582504272461
-0.20930230617523193 -0.6370127201080322 0.038759708404541016
-0.20930230617523193 -0.6220971345901489 -0.13178294897079468
-0.20930230617523193 -0.5796763300895691 -0.13178294897079468
-0.20930230617523193 -0.5786083936691284 0.038759708404541016
-0.20930230617523193 -0.5590015053749084 -0.11627906560897827
-0.20930230617523193 -0.5552165508270264 0.007751941680908203
-0.20930230617523193 -0.5638259649276733 0.02325582504272461
-0.20930230617523193 -0.5491441488265991 -0.10077518224716187
-0.20930230617523193 -0.5437629222869873 -0.08527129888534546
-0.20930230617523193 -0.5407605767250061 -0.06976741552352905
-0.20930230617523193 -0.5400961637496948 -0.05426359176635742
-0.20930230617523193 -0.5419532656669617 -0.038759708404541016
-0.20930230617523193 -0.5449105501174927 -0.02325582504272461
-0.20930230617523193 -0.5498008728027344 -0.007751941680908203
-0.20930230617523193 -0.5112078189849854 -0.08527129888534546
-0.20930230617523193 -0.5142649412155151 -0.06976741552352905
-0.20930230617523193 -0.5137012004852295 -0.05426359176635742
-0.20930230617523193 -0.5081967711448669 -0.038759708404541016
-0.20930230617523193 -0.5021067261695862 -0.10077518224716187
-0.20930230617523193 -0.4991406798362732 -0.02325582504272461
-0.20930230617523193 -0.4823784828186035 -0.007751941680908203
-0.20930230617523193 -0.45222723484039307 -0.10077518224716187
-0.20930230617523193 -0.44210273027420044 -0.08527129888534546
-0.20930230617523193 -0.45394253730773926 -0.007751941680908203
-0.20930230617523193 -0.43686020374298096 -0.06976741552352905
-0.20930230617523193 -0.4338096082210541 -0.05426359176635742
-0.20930230617523193 -0.4346362352371216 -0.038759708404541016
-0.20930229127407074 -0.4409369230270386 -0.02325582504272461
-0.20930230617523193 -0.35130298137664795 -0.05426359176635742
-0.20930230617523193 -0.35055166482925415 -0.038759708404541016
-0.20930230617523193 -0.34052103757858276 -0.08527129888534546
-0.20930230617523193 -0.3473992347717285 -0.06976741552352905
-0.20930230617523193 -0.34538328647613525 -0.02325582504272461
-0.20930230617523193 -0.33396047353744507 -0.007751941680908203
-0.20930230617523193 -0.32017388939857483 -0.11627906560897827
-0.20930229127407074 -0.33129099011421204 -0.10077517479658127
-0.20930230617523193 -0.3061973452568054 -0.13178294897079468
-0.20930230617523193 -0.3114226460456848 0.007751941680908203
-0.20930230617523193 -0.2675485610961914 0.007751941680908203
-0.20930230617523193 -0.249766543507576 -0.13178294897079468
-0.20930230617523193 -0.24114228785037994 -0.11627906560897827
-0.20930230617523193 -0.24582502245903015 -0.007751941680908203
-0.20930230617523193 -0.2373775690793991 -0.007751941680908203
-0.20930230617523193 -0.2139776647090912 -0.11627906560897827
-0.20930230617523193 -0.22456683218479156 0.007751941680908203
-0.20930230617523193 -0.20656199753284454 0.02325582504272461
-0.20930230617523193 -0.13206908106803894 -0.13178294897079468
-0.20930230617523193 -0.11666668206453323 -0.14728683233261108
-0.20930230617523193 -0.12183938920497894 0.038759708404541016
-0.20930230617523193 -0.054556019604206085 -0.14728683233261108
-0.20930230617523193 -0.029072895646095276 0.05426359176635742
-0.20930230617523193 -0.007779735140502453 -0.13178294897079468
-0.20930230617523193 0.04142281785607338 -0.13178294897079468
-0.20930230617523193 0.055059224367141724 -0.14728683233261108
-0.20930230617523193 0.07550065964460373 0.05426359176635742
-0.20930230617523193 0.13563358783721924 -0.14728683233261108
-0.20930230617523193 0.1509561389684677 -0.13178294897079468
-0.20930230617523193 0.1614731401205063 -0.11627906560897827
-0.20930230617523193 0.16225656867027283 0.038759708404541016
-0.20930230617523193 0.2190147340297699 -0.10077518224716187
-0.20930230617523193 0.22041869163513184 0.02325582504272461
-0.20930230617523193 0.2320733219385147 -0.08527129888534546
-0.20930230617523193 0.25298434495925903 -0.11627906560897827
-0.20930230617523193 0.2489391267299652 -0.10077518224716187
-0.20930230617523193 0.24317830801010132 -0.08527129888534546
-0.20930229127407074 0.24235880374908447 0.02325582504272461
-0.20930232107639313 0.25900596380233765 -0.13178294897079468
-0.20930230617523193 0.2980635464191437 0.02325582504272461
-0.20930230617523193 0.3293914794921875 0.02325582504272461
-0.20930230617523193 0.34566792845726013 -0.13178294897079468
-0.20930230617523193 0.3532499074935913 0.02325582504272461
-0.20930230617523193 0.3658594489097595 -0.11627906560897827
-0.20930230617523193 0.3768225908279419 -0.10077518224716187
-0.20930230617523193 0.3764001429080963 0.007751941680908203
-0.20930230617523193 0.3843376636505127 -0.08527129888534546
-0.20930230617523193 0.3906473219394684 -0.06976741552352905
-0.20930230617523193 0.39451706409454346 -0.05426359176635742
-0.20930230617523193 0.39489227533340454 -0.038759708404541016
-0.20930230617523193 0.3920501470565796 -0.02325582504272461
-0.20930230617523193 0.38575422763824463 -0.00775194214656949
-0.20930230617523193 0.40057697892189026 -0.05426358804106712
-0.20930230617523193 0.4206414818763733 -0.08527129888534546
-0.20930230617523193 0.4115506708621979 -0.06976741552352905
-0.20930230617523193 0.4111161231994629 -0.038759708404541016
-0.20930230617523193 0.4416995048522949 -0.10077518224716187
-0.20930232107639313 0.4420022964477539 -0.10077518224716187
-0.20930230617523193 0.4608796238899231 -0.08527129888534546
-0.20930230617523193 0.46712595224380493 -0.06976741552352905
-0.20930230617523193 0.46664929389953613 -0.05426359176635742
-0.20930230617523193 0.4595666825771332 -0.038759708404541016
-0.20930230617523193 0.5270490646362305 -0.06976741552352905
-0.20930230617523193 0.52439284324646 -0.05426359176635742
-0.20930230617523193 0.5273669958114624 -0.038759708404541016
-0.20930230617523193 0.534019947052002 -0.02325582504272461
-0.20930230617523193 0.5372397899627686 -0.08527129888534546
-0.20930230617523193 0.5437073707580566 -0.007751941680908203
-0.20930230617523193 0.5620653033256531 -0.10077518224716187
-0.20930230617523193 0.562102735042572 0.007751941680908203
-0.20930230617523193 0.5846943855285645 0.02325582504272461
-0.20930230617523193 0.5973692536354065 -0.11627906560897827
-0.20930230617523193 0.6189048290252686 -0.13178294897079468
-0.20930230617523193 0.6524901390075684 0.038759708404541016
-0.20930229127407074 0.7073196172714233 -0.13178294897079468
-0.20930230617523193 0.7124451398849487 0.038759708404541016
-0.20930230617523193 0.7258650660514832 -0.11627906560897827
-0.20930230617523193 0.7331409454345703 0.02325582504272461
-0.20930230617523193 0.7365022301673889 -0.10077518224716187
-0.20930230617523193 0.746587872505188 -0.08527129888534546
-0.20930230617523193 0.7482708692550659 0.007751941680908203
-0.20930230617523193 0.7619897127151489 -0.08527129888534546
-0.20930230617523193 0.7758862972259521 -0.10077518224716187
-0.20930230617523193 0.8000117540359497 -0.007751941680908203
-0.20930230617523193 0.8147008419036865 -0.10077518224716187
-0.20930230617523193 0.8235347270965576 -0.08527129888534546
-0.20930230617523193 0.8268232345581055 -0.038759708404541016
-0.20930230617523193 0.815293550491333 -0.02325582504272461
-0.20930230617523193 0.8298214673995972 -0.06976741552352905
-0.20930230617523193 0.8314642310142517 -0.05426359176635742
-0.19379842281341553 -0.7987887859344482 -0.08527129888534546
-0.19379842281341553 -0.8039431571960449 -0.06976741552352905
-0.19379842281341553 -0.8081449270248413 -0.05426359176635742
-0.19379842281341553 -0.8084186315536499 -0.038759708404541016
-0.19379842281341553 -0.8050010204315186 -0.02325582504272461
-0.19379842281341553 -0.7985801100730896 -0.007751941680908203
-0.19379842281341553 -0.7912585735321045 -0.10077518224716187
-0.19379842281341553 -0.7931479811668396 0.007751941680908203
-0.19379842281341553 -0.7789767384529114 -0.11627906560897827
-0.19379842281341553 -0.7798932790756226 0.02325582504272461
-0.19379842281341553 -0.7582449913024902 -0.13178294897079468
-0.19379842281341553 -0.7590521574020386 0.038759708404541016
-0.19379842281341553 -0.7132667303085327 -0.13178294897079468
-0.19379842281341553 -0.6978104114532471 -0.13178294897079468
-0.19379842281341553 -0.686927855014801 0.05426359549164772
-0.19379842281341553 -0.6665909290313721 -0.14728683233261108
-0.19379842281341553 -0.6620340347290039 0.06976747512817383
-0.19379842281341553 -0.6158586740493774 -0.1627907156944275
-0.19379842281341553 -0.5811229944229126 -0.1627907156944275
-0.19379842281341553 -0.5542899966239929 -0.14728683233261108
-0.19379842281341553 -0.5590901970863342 0.06976747512817383
-0.19379842281341553 -0.5355827808380127 -0.13178294897079468
-0.19379842281341553 -0.5387040376663208 0.038759708404541016
-0.19379842281341553 -0.5466287136077881 0.05426359176635742
-0.19379842281341553 -0.5273457765579224 -0.13178294897079468
-0.19379842281341553 -0.5307410955429077 0.02325582690536976
-0.19379842281341553 -0.490460067987442 -0.14728683233261108
-0.19379842281341553 -0.49697157740592957 0.02325582504272461
-0.19379842281341553 -0.4659107029438019 -0.14728683233261108
-0.19379842281341553 -0.4435017704963684 -0.13178294897079468
-0.19379842281341553 -0.4516826868057251 0.02325582504272461
-0.19379842281341553 -0.43408480286598206 -0.11627906560897827
-0.19379842281341553 -0.42921432852745056 -0.10077518224716187
-0.19379842281341553 -0.4263671040534973 -0.08527129888534546
-0.19379842281341553 -0.43030983209609985 -0.007751941680908203
-0.19379842281341553 -0.4396764934062958 0.007751941680908203
-0.19379842281341553 -0.42256641387939453 -0.06976741552352905
-0.19379842281341553 -0.41767340898513794 -0.05426359176635742
-0.19379842281341553 -0.4146353006362915 -0.038759708404541016
-0.19379842281341553 -0.42040979862213135 -0.02325582504272461
-0.19379842281341553 -0.40105336904525757 -0.05426359176635742
-0.19379842281341553 -0.4071844816207886 -0.038759708404541016
-0.19379842281341553 -0.4049845039844513 -0.02325582504272461
-0.19379842281341553 -0.3811454176902771 -0.10077518224716187
-0.19379842281341553 -0.3818216323852539 -0.08527129888534546
-0.19379842281341553 -0.3869140148162842 -0.06976741552352905
-0.19379842281341553 -0.3909628987312317 -0.007751941680908203
-0.19379842281341553 -0.3746301829814911 -0.11627906560897827
-0.19379842281341553 -0.362824946641922 0.00775194214656949
-0.19379842281341553 -0.34563660621643066 0.02325582504272461
-0.19379842281341553 -0.3202142119407654 -0.14728683233261108
-0.19379842281341553 -0.331124484539032 -0.13178294897079468
-0.19379842281341553 -0.3218499422073364 0.038759708404541016
-0.19379842281341553 -0.3055265545845032 -0.1627907156944275
-0.19379842281341553 -0.24199075996875763 -0.1627907156944275
-0.19379842281341553 -0.2310219705104828 0.05426359176635742
-0.19379842281341553 -0.195085346698761 -0.1627907156944275
-0.19379842281341553 -0.20031972229480743 0.06976747512817383
-0.19379842281341553 -0.16078820824623108 -0.1627907156944275
-0.19379842281341553 -0.14106842875480652 -0.1627907156944275
-0.19379842281341553 -0.10228687524795532 -0.1782945990562439
-0.19379842281341553 -0.05919460207223892 -0.1782945990562439
-0.19379842281341553 -0.05193686857819557 0.08527135848999023
-0.19379842281341553 0.0025764964520931244 0.10077524185180664
-0.19379842281341553 0.012008065357804298 0.10077524185180664
-0.19379842281341553 0.06544305384159088 -0.1782945990562439
-0.19379842281341553 0.08182132244110107 0.08527135848999023
-0.19379842281341553 0.08849313110113144 0.08527135848999023
-0.19379842281341553 0.1262408047914505 -0.1782945990562439
-0.19379842281341553 0.15187004208564758 -0.1627907156944275
-0.19379842281341553 0.16671589016914368 -0.14728683233261108
-0.19379842281341553 0.16958478093147278 0.08527135848999023
-0.19379842281341553 0.18706096708774567 -0.14728683233261108
-0.19379842281341553 0.2126900851726532 -0.14728683233261108
-0.19379842281341553 0.21147947013378143 0.06976747512817383
-0.19379842281341553 0.23742228746414185 -0.13178294897079468
-0.19379842281341553 0.23982422053813934 -0.11627906560897827
-0.19379842281341553 0.23136961460113525 0.05426359176635742
-0.19379842281341553 0.2537515461444855 -0.1627907156944275
-0.19379842281341553 0.2439352124929428 -0.14728683233261108
-0.19379842281341553 0.24121060967445374 -0.13178294897079468
-0.19379842281341553 0.24060893058776855 -0.11627906560897827
-0.19379842281341553 0.24772590398788452 0.05426359176635742
-0.19379842281341553 0.31037431955337524 0.05426359176635742
-0.19379842281341553 0.33786723017692566 -0.1627907156944275
-0.19379842281341553 0.36447277665138245 -0.1472868174314499
-0.19379842281341553 0.37654680013656616 -0.13178294897079468
-0.19379842281341553 0.3888590335845947 -0.11627906560897827
-0.19379842281341553 0.3874688148498535 0.038759708404541016
-0.19379842281341553 0.41251546144485474 -0.11627906560897827
-0.19379842281341553 0.42006778717041016 0.02325582504272461
-0.19379842281341553 0.4332418739795685 -0.13178294897079468
-0.19379842281341553 0.4515732228755951 -0.13178294897079468
-0.19379842281341553 0.44821953773498535 0.007751941680908203
-0.19379842281341553 0.4688476622104645 -0.007751941680908203
-0.19379842281341553 0.4731270670890808 -0.11627906560897827
-0.19379840791225433 0.5049900412559509 -0.11627906560897827
-0.19379842281341553 0.5070107579231262 -0.007751941680908203
-0.19379842281341553 0.515562891960144 0.007751941680908203
-0.19379842281341553 0.5193988680839539 -0.13178294897079468
-0.19379842281341553 0.5237466096878052 0.02325582504272461
-0.19379842281341553 0.5344829559326172 0.038759708404541016
-0.19379842281341553 0.5432924032211304 -0.14728683233261108
-0.19379842281341553 0.5818785429000854 0.05426359549164772
-0.19379842281341553 0.6137598156929016 -0.1627907156944275
-0.19379842281341553 0.684750497341156 0.06976747512817383
-0.19379842281341553 0.6903420090675354 -0.1627907156944275
-0.19379842281341553 0.69989013671875 0.06976747512817383
-0.19379842281341553 0.722218930721283 -0.14728683233261108
-0.19379842281341553 0.7326163649559021 -0.13178294897079468
-0.19379842281341553 0.7321277260780334 0.05426359176635742
-0.19379842281341553 0.7399832606315613 -0.11627906560897827
-0.19379842281341553 0.7483822107315063 -0.10077518224716187
-0.19379842281341553 0.7674111127853394 -0.11627906560897827
-0.19379842281341553 0.7572966814041138 -0.10077518224716187
-0.19379842281341553 0.7787601351737976 -0.14728683233261108
-0.19379842281341553 0.7722898125648499 -0.13178294897079468
-0.19379842281341553 0.7726132869720459 0.038759708404541016
-0.19379842281341553 0.8091732263565063 -0.14728683233261108
-0.19379842281341553 0.8080006837844849 0.02325582504272461
-0.19379842281341553 0.8285878300666809 0.007751941680908203
-0.19379842281341553 0.8316501379013062 -0.13178294897079468
-0.19379842281341553 0.8551100492477417 -0.11627906560897827
-0.19379842281341553 0.8485178351402283 -0.007751941215246916
-0.19379842281341553 0.873300313949585 -0.10077518224716187
-0.19379842281341553 0.8679212927818298 -0.02325582504272461
-0.19379842281341553 0.8816981315612793 -0.08527129888534546
-0.19379842281341553 0.888127326965332 -0.06976741552352905
-0.19379842281341553 0.8892703652381897 -0.05426359176635742
-0.19379842281341553 0.8815534114837646 -0.038759708404541016
-0.1782945990562439 -0.8025831580162048 -0.10077518224716187
-0.1782945990562439 -0.8081842660903931 -0.08527129888534546
-0.1782946139574051 -0.8122490644454956 -0.06976741552352905
-0.1782945990562439 -0.8139488101005554 -0.05426359549164772
-0.1782946139574051 -0.8133887052536011 -0.038759708404541016
-0.1782945990562439 -0.811270534992218 -0.02325582504272461
-0.1782945990562439 -0.8065208792686462 -0.007751941215246916
-0.1782945990562439 -0.7989033460617065 0.007751941680908203
-0.1782945990562439 -0.7877054810523987 -0.13178294897079468
-0.1782945990562439 -0.7966036200523376 -0.11627907305955887
-0.1782945990562439 -0.7913370728492737 0.02325582504272461
-0.1782945990562439 -0.7722421884536743 -0.14728683233261108
-0.1782945990562439 -0.777242124080658 0.038759708404541016
-0.1782945990562439 -0.7510764598846436 0.05426359176635742
-0.1782945990562439 -0.7121318578720093 -0.14728683233261108
-0.1782945990562439 -0.7069593071937561 0.06976747512817383
-0.1782945990562439 -0.6880087852478027 -0.14728683233261108
-0.1782945990562439 -0.6851210594177246 0.08527135848999023
-0.1782945990562439 -0.6704849600791931 -0.1627907156944275
-0.1782945841550827 -0.6559134125709534 0.10077523440122604
-0.1782945990562439 -0.6230421662330627 -0.1782945990562439
-0.1782945841550827 -0.578445553779602 -0.1782945841550827
-0.1782945990562439 -0.5553719997406006 0.10077524185180664
-0.1782945990562439 -0.5479381680488586 -0.1627907156944275
-0.1782945990562439 -0.5352527499198914 0.08527135848999023
-0.1782945990562439 -0.5219574570655823 0.06976747512817383
-0.1782945990562439 -0.5051632523536682 -0.1627907156944275
-0.1782945990562439 -0.5062513947486877 0.05426359176635742
-0.1782945990562439 -0.49269992113113403 0.05426359176635742
-0.1782945990562439 -0.4479919672012329 -0.1627907156944275
-0.1782945990562439 -0.44500571489334106 0.038759708404541016
-0.1782945990562439 -0.45727890729904175 0.05426358804106712
-0.1782945990562439 -0.4333065152168274 0.02325582504272461
-0.1782945990562439 -0.39363744854927063 0.02325582504272461
-0.1782945990562439 -0.35048311948776245 -0.14728683233261108
-0.1782945990562439 -0.3586716055870056 0.038759708404541016
-0.1782945990562439 -0.3358158469200134 -0.14728683233261108
-0.1782945990562439 -0.33485695719718933 0.05426359176635742
-0.1782945990562439 -0.3227085471153259 -0.1627907156944275
-0.1782945990562439 -0.3072289526462555 -0.1782945990562439
-0.1782945990562439 -0.2872766852378845 0.06976747512817383
-0.1782945990562439 -0.2840333580970764 0.06976747512817383
-0.1782945990562439 -0.2678001821041107 0.06976747512817383
-0.1782945990562439 -0.23529782891273499 -0.1782945990562439
-0.1782945990562439 -0.23947541415691376 0.08527135848999023
-0.1782945990562439 -0.2146693915128708 -0.1782945990562439
-0.1782945990562439 -0.19990572333335876 0.10077524185180664
-0.1782945990562439 -0.08993750810623169 -0.19379842281341553
-0.1782945990562439 -0.051019564270973206 -0.19379842281341553
-0.1782945990562439 -0.029315918684005737 0.11627912521362305
-0.1782945990562439 0.0532064251601696 0.11627912521362305
-0.1782945990562439 0.07279980182647705 -0.19379842281341553
-0.1782945990562439 0.09986323863267899 0.11627912521362305
-0.1782945990562439 0.11713618785142899 -0.19379842281341553
-0.1782945990562439 0.15669673681259155 -0.1782945990562439
-0.1782945990562439 0.16985179483890533 0.11627912521362305
-0.1782945990562439 0.21128784120082855 0.10077524185180664
-0.1782945990562439 0.2259509265422821 0.08527136594057083
-0.1782945990562439 0.2431248426437378 -0.1782945990562439
-0.1782945990562439 0.26846662163734436 0.08527135848999023
-0.1782945990562439 0.2925313115119934 0.08527135848999023
-0.1782945990562439 0.35084453225135803 -0.1782945990562439
-0.1782945990562439 0.3706076145172119 -0.1627907156944275
-0.1782945990562439 0.3854599595069885 -0.14728683233261108
-0.1782945990562439 0.38622140884399414 0.06976747512817383
-0.1782945990562439 0.41768878698349 -0.14728683233261108
-0.1782945990562439 0.4251869320869446 0.05426359176635742
-0.1782945990562439 0.4447261095046997 0.038759708404541016
-0.1782945990562439 0.4655355215072632 -0.14728683233261108
-0.1782945990562439 0.4635927677154541 0.02325582504272461
-0.1782945990562439 0.49898040294647217 -0.14728683233261108
-0.1782945990562439 0.4968254268169403 0.02325582504272461
-0.1782945990562439 0.5170934796333313 -0.1627907156944275
-0.1782945990562439 0.508690357208252 0.038759708404541016
-0.1782945990562439 0.5189785957336426 0.05426359176635742
-0.1782945990562439 0.5326467156410217 0.06976747512817383
-0.1782945990562439 0.5566331148147583 -0.1782945990562439
-0.1782945990562439 0.6634296178817749 0.08527135848999023
-0.1782945990562439 0.6922639608383179 -0.1782945990562439
-0.1782945990562439 0.7280840873718262 -0.1627907156944275
-0.1782945990562439 0.722362220287323 0.08527135848999023
-0.1782945990562439 0.7375785708427429 -0.14728683233261108
-0.1782945990562439 0.7440487146377563 -0.13178294897079468
-0.1782945990562439 0.751044511795044 -0.11627906560897827
-0.1782945990562439 0.7482732534408569 0.06976747512817383
-0.1782945990562439 0.7651429772377014 -0.14728683233261108
-0.1782945990562439 0.761246919631958 -0.13178294897079468
-0.1782945990562439 0.7532734870910645 -0.11627906560897827
-0.1782945990562439 0.7694287300109863 -0.1627907156944275
-0.1782945990562439 0.7861161231994629 0.05426359176635742
-0.1782945990562439 0.8227128982543945 -0.1627907156944275
-0.1782945990562439 0.8156185150146484 0.038759708404541016
-0.1782945990562439 0.8448023200035095 -0.14728683233261108
-0.1782945990562439 0.839698851108551 0.02325582504272461
-0.1782945990562439 0.8634752035140991 0.007751941680908203
-0.1782945990562439 0.8783126473426819 -0.13178294897079468
-0.1782945990562439 0.8847737312316895 -0.007751941680908203
-0.1782945990562439 0.8942217826843262 -0.11627906560897827
-0.1782945990562439 0.9039833545684814 -0.10077518224716187
-0.1782945990562439 0.9004788994789124 -0.02325582504272461
-0.1782945990562439 0.9116809368133545 -0.08527129888534546
-0.1782945990562439 0.9159084558486938 -0.06976741552352905
-0.1782945990562439 0.9160889387130737 -0.05426359176635742
-0.1782945990562439 0.9109316468238831 -0.038759708404541016
-0.1627907156944275 -0.8156776428222656 -0.08527129888534546
-0.1627907156944275 -0.8183706998825073 -0.06976741552352905
-0.1627907156944275 -0.8186722993850708 -0.05426359176635742
-0.1627907156944275 -0.8162538409233093 -0.038759708404541016
-0.1627907156944275 -0.8028700947761536 -0.13178294897079468
-0.1627907156944275 -0.8086903691291809 -0.11627906560897827
-0.1627907156944275 -0.8124286532402039 -0.10077518224716187
-0.1627907156944275 -0.8127456903457642 -0.02325582504272461
-0.1627907156944275 -0.80858314037323 -0.007751941680908203
-0.1627907156944275 -0.8022379875183105 0.007751941680908203
-0.1627907156944275 -0.79345703125 -0.14728683233261108
-0.1627907156944275 -0.7963600754737854 0.02325582504272461
-0.1627907156944275 -0.7857481837272644 0.038759708404541016
-0.1627907156944275 -0.7776696085929871 -0.1627907156944275
-0.1627907156944275 -0.7693310379981995 0.05426359176635742
-0.1627907156944275 -0.7393171191215515 0.06976747512817383
-0.1627907156944275 -0.7140772342681885 -0.1627907156944275
-0.1627907156944275 -0.7131920456886292 0.08527135848999023
-0.1627907156944275 -0.6941978335380554 0.10077524185180664
-0.1627907156944275 -0.6856223344802856 -0.1627907156944275
-0.1627907156944275 -0.6674211025238037 -0.1782945990562439
-0.1627907156944275 -0.6652216911315918 0.11627912521362305
-0.1627907156944275 -0.5970224142074585 -0.19379842281341553
-0.1627907156944275 -0.5968517661094666 -0.19379842281341553
-0.1627907156944275 -0.5521591305732727 -0.1782945990562439
-0.1627907156944275 -0.5344479084014893 0.11627911776304245
-0.1627907156944275 -0.5083606839179993 0.10077524185180664
-0.1627907156944275 -0.499301552772522 -0.1782945990562439
-0.1627907156944275 -0.44188815355300903 0.06976747512817383
-0.1627907156944275 -0.4535033106803894 0.08527135848999023
-0.1627907156944275 -0.4402579069137573 -0.1782945841550827
-0.1627907156944275 -0.42671260237693787 0.05426359176635742
-0.1627907007932663 -0.42558062076568604 0.05426359176635742
-0.1627907156944275 -0.4131999909877777 0.06976747512817383
-0.1627907156944275 -0.4001573622226715 0.08527135848999023
-0.1627907156944275 -0.3925825357437134 0.08527135848999023
-0.1627907007932663 -0.37699490785598755 0.06976747512817383
-0.1627907156944275 -0.3490602672100067 -0.1627907156944275
-0.1627907156944275 -0.3341088593006134 0.06976747512817383
-0.1627907156944275 -0.32207515835762024 -0.1782945990562439
-0.1627907156944275 -0.33322200179100037 -0.1627907156944275
-0.1627907156944275 -0.30001595616340637 -0.19379842281341553
-0.1627907156944275 -0.2950950860977173 0.08527135848999023
-0.1627907156944275 -0.2589171826839447 0.10077524185180664
-0.1627907156944275 -0.24655695259571075 -0.19379842281341553
-0.1627907156944275 -0.24111038446426392 0.11627912521362305
-0.1627907156944275 -0.17309382557868958 0.1317828893661499
-0.1627907156944275 -0.13593731820583344 -0.19379842281341553
-0.1627907156944275 -0.10366202890872955 0.1317828893661499
-0.1627907156944275 -0.03457807004451752 0.1317828893661499
-0.1627907156944275 0.15170298516750336 -0.19379840791225433
-0.1627907156944275 0.19004492461681366 0.1317828893661499
-0.1627907156944275 0.22368934750556946 0.11627912521362305
-0.1627907156944275 0.24004176259040833 0.10077524185180664
-0.1627907156944275 0.2450616955757141 -0.19379842281341553
-0.1627907156944275 0.24094131588935852 0.10077524185180664
-0.1627907156944275 0.3154686689376831 0.10077524185180664
-0.1627907156944275 0.344219446182251 -0.19379842281341553
-0.1627907156944275 0.3755061626434326 -0.1782945990562439
-0.1627907156944275 0.39463964104652405 -0.1627907156944275
-0.1627907156944275 0.4018416702747345 -0.1627907156944275
-0.1627907156944275 0.4083375036716461 0.08527135848999023
-0.1627907156944275 0.4345532953739166 0.06976747512817383
-0.1627907156944275 0.45411214232444763 0.05426359176635742
-0.1627907156944275 0.4715481102466583 -0.1627907156944275
-0.1627907156944275 0.49127835035324097 -0.1627907156944275
-0.1627907156944275 0.4972938299179077 0.05426359176635742
-0.1627907156944275 0.5167235136032104 -0.1782945990562439
-0.1627907156944275 0.5094709396362305 0.06976747512817383
-0.1627907156944275 0.5214728116989136 0.08527135848999023
-0.1627907156944275 0.5575647354125977 -0.19379842281341553
-0.1627907156944275 0.6478554606437683 -0.19379842281341553
-0.1627907156944275 0.6532349586486816 0.10077524185180664
-0.1627907156944275 0.7310296297073364 -0.1782945990562439
-0.1627907156944275 0.7322628498077393 0.10077524185180664
-0.1627907156944275 0.7427754402160645 -0.1627907156944275
-0.1627907156944275 0.7499925494194031 -0.14728683233261108
-0.1627907156944275 0.7658572196960449 -0.1782945990562439
-0.1627907156944275 0.7591192126274109 -0.1627907156944275
-0.1627907156944275 0.7538748979568481 -0.14728683233261108
-0.1627907156944275 0.7586143016815186 0.08527135848999023
-0.1627907156944275 0.7866333723068237 0.06976747512817383
-0.1627907156944275 0.8256083726882935 -0.1782945990562439
-0.1627907156944275 0.8152714967727661 0.05426359176635742
-0.1627907156944275 0.8393260836601257 0.038759708404541016
-0.1627907156944275 0.8483366370201111 -0.1627907156944275
-0.1627907156944275 0.8626024723052979 0.02325582318007946
-0.1627907156944275 0.8810010552406311 -0.14728683233261108
-0.1627907156944275 0.8854856491088867 0.007751941680908203
-0.1627907156944275 0.8984503149986267 -0.13178294897079468
-0.1627907156944275 0.9025211334228516 -0.007751941680908203
-0.1627907156944275 0.9109501838684082 -0.11627906560897827
-0.1627907156944275 0.9201367497444153 -0.10077518224716187
-0.1627907156944275 0.9158541560173035 -0.02325582504272461
-0.1627907156944275 0.9268052577972412 -0.08527129888534546
-0.1627907156944275 0.9306731224060059 -0.06976741552352905
-0.1627907156944275 0.9304019212722778 -0.05426359176635742
-0.16279073059558868 0.9244231581687927 -0.038759708404541016
-0.14728683233261108 -0.816020667552948 -0.13178294897079468
-0.14728683233261108 -0.8198480010032654 -0.11627906560897827
-0.14728683233261108 -0.8227656483650208 -0.10077518224716187
-0.14728683233261108 -0.825541615486145 -0.08527129888534546
-0.14728683233261108 -0.827072262763977 -0.06976741552352905
-0.14728683233261108 -0.8256107568740845 -0.05426359176635742
-0.14728683233261108 -0.820389449596405 -0.038759708404541016
-0.14728683233261108 -0.8144128918647766 -0.02325582504272461
-0.14728683233261108 -0.801650881767273 -0.1627907156944275
-0.14728683233261108 -0.810212254524231 -0.14728683233261108
-0.14728683233261108 -0.8105745911598206 -0.007751941680908203
-0.14728683233261108 -0.805551290512085 0.007751941680908203
-0.14728683233261108 -0.8009230494499207 0.02325582504272461
-0.14728683233261108 -0.7835693359375 -0.1782945990562439
-0.14728683233261108 -0.7941873073577881 0.038759708404541016
-0.14728683233261108 -0.7832493782043457 0.05426359176635742
-0.14728683233261108 -0.7624079585075378 0.06976747512817383
-0.14728683233261108 -0.7383622527122498 0.08527135848999023
-0.14728683233261108 -0.7203271985054016 -0.1782945990562439
-0.14728683233261108 -0.7166202664375305 0.10077524185180664
-0.14728683233261108 -0.6963759660720825 0.11627912521362305
-0.14728683233261108 -0.6818143129348755 -0.1782945990562439
-0.14728683233261108 -0.6631115674972534 0.1317828893661499
-0.14728683233261108 -0.6513805389404297 -0.19379842281341553
-0.14728683233261108 -0.5644830465316772 -0.19379843771457672
-0.14728683233261108 -0.5092306137084961 0.1317828893661499
-0.14728683233261108 -0.47499093413352966 -0.19379842281341553
-0.14728683233261108 -0.446258544921875 -0.19379842281341553
-0.14728683233261108 -0.3666660487651825 0.11627912521362305
-0.14728683233261108 -0.35666197538375854 -0.1782945990562439
-0.14728683233261108 -0.3531096279621124 0.10077524185180664
-0.14728683233261108 -0.33339232206344604 -0.1782945990562439
-0.14728683233261108 -0.31731337308883667 -0.19379842281341553
-0.14728683233261108 -0.2937210500240326 0.10077524185180664
-0.14728683233261108 -0.27329331636428833 0.11627912521362305
-0.14728683233261108 -0.25470906496047974 0.1317828893661499
-0.14728683233261108 -0.22923234105110168 -0.19379842281341553
-0.14728683233261108 -0.22059796750545502 -0.19379842281341553
-0.14728683233261108 -0.18036694824695587 0.1472867727279663
-0.14728683233261108 -0.09206321835517883 0.1472867727279663
-0.14728683233261108 -0.06832276284694672 -0.20930230617523193
-0.14728683233261108 -0.031466394662857056 0.1472867727279663
-0.14728683233261108 -0.001816498814150691 -0.20930230617523193
-0.14728683233261108 0.2025628387928009 0.1472867727279663
-0.14728683233261108 0.2838435471057892 0.1317828893661499
-0.14728683233261108 0.32825228571891785 0.11627912521362305
-0.14728683233261108 0.37689757347106934 -0.19379842281341553
-0.14728683233261108 0.41415613889694214 0.10077524185180664
-0.14728683233261108 0.4362734258174896 0.08527135848999023
-0.14728683233261108 0.4650144875049591 -0.1782945990562439
-0.14728683233261108 0.45886218547821045 0.06976747512817383
-0.14728683233261108 0.49538129568099976 -0.1782945990562439
-0.14728683233261108 0.4902805685997009 0.06976747512817383
-0.14728683233261108 0.5025252103805542 0.08527135848999023
-0.14728683233261108 0.5116454362869263 0.10077524185180664
-0.14728683233261108 0.5281215906143188 -0.19379842281341553
-0.14728683233261108 0.524255633354187 0.11627912521362305
-0.14728683233261108 0.5586158037185669 0.11627912521362305
-0.14728683233261108 0.6426284909248352 0.11627912521362305
-0.14728683233261108 0.7211042642593384 -0.19379842281341553
-0.14728683233261108 0.746332049369812 -0.1782945990562439
-0.14728684723377228 0.7367571592330933 0.11627912521362305
-0.14728683233261108 0.7553333640098572 -0.1782945990562439
-0.14728683233261108 0.7624876499176025 0.10077524185180664
-0.14728683233261108 0.7709472179412842 -0.19379842281341553
-0.14728683233261108 0.7866374254226685 0.08527135848999023
-0.14728683233261108 0.8117762207984924 0.06976747512817383
-0.14728683233261108 0.8145506978034973 -0.19379842281341553
-0.14728683233261108 0.844327986240387 -0.1782945990562439
-0.14728683233261108 0.8350108861923218 0.05426359176635742
-0.14728683233261108 0.8565828800201416 0.038759708404541016
-0.14728683233261108 0.8613124489784241 -0.1627907156944275
-0.14728683233261108 0.878552258014679 0.02325582504272461
-0.14728683233261108 0.8945614695549011 -0.14728683233261108
-0.14728683233261108 0.8977060317993164 0.007751941680908203
-0.14728683233261108 0.9094585180282593 -0.13178294897079468
-0.14728683233261108 0.9200548529624939 -0.11627906560897827
-0.14728683233261108 0.911794900894165 -0.007751941680908203
-0.14728683233261108 0.9288208484649658 -0.10077518224716187
-0.14728683233261108 0.9347823262214661 -0.08527129888534546
-0.14728683233261108 0.9377955198287964 -0.06976741552352905
-0.14728683233261108 0.9366468787193298 -0.05426359176635742
