0.23539617657661438 0.16279065608978271 -0.11627906560897827
0.23813952505588531 0.16279065608978271 -0.10077518224716187
0.23926551640033722 0.16279065608978271 -0.02325582504272461
0.23517265915870667 0.16279065608978271 -0.007751941680908203
0.22736872732639313 0.16279065608978271 0.00775194214656949
0.22958171367645264 0.17829453945159912 -0.13178294897079468
0.23580624163150787 0.17829453945159912 -0.11627906560897827
0.239177867770195 0.17829453945159912 -0.10077518224716187
0.2398434728384018 0.17829453945159912 -0.02325582504272461
0.23429623246192932 0.17829453945159912 -0.007751941680908203
0.2252720594406128 0.17829453945159912 0.007751941680908203
0.22936251759529114 0.19379842281341553 -0.13178294897079468
0.23540140688419342 0.19379842281341553 -0.11627906560897827
0.23936724662780762 0.19379842281341553 -0.10077518224716187
0.24018405377864838 0.19379842281341553 -0.02325582504272461
0.23414140939712524 0.19379842281341553 -0.007751941680908203
0.22556808590888977 0.19379842281341553 0.00775194214656949
0.22724024951457977 0.20930229127407074 -0.13178294897079468
0.2331525683403015 0.20930230617523193 -0.11627906560897827
0.2369246631860733 0.20930230617523193 -0.10077518224716187
0.23837362229824066 0.20930230617523193 -0.02325582504272461
0.23373539745807648 0.20930230617523193 -0.007751941680908203
0.22652144730091095 0.20930230617523193 0.007751941680908203
0.22493399679660797 0.22480618953704834 -0.13178296387195587
0.2313997447490692 0.22480618953704834 -0.11627906560897827
0.23528441786766052 0.22480618953704834 -0.10077518224716187
0.2383532077074051 0.22480618953704834 -0.08527129888534546
0.24027617275714874 0.22480618953704834 -0.038759708404541016
0.23692163825035095 0.22480618953704834 -0.02325582504272461
0.23285573720932007 0.22480618953704834 -0.007751941680908203
0.22553987801074982 0.22480618953704834 0.007751941680908203
0.2287684977054596 0.24031007289886475 -0.11627907305955887
0.23295629024505615 0.24031007289886475 -0.10077518224716187
0.23577767610549927 0.24031007289886475 -0.08527129888534546
0.237507164478302 0.24031007289886475 -0.06976741552352905
0.23803487420082092 0.24031007289886475 -0.05426359176635742
0.23699510097503662 0.24031007289886475 -0.038759708404541016
0.23430441319942474 0.24031007289886475 -0.02325582504272461
0.23017245531082153 0.24031007289886475 -0.00775194214656949
0.22909528017044067 0.25581395626068115 -0.10077518224716187
0.23203067481517792 0.25581395626068115 -0.08527129888534546
0.23390498757362366 0.25581395626068115 -0.06976741552352905
0.23447823524475098 0.25581395626068115 -0.05426359176635742
0.23351219296455383 0.25581395626068115 -0.038759708404541016
0.23115253448486328 0.25581395626068115 -0.02325582504272461
0.22519344091415405 0.25581395626068115 -0.007751941680908203
0.2269938588142395 0.27131783962249756 -0.08527129143476486
0.22970446944236755 0.27131783962249756 -0.06976741552352905
0.2314736247062683 0.27131783962249756 -0.05426359176635742
0.23132792115211487 0.27131783962249756 -0.038759708404541016
0.22846531867980957 0.27131783962249756 -0.02325582504272461
0.22503037750720978 0.28682172298431396 -0.06976741552352905
0.22631877660751343 0.28682172298431396 -0.05426359176635742
0.22646470367908478 0.28682172298431396 -0.038759708404541016
0.22516022622585297 0.3178294599056244 -0.08527129888534546
0.22680102288722992 0.3178294897079468 -0.06976741552352905
0.2275615781545639 0.3178294897079468 -0.05426359176635742
0.22689923644065857 0.3178294599056244 -0.03875970467925072
0.22481867671012878 0.3178294897079468 -0.02325582504272461
0.22611278295516968 0.3333333730697632 -0.10077518224716187
0.22888101637363434 0.3333333730697632 -0.08527129888534546
0.23051515221595764 0.3333333730697632 -0.06976741552352905
0.23079025745391846 0.3333333730697632 -0.05426359176635742
0.22962123155593872 0.3333333730697632 -0.038759708404541016
0.2271462231874466 0.3333333730697632 -0.02325582504272461
0.2269810438156128 0.3488372564315796 -0.10077518224716187
0.2295665144920349 0.3488372564315796 -0.08527129888534546
0.23109695315361023 0.3488372564315796 -0.06976741552352905
0.23124106228351593 0.3488372564315796 -0.05426359176635742
0.22998099029064178 0.3488372564315796 -0.038759708404541016
0.22738908231258392 0.3488372564315796 -0.02325582690536976
0.22499457001686096 0.364341139793396 -0.10077518224716187
0.22723443806171417 0.364341139793396 -0.08527129888534546
0.22876332700252533 0.364341139793396 -0.06976741552352905
0.22896194458007812 0.364341139793396 -0.05426359176635742
0.22769413888454437 0.3643411099910736 -0.038759708404541016
0.22491316497325897 0.364341139793396 -0.02325582504272461
0.2255186289548874 0.5193798542022705 -0.08527129888534546
0.226072758436203 0.5193798542022705 -0.06976741552352905
0.2259274125099182 0.5193798542022705 -0.05426359176635742
0.22626005113124847 0.5348837375640869 -0.10077518224716187
0.227787047624588 0.5348837375640869 -0.08527129888534546
0.22864967584609985 0.5348837375640869 -0.06976741552352905
0.22872668504714966 0.5348837375640869 -0.05426359176635742
0.22738900780677795 0.5348837375640869 -0.038759708404541016
0.22487297654151917 0.5503876209259033 -0.11627906560897827
0.22687199711799622 0.5503876209259033 -0.10077518224716187
0.22847884893417358 0.5503876209259033 -0.08527129888534546
0.22952130436897278 0.5503876209259033 -0.06976741552352905
0.22981750965118408 0.5503876209259033 -0.05426359176635742
0.2286376953125 0.5503876209259033 -0.038759708404541016
0.22569453716278076 0.5503876209259033 -0.02325582504272461
0.22577382624149323 0.5658915042877197 -0.10077518224716187
0.22716641426086426 0.5658915042877197 -0.08527129888534546
0.2284138947725296 0.5658915042877197 -0.06976741552352905
0.22894221544265747 0.5658915042877197 -0.05426359176635742
0.22790832817554474 0.5658915042877197 -0.038759708404541016
0.22527071833610535 0.5658915042877197 -0.02325582504272461
0.22566261887550354 0.5813953876495361 -0.06976741552352905
0.22621789574623108 0.5813953876495361 -0.05426359176635742
0.22555503249168396 0.5813953876495361 -0.038759708404541016
0.2249765396118164 0.7054263353347778 -0.06976740807294846
0.22767247259616852 0.7054263353347778 -0.05426359176635742
0.22832340002059937 0.7054263353347778 -0.038759708404541016
0.22708043456077576 0.7054263353347778 -0.02325582504272461
0.22785867750644684 0.720930278301239 -0.08527129888534546
0.2306041419506073 0.7209302186965942 -0.06976741552352905
0.23213070631027222 0.7209302186965942 -0.05426359176635742
0.23229235410690308 0.7209302186965942 -0.038759708404541016
0.2314622551202774 0.7209302186965942 -0.02325582504272461
0.2296745777130127 0.7209302186965942 -0.007751941680908203
0.22610774636268616 0.7209302186965942 0.007751941680908203
0.22698068618774414 0.7364341020584106 -0.10077518224716187
0.23008838295936584 0.7364341020584106 -0.08527129888534546
0.23194190859794617 0.7364341020584106 -0.06976741552352905
0.2330377697944641 0.7364341020584106 -0.05426359176635742
0.23329991102218628 0.7364341020584106 -0.038759708404541016
0.2326888144016266 0.7364341020584106 -0.02325582504272461
0.23136457800865173 0.7364341020584106 -0.007751941680908203
0.22802746295928955 0.7364341020584106 0.007751941680908203
0.2258778065443039 0.751937985420227 -0.10077518224716187
0.22848379611968994 0.751937985420227 -0.08527129888534546
0.23078085482120514 0.751937985420227 -0.06976741552352905
0.23196548223495483 0.751937985420227 -0.05426359176635742
0.23216378688812256 0.751937985420227 -0.038759708404541016
0.2315349131822586 0.751937985420227 -0.02325582504272461
0.22945262491703033 0.751937985420227 -0.007751941680908203
0.22590483725070953 0.751937985420227 0.007751941680908203
0.22586122155189514 0.7674418687820435 -0.06976741552352905
0.22678184509277344 0.7674418687820435 -0.05426359176635742
0.22694508731365204 0.7674419283866882 -0.038759708404541016
0.22592496871948242 0.7674419283866882 -0.02325582504272461
0.24189937114715576 -0.13178294897079468 -0.06976741552352905
0.24276989698410034 -0.13178294897079468 -0.05426359176635742
0.2420661896467209 -0.13178294897079468 -0.038759708404541016
0.24084840714931488 -0.11627905815839767 -0.08527129143476486
0.24306923151016235 -0.11627906560897827 -0.06976741552352905
0.24403616786003113 -0.11627906560897827 -0.05426359176635742
0.24316595494747162 -0.11627906560897827 -0.038759708404541016
0.24122126400470734 -0.11627906560897827 -0.02325582504272461
0.2404167652130127 -0.10077517479658127 -0.08527129888534546
0.24264295399188995 -0.10077518224716187 -0.06976741552352905
0.24383166432380676 -0.10077518224716187 -0.05426359176635742
0.24311229586601257 -0.10077518224716187 -0.038759712129831314
0.24112418293952942 -0.10077518969774246 -0.02325582504272461
0.24050281941890717 -0.08527129888534546 -0.08527129888534546
0.24283289909362793 -0.08527129888534546 -0.06976741552352905
0.2441079020500183 -0.08527129888534546 -0.05426359176635742
0.24336853623390198 -0.08527129888534546 -0.038759708404541016
0.24122625589370728 -0.08527129888534546 -0.02325582690536976
0.24236923456192017 -0.06976741552352905 -0.06976741552352905
0.24368222057819366 -0.06976741552352905 -0.05426359176635742
0.2429743856191635 -0.06976741552352905 -0.03875970467925072
0.24069900810718536 -0.06976742297410965 -0.02325582504272461
0.24079063534736633 -0.05426359176635742 -0.06976741552352905
0.24196815490722656 -0.05426359176635742 -0.05426359176635742
0.24144655466079712 -0.05426358804106712 -0.038759708404541016
0.24041210114955902 0.10077524930238724 -0.05426359176635742
0.24187037348747253 0.11627912521362305 -0.06976741552352905
0.24274976551532745 0.11627912521362305 -0.05426359176635742
0.24212558567523956 0.11627912521362305 -0.038759708404541016
0.24134066700935364 0.1317828893661499 -0.08527129888534546
0.24335050582885742 0.1317828893661499 -0.06976741552352905
0.24396482110023499 0.1317828893661499 -0.05426359176635742
0.2432096153497696 0.1317828893661499 -0.038759708404541016
0.24092067778110504 0.1317828744649887 -0.02325582504272461
0.24126654863357544 0.1472867876291275 -0.08527129888534546
0.242720365524292 0.1472867727279663 -0.06976741552352905
0.2430146485567093 0.1472867727279663 -0.05426359176635742
0.2422698736190796 0.1472867727279663 -0.038759708404541016
0.2404351681470871 0.1472867727279663 -0.02325582504272461
0.2405974119901657 0.16279065608978271 -0.08527129888534546
0.24163107573986053 0.16279065608978271 -0.06976740807294846
0.24181348085403442 0.16279065608978271 -0.05426359549164772
0.24122470617294312 0.16279065608978271 -0.038759708404541016
0.24168621003627777 0.17829453945159912 -0.08527129888534546
0.24292698502540588 0.17829453945159912 -0.06976741552352905
0.2430732250213623 0.17829453945159912 -0.05426359176635742
0.2422860711812973 0.17829455435276031 -0.038759708404541016
0.24233511090278625 0.19379842281341553 -0.08527129888534546
0.2440323680639267 0.19379842281341553 -0.06976741552352905
0.24434861540794373 0.19379842281341553 -0.05426359176635742
0.24320057034492493 0.19379842281341553 -0.038759708404541016
0.2404719442129135 0.20930230617523193 -0.08527129888534546
0.24210421741008759 0.20930230617523193 -0.06976741552352905
0.24263973534107208 0.20930230617523193 -0.05426359176635742
0.24167633056640625 0.20930230617523193 -0.038759708404541016
0.24064205586910248 0.22480618953704834 -0.06976741552352905
0.24117717146873474 0.22480618953704834 -0.05426359176635742
-0.24031007289886475 -0.14844530820846558 -0.05426359176635742
-0.24031007289886475 -0.13539953529834747 -0.08527129888534546
-0.24031005799770355 -0.14575739204883575 -0.06976741552352905
-0.24031007289886475 -0.14498823881149292 -0.03875970467925072
-0.24031007289886475 -0.1327996850013733 -0.02325582504272461
-0.24031007289886475 -0.07262851297855377 -0.02325582504272461
-0.24031007289886475 -0.06860406696796417 -0.08527129888534546
-0.24031007289886475 -0.05310490354895592 -0.06976741552352905
-0.24031007289886475 -0.04725675284862518 -0.05426359176635742
-0.24031007289886475 -0.05112027749419212 -0.038759708404541016
-0.24031007289886475 0.09996583312749863 -0.05426359176635742
-0.24031007289886475 0.10465650260448456 -0.06976741552352905
-0.24031008780002594 0.10627481341362 -0.038759708404541016
-0.24031007289886475 0.12003253400325775 -0.08527129888534546
-0.24031007289886475 0.12701480090618134 -0.02325582504272461
-0.24031007289886475 0.1677137315273285 -0.02325582504272461
-0.24031007289886475 0.213483065366745 -0.08527129888534546
-0.24031007289886475 0.21297922730445862 -0.038759708404541016
-0.24031005799770355 0.22537198662757874 -0.06976741552352905
-0.24031007289886475 0.2254534512758255 -0.05426359176635742
-0.22480618953704834 -0.634847104549408 -0.05426359176635742
-0.22480618953704834 -0.6414756178855896 -0.038759708404541016
-0.22480618953704834 -0.6426623463630676 -0.02325582504272461
-0.22480618953704834 -0.6221957802772522 -0.06976741552352905
-0.22480618953704834 -0.5828759670257568 -0.06976741552352905
-0.22480618953704834 -0.5827744007110596 -0.038759708404541016
-0.22480618953704834 -0.5965441465377808 -0.02325582504272461
-0.22480618953704834 -0.5754768252372742 -0.05426359176635742
-0.22480618953704834 -0.5040837526321411 -0.06976741552352905
-0.22480618953704834 -0.5090485215187073 -0.05426359176635742
-0.22480618953704834 -0.5088514685630798 -0.038759708404541016
-0.22480618953704834 -0.4888864755630493 -0.10077518224716187
-0.22480618953704834 -0.49704086780548096 -0.08527129888534546
-0.22480618953704834 -0.5010848045349121 -0.02325582504272461
-0.22480618953704834 -0.4765093922615051 -0.11627906560897827
-0.22480618953704834 -0.448164165019989 -0.11627906560897827
-0.22480618953704834 -0.44498494267463684 -0.02325582504272461
-0.22480618953704834 -0.439383327960968 -0.10077518224716187
-0.22480618953704834 -0.43497544527053833 -0.08527129888534546
-0.22480618953704834 -0.43323683738708496 -0.06976741552352905
-0.22480618953704834 -0.4330209195613861 -0.05426359176635742
-0.22480618953704834 -0.4358499050140381 -0.038759708404541016
-0.22480618953704834 -0.2794238328933716 -0.08527129888534546
-0.22480618953704834 -0.28412383794784546 -0.06976741552352905
-0.22480618953704834 -0.28387048840522766 -0.05426359176635742
-0.22480618953704834 -0.2755873203277588 -0.038759708404541016
-0.22480618953704834 -0.25738653540611267 -0.11627906560897827
-0.22480617463588715 -0.270331472158432 -0.10077518224716187
-0.22480618953704834 -0.24672706425189972 -0.02325582504272461
-0.22480618953704834 -0.2195723056793213 -0.02325582504272461
-0.22480620443820953 -0.20855379104614258 -0.11627907305955887
-0.22480618953704834 -0.19764479994773865 -0.10077518224716187
-0.22480618953704834 -0.19525161385536194 -0.038759708404541016
-0.22480618953704834 -0.19087563455104828 -0.08527129888534546
-0.22480618953704834 -0.181096613407135 -0.06976741552352905
-0.22480618953704834 -0.18257203698158264 -0.038759708404541016
-0.22480618953704834 -0.1635621190071106 -0.10077518224716187
-0.22480618953704834 -0.17054808139801025 -0.08527129888534546
-0.22480617463588715 -0.177329421043396 -0.06976741552352905
-0.22480618953704834 -0.17095080018043518 -0.02325582504272461
-0.22480618953704834 -0.14750726521015167 -0.13178294897079468
-0.22480618953704834 -0.1551734209060669 -0.11627906560897827
-0.22480618953704834 -0.1551741063594818 -0.007751941680908203
-0.22480618953704834 -0.1306782215833664 0.007751941680908203
-0.22480618953704834 -0.07677782326936722 -0.13178294897079468
-0.22480618953704834 -0.056160833686590195 -0.11627906560897827
-0.22480618953704834 -0.0652577131986618 0.007751941680908203
-0.22480618953704834 -0.040968820452690125 -0.10077518224716187
-0.22480618953704834 -0.03876303508877754 -0.007751941680908203
-0.22480618953704834 -0.009898574091494083 -0.02325582504272461
-0.22480618953704834 0.000522867776453495 -0.08527129888534546
-0.22480618953704834 0.025452155619859695 -0.08527129888534546
-0.22480618953704834 0.03428684175014496 -0.02325582504272461
-0.22480618953704834 0.058312080800533295 -0.10077518224716187
-0.22480618953704834 0.0831732451915741 -0.11627906560897827
-0.22480618953704834 0.07999274134635925 -0.007751941680908203
-0.22480618953704834 0.12763893604278564 0.007751941680908203
-0.22480618953704834 0.1343987137079239 -0.13178294897079468
-0.22480618953704834 0.1685095727443695 0.00775194214656949
-0.22480618953704834 0.22658899426460266 -0.13178294897079468
-0.22480618953704834 0.24975380301475525 -0.11627906560897827
-0.22480620443820953 0.24036303162574768 -0.007751941680908203
-0.22480618953704834 0.2607818841934204 -0.10077518224716187
-0.22480618953704834 0.2685072124004364 -0.08527129888534546
-0.22480618953704834 0.26064687967300415 -0.02325582504272461
-0.22480618953704834 0.27353259921073914 -0.06976741552352905
-0.22480618953704834 0.27687743306159973 -0.05426359176635742
-0.22480618953704834 0.2749282121658325 -0.038759708404541016
-0.22480618953704834 0.3297218978404999 -0.08527129888534546
-0.22480618953704834 0.3239278197288513 -0.06976741552352905
-0.22480618953704834 0.3220843970775604 -0.05426359549164772
-0.22480618953704834 0.32645338773727417 -0.038759708404541016
-0.22480618953704834 0.3422948718070984 -0.10077518224716187
-0.22480620443820953 0.35255587100982666 -0.10077518224716187
-0.22480618953704834 0.36480510234832764 -0.08527129888534546
-0.22480618953704834 0.365823358297348 -0.06976741552352905
-0.22480618953704834 0.3658590316772461 -0.05426359176635742
-0.22480618953704834 0.36450105905532837 -0.038759708404541016
-0.22480618953704834 0.533502459526062 -0.05426359176635742
-0.22480618953704834 0.5539941787719727 -0.05426359176635742
-0.22480618953704834 0.7327483892440796 -0.05426359176635742
-0.22480620443820953 0.7241974472999573 -0.038759708404541016
-0.22480618953704834 0.7266709804534912 -0.02325582504272461
-0.22480618953704834 0.7399650812149048 -0.05426359176635742
-0.22480618953704834 0.743665874004364 -0.038759708404541016
-0.22480618953704834 0.7405250072479248 -0.02325582504272461
-0.20930230617523193 -0.6763484477996826 -0.05426359176635742
-0.20930230617523193 -0.6826422214508057 -0.038759708404541016
-0.20930230617523193 -0.685016930103302 -0.02325582690536976
-0.20930230617523193 -0.6847152709960938 -0.007751941680908203
-0.20930230617523193 -0.6816572546958923 0.007751941680908203
-0.20930230617523193 -0.6753363609313965 0.02325582504272461
-0.20930230617523193 -0.6658124923706055 -0.06976741552352905
-0.20930230617523193 -0.6593295335769653 0.038759708404541016
-0.20930230617523193 -0.6520885229110718 -0.08527129888534546
-0.20930230617523193 -0.6375267505645752 -0.10077518224716187
-0.20930230617523193 -0.6230714321136475 -0.11627906560897827
-0.20930230617523193 -0.6251152753829956 0.038759708404541016
-0.20930230617523193 -0.605201005935669 -0.13178294897079468
-0.20930230617523193 -0.5960779190063477 0.02325582504272461
-0.20930230617523193 -0.5669809579849243 0.007751941680908203
-0.20930232107639313 -0.5493358969688416 -0.13178294897079468
-0.20930230617523193 -0.5403468608856201 -0.11627906560897827
-0.20930230617523193 -0.5365737080574036 -0.007751941680908203
-0.20930230617523193 -0.531873345375061 -0.10077518224716187
-0.20930230617523193 -0.5096588730812073 -0.10077518224716187
-0.20930230617523193 -0.5151672959327698 -0.007751941680908203
-0.20930230617523193 -0.4951600432395935 -0.13178294897079468
-0.20930230617523193 -0.5028722286224365 -0.11627907305955887
-0.20930230617523193 -0.4967702627182007 0.007751941680908203
-0.20930230617523193 -0.4857370853424072 -0.14728683233261108
-0.20930230617523193 -0.45298486948013306 0.007751941680908203
-0.20930229127407074 -0.4417468011379242 -0.1472868174314499
-0.20930230617523193 -0.43623554706573486 -0.13178294897079468
-0.20930230617523193 -0.4324718713760376 -0.11627906560897827
-0.20930230617523193 -0.4294990003108978 -0.10077518224716187
-0.20930230617523193 -0.42983102798461914 -0.02325582504272461
-0.20930230617523193 -0.43709415197372437 -0.007751941680908203
-0.20930230617523193 -0.42618539929389954 -0.08527129888534546
-0.20930230617523193 -0.4240961968898773 -0.06976741552352905
-0.20930230617523193 -0.4228830933570862 -0.05426359176635742
-0.20930230617523193 -0.42428380250930786 -0.038759712129831314
-0.20930230617523193 -0.3519473671913147 -0.06976741552352905
-0.20930230617523193 -0.35272520780563354 -0.05426359176635742
-0.20930230617523193 -0.34658706188201904 -0.038759708404541016
-0.20930230617523193 -0.32379212975502014 -0.08527129888534546
-0.20930230617523193 -0.3115138113498688 -0.10077518224716187
-0.20930230617523193 -0.3112402558326721 -0.02325582504272461
-0.20930230617523193 -0.29132279753685 -0.13178294897079468
-0.20930230617523193 -0.301788866519928 -0.11627906560897827
-0.20930230617523193 -0.2888687551021576 -0.007751941680908203
-0.20930230617523193 -0.2742830514907837 -0.14728683233261108
-0.20930230617523193 -0.25224173069000244 -0.1627907156944275
-0.20930230617523193 -0.2255025953054428 0.007751941680908203
-0.20930230617523193 -0.21776017546653748 -0.1627907156944275
-0.20930230617523193 -0.22440122067928314 0.007751941680908203
-0.20930230617523193 -0.19492127001285553 -0.14728683233261108
-0.20930230617523193 -0.17957134544849396 -0.13178294897079468
-0.20930230617523193 -0.17700999975204468 -0.13178294897079468
-0.20930230617523193 -0.150394469499588 -0.1627907156944275
-0.20930230617523193 -0.16269752383232117 -0.14728683233261108
-0.20930230617523193 -0.16171219944953918 0.007751941680908203
-0.20930230617523193 -0.13296964764595032 0.02325582504272461
-0.20930230617523193 -0.072547048330307 -0.1627907156944275
-0.20930230617523193 -0.05801422894001007 -0.14728683233261108
-0.20930230617523193 -0.05460064485669136 0.02325582504272461
-0.20930230617523193 -0.04574961960315704 -0.13178294897079468
-0.20930230617523193 -0.025120604783296585 0.007751941680908203
-0.20930230617523193 0.04052155837416649 -0.13178294897079468
-0.20930230617523193 0.04530927538871765 0.007751941680908203
-0.20930230617523193 0.06282909959554672 -0.14728683233261108
-0.20930230617523193 0.13009905815124512 -0.1627907156944275
-0.20930230617523193 0.11751892417669296 0.02325582504272461
-0.20930230617523193 0.20157308876514435 -0.1627907156944275
-0.20930230617523193 0.21865034103393555 0.02325582504272461
-0.20930230617523193 0.26947450637817383 0.007751941680908203
-0.20930230617523193 0.2732446789741516 -0.1472868174314499
-0.20930230617523193 0.2876121997833252 -0.13178293406963348
-0.20930230617523193 0.2926264703273773 -0.11627906560897827
-0.20930230617523193 0.2983495891094208 -0.10077518224716187
-0.20930230617523193 0.29810768365859985 -0.007751941680908203
-0.20930230617523193 0.3066471517086029 -0.10077518224716187
-0.20930232107639313 0.30753543972969055 -0.007751941680908203
-0.20930230617523193 0.3280545473098755 -0.13178294897079468
-0.20930230617523193 0.3188130855560303 -0.11627906560897827
-0.20930230617523193 0.3308832347393036 0.007751941680908203
-0.20930230617523193 0.3466169834136963 -0.14728683233261108
-0.20930230617523193 0.35039952397346497 -0.14728683233261108
-0.20930230617523193 0.3517138957977295 0.007751941680908203
-0.20930232107639313 0.3659515380859375 -0.13178294897079468
-0.20930230617523193 0.3699229955673218 -0.11627906560897827
-0.20930230617523193 0.3732893466949463 -0.10077518224716187
-0.20930230617523193 0.3757500648498535 -0.08527129888534546
-0.20930230617523193 0.3775520324707031 -0.06976741552352905
-0.20930230617523193 0.37752020359039307 -0.05426359176635742
-0.20930230617523193 0.3753267526626587 -0.038759708404541016
-0.20930230617523193 0.372236967086792 -0.02325582504272461
-0.20930230617523193 0.3667101562023163 -0.007751941680908203
-0.20930230617523193 0.4728246033191681 -0.05426359176635742
-0.20930230617523193 0.4819583296775818 -0.10077518224716187
-0.20930230617523193 0.4765184819698334 -0.08527129888534546
-0.20930230617523193 0.4733240008354187 -0.06976741552352905
-0.20930230617523193 0.4764399826526642 -0.038759708404541016
-0.20930230617523193 0.4842913746833801 -0.02325582504272461
-0.20930230617523193 0.49957045912742615 -0.13178294897079468
-0.20930230617523193 0.4889957010746002 -0.11627906560897827
-0.20930230617523193 0.4978466033935547 -0.007751941680908203
-0.20930230617523193 0.5172927379608154 -0.14728683233261108
-0.20930230617523193 0.5220685601234436 0.007751941680908203
-0.20930230617523193 0.5804218053817749 -0.14728683233261108
-0.20930230617523193 0.5744380354881287 0.007751941680908203
-0.20930230617523193 0.6031907796859741 -0.13178294897079468
-0.20930230617523193 0.5981617569923401 -0.007751941680908203
-0.20930230617523193 0.6188373565673828 -0.11627906560897827
-0.20930230617523193 0.6255881190299988 -0.10077518224716187
-0.20930230617523193 0.6259865760803223 -0.038759708404541016
-0.20930230617523193 0.6147502064704895 -0.02325582504272461
-0.20930230617523193 0.628687858581543 -0.08527129888534546
-0.20930230617523193 0.6302975416183472 -0.06976741552352905
-0.20930230617523193 0.6307135820388794 -0.05426359176635742
-0.20930230617523193 0.6832054853439331 -0.05426359176635742
-0.20930230617523193 0.680809736251831 -0.038759708404541016
-0.20930230617523193 0.6830716133117676 -0.02325582504272461
-0.20930230617523193 0.7032588124275208 -0.11627906560897827
-0.20930230617523193 0.6987813115119934 -0.10077518224716187
-0.20930230617523193 0.6948157548904419 -0.08527129888534546
-0.20930229127407074 0.6905024647712708 -0.06976740807294846
-0.20930230617523193 0.6899760961532593 -0.00775194214656949
-0.20930230617523193 0.6970243453979492 0.007751941680908203
-0.20930230617523193 0.7053712010383606 0.02325582504272461
-0.20930230617523193 0.7115911245346069 -0.13178294897079468
-0.20930230617523193 0.7189282178878784 0.038759708404541016
-0.20930230617523193 0.7250348329544067 -0.14728683233261108
-0.20930230617523193 0.753890335559845 0.038759708404541016
-0.20930230617523193 0.7689417004585266 -0.14728683233261108
-0.20930230617523193 0.7802650332450867 -0.13178294897079468
-0.20930230617523193 0.7808482646942139 0.007751941680908203
-0.20930229127407074 0.7686917781829834 0.02325582318007946
-0.20930232107639313 0.7873374223709106 -0.11627906560897827
-0.20930230617523193 0.7924168109893799 -0.10077518224716187
-0.20930230617523193 0.7958558797836304 -0.08527129888534546
-0.20930230617523193 0.7982984185218811 -0.06976741552352905
-0.20930230617523193 0.795824408531189 -0.02325582504272461
-0.20930230617523193 0.7897047400474548 -0.007751941680908203
-0.20930229127407074 0.7997455596923828 -0.05426358804106712
-0.20930230617523193 0.7986316680908203 -0.038759708404541016
-0.19379842281341553 -0.7557128667831421 -0.02325582504272461
-0.19379842281341553 -0.7559878826141357 -0.007751941680908203
-0.19379842281341553 -0.7539503574371338 0.007751941680908203
-0.19379842281341553 -0.7457908987998962 -0.05426359176635742
-0.19379842281341553 -0.751829206943512 -0.038759708404541016
-0.19379842281341553 -0.7492616176605225 0.02325582504272461
-0.19379842281341553 -0.7405069470405579 0.038759708404541016
-0.19379842281341553 -0.7329038381576538 -0.06976741552352905
-0.19379842281341553 -0.7093890905380249 0.038759708404541016
-0.19379842281341553 -0.7016605138778687 0.038759708404541016
-0.19379842281341553 -0.6796087026596069 -0.08527129888534546
-0.19379842281341553 -0.6879104971885681 0.05426359176635742
-0.19379842281341553 -0.6629525423049927 -0.10077518224716187
-0.19379843771457672 -0.6734851598739624 0.06976747512817383
-0.19379842281341553 -0.6469630002975464 -0.11627906560897827
-0.19379842281341553 -0.6323109865188599 -0.13178294897079468
-0.19379842281341553 -0.6169682741165161 -0.14728683233261108
-0.19379842281341553 -0.6211937665939331 0.06976747512817383
-0.19379842281341553 -0.5974621772766113 -0.1627907156944275
-0.19379842281341553 -0.5889017581939697 0.05426359176635742
-0.19379842281341553 -0.5567771792411804 0.038759708404541016
-0.19379842281341553 -0.5453013181686401 -0.1627907156944275
-0.19379842281341553 -0.530582845211029 -0.14728683233261108
-0.19379842281341553 -0.5199385285377502 -0.13178294897079468
-0.19379842281341553 -0.5320031046867371 0.02325582504272461
-0.19379842281341553 -0.5049845576286316 -0.14728683233261108
-0.19379842281341553 -0.5185332894325256 -0.13178294897079468
-0.19379842281341553 -0.5061771869659424 0.02325582504272461
-0.19379842281341553 -0.4926978349685669 -0.1627907156944275
-0.19379842281341553 -0.45075416564941406 0.02325582504272461
-0.19379842281341553 -0.43521779775619507 -0.1627907156944275
-0.19379842281341553 -0.4293292164802551 -0.14728683233261108
-0.19379842281341553 -0.42669814825057983 -0.007751941680908203
-0.19379842281341553 -0.4356399178504944 0.007751941680908203
-0.19379842281341553 -0.42624354362487793 -0.13178294897079468
-0.19379842281341553 -0.4238220751285553 -0.11627906560897827
-0.19379842281341553 -0.4216761589050293 -0.10077518224716187
-0.19379842281341553 -0.4195854365825653 -0.08527129888534546
-0.19379842281341553 -0.41766732931137085 -0.06976741552352905
-0.19379842281341553 -0.41594037413597107 -0.05426359176635742
-0.19379842281341553 -0.41610783338546753 -0.038759708404541016
-0.19379842281341553 -0.4191403090953827 -0.02325582504272461
-0.19379842281341553 -0.36674126982688904 -0.13178294897079468
-0.19379842281341553 -0.36998552083969116 -0.11627906560897827
-0.19379842281341553 -0.37177878618240356 -0.10077518224716187
-0.19379842281341553 -0.37269145250320435 -0.08527129888534546
-0.19379842281341553 -0.37338173389434814 -0.06976741552352905
-0.19379842281341553 -0.3741717040538788 -0.05426359176635742
-0.19379842281341553 -0.3731898367404938 -0.038759708404541016
-0.19379842281341553 -0.3689567446708679 -0.02325582504272461
-0.19379842281341553 -0.36025500297546387 -0.007751941680908203
-0.19379842281341553 -0.31040918827056885 -0.14728683233261108
-0.19379842281341553 -0.3047070801258087 0.007751941680908203
-0.19379842281341553 -0.2915768325328827 -0.1627907156944275
-0.19379842281341553 -0.2681043744087219 -0.1782945990562439
-0.19379842281341553 -0.2541050910949707 0.02325582504272461
-0.19379842281341553 -0.20371048152446747 -0.1782945990562439
-0.19379842281341553 -0.19541345536708832 0.02325582504272461
-0.19379842281341553 -0.16082972288131714 -0.1782945990562439
-0.19379842281341553 -0.1613968163728714 0.02325582504272461
-0.19379842281341553 -0.12807512283325195 0.038759708404541016
-0.19379842281341553 -0.05635473132133484 -0.1782945990562439
-0.19379842281341553 -0.043947938829660416 -0.1627907156944275
-0.19379842281341553 -0.05134592205286026 0.038759708404541016
-0.19379842281341553 -0.011112818494439125 -0.1627907156944275
-0.19379842281341553 -0.006279804743826389 0.02325582504272461
-0.19379842281341553 0.027298718690872192 0.02325582504272461
-0.19379842281341553 0.05698129162192345 -0.1782945990562439
-0.19379843771457672 0.1045767292380333 0.038759708404541016
-0.19379842281341553 0.22480472922325134 -0.1782945990562439
-0.19379842281341553 0.2227528840303421 0.038759708404541016
-0.19379842281341553 0.27103984355926514 -0.1782945990562439
-0.19379842281341553 0.271604061126709 -0.1782945990562439
-0.19379842281341553 0.3016434609889984 -0.1627907156944275
-0.19379842281341553 0.29100501537323 0.02325582504272461
-0.19379842281341553 0.3108345866203308 0.02325582504272461
-0.19379842281341553 0.3250000476837158 -0.1627907156944275
-0.19379842281341553 0.3565863072872162 0.02325582504272461
-0.19379842281341553 0.36616477370262146 -0.1627907156944275
-0.19379842281341553 0.37412863969802856 -0.14728683233261108
-0.19379842281341553 0.3775029182434082 -0.13178294897079468
-0.19379842281341553 0.3744884431362152 -0.007751941680908203
-0.19379842281341553 0.36855262517929077 0.007751941680908203
-0.19379842281341553 0.380084753036499 -0.11627906560897827
-0.19379842281341553 0.3826175034046173 -0.10077518224716187
-0.19379842281341553 0.3848204016685486 -0.08527129888534546
-0.19379842281341553 0.3860625624656677 -0.06976741552352905
-0.19379842281341553 0.3859618306159973 -0.05426358804106712
-0.19379842281341553 0.3838217854499817 -0.038759708404541016
-0.19379842281341553 0.38049572706222534 -0.02325582504272461
-0.19379842281341553 0.4380282759666443 -0.10077518224716187
-0.19379842281341553 0.4353353977203369 -0.08527129888534546
-0.19379842281341553 0.43504154682159424 -0.06976741552352905
-0.19379842281341553 0.4368223547935486 -0.05426359176635742
-0.19379842281341553 0.450818806886673 -0.13178294897079468
-0.19379842281341553 0.4425825774669647 -0.11627906560897827
-0.19379840791225433 0.44269078969955444 -0.038759708404541016
-0.19379842281341553 0.4500637650489807 -0.02325582504272461
-0.19379842281341553 0.46912258863449097 -0.14728683233261108
-0.19379842281341553 0.46046891808509827 -0.00775194214656949
-0.19379842281341553 0.47282952070236206 0.007751941680908203
-0.19379842281341553 0.4898814558982849 -0.1627907156944275
-0.19379842281341553 0.4940364956855774 0.02325582504272461
-0.19379842281341553 0.5258371829986572 -0.1782945990562439
-0.19379842281341553 0.5437697172164917 0.038759708404541016
-0.19379842281341553 0.5649604201316833 0.038759708404541016
-0.19379842281341553 0.5802955031394958 -0.1782945990562439
-0.19379842281341553 0.6032177209854126 0.02325582504272461
-0.19379842281341553 0.6405881643295288 -0.1627907156944275
-0.19379842281341553 0.6543911695480347 -0.14728683233261108
-0.19379842281341553 0.6683600544929504 -0.13178294897079468
-0.19379842281341553 0.6851779222488403 -0.14728683233261108
-0.19379842281341553 0.676484227180481 -0.13178294897079468
-0.19379842281341553 0.682120680809021 0.02325582504272461
-0.19379842281341553 0.6957383155822754 -0.1627907156944275
-0.19379842281341553 0.693706214427948 0.038759708404541016
-0.19379842281341553 0.7029914259910583 0.05426359176635742
-0.19379842281341553 0.7130561470985413 -0.1782945990562439
-0.19379842281341553 0.7179059386253357 0.06976747512817383
-0.19379842281341553 0.7593083381652832 0.06976747512817383
-0.19379842281341553 0.780545175075531 0.05426359176635742
-0.19379842281341553 0.7979233860969543 0.038759708404541016
-0.19379842281341553 0.7990971207618713 -0.1782945990562439
-0.19379842281341553 0.8136325478553772 0.02325582504272461
-0.19379843771457672 0.8157363533973694 -0.1627907156944275
-0.19379842281341553 0.8246359825134277 -0.14728683233261108
-0.19379842281341553 0.8260196447372437 0.007751941680908203
-0.19379842281341553 0.8321433067321777 -0.13178294897079468
-0.19379842281341553 0.8371376395225525 -0.11627906560897827
-0.19379842281341553 0.8413252830505371 -0.10077518224716187
-0.19379842281341553 0.843303382396698 -0.08527129888534546
-0.19379842281341553 0.8442570567131042 -0.06976741552352905
-0.19379842281341553 0.8444504737854004 -0.05426359176635742
-0.19379842281341553 0.8433892726898193 -0.038759708404541016
-0.19379842281341553 0.8402723073959351 -0.02325582504272461
-0.19379842281341553 0.8340877294540405 -0.007751941680908203
-0.1782945990562439 -0.7719049453735352 -0.02325582504272461
-0.1782945990562439 -0.7747504711151123 -0.007751941680908203
-0.1782945990562439 -0.7736867666244507 0.007751941680908203
-0.1782945990562439 -0.7692140936851501 0.02325582504272461
-0.1782945990562439 -0.7520798444747925 -0.06976741552352905
-0.1782945990562439 -0.7620190382003784 -0.05426359176635742
-0.1782945990562439 -0.7668435573577881 -0.03875970467925072
-0.1782945990562439 -0.7645285725593567 0.038759708404541016
-0.1782945990562439 -0.7589986324310303 0.05426359176635742
-0.1782945990562439 -0.752788782119751 0.06976747512817383
-0.1782945990562439 -0.7401760816574097 -0.08527129888534546
-0.1782945990562439 -0.7068105340003967 0.06976747512817383
-0.1782945990562439 -0.7023705244064331 0.06976747512817383
-0.1782945990562439 -0.6783803701400757 -0.10077518224716187
-0.1782945990562439 -0.6845035552978516 0.08527135848999023
-0.1782945990562439 -0.6618282794952393 -0.11627906560897827
-0.1782945990562439 -0.6462568044662476 -0.13178294897079468
-0.1782945990562439 -0.6316852569580078 -0.14728683233261108
-0.1782945990562439 -0.615557849407196 -0.1627907156944275
-0.1782945990562439 -0.5979546904563904 0.08527135848999023
-0.1782945990562439 -0.5910641551017761 -0.1782945990562439
-0.1782945990562439 -0.551700234413147 0.06976747512817383
-0.1782945990562439 -0.5414952635765076 -0.1782945990562439
-0.1782945990562439 -0.5208974480628967 -0.1627907156944275
-0.1782945990562439 -0.5259316563606262 0.05426359176635742
-0.1782945990562439 -0.5164099335670471 -0.1627907156944275
-0.1782945990562439 -0.4933139681816101 -0.1782945990562439
-0.1782945990562439 -0.4494938850402832 0.038759708404541016
-0.1782945990562439 -0.4276054799556732 -0.1782945990562439
-0.1782945990562439 -0.43448641896247864 0.02325582504272461
-0.1782945990562439 -0.4120749533176422 -0.1627907156944275
-0.1782945990562439 -0.41163110733032227 -0.13178294897079468
-0.1782945990562439 -0.4125199615955353 -0.11627906560897827
-0.1782945990562439 -0.4119316041469574 -0.10077518224716187
-0.1782945990562439 -0.4136292338371277 -0.007751941680908203
-0.1782945990562439 -0.42365920543670654 0.007751941680908203
-0.1782945990562439 -0.40828585624694824 -0.14728683233261108
-0.1782945990562439 -0.4091617465019226 -0.08527129888534546
-0.1782945990562439 -0.40084195137023926 -0.06976741552352905
-0.1782945990562439 -0.39584288001060486 -0.02325582504272461
-0.1782945990562439 -0.3824916183948517 -0.1782945990562439
-0.1782945990562439 -0.39373695850372314 -0.1627907156944275
-0.1782945990562439 -0.3925025165081024 -0.14728683233261108
-0.1782945990562439 -0.38905882835388184 -0.13178294897079468
-0.1782945990562439 -0.3865722715854645 -0.11627906560897827
-0.1782945990562439 -0.3864229917526245 -0.10077518224716187
-0.1782945990562439 -0.38771194219589233 -0.08527129888534546
-0.1782945990562439 -0.3917023837566376 -0.06976741552352905
-0.1782945990562439 -0.39485207200050354 -0.02325582690536976
-0.1782945990562439 -0.37744855880737305 -0.007751941680908203
-0.1782945990562439 -0.3696283996105194 0.007751941680908203
-0.1782945990562439 -0.3626195192337036 -0.1782945990562439
-0.1782945990562439 -0.35834258794784546 0.02325582504272461
-0.1782945990562439 -0.3198005259037018 0.02325582504272461
-0.1782945841550827 -0.3159463107585907 0.02325582318007946
-0.1782945990562439 -0.2938729226589203 -0.1782945990562439
-0.1782945990562439 -0.2653355300426483 -0.19379842281341553
-0.1782945990562439 -0.260332852602005 0.038759708404541016
-0.1782945990562439 -0.21073020994663239 -0.19379842281341553
-0.1782945990562439 -0.1773149073123932 0.038759708404541016
-0.1782945990562439 -0.1595778912305832 -0.19379843771457672
-0.1782945990562439 -0.15226037800312042 0.038759708404541016
-0.1782945990562439 -0.1173977255821228 0.05426359176635742
-0.1782945990562439 -0.05364654213190079 -0.19379842281341553
-0.1782945990562439 -0.05418483912944794 0.05426359176635742
-0.1782945990562439 -0.0043153660371899605 0.038759708404541016
-0.1782945990562439 0.02337571047246456 0.038759708404541016
-0.1782945990562439 0.04462990164756775 -0.19379842281341553
-0.1782945990562439 0.07907969504594803 0.05426359176635742
-0.1782945990562439 0.2039053738117218 -0.19379842281341553
-0.1782945841550827 0.2133997231721878 0.05426359176635742
-0.1782945990562439 0.28287285566329956 0.038759708404541016
-0.1782945990562439 0.3110640048980713 0.038759708404541016
-0.1782945990562439 0.35356640815734863 0.038759708404541016
-0.1782945990562439 0.37015753984451294 -0.1782945990562439
-0.1782945990562439 0.37543898820877075 0.007751941680908203
-0.1782945990562439 0.3678445816040039 0.02325582504272461
-0.1782945990562439 0.3900192379951477 -0.02325582504272461
-0.1782945990562439 0.38362690806388855 -0.007751941680908203
-0.1782945990562439 0.4065951704978943 -0.1782945990562439
-0.1782945990562439 0.4226529598236084 -0.02325582504272461
-0.1782945990562439 0.43503338098526 -0.1782945990562439
-0.1782945990562439 0.4374646544456482 -0.007751941680908203
-0.1782945990562439 0.4509562849998474 0.007751941680908203
-0.1782945990562439 0.46455150842666626 0.02325582504272461
-0.1782945990562439 0.48171061277389526 -0.1782945990562439
-0.1782945990562439 0.4833841919898987 0.038759708404541016
-0.1782945990562439 0.5345283150672913 -0.19379842281341553
-0.1782945990562439 0.5280616283416748 0.05426359176635742
-0.1782945990562439 0.5743767619132996 -0.19379842281341553
-0.1782945990562439 0.5800283551216125 0.05426359176635742
-0.1782945990562439 0.6252964735031128 0.038759708404541016
-0.1782945990562439 0.6561756730079651 -0.1782945990562439
-0.1782945990562439 0.6532723307609558 0.038759708404541016
-0.1782945990562439 0.677304208278656 -0.1782945990562439
-0.1782945990562439 0.6853742599487305 0.05426359176635742
-0.1782945990562439 0.6987521648406982 0.06976747512817383
-0.1782945990562439 0.7074804306030273 -0.19379840791225433
-0.1782945990562439 0.7111624479293823 0.08527135848999023
-0.1782945990562439 0.7716382741928101 0.08527135848999023
-0.1782945990562439 0.7940962314605713 0.06976747512817383
-0.1782945990562439 0.8068946599960327 -0.19379842281341553
-0.1782945990562439 0.8140757083892822 0.05426359176635742
-0.1782945990562439 0.8325202465057373 -0.1782945990562439
-0.1782945990562439 0.8445338010787964 0.02325582504272461
-0.1782945990562439 0.8312337398529053 0.038759708404541016
-0.1782945990562439 0.8456250429153442 -0.1627907156944275
-0.1782945990562439 0.8543304204940796 -0.14728683233261108
-0.1782945990562439 0.8542219400405884 0.007751941680908203
-0.1782945990562439 0.8618508577346802 -0.13178294897079468
-0.1782945990562439 0.8665297031402588 -0.11627906560897827
-0.1782945990562439 0.8695152401924133 -0.10077518224716187
-0.1782945990562439 0.8712174892425537 -0.08527129888534546
-0.1782945990562439 0.8720507025718689 -0.06976741552352905
-0.1782945990562439 0.8719415664672852 -0.05426359176635742
-0.1782945990562439 0.8702833652496338 -0.038759708404541016
-0.1782945990562439 0.8668056726455688 -0.02325582504272461
-0.1782945990562439 0.8616335391998291 -0.007751941680908203
-0.1627907156944275 -0.7850509285926819 -0.02325582504272461
-0.1627907156944275 -0.7899162769317627 -0.007751941680908203
-0.1627907156944275 -0.7904421091079712 0.007751941680908203
-0.1627907156944275 -0.7857666015625 0.02325582504272461
-0.1627907156944275 -0.7717248201370239 -0.05426359176635742
-0.1627907156944275 -0.7790718078613281 -0.038759708404541016
-0.1627907156944275 -0.7801446914672852 0.038759708404541016
-0.1627907156944275 -0.7775412797927856 0.05426359176635742
-0.1627907156944275 -0.7733020782470703 0.06976747512817383
-0.1627907156944275 -0.7636576294898987 -0.06976741552352905
-0.1627907156944275 -0.7629486918449402 0.08527135848999023
-0.1627907156944275 -0.7514042258262634 -0.08527129888534546
-0.1627907156944275 -0.7483867406845093 0.10077524185180664
-0.1627907156944275 -0.7325609922409058 -0.10077518224716187
-0.1627907156944275 -0.7063472270965576 0.10077524185180664
-0.16279073059558868 -0.7019511461257935 0.10077524185180664
-0.1627907156944275 -0.6710077524185181 -0.11627906560897827
-0.1627907156944275 -0.66254061460495 0.11627912521362305
-0.1627907156944275 -0.6547353863716125 -0.13178294897079468
-0.1627907156944275 -0.6395969986915588 -0.14728683233261108
-0.1627907156944275 -0.6380679607391357 0.11627911776304245
-0.1627907007932663 -0.6247886419296265 -0.1627907007932663
-0.1627907156944275 -0.6059912443161011 -0.1782945990562439
-0.1627907156944275 -0.5676451921463013 0.10077524185180664
-0.1627907156944275 -0.5269009470939636 0.08527135848999023
-0.1627907156944275 -0.5060279965400696 0.06976747512817383
-0.1627907156944275 -0.4874538779258728 -0.19379840791225433
-0.1627907156944275 -0.4514319896697998 0.05426359176635742
-0.1627907156944275 -0.43580806255340576 0.038759708404541016
-0.1627907156944275 -0.42310798168182373 -0.19379842281341553
-0.1627907156944275 -0.4233130216598511 0.02325582504272461
-0.1627907156944275 -0.4036995768547058 -0.19379842281341553
-0.1627907156944275 -0.40945664048194885 0.007751941680908203
-0.1627907156944275 -0.3840944766998291 0.007751941680908203
-0.1627907156944275 -0.3733479976654053 0.02325582504272461
-0.1627907156944275 -0.3659614324569702 0.038759708404541016
-0.1627907156944275 -0.356711745262146 -0.19379842281341553
-0.1627907156944275 -0.3234744369983673 0.038759708404541016
-0.1627907156944275 -0.2873629331588745 -0.19379842281341553
-0.1627907156944275 -0.2996616065502167 0.03875970467925072
-0.1627907156944275 -0.25042521953582764 0.05426359176635742
-0.1627907156944275 -0.17740215361118317 0.05426359176635742
-0.1627907156944275 -0.1473015993833542 -0.20930230617523193
-0.1627907156944275 -0.14115267992019653 0.05426358804106712
-0.1627907156944275 -0.09720414131879807 0.06976747512817383
-0.1627907156944275 -0.07462690770626068 0.06976747512817383
-0.1627907156944275 -0.06850533932447433 -0.20930230617523193
-0.1627907156944275 -0.027707863599061966 -0.19379842281341553
-0.1627907156944275 -0.019152658060193062 -0.19379842281341553
-0.1627907156944275 -0.018342630937695503 0.05426359176635742
-0.1627907156944275 0.024001410230994225 0.05426359549164772
-0.1627907156944275 0.060812607407569885 -0.20930230617523193
-0.1627907156944275 0.09712699055671692 -0.20930230617523193
-0.1627907156944275 0.11939112097024918 -0.20930230617523193
-0.1627907156944275 0.11680474132299423 0.06976747512817383
-0.1627907156944275 0.17034700512886047 -0.20930230617523193
-0.1627907156944275 0.1701178401708603 0.06976747512817383
-0.1627907156944275 0.2577909231185913 0.05426359176635742
-0.1627907156944275 0.3313326835632324 0.05426359176635742
-0.1627907156944275 0.33823662996292114 0.05426359176635742
-0.1627907156944275 0.35585111379623413 -0.19379842281341553
-0.1627907156944275 0.37548041343688965 0.02325582504272461
-0.1627907156944275 0.3651708662509918 0.038759708404541016
-0.1627907156944275 0.3862464725971222 -0.19379842281341553
-0.1627907156944275 0.38624435663223267 0.007751941680908203
-0.1627907156944275 0.43169987201690674 0.007751941680908203
-0.1627907156944275 0.44785505533218384 -0.19379842281341553
-0.1627907156944275 0.4478512406349182 0.02325582504272461
-0.1627907156944275 0.462360680103302 0.038759708404541016
-0.1627907156944275 0.4820186495780945 0.05426359176635742
-0.1627907156944275 0.48939818143844604 -0.19379840791225433
-0.1627907156944275 0.5339024066925049 0.06976747512817383
-0.1627907156944275 0.573817253112793 0.06976747512817383
-0.1627907156944275 0.6203835010528564 0.05426359176635742
-0.1627907156944275 0.6335026025772095 -0.19379842281341553
-0.1627907156944275 0.6394296288490295 0.05426359176635742
-0.1627907156944275 0.6738941669464111 -0.19379842281341553
-0.1627907156944275 0.6845131516456604 0.06976747512817383
-0.1627907156944275 0.6986821293830872 0.08527135848999023
-0.1627907156944275 0.7108876705169678 0.10077524185180664
-0.1627907156944275 0.7296167612075806 -0.20930230617523193
-0.1627907156944275 0.7794978022575378 0.10077524185180664
-0.1627907156944275 0.7990607023239136 -0.20930230617523193
-0.1627907156944275 0.7999399304389954 0.08527135848999023
-0.1627907156944275 0.8185389041900635 0.06976747512817383
-0.1627907156944275 0.8367997407913208 -0.19379842281341553
-0.1627907156944275 0.8367437124252319 0.05426359176635742
-0.1627907156944275 0.8558666706085205 -0.1782945990562439
-0.1627907156944275 0.8519465923309326 0.038759708404541016
-0.1627907156944275 0.8687853813171387 -0.1627907156944275
-0.1627907156944275 0.8720696568489075 0.007751941680908203
-0.1627907156944275 0.863789975643158 0.02325582504272461
-0.1627907156944275 0.8779539465904236 -0.14728683233261108
-0.1627907156944275 0.8839550018310547 -0.13178294897079468
-0.1627907156944275 0.8877983689308167 -0.11627906560897827
-0.1627907156944275 0.8899961113929749 -0.10077518224716187
-0.1627907156944275 0.89097660779953 -0.08527129888534546
