0.19396893680095673 0.02325582504272461 -0.19379842281341553
0.19547151029109955 0.038759708404541016 -0.25581395626068115
0.1964491307735443 0.03875970467925072 -0.24031007289886475
0.19620615243911743 0.038759708404541016 -0.22480618953704834
0.19485844671726227 0.038759708404541016 -0.20930232107639313
0.19566799700260162 0.05426359176635742 -0.25581395626068115
0.19624343514442444 0.05426358804106712 -0.24031007289886475
0.1956702023744583 0.05426359176635742 -0.22480620443820953
0.19386136531829834 0.05426359176635742 -0.20930230617523193
0.19470767676830292 0.06976747512817383 -0.27131783962249756
0.19754666090011597 0.06976747512817383 -0.25581395626068115
0.19781172275543213 0.06976747512817383 -0.24031008780002594
0.19692988693714142 0.06976747512817383 -0.22480618953704834
0.19408300518989563 0.06976747512817383 -0.20930230617523193
0.1956835687160492 0.08527135848999023 -0.27131783962249756
0.19856421649456024 0.08527135848999023 -0.25581395626068115
0.19875189661979675 0.08527135848999023 -0.24031007289886475
0.19805645942687988 0.08527135848999023 -0.22480618953704834
0.1948443204164505 0.08527135848999023 -0.20930230617523193
0.19499458372592926 0.10077524185180664 -0.27131783962249756
0.198097825050354 0.10077524185180664 -0.25581395626068115
0.19837069511413574 0.10077524185180664 -0.24031007289886475
0.19759251177310944 0.10077524185180664 -0.22480618953704834
0.19439996778964996 0.10077523440122604 -0.20930230617523193
0.19654931128025055 0.11627913266420364 -0.25581395626068115
0.1972070187330246 0.11627912521362305 -0.24031007289886475
0.19616219401359558 0.11627913266420364 -0.22480618953704834
0.19593863189220428 0.1317828893661499 -0.25581395626068115
0.19731315970420837 0.1317828893661499 -0.24031007289886475
0.1967180073261261 0.1317828893661499 -0.22480618953704834
0.1941794753074646 0.1317828893661499 -0.20930230617523193
0.1960490345954895 0.1472867727279663 -0.25581395626068115
0.19780948758125305 0.1472867727279663 -0.24031007289886475
0.19745339453220367 0.1472867727279663 -0.22480618953704834
0.19532227516174316 0.1472867727279663 -0.20930230617523193
0.19481253623962402 0.16279065608978271 -0.25581395626068115
0.1970909684896469 0.16279065608978271 -0.24031005799770355
0.19715280830860138 0.16279065608978271 -0.22480618953704834
0.19517742097377777 0.16279065608978271 -0.20930232107639313
0.1960131973028183 0.17829453945159912 -0.24031007289886475
0.19635669887065887 0.17829453945159912 -0.22480618953704834
0.19431251287460327 0.17829455435276031 -0.20930230617523193
0.19437867403030396 0.19379842281341553 -0.24031007289886475
0.194513201713562 0.19379842281341553 -0.22480618953704834
0.19398611783981323 0.20930230617523193 -0.22480618953704834
0.19398096203804016 0.22480618953704834 -0.22480618953704834
0.19526104629039764 0.6279069185256958 -0.25581395626068115
0.19625382125377655 0.6279069185256958 -0.24031005799770355
0.19512230157852173 0.6279069185256958 -0.22480618953704834
0.19591069221496582 0.6434108018875122 -0.25581395626068115
0.19711723923683167 0.6434108018875122 -0.24031007289886475
0.1960127353668213 0.6434107422828674 -0.22480618953704834
0.19501204788684845 0.6589146852493286 -0.25581395626068115
0.1962088644504547 0.6589146852493286 -0.24031007289886475
0.19494757056236267 0.6589146852493286 -0.22480617463588715
-0.19379842281341553 -0.6321253776550293 -0.24031007289886475
-0.19379842281341553 -0.6374168395996094 -0.22480620443820953
-0.19379842281341553 -0.6307209730148315 -0.20930230617523193
-0.19379842281341553 -0.6087803840637207 -0.20930230617523193
-0.19379842281341553 -0.593235969543457 -0.24031007289886475
-0.19379842281341553 -0.5952267646789551 -0.22480618953704834
-0.19379842281341553 -0.36459341645240784 -0.22480618953704834
-0.19379842281341553 -0.3640020787715912 -0.22480618953704834
-0.19379842281341553 -0.10470475256443024 -0.25581395626068115
-0.19379842281341553 -0.11021526902914047 -0.24031007289886475
-0.19379842281341553 -0.10671160370111465 -0.22480618953704834
-0.19379842281341553 -0.09470415860414505 -0.20930229127407074
-0.19379842281341553 -0.07127993553876877 -0.25581395626068115
-0.19379842281341553 -0.062049128115177155 -0.24031007289886475
-0.19379842281341553 -0.0560317263007164 -0.22480618953704834
-0.19379842281341553 -0.05695432797074318 -0.20930230617523193
-0.19379842281341553 -0.04342181980609894 -0.24031007289886475
-0.19379842281341553 -0.05252374708652496 -0.22480618953704834
-0.19379842281341553 -0.0527813620865345 -0.20930230617523193
-0.19379842281341553 -0.029637567698955536 -0.25581395626068115
-0.19379842281341553 -0.037773795425891876 -0.19379842281341553
-0.19379842281341553 -0.007436960935592651 -0.27131783962249756
-0.19379842281341553 0.014710307121276855 -0.19379842281341553
-0.19379842281341553 0.04534289985895157 -0.20930230617523193
-0.19379842281341553 0.10659723728895187 -0.27131783962249756
-0.19379842281341553 0.14583958685398102 -0.20930230617523193
-0.19379842281341553 0.1516880989074707 -0.20930230617523193
-0.19379842281341553 0.17444631457328796 -0.25581395626068115
-0.19379842281341553 0.1928781270980835 -0.24031007289886475
-0.19379842281341553 0.18832069635391235 -0.22480618953704834
-0.19379842281341553 0.6227538585662842 -0.25581395626068115
-0.19379842281341553 0.6173793077468872 -0.24031007289886475
-0.19379843771457672 0.6592274308204651 -0.25581398606300354
-0.19379842281341553 0.6608283519744873 -0.24031007289886475
-0.1782945990562439 -0.7874481081962585 -0.007751941680908203
-0.1782946139574051 -0.7942299842834473 0.007751941680908203
-0.1782945990562439 -0.7965356707572937 0.02325582318007946
-0.1782945841550827 -0.7959800362586975 0.03875970467925072
-0.1782945990562439 -0.7925716638565063 0.05426359176635742
-0.1782945990562439 -0.7877686619758606 0.06976747512817383
-0.1782945990562439 -0.7834554314613342 0.08527135848999023
-0.1782945990562439 -0.7772539258003235 -0.02325582504272461
-0.1782945990562439 -0.777725338935852 0.10077524185180664
-0.1782945990562439 -0.763954222202301 -0.038759708404541016
-0.1782945990562439 -0.7557275295257568 0.11627912521362305
-0.1782946139574051 -0.7473680377006531 -0.05426359549164772
-0.1782945990562439 -0.7517349123954773 0.11627912521362305
-0.1782945990562439 -0.7297202944755554 -0.06976741552352905
-0.1782945990562439 -0.7275540828704834 0.10077524185180664
-0.1782945990562439 -0.7106153964996338 -0.14728683233261108
-0.1782945990562439 -0.71440589427948 -0.13178294897079468
-0.1782945990562439 -0.71623295545578 -0.11627906560897827
-0.1782945841550827 -0.7167185544967651 -0.10077518224716187
-0.1782945990562439 -0.71914142370224 -0.08527129888534546
-0.1782945990562439 -0.7077678442001343 0.08527135848999023
-0.1782945990562439 -0.6957678198814392 -0.1782945990562439
-0.1782945990562439 -0.704246461391449 -0.1627907156944275
-0.1782945990562439 -0.6917835474014282 0.06976747512817383
-0.1782945990562439 -0.6831233501434326 -0.19379842281341553
-0.1782945990562439 -0.6799328327178955 0.05426359176635742
-0.1782945990562439 -0.6647223234176636 -0.22480618953704834
-0.1782945990562439 -0.669321596622467 -0.20930230617523193
-0.1782945990562439 -0.6614949703216553 -0.08527129888534546
-0.1782945990562439 -0.6617658138275146 -0.06976741552352905
-0.1782945990562439 -0.6614444255828857 0.02325582504272461
-0.1782945990562439 -0.669481635093689 0.038759708404541016
-0.1782945990562439 -0.6443236470222473 -0.25581395626068115
-0.1782945990562439 -0.6571670770645142 -0.24031007289886475
-0.1782945990562439 -0.6440571546554565 -0.13178294897079468
-0.1782945990562439 -0.6496080160140991 -0.11627906560897827
-0.1782945990562439 -0.6562532782554626 -0.10077518224716187
-0.1782945990562439 -0.6572654247283936 -0.05426359176635742
-0.1782945990562439 -0.6528841257095337 -0.038759708404541016
-0.1782945990562439 -0.650490403175354 -0.02325582504272461
-0.1782945990562439 -0.6508420705795288 -0.007751941680908203
-0.1782945990562439 -0.6542219519615173 0.007751941680908203
-0.1782945990562439 -0.6370233297348022 -0.14728683233261108
-0.1782945990562439 -0.6142432689666748 -0.27131783962249756
-0.1782945990562439 -0.6182194352149963 -0.1627907156944275
-0.1782945990562439 -0.5946085453033447 -0.27131783962249756
-0.1782945990562439 -0.592488169670105 -0.1782945990562439
-0.1782945990562439 -0.5670066475868225 -0.25581395626068115
-0.1782945990562439 -0.5686537623405457 -0.20930230617523193
-0.1782945990562439 -0.5778491497039795 -0.19379842281341553
-0.1782945990562439 -0.5603293776512146 -0.24031007289886475
-0.1782945990562439 -0.5618008375167847 -0.22480618953704834
-0.1782945990562439 -0.4042721390724182 -0.25581395626068115
-0.1782945990562439 -0.4098089039325714 -0.24031007289886475
-0.1782945990562439 -0.41024816036224365 -0.22480618953704834
-0.1782945990562439 -0.4067043364048004 -0.20930230617523193
-0.1782945990562439 -0.39860281348228455 -0.19379842281341553
-0.1782945990562439 -0.38524991273880005 -0.27131783962249756
-0.1782945990562439 -0.3834262490272522 -0.1782945990562439
-0.1782945841550827 -0.3333188593387604 -0.1782945841550827
-0.1782945990562439 -0.2598663866519928 -0.27131783962249756
-0.1782945990562439 -0.26344382762908936 -0.19379842281341553
-0.1782945990562439 -0.2446870058774948 -0.25581395626068115
-0.1782945990562439 -0.2501011788845062 -0.19379842281341553
-0.1782945990562439 -0.20373788475990295 -0.19379842281341553
-0.1782945990562439 -0.17226186394691467 -0.20930230617523193
-0.1782945990562439 -0.14951705932617188 -0.20930230617523193
-0.1782945990562439 -0.1364639401435852 -0.25581395626068115
-0.1782945990562439 -0.11806798726320267 -0.27131783962249756
-0.1782945990562439 -0.12132689356803894 -0.19379842281341553
-0.1782945990562439 -0.10144968330860138 -0.1782945990562439
-0.1782945990562439 -0.06457439810037613 -0.27131783962249756
-0.1782945990562439 -0.05607609450817108 -0.1627907156944275
-0.1782945990562439 -0.03739641606807709 -0.27131783962249756
-0.1782945990562439 -0.011538568884134293 -0.28682172298431396
-0.1782945990562439 0.018440136685967445 -0.1627907156944275
-0.1782945990562439 0.05555110052227974 -0.1782945990562439
-0.1782945990562439 0.12467533349990845 -0.28682172298431396
-0.1782945990562439 0.14152121543884277 -0.1782945990562439
-0.1782945990562439 0.1719730645418167 -0.1782945990562439
-0.1782945990562439 0.2515014111995697 -0.19379842281341553
-0.1782945990562439 0.2572803199291229 -0.27131783962249756
-0.1782945990562439 0.26411694288253784 -0.20930230617523193
-0.1782945990562439 0.27222150564193726 -0.25581395626068115
-0.1782945990562439 0.2741749584674835 -0.24031007289886475
-0.1782945990562439 0.27151238918304443 -0.22480618953704834
-0.1782945990562439 0.3788455128669739 -0.24031007289886475
-0.1782945990562439 0.3821626901626587 -0.25581395626068115
-0.1782945990562439 0.3865202069282532 -0.22480618953704834
-0.1782945990562439 0.4037747085094452 -0.27131783962249756
-0.1782945990562439 0.4424038529396057 -0.27131786942481995
-0.1782945990562439 0.45088934898376465 -0.22480618953704834
-0.1782945990562439 0.45839765667915344 -0.25581395626068115
-0.1782945990562439 0.4594575762748718 -0.24031007289886475
-0.1782945990562439 0.5764346122741699 -0.25581395626068115
-0.1782945990562439 0.5724542140960693 -0.24031007289886475
-0.1782945990562439 0.5759767293930054 -0.22480618953704834
-0.1782945990562439 0.5886669158935547 -0.27131783962249756
-0.1782945990562439 0.5908337235450745 -0.20930230617523193
-0.1782945990562439 0.6241663694381714 -0.28682172298431396
-0.1782945990562439 0.6517505645751953 -0.28682172298431396
-0.1782945990562439 0.6898219585418701 -0.27131783962249756
-0.1782945990562439 0.6775137186050415 -0.20930229127407074
-0.1782945990562439 0.6992754936218262 -0.25581395626068115
-0.1782945990562439 0.7004488110542297 -0.24031007289886475
-0.1782945990562439 0.6935325264930725 -0.22480618953704834
-0.1627907156944275 -0.8311800956726074 0.007751941680908203
-0.1627907156944275 -0.8321210741996765 0.02325582504272461
-0.1627907156944275 -0.8307309150695801 0.038759708404541016
-0.1627907156944275 -0.8175613880157471 -0.02325582504272461
-0.1627907156944275 -0.8268505334854126 -0.007751941680908203
-0.1627907156944275 -0.8274790048599243 0.05426358804106712
-0.1627907156944275 -0.8224535584449768 0.06976747512817383
-0.1627907156944275 -0.8178486824035645 0.08527135848999023
-0.1627907156944275 -0.8065289258956909 -0.038759708404541016
-0.1627907156944275 -0.8138153553009033 0.10077524185180664
-0.1627907156944275 -0.8092383742332458 0.11627912521362305
-0.1627907156944275 -0.8033753037452698 0.1317828893661499
-0.1627907156944275 -0.7920420169830322 -0.05426359176635742
-0.1627907156944275 -0.7925450801849365 0.1472867727279663
-0.1627907156944275 -0.7750228047370911 -0.06976741552352905
-0.1627907156944275 -0.7575389742851257 -0.08527129888534546
-0.1627907156944275 -0.7366397976875305 -0.11627906560897827
-0.1627907156944275 -0.7440104484558105 -0.10077518224716187
-0.1627907156944275 -0.723063588142395 -0.1627907156944275
-0.1627907156944275 -0.7289619445800781 -0.14728683233261108
-0.1627907156944275 -0.7326507568359375 -0.13178294897079468
-0.1627907156944275 -0.7313921451568604 0.1472867727279663
-0.1627907156944275 -0.7078976631164551 -0.19379842281341553
-0.1627907156944275 -0.7160207033157349 -0.1782945990562439
-0.1627907156944275 -0.7072478532791138 0.1317828893661499
-0.1627907156944275 -0.6983557343482971 -0.20930230617523193
-0.1627907156944275 -0.6785833835601807 -0.24031007289886475
-0.1627907156944275 -0.6883010268211365 -0.22480618953704834
-0.1627907156944275 -0.6748592257499695 0.10077524185180664
-0.1627907007932663 -0.6882190108299255 0.11627911776304245
-0.1627907156944275 -0.6640800833702087 -0.25581395626068115
-0.1627907156944275 -0.6635869145393372 0.08527135848999023
-0.1627907156944275 -0.6455173492431641 0.05426359176635742
-0.1627907156944275 -0.6534417867660522 0.06976747512817383
-0.1627907156944275 -0.6422601938247681 -0.27131783962249756
-0.1627907156944275 -0.6306378841400146 0.02325582504272461
-0.1627907156944275 -0.6369215250015259 0.038759708404541016
-0.1627907156944275 -0.6149423718452454 -0.10077518224716187
-0.1627907156944275 -0.6182824969291687 -0.08527129888534546
-0.1627907156944275 -0.6188485622406006 -0.06976741552352905
-0.1627907156944275 -0.6179538369178772 -0.05426359176635742
-0.1627907156944275 -0.6175357103347778 -0.038759708404541016
-0.1627907156944275 -0.6179859638214111 -0.02325582504272461
-0.1627907156944275 -0.6198723316192627 -0.007751941680908203
-0.1627907156944275 -0.6239007115364075 0.007751941680908203
-0.1627907156944275 -0.5988577008247375 -0.13178294897079468
-0.1627907156944275 -0.6087065935134888 -0.11627907305955887
-0.1627907156944275 -0.584178626537323 -0.14728683233261108
-0.1627907156944275 -0.5690978765487671 -0.1627907156944275
-0.1627907156944275 -0.5520438551902771 -0.27131783962249756
-0.1627907156944275 -0.5565341711044312 -0.1782945990562439
-0.1627907156944275 -0.537807285785675 -0.25581395626068115
-0.1627907156944275 -0.538618803024292 -0.20930230617523193
-0.1627907156944275 -0.5462968349456787 -0.19379842281341553
-0.1627907156944275 -0.532256007194519 -0.24031007289886475
-0.1627907156944275 -0.5335341691970825 -0.22480618953704834
-0.1627907156944275 -0.42895787954330444 -0.24031007289886475
-0.1627907156944275 -0.4236742854118347 -0.25581395626068115
-0.1627907156944275 -0.4260769486427307 -0.22480618953704834
-0.1627907156944275 -0.4219580888748169 -0.20930229127407074
-0.1627907156944275 -0.41464677453041077 -0.19379842281341553
-0.1627907156944275 -0.4099942743778229 -0.27131783962249756
-0.1627907156944275 -0.4031113386154175 -0.1782945990562439
-0.1627907156944275 -0.3851957321166992 -0.1627907156944275
-0.1627907156944275 -0.34265515208244324 -0.28682172298431396
-0.1627907156944275 -0.2801833748817444 -0.1627907156944275
-0.1627907156944275 -0.2563631236553192 -0.28682172298431396
-0.1627907156944275 -0.24935932457447052 -0.1627907156944275
-0.1627907156944275 -0.2370426207780838 -0.27131783962249756
-0.1627907156944275 -0.21077756583690643 -0.1627907156944275
-0.1627907156944275 -0.16305382549762726 -0.1782945990562439
-0.1627907156944275 -0.16166944801807404 -0.1782945990562439
-0.1627907156944275 -0.1429874151945114 -0.27131783962249756
-0.1627907156944275 -0.11283815652132034 -0.28682172298431396
-0.1627907156944275 -0.11153361201286316 -0.1627907156944275
-0.1627907156944275 -0.07071308046579361 -0.28682172298431396
-0.1627907156944275 -0.07116411626338959 -0.14728683233261108
-0.1627907156944275 -0.032765455543994904 -0.28682172298431396
-0.1627907156944275 0.031047184020280838 -0.14728683233261108
-0.1627907156944275 0.08488266170024872 -0.1627907156944275
-0.16279073059558868 0.13281160593032837 -0.16279073059558868
-0.1627907156944275 0.2411412000656128 -0.1627907156944275
-0.1627907156944275 0.26604411005973816 -0.28682172298431396
-0.1627907156944275 0.26545265316963196 -0.1782945990562439
-0.1627907156944275 0.28639400005340576 -0.20930230617523193
-0.1627907156944275 0.27781805396080017 -0.19379842281341553
-0.1627907156944275 0.2906419634819031 -0.27131783962249756
-0.1627907156944275 0.2978593111038208 -0.25581395626068115
-0.1627907156944275 0.29786011576652527 -0.24031007289886475
-0.1627907156944275 0.29356834292411804 -0.22480618953704834
-0.1627907156944275 0.3600177764892578 -0.25581395626068115
-0.1627907156944275 0.35739511251449585 -0.24031007289886475
-0.1627907156944275 0.3607501983642578 -0.22480618953704834
-0.1627907156944275 0.3681204915046692 -0.27131783962249756
-0.1627907156944275 0.3709788918495178 -0.20930230617523193
-0.1627907156944275 0.38609907031059265 -0.28682172298431396
-0.1627907156944275 0.39832937717437744 -0.19379842281341553
-0.1627907156944275 0.45271944999694824 -0.19379842281341553
-0.1627907156944275 0.4667654037475586 -0.28682172298431396
-0.1627907156944275 0.4878406524658203 -0.27131783962249756
-0.1627907156944275 0.4808572232723236 -0.20930230617523193
-0.1627907156944275 0.5001922249794006 -0.25581395626068115
-0.1627907156944275 0.49774205684661865 -0.22480618953704834
-0.16279073059558868 0.5046793818473816 -0.24031008780002594
-0.1627907156944275 0.5307955741882324 -0.24031007289886475
-0.1627907156944275 0.5489292144775391 -0.25581395626068115
-0.1627907156944275 0.5397782921791077 -0.22480618953704834
-0.1627907156944275 0.5637933015823364 -0.27131783962249756
-0.1627907156944275 0.5566970705986023 -0.20930230617523193
-0.1627907156944275 0.5806246399879456 -0.28682172298431396
-0.1627907156944275 0.5722403526306152 -0.19379842281341553
-0.1627907156944275 0.6795134544372559 -0.19379842281341553
-0.1627907156944275 0.6957322359085083 -0.28682172298431396
-0.1627907156944275 0.7001561522483826 -0.20930230617523193
-0.1627907156944275 0.713615894317627 -0.27131783962249756
-0.1627907156944275 0.7205348610877991 -0.25581395626068115
-0.1627907156944275 0.7205873727798462 -0.24031007289886475
-0.1627907156944275 0.7142038345336914 -0.22480618953704834
-0.14728683233261108 -0.8476265668869019 -0.02325582504272461
-0.14728683233261108 -0.8537234663963318 -0.00775194214656949
-0.14728683233261108 -0.8571810722351074 0.007751941680908203
-0.14728683233261108 -0.8567430973052979 0.02325582504272461
-0.14728683233261108 -0.8539543747901917 0.038759708404541016
-0.14728683233261108 -0.8502985239028931 0.05426359176635742
-0.14728683233261108 -0.8459721803665161 0.06976747512817383
-0.14728683233261108 -0.8373898267745972 -0.038759708404541016
-0.14728683233261108 -0.8393393754959106 0.08527135848999023
-0.14728683233261108 -0.8335392475128174 0.10077524185180664
-0.14728683233261108 -0.8251729011535645 -0.05426359176635742
-0.14728683233261108 -0.828086793422699 0.11627912521362305
-0.14728683233261108 -0.8222160339355469 0.1317828893661499
-0.14728683233261108 -0.81498122215271 0.1472867727279663
-0.14728683233261108 -0.8095331788063049 -0.06976741552352905
-0.14728683233261108 -0.8039790987968445 0.16279065608978271
-0.14728683233261108 -0.7924908399581909 -0.08527129888534546
-0.14728683233261108 -0.7771919965744019 -0.10077518224716187
-0.14728683233261108 -0.780483067035675 0.17829453945159912
-0.14728683233261108 -0.7528060674667358 -0.13178294897079468
-0.14728683233261108 -0.7637856006622314 -0.11627906560897827
-0.14728683233261108 -0.7620512247085571 0.17829453945159912
-0.14728683233261108 -0.743722677230835 -0.14728683233261108
-0.14728683233261108 -0.7274131774902344 -0.1782945990562439
-0.14728683233261108 -0.7347703576087952 -0.1627907156944275
-0.14728683233261108 -0.722527027130127 0.16279065608978271
-0.14728683233261108 -0.7100056409835815 -0.20930230617523193
-0.14728683233261108 -0.7178215384483337 -0.19379843771457672
-0.14728683233261108 -0.6956439018249512 -0.24031007289886475
-0.14728683233261108 -0.7039018869400024 -0.22480618953704834
-0.14728683233261108 -0.6970429420471191 0.1472867727279663
-0.14728683233261108 -0.6811637878417969 -0.25581395626068115
-0.14728683233261108 -0.6780632734298706 0.1317828893661499
-0.14728683233261108 -0.6614787578582764 -0.27131783962249756
-0.14728683233261108 -0.6635189056396484 0.11627912521362305
-0.14728683233261108 -0.6511433720588684 0.10077524185180664
-0.14728683233261108 -0.6347817778587341 -0.28682172298431396
-0.14728683233261108 -0.6332714557647705 0.06976747512817383
-0.14728683233261108 -0.6415082812309265 0.08527135848999023
-0.14728683233261108 -0.6178287267684937 0.038759708404541016
-0.14728683233261108 -0.6251236200332642 0.05426359176635742
-0.14728683233261108 -0.598131000995636 -0.02325582504272461
-0.14728683233261108 -0.6009312868118286 -0.007751941680908203
-0.14728683233261108 -0.604616641998291 0.007751941680908203
-0.14728683233261108 -0.6109945178031921 0.02325582318007946
-0.14728683233261108 -0.5832915902137756 -0.11627906560897827
-0.14728683233261108 -0.5898712873458862 -0.10077518224716187
-0.14728683233261108 -0.5937260389328003 -0.08527129888534546
-0.14728683233261108 -0.5953083634376526 -0.06976741552352905
-0.14728683233261108 -0.5956772565841675 -0.05426359176635742
-0.14728684723377228 -0.596421480178833 -0.038759708404541016
-0.14728683233261108 -0.5712383389472961 -0.13178294897079468
-0.14728683233261108 -0.5564337372779846 -0.14728683233261108
-0.14728683233261108 -0.5489311814308167 -0.28682172298431396
-0.14728683233261108 -0.5416235327720642 -0.1627907156944275
-0.14728683233261108 -0.5194095969200134 -0.27131783962249756
-0.14728683233261108 -0.528931736946106 -0.1782945990562439
-0.14728683233261108 -0.5159121155738831 -0.19379842281341553
-0.14728683233261108 -0.4891204535961151 -0.20930230617523193
-0.14728683233261108 -0.4871629476547241 -0.27131783962249756
-0.14728683233261108 -0.4881910979747772 -0.20930230617523193
-0.14728683233261108 -0.4578373432159424 -0.19379842281341553
-0.14728683233261108 -0.44589200615882874 -0.28682172298431396
-0.14728683233261108 -0.41626375913619995 -0.28682172298431396
-0.14728683233261108 -0.4183523654937744 -0.1782945990562439
-0.14728683233261108 -0.4092140197753906 -0.28682172298431396
-0.14728683233261108 -0.4002208709716797 -0.1627907156944275
-0.14728683233261108 -0.372805655002594 -0.14728683233261108
-0.14728683233261108 -0.3046827018260956 -0.30232560634613037
-0.14728683233261108 -0.2784126400947571 -0.30232560634613037
-0.14728683233261108 -0.23801173269748688 -0.28682172298431396
-0.14728683233261108 -0.2031559944152832 -0.14728683233261108
-0.14728683233261108 -0.1310502290725708 -0.28682172298431396
-0.14728683233261108 -0.11096955835819244 -0.14728683233261108
-0.14728683233261108 -0.05583981052041054 -0.13178294897079468
-0.14728683233261108 -0.006564038340002298 -0.302325576543808
-0.14728683233261108 0.027158131822943687 -0.13178294897079468
-0.14728683233261108 0.09491109848022461 -0.14728683233261108
-0.14728683233261108 0.11392603069543839 -0.30232560634613037
-0.14728683233261108 0.13738951086997986 -0.14728683233261108
-0.14728683233261108 0.24165570735931396 -0.14728683233261108
-0.14728683233261108 0.2864008843898773 -0.1782945990562439
-0.14728683233261108 0.27166271209716797 -0.16279073059558868
-0.14728683233261108 0.29801347851753235 -0.19379842281341553
-0.14728683233261108 0.3042200803756714 -0.28682172298431396
-0.14728683233261108 0.3115111291408539 -0.20930230617523193
-0.14728683233261108 0.3181217610836029 -0.27131780982017517
-0.14728683233261108 0.3325970768928528 -0.25581395626068115
-0.14728683233261108 0.33409300446510315 -0.25581395626068115
-0.14728683233261108 0.3477969169616699 -0.20930230617523193
-0.14728683233261108 0.35219335556030273 -0.27131783962249756
-0.14728683233261108 0.367037296295166 -0.28682172298431396
-0.14728683233261108 0.3659433126449585 -0.19379842281341553
-0.14728683233261108 0.39795631170272827 -0.1782946139574051
-0.14728683233261108 0.4635668694972992 -0.1782945990562439
-0.14728683233261108 0.5037222504615784 -0.28682172298431396
-0.14728683233261108 0.5109739899635315 -0.19379842281341553
-0.14728683233261108 0.5357388257980347 -0.19379842281341553
-0.14728683233261108 0.5631637573242188 -0.28682172298431396
-0.14728683233261108 0.5628467202186584 -0.1782945990562439
-0.14728683233261108 0.6704846024513245 -0.1782945990562439
-0.14728683233261108 0.6975268125534058 -0.19379842281341553
-0.14728683233261108 0.7151622772216797 -0.20930230617523193
-0.1472868174314499 0.7214723825454712 -0.28682172298431396
-0.14728683233261108 0.7301099896430969 -0.22480618953704834
-0.14728683233261108 0.7373368740081787 -0.27131783962249756
-0.14728683233261108 0.7427085638046265 -0.25581395626068115
-0.14728683233261108 0.7408758997917175 -0.24031007289886475
-0.13178294897079468 -0.8772341012954712 -0.007751941680908203
-0.13178294897079468 -0.8788499236106873 0.007751941680908203
-0.13178294897079468 -0.8778477311134338 0.02325582504272461
-0.13178294897079468 -0.8639587163925171 -0.038759708404541016
-0.13178294897079468 -0.8713521957397461 -0.02325582690536976
-0.13178294897079468 -0.8744942545890808 0.038759708404541016
-0.13178294897079468 -0.8687365055084229 0.05426359176635742
-0.13178294897079468 -0.863215446472168 0.06976747512817383
-0.13178294897079468 -0.8515320420265198 -0.05426359176635742
-0.13178294897079468 -0.8555490374565125 0.08527135848999023
-0.13178294897079468 -0.8477650284767151 0.10077524185180664
-0.13178294897079468 -0.8363710641860962 -0.06976741552352905
-0.13178294897079468 -0.839962899684906 0.11627912521362305
-0.13178294897079468 -0.8329175710678101 0.1317828893661499
-0.13178294897079468 -0.8191735744476318 -0.08527129888534546
-0.13178294897079468 -0.8261673450469971 0.1472867727279663
-0.13178294897079468 -0.8187546730041504 0.16279065608978271
-0.13178294897079468 -0.8029802441596985 -0.10077518224716187
-0.13178294897079468 -0.8096021413803101 0.17829453945159912
-0.13178294897079468 -0.7889037132263184 -0.11627906560897827
-0.13178294897079468 -0.7860875129699707 0.19379842281341553
-0.13178294897079468 -0.7684338092803955 -0.14728683233261108
-0.13178294897079468 -0.776846706867218 -0.13178294897079468
-0.13178294897079468 -0.7574034929275513 -0.1627907156944275
-0.13178294897079468 -0.7599024772644043 0.19379842281341553
-0.13178294897079468 -0.7442634701728821 -0.1782945990562439
-0.13178294897079468 -0.7219115495681763 -0.20930230617523193
-0.13178294897079468 -0.730343222618103 -0.19379842281341553
-0.13178294897079468 -0.7102336883544922 -0.24031007289886475
-0.13178294897079468 -0.7172245979309082 -0.22480618953704834
-0.13178294897079468 -0.7197129726409912 0.17829453945159912
-0.13178294897079468 -0.6953569054603577 -0.25581395626068115
-0.13178294897079468 -0.6954344511032104 0.16279065608978271
-0.13178294897079468 -0.6751973032951355 -0.27131783962249756
-0.13178294897079468 -0.6751731634140015 0.1472867727279663
-0.13178294897079468 -0.6599785089492798 0.1317828893661499
-0.13178294897079468 -0.651313066482544 -0.28682172298431396
-0.13178294897079468 -0.6477919816970825 0.11627912521362305
-0.13178294897079468 -0.6365281939506531 0.10077524185180664
-0.13178294897079468 -0.6190070509910583 0.06976747512817383
-0.13178294897079468 -0.6278063654899597 0.08527135848999023
-0.13178294897079468 -0.6033066511154175 0.038759708404541016
-0.13178294897079468 -0.6108760237693787 0.05426359176635742
-0.13178294897079468 -0.5827048420906067 -0.02325582504272461
-0.13178294897079468 -0.5858640074729919 -0.007751941680908203
-0.13178294897079468 -0.5898599624633789 0.007751941680908203
-0.13178293406963348 -0.5965334177017212 0.02325582504272461
-0.13178294897079468 -0.572370171546936 -0.10077518224716187
-0.13178294897079468 -0.5768834352493286 -0.08527129888534546
-0.13178294897079468 -0.5786982178688049 -0.06976741552352905
-0.13178294897079468 -0.579435408115387 -0.05426359176635742
-0.13178294897079468 -0.5805565714836121 -0.038759708404541016
-0.13178294897079468 -0.550687849521637 -0.13178294897079468
-0.13178294897079468 -0.5643367767333984 -0.11627906560897827
-0.13178294897079468 -0.53429114818573 -0.14728683233261108
-0.13178294897079468 -0.5147613286972046 -0.1627907156944275
-0.13178294897079468 -0.42209315299987793 -0.1627907156944275
-0.13178294897079468 -0.3916293680667877 -0.14728683233261108
-0.13178294897079468 -0.32619649171829224 -0.30232560634613037
-0.13178294897079468 -0.25756940245628357 -0.30232560634613037
-0.13178294897079468 -0.25669097900390625 -0.13178294897079468
-0.13178294897079468 -0.19808712601661682 -0.28682172298431396
-0.13178294897079468 -0.20691566169261932 -0.13178294897079468
-0.13178294897079468 -0.1622409224510193 -0.28682172298431396
-0.13178294897079468 -0.10173296183347702 -0.30232560634613037
-0.13178294897079468 -0.09699009358882904 -0.13178294897079468
-0.13178294897079468 -0.08353202044963837 -0.30232560634613037
-0.13178294897079468 -0.02871578000485897 -0.30232560634613037
-0.13178294897079468 0.07368578016757965 -0.13178294897079468
-0.13178294897079468 0.1406315267086029 -0.30232560634613037
-0.13178294897079468 0.154112309217453 -0.13178294897079468
-0.13178294897079468 0.20057415962219238 -0.30232560634613037
-0.13178294897079468 0.22228732705116272 -0.13178294897079468
-0.13178294897079468 0.26573240756988525 -0.14728683233261108
-0.13178294897079468 0.28351932764053345 -0.30232560634613037
-0.13178294897079468 0.29114311933517456 -0.1627907156944275
-0.13178294897079468 0.3093421459197998 -0.1782945990562439
-0.13178294897079468 0.32632365822792053 -0.28682172298431396
-0.13178294897079468 0.3543502390384674 -0.28682172298431396
-0.13178294897079468 0.3619014322757721 -0.1782945990562439
-0.13178294897079468 0.3817690908908844 -0.30232560634613037
-0.13178294897079468 0.4135323166847229 -0.1627907156944275
-0.13178294897079468 0.46032947301864624 -0.1627907156944275
-0.13178294897079468 0.49155744910240173 -0.30232560634613037
-0.13178294897079468 0.560866117477417 -0.1627907156944275
-0.13178294897079468 0.5858403444290161 -0.30232560634613037
-0.13178294897079468 0.6512366533279419 -0.1627907156944275
-0.13178294897079468 0.6898744106292725 -0.30232560634613037
-0.13178294897079468 0.6901556849479675 -0.1782945990562439
-0.13178294897079468 0.7135194540023804 -0.19379842281341553
-0.13178294897079468 0.7311315536499023 -0.20930230617523193
-0.13178294897079468 0.7579774260520935 -0.28682172298431396
-0.13178294897079468 0.7537019848823547 -0.22480618953704834
-0.13178294897079468 0.771681010723114 -0.27131783962249756
-0.13178294897079468 0.7741614580154419 -0.25581395626068115
-0.13178294897079468 0.7693061232566833 -0.24031008780002594
-0.11627906560897827 -0.8931556940078735 -0.02325582504272461
-0.11627906560897827 -0.8970295190811157 -0.007751941680908203
-0.11627906560897827 -0.898490846157074 0.007751941680908203
-0.11627906560897827 -0.8967951536178589 0.02325582504272461
-0.11627906560897827 -0.893473744392395 0.038759708404541016
-0.11627906560897827 -0.8760290741920471 -0.05426359176635742
-0.11627906560897827 -0.885310173034668 -0.038759708404541016
-0.11627906560897827 -0.8870182037353516 0.05426359176635742
-0.11627906560897827 -0.8795313239097595 0.06976747512817383
-0.11627906560897827 -0.8620993494987488 -0.06976741552352905
-0.11627906560897827 -0.8699784278869629 0.08527135848999023
-0.11627906560897827 -0.8610753417015076 0.10077524185180664
-0.11627906560897827 -0.8508944511413574 0.11627912521362305
-0.11627906560897827 -0.8423572778701782 -0.08527129888534546
-0.11627907305955887 -0.8437777161598206 0.1317828893661499
-0.11627906560897827 -0.8367078304290771 0.1472867727279663
-0.11627906560897827 -0.8318639993667603 0.16279065608978271
-0.11627906560897827 -0.8227834701538086 -0.10077518224716187
-0.11627907305955887 -0.8275085091590881 0.17829453945159912
-0.11627906560897827 -0.8189468383789062 0.19379842281341553
-0.11627906560897827 -0.8074663281440735 -0.11627906560897827
-0.11627906560897827 -0.7879397869110107 -0.14728683233261108
-0.11627907305955887 -0.7972813248634338 -0.13178294897079468
-0.11627906560897827 -0.7916692495346069 0.20930230617523193
-0.11627906560897827 -0.7690678238868713 -0.1782945990562439
-0.11627906560897827 -0.7775197625160217 -0.1627907156944275
-0.11627906560897827 -0.7562277317047119 -0.19379842281341553
-0.11627906560897827 -0.7648495435714722 0.20930230617523193
-0.11627906560897827 -0.7432299256324768 -0.20930230617523193
-0.11627906560897827 -0.7281203269958496 -0.24031007289886475
-0.11627906560897827 -0.7363913059234619 -0.22480617463588715
-0.11627906560897827 -0.7119240164756775 -0.25581395626068115
-0.11627906560897827 -0.7185558676719666 0.19379842281341553
-0.11627906560897827 -0.6950852274894714 0.17829453945159912
-0.11627906560897827 -0.6882465481758118 -0.27131783962249756
-0.11627906560897827 -0.6762815713882446 0.16279065608978271
-0.11627906560897827 -0.6639959216117859 -0.28682172298431396
-0.11627906560897827 -0.6606308221817017 0.1472867727279663
-0.11627906560897827 -0.6482194662094116 0.1317828893661499
-0.11627906560897827 -0.6368099451065063 0.11627912521362305
-0.11627906560897827 -0.6217004656791687 -0.30232560634613037
-0.11627906560897827 -0.6181259155273438 0.08527135848999023
-0.11627905815839767 -0.6268185377120972 0.10077523440122604
-0.11627906560897827 -0.6010777950286865 0.05426359176635742
-0.11627906560897827 -0.6086361408233643 0.06976747512817383
-0.11627906560897827 -0.5857639312744141 0.02325582504272461
-0.11627906560897827 -0.5923631191253662 0.038759708404541016
-0.11627906560897827 -0.5661700367927551 -0.06976741552352905
-0.11627906560897827 -0.5675431489944458 -0.05426359176635742
-0.11627906560897827 -0.5692511796951294 -0.038759708404541016
-0.11627906560897827 -0.5711610317230225 -0.02325582504272461
-0.11627906560897827 -0.5739316940307617 -0.007751941680908203
-0.11627906560897827 -0.5787327885627747 0.007751941680908203
-0.11627906560897827 -0.5515283346176147 -0.30232560634613037
-0.11627906560897827 -0.558974027633667 -0.10077518224716187
-0.11627906560897827 -0.5642423629760742 -0.08527129888534546
-0.11627906560897827 -0.5487077236175537 -0.11627906560897827
-0.11627906560897827 -0.5314176678657532 -0.13178294897079468
-0.11627906560897827 -0.5086519718170166 -0.14728683233261108
-0.11627906560897827 -0.47308239340782166 -0.30232560634613037
-0.11627906560897827 -0.4127798080444336 -0.14728683233261108
-0.11627906560897827 -0.4033451974391937 -0.30232560634613037
-0.11627906560897827 -0.3819389045238495 -0.13178294897079468
-0.11627906560897827 -0.3400304317474365 -0.30232560634613037
-0.11627906560897827 -0.24264824390411377 -0.30232560634613037
-0.11627906560897827 -0.1184716522693634 -0.30232560634613037
-0.11627906560897827 -0.061503686010837555 -0.30232560634613037
-0.11627906560897827 -0.04669501259922981 -0.30232560634613037
-0.11627906560897827 -0.03228991478681564 -0.11627906560897827
-0.11627906560897827 0.02644626423716545 -0.11627906560897827
-0.11627906560897827 0.24825894832611084 -0.13178294897079468
-0.11627906560897827 0.28522366285324097 -0.14728683233261108
-0.11627906560897827 0.3138701915740967 -0.30232560634613037
-0.11627906560897827 0.3149120509624481 -0.1627907156944275
-0.11627906560897827 0.3570041358470917 -0.1627907156944275
-0.11627906560897827 0.3708115816116333 -0.30232560634613037
-0.11627906560897827 0.578047513961792 -0.14728683233261108
-0.11627906560897827 0.6008323431015015 -0.14728683233261108
-0.11627906560897827 0.6732299327850342 -0.1627907156944275
-0.11627906560897827 0.7076383233070374 -0.1782945990562439
-0.11627906560897827 0.7336194515228271 -0.19379842281341553
-0.11627906560897827 0.7399691939353943 -0.30232560634613037
-0.11627906560897827 0.7560924291610718 -0.20930230617523193
-0.11627906560897827 0.7806094288825989 -0.22480618953704834
-0.11627906560897827 0.7932761907577515 -0.28682172298431396
-0.11627906560897827 0.8076717853546143 -0.27131783962249756
-0.11627906560897827 0.809303343296051 -0.25581395626068115
-0.11627906560897827 0.7999340891838074 -0.24031007289886475
-0.10077518224716187 -0.9135632514953613 -0.02325582504272461
-0.10077518224716187 -0.9189097881317139 -0.007751941215246916
-0.10077518224716187 -0.9218741655349731 0.007751941680908203
-0.10077518224716187 -0.9206930994987488 0.02325582504272461
-0.10077518224716187 -0.9172613620758057 0.038759708404541016
-0.10077518224716187 -0.9120425581932068 0.05426359176635742
-0.10077518224716187 -0.8963231444358826 -0.05426359176635742
-0.10077518224716187 -0.9063510894775391 -0.038759708404541016
-0.10077518224716187 -0.9044486284255981 0.06976747512817383
-0.10077518224716187 -0.8920757174491882 0.08527135848999023
-0.10077518224716187 -0.8823039531707764 -0.06976741552352905
-0.10077518224716187 -0.8777722120285034 0.10077524185180664
-0.10077518224716187 -0.8640161752700806 -0.08527129888534546
-0.10077518224716187 -0.8650714159011841 0.11627912521362305
-0.10077518224716187 -0.8566491603851318 0.1317828893661499
-0.10077518224716187 -0.8502398133277893 0.1472867727279663
-0.10077518224716187 -0.8468188643455505 0.16279065608978271
-0.10077518224716187 -0.8412585258483887 -0.10077518224716187
-0.10077518224716187 -0.8444482684135437 0.17829453945159912
-0.10077518224716187 -0.8376671671867371 0.19379842281341553
-0.10077518224716187 -0.8229317665100098 -0.11627906560897827
-0.10077518969774246 -0.8256914019584656 0.20930230617523193
-0.10077518224716187 -0.8026681542396545 -0.14728683233261108
-0.10077518224716187 -0.8107607364654541 -0.13178294897079468
-0.10077518224716187 -0.7859821319580078 -0.1782945990562439
-0.10077518224716187 -0.7935348749160767 -0.1627907156944275
-0.10077518224716187 -0.7883604764938354 0.22480618953704834
-0.10077518224716187 -0.7755559682846069 -0.19379842281341553
-0.10077518224716187 -0.7784040570259094 0.22480618953704834
-0.10077518224716187 -0.7580368518829346 -0.22480618953704834
-0.10077518224716187 -0.7652236819267273 -0.20930230617523193
-0.10077518224716187 -0.7481957674026489 -0.24031007289886475
-0.10077518224716187 -0.732064962387085 -0.25581395626068115
-0.10077518224716187 -0.7059668898582458 -0.27131783962249756
-0.10077517479658127 -0.7185003161430359 0.20930229127407074
-0.10077518224716187 -0.6958802938461304 0.19379842281341553
-0.10077518224716187 -0.6784293055534363 0.17829453945159912
-0.10077518224716187 -0.6741809844970703 -0.28682172298431396
-0.10077518224716187 -0.6636972427368164 0.16279065608978271
-0.10077518224716187 -0.6505628824234009 0.1472867727279663
-0.10077518224716187 -0.6355514526367188 -0.30232560634613037
-0.10077518224716187 -0.6297879815101624 0.11627912521362305
-0.10077517479658127 -0.6390053033828735 0.1317828893661499
-0.10077518224716187 -0.6198978424072266 0.10077524185180664
-0.10077518224716187 -0.6020053625106812 0.06976747512817383
-0.10077518224716187 -0.6100788116455078 0.08527135848999023
-0.10077518224716187 -0.5853826403617859 0.038759708404541016
-0.10077518224716187 -0.5927237272262573 0.05426359176635742
-0.10077518224716187 -0.5712283849716187 0.007751941680908203
-0.10077518224716187 -0.5772001147270203 0.02325582504272461
-0.10077518224716187 -0.5527752637863159 -0.08527129888534546
-0.10077518224716187 -0.5558561086654663 -0.06976741552352905
-0.10077518224716187 -0.5576183795928955 -0.05426359176635742
-0.10077518224716187 -0.5597243309020996 -0.038759708404541016
-0.10077518224716187 -0.5623902678489685 -0.02325582504272461
-0.10077518224716187 -0.56585294008255 -0.007751941680908203
-0.10077518224716187 -0.5456485152244568 -0.10077518224716187
-0.10077518224716187 -0.5298882722854614 -0.30232560634613037
-0.10077518969774246 -0.5315597653388977 -0.11627906560897827
-0.10077518224716187 -0.5091538429260254 -0.13178294897079468
-0.10077518224716187 -0.5022706985473633 -0.30232560634613037
-0.10077518224716187 -0.3959944248199463 -0.13178294897079468
-0.10077518224716187 -0.3675949275493622 -0.30232560634613037
-0.10077518224716187 -0.34798938035964966 -0.30232560634613037
-0.10077518224716187 -0.25630685687065125 -0.11627906560897827
-0.10077518224716187 -0.20170006155967712 -0.11627906560897827
-0.10077518224716187 -0.17863768339157104 -0.30232560634613037
-0.10077518224716187 -0.13729022443294525 -0.30232560634613037
-0.10077518224716187 -0.06935732066631317 -0.11627906560897827
-0.10077518224716187 0.05944155156612396 -0.11627906560897827
-0.10077518224716187 0.14483478665351868 -0.11627906560897827
-0.10077518224716187 0.18909959495067596 -0.11627906560897827
-0.10077518224716187 0.26646316051483154 -0.13178294897079468
-0.10077518224716187 0.31189993023872375 -0.14728683233261108
-0.10077518224716187 0.33042410016059875 -0.30232560634613037
-0.10077518224716187 0.35981863737106323 -0.30232560634613037
-0.10077518224716187 0.3575900197029114 -0.14728683233261108
-0.10077518224716187 0.6300566792488098 -0.14728683233261108
-0.10077518224716187 0.687603235244751 -0.1627907156944275
-0.10077518224716187 0.7289724349975586 -0.1782945990562439
-0.10077518224716187 0.7558844685554504 -0.19379842281341553
-0.10077518224716187 0.780934751033783 -0.30232560634613037
-0.10077518224716187 0.7766942977905273 -0.20930230617523193
-0.10077518224716187 0.801900327205658 -0.22480617463588715
-0.10077518224716187 0.8276462554931641 -0.24031007289886475
-0.10077518224716187 0.8349336385726929 -0.28682172298431396
-0.10077518224716187 0.8524091243743896 -0.27131783962249756
-0.10077518224716187 0.8480815291404724 -0.25581395626068115
-0.08527129888534546 -0.9405869841575623 -0.007751941680908203
-0.08527129888534546 -0.9442967176437378 0.007751941680908203
-0.08527129888534546 -0.9448857307434082 0.02325582504272461
-0.08527129888534546 -0.9445117712020874 0.038759708404541016
-0.08527129888534546 -0.9420223236083984 0.05426359176635742
-0.08527129888534546 -0.9247825145721436 -0.038759708404541016
-0.08527129888534546 -0.9328414797782898 -0.02325582504272461
-0.08527129888534546 -0.9348592758178711 0.06976747512817383
-0.08527129888534546 -0.9139993786811829 -0.05426359176635742
-0.08527129888534546 -0.9197919964790344 0.08527135103940964
-0.08527129888534546 -0.9001272916793823 -0.06976741552352905
-0.08527129888534546 -0.8993347883224487 0.10077524185180664
-0.08527129888534546 -0.8824185132980347 -0.08527129888534546
-0.08527129888534546 -0.8809676170349121 0.11627912521362305
-0.08527129888534546 -0.8704403638839722 0.1317828893661499
-0.08527129888534546 -0.8639137744903564 0.1472867727279663
-0.08527129888534546 -0.8612381219863892 0.16279065608978271
-0.08527130633592606 -0.8600077629089355 -0.10077518224716187
-0.08527129888534546 -0.8585471510887146 0.17829453945159912
-0.08527129888534546 -0.8530330657958984 0.19379842281341553
-0.08527129888534546 -0.8375633358955383 -0.11627906560897827
-0.08527129888534546 -0.8430911302566528 0.20930229127407074
-0.08527129888534546 -0.8142539262771606 -0.14728683233261108
-0.08527129888534546 -0.8231277465820312 -0.13178294897079468
-0.08527129888534546 -0.8262137770652771 0.22480618953704834
-0.08527129888534546 -0.7989654541015625 -0.1782945990562439
-0.08527129888534546 -0.8062645196914673 -0.1627907156944275
-0.08527129888534546 -0.7848379611968994 -0.20930230617523193
-0.08527129888534546 -0.7916133403778076 -0.19379842281341553
-0.08527129888534546 -0.7760279178619385 -0.22480618953704834
-0.08527129888534546 -0.7534340620040894 -0.25581395626068115
-0.08527129888534546 -0.7664210200309753 -0.24031007289886475
-0.08527129888534546 -0.7268531918525696 -0.27131783962249756
-0.08527129888534546 -0.7218489050865173 0.22480618953704834
-0.08527129888534546 -0.6966763138771057 0.20930230617523193
-0.08527129888534546 -0.6868468523025513 -0.28682172298431396
-0.08527129888534546 -0.6804414987564087 0.19379842281341553
-0.08527129888534546 -0.6663141250610352 0.17829453945159912
-0.08527129888534546 -0.6453440189361572 -0.30232560634613037
-0.08527129888534546 -0.6535578966140747 0.16279065608978271
-0.08527129888534546 -0.6332461833953857 0.1317828893661499
-0.08527129888534546 -0.6419162750244141 0.1472867727279663
-0.08527129888534546 -0.6139835119247437 0.10077524185180664
-0.08527129888534546 -0.623029351234436 0.11627912521362305
-0.08527129888534546 -0.6045753955841064 0.08527135848999023
-0.08527129888534546 -0.5871202349662781 0.05426359176635742
-0.08527129888534546 -0.595004141330719 0.06976747512817383
-0.08527129888534546 -0.5715411305427551 0.02325582504272461
-0.08527129888534546 -0.5783750414848328 0.038759708404541016
-0.08527129888534546 -0.5528472661972046 -0.038759708404541016
-0.08527129888534546 -0.5564887523651123 -0.02325582504272461
-0.08527129888534546 -0.5599134564399719 -0.007751941215246916
-0.08527129888534546 -0.5647599101066589 0.00775194214656949
-0.08527129888534546 -0.5405238270759583 -0.08527129888534546
-0.08527129888534546 -0.5455461144447327 -0.06976741552352905
-0.08527129888534546 -0.5487812757492065 -0.05426359176635742
-0.08527129888534546 -0.5309866666793823 -0.10077518224716187
-0.08527129888534546 -0.5143108367919922 -0.11627906560897827
-0.08527129888534546 -0.4731179177761078 -0.13178294897079468
-0.08527129888534546 -0.4706066846847534 -0.13178294897079468
-0.08527129888534546 -0.38120824098587036 -0.11627906560897827
-0.08527129888534546 -0.3239312767982483 -0.11627906560897827
-0.08527129888534546 -0.27143391966819763 -0.11627906560897827
-0.08527129888534546 -0.13570941984653473 -0.11627906560897827
-0.08527129888534546 -0.12923873960971832 -0.11627906560897827
-0.08527129888534546 0.09201248735189438 -0.11627906560897827
-0.08527129888534546 0.11332493275403976 -0.11627906560897827
-0.08527129888534546 0.22062692046165466 -0.11627906560897827
-0.08527129888534546 0.2944418787956238 -0.13178294897079468
-0.08527129888534546 0.6449229717254639 -0.14728683233261108
-0.08527129888534546 0.7042258977890015 -0.1627907156944275
-0.08527129888534546 0.7509036660194397 -0.1782945990562439
-0.08527129888534546 0.771821141242981 -0.19379842281341553
-0.08527129888534546 0.7931230664253235 -0.20930230617523193
-0.08527129888534546 0.8150070905685425 -0.30232560634613037
-0.08527129888534546 0.8181425333023071 -0.22480618953704834
-0.08527129888534546 0.8536075353622437 -0.24031007289886475
-0.08527129888534546 0.8844305276870728 -0.28682172298431396
-0.08527129888534546 0.8855892419815063 -0.25581395626068115
-0.08527129888534546 0.8948897123336792 -0.27131783962249756
-0.06976741552352905 -0.9553050994873047 -0.007751941680908203
-0.06976741552352905 -0.9610410928726196 0.007751941680908203
-0.06976741552352905 -0.9623119831085205 0.02325582504272461
-0.06976741552352905 -0.9627673625946045 0.038759708404541016
-0.06976741552352905 -0.9605090618133545 0.05426359176635742
-0.06976741552352905 -0.9481873512268066 -0.02325582504272461
-0.06976741552352905 -0.9534404277801514 0.06976747512817383
-0.06976741552352905 -0.940353274345398 0.08527135848999023
-0.06976741552352905 -0.9279602766036987 -0.05426359176635742
-0.06976741552352905 -0.9379671812057495 -0.038759712129831314
-0.06976741552352905 -0.9148035049438477 -0.06976741552352905
