-0.1782945990562439 0.10077524185180664 0.049165029078722
-0.1782945990562439 0.11627912521362305 -0.09245229512453079
-0.1782945990562439 0.11627912521362305 0.047882355749607086
-0.1782945990562439 0.1317828893661499 -0.1018448993563652
-0.1782945990562439 0.1317828893661499 0.047120749950408936
-0.1782945990562439 0.1472867727279663 -0.10701225697994232
-0.1782945990562439 0.1472867727279663 0.05129045620560646
-0.1782945990562439 0.16279065608978271 -0.10811439156532288
-0.1782945990562439 0.16279065608978271 0.05485095828771591
-0.1782945990562439 0.17829453945159912 -0.10518798232078552
-0.1782945990562439 0.17829453945159912 0.057220738381147385
-0.1782945990562439 0.19379842281341553 -0.08921292424201965
-0.1782945841550827 0.19379842281341553 0.05667402595281601
-0.1782945990562439 0.20930229127407074 -0.06743627786636353
-0.1782945990562439 0.20930230617523193 0.04857531562447548
-0.1782945990562439 0.22480618953704834 -0.05494234338402748
-0.1782945990562439 0.22480618953704834 0.01880819723010063
-0.1782945990562439 0.30232560634613037 -0.04163994640111923
-0.1782945990562439 0.30232560634613037 -5.4431380704045296e-05
-0.1782945990562439 0.3178294897079468 -0.0706147849559784
-0.1782945990562439 0.3178294897079468 0.029849249869585037
-0.1782945990562439 0.33333340287208557 -0.08356990665197372
-0.1782945990562439 0.3333333730697632 0.03955053165555
-0.1782945990562439 0.3488372564315796 -0.08640994876623154
-0.1782945990562439 0.3488372266292572 0.038985103368759155
-0.1782945990562439 0.364341139793396 -0.08135108649730682
-0.1782945990562439 0.364341139793396 0.026997987180948257
-0.1782945990562439 0.5038759708404541 -0.017258869484066963
-0.1782945990562439 0.5038759708404541 0.011183427646756172
-0.1782945990562439 0.5193798542022705 -0.08941969275474548
-0.1782945990562439 0.5193798542022705 0.04404526948928833
-0.1782945990562439 0.5348837375640869 -0.1022968590259552
-0.1782946139574051 0.5348837375640869 0.054440367966890335
-0.1782945990562439 0.5503876209259033 -0.10425151884555817
-0.1782945990562439 0.5503876209259033 0.05549294501543045
-0.1782945990562439 0.5658915042877197 -0.10192472487688065
-0.1782945990562439 0.5658915042877197 0.049693502485752106
-0.1782945990562439 0.6434108018875122 -0.10325680673122406
-0.1782945990562439 0.6434108018875122 -0.08397217839956284
-0.1782945990562439 0.6589146852493286 -0.11161358654499054
-0.1782945990562439 0.6589146852493286 -0.05461357533931732
-0.1782945990562439 0.674418568611145 -0.11632594466209412
-0.1782945990562439 0.674418568611145 -0.017565786838531494
-0.1782945990562439 0.6899224519729614 -0.11895956099033356
-0.1782945990562439 0.6899224519729614 0.016619719564914703
-0.1782945990562439 0.7054263353347778 -0.12174239754676819
-0.1782945990562439 0.7054263353347778 0.0473865307867527
-0.1782945990562439 0.7209302186965942 -0.12266136705875397
-0.1782945990562439 0.7209302186965942 0.053758591413497925
-0.1782945990562439 0.7364341020584106 -0.12012562155723572
-0.1782945990562439 0.7364341020584106 0.0491933599114418
-0.1782945990562439 0.751937985420227 -0.0893464982509613
-0.1782945990562439 0.751937985420227 -0.030226148664951324
-0.1782945990562439 0.7984496355056763 -0.10920143872499466
-0.1782945990562439 0.7984496355056763 0.004889892414212227
-0.1782945990562439 0.8139535188674927 -0.11276701092720032
-0.1782945990562439 0.8139535188674927 0.01100484374910593
-0.1782945990562439 0.8294574022293091 -0.1077372282743454
-0.1782945990562439 0.8294574022293091 -0.013601414859294891
-0.1782945990562439 0.8449612855911255 -0.0879046767950058
-0.1782945990562439 0.8449612855911255 -0.061608292162418365
-0.1627907156944275 -0.8604650497436523 -0.10381072759628296
-0.1627907156944275 -0.8604651093482971 -0.07317027449607849
-0.1627907156944275 -0.8449612259864807 -0.12071113288402557
-0.1627907156944275 -0.8449612259864807 -0.023242544382810593
-0.1627907156944275 -0.8294573426246643 -0.12766426801681519
-0.1627907156944275 -0.8294572830200195 0.0023909604642540216
-0.1627907156944275 -0.8139535188674927 -0.1323709785938263
-0.1627907156944275 -0.8139535784721375 0.013662584125995636
-0.1627907156944275 -0.7984496355056763 -0.1354718655347824
-0.1627907156944275 -0.7984496355056763 0.04348260164260864
-0.1627907156944275 -0.7829457521438599 -0.13611456751823425
-0.1627907156944275 -0.7829457521438599 0.0595058798789978
-0.1627907156944275 -0.7674418687820435 -0.13334080576896667
-0.1627907156944275 -0.7674418687820435 0.06646353751420975
-0.1627907156944275 -0.751937985420227 -0.12674283981323242
-0.1627907156944275 -0.751937985420227 0.06712806224822998
-0.1627907156944275 -0.7364341020584106 -0.12243321537971497
-0.1627907156944275 -0.7364341020584106 0.061273686587810516
-0.1627907156944275 -0.7209302186965942 -0.12329555302858353
-0.1627907156944275 -0.7209302186965942 0.05214390903711319
-0.1627907156944275 -0.7054263353347778 -0.12216176837682724
-0.1627907156944275 -0.7054263353347778 0.03391677141189575
-0.1627907156944275 -0.6899224519729614 -0.11960423737764359
-0.1627907156944275 -0.6899224519729614 0.010097864083945751
-0.1627907156944275 -0.674418568611145 -0.12186649441719055
-0.1627907156944275 -0.674418568611145 0.011438162066042423
-0.1627907156944275 -0.6589146852493286 -0.12876629829406738
-0.1627907156944275 -0.6589146852493286 0.022776147350668907
-0.1627907156944275 -0.643410861492157 -0.1329498291015625
-0.1627907156944275 -0.643410861492157 0.032088618725538254
-0.1627907156944275 -0.6279069781303406 -0.13340027630329132
-0.1627907156944275 -0.6279069781303406 0.042814720422029495
-0.1627907156944275 -0.6124030947685242 -0.13044816255569458
-0.1627907156944275 -0.6124030947685242 0.05208393186330795
-0.1627907156944275 -0.5968992114067078 -0.1210160106420517
-0.1627907156944275 -0.5968992114067078 0.05769599229097366
-0.1627907156944275 -0.5813953876495361 -0.1080271452665329
-0.1627907156944275 -0.5813953876495361 0.05941598862409592
-0.1627907156944275 -0.5658915042877197 -0.11228381842374802
-0.1627907007932663 -0.5658915042877197 0.0562577024102211
-0.1627907156944275 -0.5503876209259033 -0.11791498959064484
-0.1627907156944275 -0.5503876209259033 0.04813149571418762
-0.1627907156944275 -0.5348837375640869 -0.12059459090232849
-0.1627907156944275 -0.5348837375640869 0.03750990331172943
-0.1627907156944275 -0.5193798542022705 -0.12163975834846497
-0.1627907156944275 -0.5193798542022705 0.0365552194416523
-0.1627907156944275 -0.5038759708404541 -0.12086169421672821
-0.1627907156944275 -0.5038759708404541 0.04559706151485443
-0.1627907156944275 -0.4883720874786377 -0.11637022346258163
-0.1627907156944275 -0.4883720874786377 0.05528714135289192
-0.1627907156944275 -0.4728682041168213 -0.10653036832809448
-0.1627907156944275 -0.4728682041168213 0.062156740576028824
-0.1627907156944275 -0.4573643207550049 -0.09050844609737396
-0.1627907156944275 -0.4573643207550049 0.06817781925201416
-0.1627907156944275 -0.4418604373931885 -0.07125158607959747
-0.1627907007932663 -0.4418604373931885 0.06999637931585312
-0.1627907156944275 -0.42635661363601685 -0.048026543110609055
-0.1627907156944275 -0.42635661363601685 0.06671454012393951
-0.1627907156944275 -0.41085273027420044 -0.0246990155428648
-0.1627907156944275 -0.41085273027420044 0.056750837713479996
-0.1627907156944275 -0.39534884691238403 -0.017798783257603645
-0.1627907156944275 -0.39534884691238403 0.04403740167617798
-0.1627907156944275 -0.3798449635505676 -0.044474609196186066
-0.1627907156944275 -0.3798449635505676 0.03387651965022087
-0.1627907156944275 -0.3643410801887512 -0.06572631001472473
-0.1627907007932663 -0.3643410801887512 0.02337217889726162
-0.1627907156944275 -0.3488371968269348 -0.07158982008695602
-0.1627907156944275 -0.3488371968269348 0.008710515685379505
-0.1627907156944275 -0.3333333134651184 -0.06378147006034851
-0.1627907156944275 -0.3333333134651184 -0.011576946824789047
-0.1627907156944275 -0.28682172298431396 -0.03084545023739338
-0.1627907156944275 -0.28682172298431396 0.04070364683866501
-0.1627907156944275 -0.27131783962249756 -0.06143421679735184
-0.1627907156944275 -0.27131783962249756 0.06576554477214813
-0.1627907156944275 -0.25581395626068115 -0.08426958322525024
-0.1627907156944275 -0.25581395626068115 0.07525160908699036
-0.1627907156944275 -0.24031007289886475 -0.0986931249499321
-0.1627907156944275 -0.24031007289886475 0.0814318060874939
-0.1627907156944275 -0.22480618953704834 -0.1077355295419693
-0.1627907156944275 -0.22480618953704834 0.08404326438903809
-0.16279073059558868 -0.20930230617523193 -0.11366014927625656
-0.1627907156944275 -0.20930230617523193 0.08258110284805298
-0.1627907156944275 -0.19379842281341553 -0.11734362691640854
-0.1627907156944275 -0.19379842281341553 0.07837259769439697
-0.1627907156944275 -0.1782945990562439 -0.11773275583982468
-0.1627907156944275 -0.1782945990562439 0.07328471541404724
-0.1627907156944275 -0.1627907156944275 -0.11625532060861588
-0.1627907156944275 -0.1627907156944275 0.06788276135921478
-0.1627907156944275 -0.14728683233261108 -0.1134263426065445
-0.1627907156944275 -0.14728683233261108 0.06299132853746414
-0.1627907156944275 -0.13178294897079468 -0.11227697879076004
-0.16279073059558868 -0.13178294897079468 0.05577145516872406
-0.1627907156944275 -0.11627906560897827 -0.11357606947422028
-0.1627907156944275 -0.11627907305955887 0.056715935468673706
-0.1627907156944275 -0.10077518224716187 -0.11388922482728958
-0.1627907156944275 -0.10077518224716187 0.06317530572414398
-0.1627907156944275 -0.08527129888534546 -0.11256306618452072
-0.1627907156944275 -0.08527129888534546 0.06849083304405212
-0.1627907156944275 -0.06976741552352905 -0.11030623316764832
-0.1627907156944275 -0.06976740807294846 0.07132497429847717
-0.1627907156944275 -0.05426359176635742 -0.11090788245201111
-0.1627907156944275 -0.05426359176635742 0.07527640461921692
-0.1627907156944275 -0.038759708404541016 -0.1149010881781578
-0.1627907156944275 -0.038759708404541016 0.08170606195926666
-0.1627907156944275 -0.02325582504272461 -0.11811430752277374
-0.1627907156944275 -0.02325582504272461 0.08579060435295105
-0.1627907156944275 -0.007751941680908203 -0.11748644709587097
-0.1627907156944275 -0.007751941680908203 0.088128961622715
-0.1627907156944275 0.007751941680908203 -0.11383548378944397
-0.1627907156944275 0.007751941680908203 0.08896841108798981
-0.1627907156944275 0.02325582504272461 -0.11041192710399628
-0.1627907156944275 0.02325582504272461 0.08523503690958023
-0.1627907156944275 0.038759708404541016 -0.10902266204357147
-0.1627907156944275 0.038759708404541016 0.07924053817987442
-0.1627907156944275 0.05426359176635742 -0.10909676551818848
-0.1627907156944275 0.05426359176635742 0.07137154787778854
-0.1627907156944275 0.06976747512817383 -0.11218741536140442
-0.1627907156944275 0.06976746767759323 0.0700012668967247
-0.1627907156944275 0.08527135848999023 -0.11637803912162781
-0.1627907156944275 0.08527135848999023 0.0699697807431221
-0.1627907156944275 0.10077524185180664 -0.11810638755559921
-0.1627907156944275 0.10077524930238724 0.07066462934017181
-0.1627907156944275 0.11627912521362305 -0.11894849687814713
-0.1627907156944275 0.11627912521362305 0.07003353536128998
-0.1627907156944275 0.1317828893661499 -0.12320904433727264
-0.1627907156944275 0.1317828893661499 0.07068277150392532
-0.1627907156944275 0.1472867727279663 -0.12714093923568726
-0.1627907156944275 0.1472867727279663 0.07545120269060135
-0.1627907156944275 0.16279065608978271 -0.1281139850616455
-0.1627907156944275 0.16279065608978271 0.08056771010160446
-0.1627907156944275 0.17829453945159912 -0.1259768158197403
-0.1627907156944275 0.17829453945159912 0.08325456827878952
-0.1627907156944275 0.19379842281341553 -0.11941953748464584
-0.1627907156944275 0.19379842281341553 0.08218581974506378
-0.1627907156944275 0.20930230617523193 -0.09784940630197525
-0.1627907156944275 0.20930230617523193 0.07651448249816895
-0.1627907156944275 0.22480618953704834 -0.08058676868677139
-0.1627907156944275 0.22480618953704834 0.05863070487976074
-0.1627907156944275 0.24031007289886475 -0.08330970257520676
-0.1627907156944275 0.24031007289886475 0.037953756749629974
-0.1627907156944275 0.25581395626068115 -0.08955617249011993
-0.1627907156944275 0.25581395626068115 0.043870631605386734
-0.1627907156944275 0.27131783962249756 -0.08950848132371902
-0.1627907156944275 0.27131783962249756 0.05510475113987923
-0.1627907156944275 0.28682172298431396 -0.08720569312572479
-0.1627907156944275 0.28682172298431396 0.05921805277466774
-0.1627907156944275 0.30232560634613037 -0.09194523096084595
-0.1627907156944275 0.30232560634613037 0.06734051555395126
-0.1627907156944275 0.3178294897079468 -0.10347836464643478
-0.1627907156944275 0.3178294897079468 0.07407066971063614
-0.1627907156944275 0.3333333730697632 -0.10637561976909637
-0.1627907156944275 0.3333333730697632 0.07563051581382751
-0.1627907156944275 0.3488372564315796 -0.10586033016443253
-0.1627907156944275 0.3488372564315796 0.07321525365114212
-0.1627907156944275 0.364341139793396 -0.10197532176971436
-0.1627907156944275 0.364341139793396 0.06619054079055786
-0.1627907156944275 0.37984490394592285 -0.08697709441184998
-0.1627907156944275 0.37984493374824524 0.0553584061563015
-0.1627907156944275 0.39534878730773926 -0.02545216493308544
-0.1627907156944275 0.39534878730773926 0.0377759113907814
-0.1627907156944275 0.41085267066955566 -0.029184669256210327
-0.1627907156944275 0.41085267066955566 0.037972621619701385
-0.1627907156944275 0.42635655403137207 -0.04673333838582039
-0.1627907156944275 0.42635655403137207 0.044390998780727386
-0.1627907156944275 0.4418604373931885 -0.056715089827775955
-0.1627907156944275 0.4418604373931885 0.04933202266693115
-0.1627907156944275 0.4573643207550049 -0.06467338651418686
-0.1627907156944275 0.4573643207550049 0.05039221793413162
-0.1627907156944275 0.4728682041168213 -0.06585337966680527
-0.1627907156944275 0.4728682041168213 0.0473201647400856
-0.1627907156944275 0.4883720874786377 -0.06252571195363998
-0.1627907156944275 0.4883720874786377 0.0437314435839653
-0.1627907156944275 0.5038759708404541 -0.08565688878297806
-0.1627907156944275 0.5038759708404541 0.050118908286094666
-0.1627907156944275 0.5193798542022705 -0.10718489438295364
-0.1627907156944275 0.5193798542022705 0.06430868804454803
-0.1627907156944275 0.5348837375640869 -0.11631999164819717
-0.1627907156944275 0.5348837375640869 0.07136736810207367
-0.1627907156944275 0.5503876209259033 -0.11824744939804077
-0.1627907156944275 0.5503876209259033 0.07278387993574142
-0.1627907156944275 0.5658915042877197 -0.11799141764640808
-0.1627907156944275 0.5658915042877197 0.07068922370672226
-0.1627907156944275 0.5813953876495361 -0.11471159756183624
-0.1627907156944275 0.5813953876495361 0.06219823285937309
-0.1627907156944275 0.5968992710113525 -0.10416902601718903
-0.1627907156944275 0.5968992710113525 -0.08726036548614502
-0.1627907156944275 0.612403154373169 -0.116885244846344
-0.1627907156944275 0.612403154373169 -0.08172857761383057
-0.1627907156944275 0.6279069185256958 -0.12523908913135529
-0.1627907156944275 0.6279069185256958 -0.035046618431806564
-0.1627907156944275 0.6434108018875122 -0.13209575414657593
-0.1627907156944275 0.643410861492157 0.008498095907270908
-0.1627907156944275 0.6589146852493286 -0.13394427299499512
-0.1627907156944275 0.6589146852493286 0.013300115242600441
-0.1627907156944275 0.674418568611145 -0.13387255370616913
-0.1627907156944275 0.674418568611145 0.018032154068350792
-0.1627907156944275 0.6899224519729614 -0.13382281363010406
-0.1627907156944275 0.6899224519729614 0.040177781134843826
-0.1627907156944275 0.7054263353347778 -0.13487571477890015
-0.1627907156944275 0.7054263353347778 0.06408523768186569
-0.1627907156944275 0.7209302186965942 -0.1351448893547058
-0.1627907156944275 0.7209302186965942 0.0708724781870842
-0.1627907156944275 0.7364341020584106 -0.13279825448989868
-0.1627907007932663 0.7364341020584106 0.07088270783424377
-0.1627907156944275 0.751937985420227 -0.11671516299247742
-0.1627907156944275 0.751937985420227 0.06167495995759964
-0.1627907156944275 0.7829457521438599 0.009568790905177593
-0.1627907156944275 0.7829457521438599 0.033892922103405
-0.1627907156944275 0.7984496355056763 -0.12295590341091156
-0.1627907156944275 0.7984496355056763 0.046951111406087875
-0.1627907156944275 0.8139535188674927 -0.1265975683927536
-0.1627907156944275 0.8139535188674927 0.04049766808748245
-0.1627907156944275 0.8294574022293091 -0.1253652423620224
-0.1627907156944275 0.8294574022293091 0.03004225715994835
-0.1627907156944275 0.8449612855911255 -0.12109367549419403
-0.1627907156944275 0.8449612855911255 0.014489833265542984
-0.1627907156944275 0.8604651689529419 -0.10742992162704468
-0.1627907156944275 0.8604651689529419 -0.031941093504428864
-0.14728683233261108 -0.8759690523147583 -0.11835387349128723
-0.14728683233261108 -0.8759689927101135 -0.05866827070713043
-0.14728683233261108 -0.8604651093482971 -0.127679705619812
-0.14728683233261108 -0.8604651689529419 -0.0058557274751365185
-0.14728683233261108 -0.8449612259864807 -0.1348988115787506
-0.14728683233261108 -0.8449612259864807 0.011267278343439102
-0.14728683233261108 -0.8294573426246643 -0.13806508481502533
-0.14728683233261108 -0.8294573426246643 0.02162937819957733
-0.14728683233261108 -0.8139535188674927 -0.14031971991062164
-0.14728683233261108 -0.8139535188674927 0.0400765985250473
-0.14728683233261108 -0.7984496355056763 -0.14308412373065948
-0.14728683233261108 -0.7984496355056763 0.061250053346157074
-0.14728683233261108 -0.7829457521438599 -0.14409314095973969
-0.14728683233261108 -0.7829457521438599 0.07543405890464783
-0.14728683233261108 -0.7674418687820435 -0.14240221679210663
-0.14728683233261108 -0.7674418687820435 0.08171210438013077
-0.14728683233261108 -0.751937985420227 -0.1391637623310089
-0.14728683233261108 -0.751937985420227 0.08236458152532578
-0.14728683233261108 -0.7364341020584106 -0.13492655754089355
-0.14728683233261108 -0.7364341020584106 0.07650040835142136
-0.14728683233261108 -0.7209302186965942 -0.13246296346187592
-0.14728683233261108 -0.7209302186965942 0.06835014373064041
-0.14728683233261108 -0.7054263353347778 -0.1296025961637497
-0.14728683233261108 -0.7054263353347778 0.054393015801906586
-0.14728683233261108 -0.6899224519729614 -0.1250266134738922
-0.14728683233261108 -0.6899224519729614 0.03154877573251724
-0.14728683233261108 -0.674418568611145 -0.12991315126419067
-0.14728683233261108 -0.674418568611145 0.031070496886968613
-0.14728683233261108 -0.6589146852493286 -0.13688777387142181
-0.14728683233261108 -0.6589146852493286 0.040737275034189224
-0.14728683233261108 -0.6434109210968018 -0.13986937701702118
-0.14728683233261108 -0.643410861492157 0.05387343093752861
-0.14728683233261108 -0.6279069781303406 -0.14049696922302246
-0.14728683233261108 -0.6279069781303406 0.06644243001937866
-0.14728683233261108 -0.6124030947685242 -0.13840723037719727
-0.14728683233261108 -0.6124030947685242 0.0703577995300293
-0.14728683233261108 -0.5968992114067078 -0.13345259428024292
-0.14728683233261108 -0.5968992114067078 0.0724865198135376
-0.14728683233261108 -0.5813953876495361 -0.12239331007003784
-0.14728683233261108 -0.5813953876495361 0.07423590123653412
-0.14728683233261108 -0.5658915042877197 -0.12577158212661743
-0.14728683233261108 -0.5658915042877197 0.07158360630273819
-0.14728683233261108 -0.5503876209259033 -0.12774936854839325
-0.14728683233261108 -0.5503876209259033 0.0642017349600792
-0.14728683233261108 -0.5348837375640869 -0.12842771410942078
-0.14728683233261108 -0.5348837375640869 0.05593953654170036
-0.14728683233261108 -0.5193798542022705 -0.12852434813976288
-0.14728683233261108 -0.5193798542022705 0.05519441142678261
-0.14728683233261108 -0.5038759708404541 -0.12755461037158966
-0.14728683233261108 -0.5038759708404541 0.06065618246793747
-0.14728683233261108 -0.4883720874786377 -0.12389832735061646
-0.14728683233261108 -0.4883720874786377 0.06664727628231049
-0.14728683233261108 -0.4728682041168213 -0.11795606464147568
-0.14728683233261108 -0.4728682041168213 0.07409647852182388
-0.14728683233261108 -0.4573643207550049 -0.10522069782018661
-0.14728683233261108 -0.4573643207550049 0.07988114655017853
-0.14728683233261108 -0.4418604373931885 -0.09075608849525452
-0.14728683233261108 -0.4418604373931885 0.08326371014118195
-0.14728683233261108 -0.42635661363601685 -0.07521851360797882
-0.14728683233261108 -0.42635661363601685 0.08142141997814178
-0.14728683233261108 -0.41085273027420044 -0.06739681214094162
-0.14728683233261108 -0.41085273027420044 0.07739031314849854
-0.14728683233261108 -0.39534884691238403 -0.07829643785953522
-0.14728683233261108 -0.39534881711006165 0.07425812631845474
-0.14728683233261108 -0.3798449635505676 -0.0925457775592804
-0.14728683233261108 -0.3798449635505676 0.06946063041687012
-0.14728683233261108 -0.3643410801887512 -0.09991748631000519
-0.14728683233261108 -0.3643410801887512 0.06079258769750595
-0.14728683233261108 -0.3488371968269348 -0.10072779655456543
-0.14728683233261108 -0.3488371968269348 0.050275132060050964
-0.14728683233261108 -0.3333333134651184 -0.09449002146720886
-0.14728683233261108 -0.3333333134651184 0.034569643437862396
-0.14728683233261108 -0.317829430103302 -0.08087310940027237
-0.14728683233261108 -0.317829430103302 0.01098400354385376
-0.14728683233261108 -0.30232560634613037 -0.05521754175424576
-0.14728683233261108 -0.30232560634613037 0.02545028179883957
-0.14728683233261108 -0.28682172298431396 -0.07387541234493256
-0.14728683233261108 -0.28682172298431396 0.06956582516431808
-0.14728683233261108 -0.27131783962249756 -0.08678372204303741
-0.14728683233261108 -0.27131783962249756 0.08468760550022125
-0.14728683233261108 -0.25581395626068115 -0.09905118495225906
-0.14728683233261108 -0.25581395626068115 0.09056788682937622
-0.14728683233261108 -0.24031007289886475 -0.11147984117269516
-0.14728683233261108 -0.24031007289886475 0.09334681928157806
-0.14728683233261108 -0.22480618953704834 -0.12066702544689178
-0.14728683233261108 -0.22480618953704834 0.09441907703876495
-0.14728683233261108 -0.20930230617523193 -0.12576894462108612
-0.14728683233261108 -0.20930230617523193 0.09308066964149475
-0.14728683233261108 -0.19379842281341553 -0.12923438847064972
-0.14728683233261108 -0.19379842281341553 0.09075606614351273
-0.14728683233261108 -0.1782945841550827 -0.1294543743133545
-0.14728683233261108 -0.1782945990562439 0.08876517415046692
-0.14728683233261108 -0.1627907156944275 -0.12829150259494781
-0.14728683233261108 -0.16279073059558868 0.0880742222070694
-0.14728683233261108 -0.14728683233261108 -0.1273670196533203
-0.1472868174314499 -0.1472868174314499 0.08579593151807785
-0.14728683233261108 -0.13178294897079468 -0.12687909603118896
-0.14728683233261108 -0.13178294897079468 0.08358509093523026
-0.14728683233261108 -0.11627906560897827 -0.1278790682554245
-0.14728683233261108 -0.11627906560897827 0.08098699152469635
-0.14728683233261108 -0.10077518224716187 -0.12907537817955017
-0.14728683233261108 -0.10077518224716187 0.0813414603471756
-0.14728684723377228 -0.08527129888534546 -0.12961168587207794
-0.14728683233261108 -0.08527129888534546 0.08636695891618729
-0.14728683233261108 -0.06976741552352905 -0.12950344383716583
-0.14728683233261108 -0.06976741552352905 0.09042933583259583
-0.14728683233261108 -0.05426359176635742 -0.12995074689388275
-0.14728683233261108 -0.05426359176635742 0.09449415653944016
-0.14728683233261108 -0.038759708404541016 -0.13088467717170715
-0.14728683233261108 -0.038759708404541016 0.09901683032512665
-0.14728683233261108 -0.02325582504272461 -0.13152837753295898
-0.14728683233261108 -0.02325582504272461 0.10148368030786514
-0.14728683233261108 -0.007751941215246916 -0.12964224815368652
-0.14728683233261108 -0.007751941680908203 0.10298384726047516
-0.14728683233261108 0.007751941680908203 -0.12556152045726776
-0.14728683233261108 0.007751941680908203 0.10398928076028824
-0.14728683233261108 0.02325582504272461 -0.12168999016284943
-0.14728683233261108 0.02325582504272461 0.09949464350938797
-0.14728683233261108 0.038759708404541016 -0.11976927518844604
-0.14728683233261108 0.038759708404541016 0.09473957121372223
-0.14728683233261108 0.05426359176635742 -0.11912357807159424
-0.14728683233261108 0.05426359549164772 0.08846791088581085
-0.14728683233261108 0.06976747512817383 -0.12317174673080444
-0.14728683233261108 0.06976747512817383 0.08517313748598099
-0.14728683233261108 0.08527135848999023 -0.12830689549446106
-0.14728683233261108 0.08527135848999023 0.08574552088975906
-0.14728683233261108 0.10077524185180664 -0.1318480372428894
-0.14728683233261108 0.10077524185180664 0.08762405812740326
-0.14728683233261108 0.11627912521362305 -0.13388504087924957
-0.14728683233261108 0.11627912521362305 0.0873669907450676
-0.14728683233261108 0.1317828893661499 -0.1367848515510559
-0.14728683233261108 0.1317828893661499 0.08824839442968369
-0.14728683233261108 0.1472867727279663 -0.1393728107213974
-0.14728683233261108 0.1472867727279663 0.09303927421569824
-0.14728683233261108 0.16279065608978271 -0.14008578658103943
-0.14728683233261108 0.16279065608978271 0.09740333259105682
-0.14728683233261108 0.17829453945159912 -0.13907477259635925
-0.14728683233261108 0.17829453945159912 0.09921392798423767
-0.14728683233261108 0.19379842281341553 -0.134050190448761
-0.14728683233261108 0.19379842281341553 0.0970357358455658
-0.14728683233261108 0.20930230617523193 -0.12055590748786926
-0.14728683233261108 0.20930230617523193 0.09140098839998245
-0.14728683233261108 0.22480618953704834 -0.0897051990032196
-0.14728683233261108 0.22480618953704834 0.0763041228055954
-0.14728683233261108 0.24031007289886475 -0.09178385138511658
-0.14728683233261108 0.24031007289886475 0.07092242687940598
-0.14728683233261108 0.25581395626068115 -0.10438531637191772
-0.14728683233261108 0.25581395626068115 0.07875515520572662
-0.14728683233261108 0.27131783962249756 -0.10796065628528595
-0.14728683233261108 0.27131783962249756 0.08476915210485458
-0.14728683233261108 0.28682172298431396 -0.1067032665014267
-0.14728683233261108 0.28682172298431396 0.08766216039657593
-0.14728683233261108 0.30232560634613037 -0.11033344268798828
-0.14728683233261108 0.30232560634613037 0.09081541001796722
-0.14728683233261108 0.3178294897079468 -0.11795158684253693
-0.14728683233261108 0.3178294897079468 0.09376202523708344
-0.14728683233261108 0.3333333730697632 -0.11866316199302673
-0.14728683233261108 0.3333333730697632 0.09393031895160675
-0.14728683233261108 0.3488372564315796 -0.11707007139921188
-0.14728683233261108 0.3488372564315796 0.09158440679311752
-0.14728683233261108 0.364341139793396 -0.11151756346225739
-0.14728683233261108 0.364341139793396 0.08629117161035538
-0.14728683233261108 0.37984490394592285 -0.1022406816482544
-0.14728683233261108 0.37984490394592285 0.07806678861379623
-0.14728683233261108 0.39534878730773926 -0.08750171214342117
-0.14728683233261108 0.39534875750541687 0.07081285864114761
-0.14728683233261108 0.41085267066955566 -0.08920148015022278
-0.14728683233261108 0.41085267066955566 0.062487855553627014
-0.14728683233261108 0.42635655403137207 -0.09157530963420868
-0.14728683233261108 0.42635655403137207 0.06392806768417358
-0.14728683233261108 0.4418604373931885 -0.09170402586460114
-0.14728683233261108 0.4418604373931885 0.0670592337846756
-0.14728683233261108 0.4573643207550049 -0.09439434111118317
-0.14728683233261108 0.4573643207550049 0.06643692404031754
-0.14728683233261108 0.4728682041168213 -0.09693017601966858
-0.14728683233261108 0.4728682041168213 0.06188742071390152
-0.14728683233261108 0.4883720874786377 -0.09995189309120178
-0.14728683233261108 0.4883720874786377 0.059254519641399384
-0.14728683233261108 0.5038759708404541 -0.10440456122159958
-0.14728683233261108 0.5038759708404541 0.06707818061113358
-0.14728683233261108 0.5193798542022705 -0.1173243448138237
-0.14728683233261108 0.5193798542022705 0.0786488875746727
-0.14728683233261108 0.5348837375640869 -0.12329225242137909
-0.14728683233261108 0.5348837375640869 0.08532997965812683
-0.14728683233261108 0.5503876209259033 -0.1266065537929535
-0.14728683233261108 0.5503876209259033 0.08640977740287781
-0.14728683233261108 0.5658915042877197 -0.1288049966096878
-0.14728683233261108 0.5658915042877197 0.08479665219783783
-0.14728683233261108 0.5813953876495361 -0.1311255544424057
-0.14728683233261108 0.5813953876495361 0.07922177761793137
-0.14728683233261108 0.5968992710113525 -0.13222263753414154
-0.14728683233261108 0.5968992710113525 0.06753195822238922
-0.14728683233261108 0.612403154373169 -0.1355821192264557
-0.14728683233261108 0.612403154373169 0.043726108968257904
-0.14728683233261108 0.6279069185256958 -0.13804404437541962
-0.14728683233261108 0.6279069185256958 0.04270176589488983
-0.14728683233261108 0.6434108018875122 -0.1414777785539627
-0.14728683233261108 0.6434108018875122 0.046250760555267334
-0.14728683233261108 0.6589146852493286 -0.1435900330543518
-0.14728683233261108 0.6589146852493286 0.04178139567375183
-0.14728683233261108 0.674418568611145 -0.1428154557943344
-0.14728683233261108 0.674418568611145 0.03389737755060196
-0.14728683233261108 0.6899224519729614 -0.14129142463207245
-0.14728683233261108 0.6899224519729614 0.04886418581008911
-0.14728683233261108 0.7054263353347778 -0.14163830876350403
-0.14728683233261108 0.7054263353347778 0.07810749858617783
-0.14728683233261108 0.7209302186965942 -0.14193254709243774
-0.14728683233261108 0.7209302186965942 0.08646433055400848
-0.14728683233261108 0.7364341020584106 -0.13996949791908264
-0.14728683233261108 0.7364341020584106 0.08777660876512527
-0.14728683233261108 0.751937985420227 -0.13264615833759308
-0.14728684723377228 0.7519380450248718 0.08694737404584885
-0.14728683233261108 0.7674418687820435 -0.12068943679332733
-0.14728683233261108 0.7674418687820435 -0.050131604075431824
-0.14728683233261108 0.7674418687820435 -0.018009096384048462
-0.14728683233261108 0.7674418687820435 0.08204351365566254
-0.14728683233261108 0.7829457521438599 -0.1250976026058197
-0.14728683233261108 0.7829457521438599 -0.03919161483645439
-0.14728683233261108 0.7829457521438599 -0.037874165922403336
-0.14728683233261108 0.7829457521438599 0.06980031728744507
-0.14728683233261108 0.7984496355056763 -0.1339527666568756
-0.14728683233261108 0.7984496355056763 0.06085441634058952
-0.14728683233261108 0.8139535188674927 -0.13609176874160767
-0.14728683233261108 0.8139535188674927 0.05313342809677124
-0.14728683233261108 0.8294574022293091 -0.13610908389091492
-0.14728683233261108 0.8294574022293091 0.04463515430688858
-0.14728683233261108 0.8449612855911255 -0.13425371050834656
-0.14728683233261108 0.8449612855911255 0.03347077593207359
-0.14728683233261108 0.8604651093482971 -0.12767429649829865
-0.14728683233261108 0.8604651689529419 0.01702021062374115
-0.14728683233261108 0.8759689331054688 -0.11477044224739075
-0.14728683233261108 0.8759689331054688 -0.006767826154828072
-0.13178294897079468 -0.8914728760719299 -0.12252849340438843
-0.13178294897079468 -0.8914728760719299 -0.058425404131412506
-0.13178294897079468 -0.8759689927101135 -0.13344734907150269
-0.13178294897079468 -0.8759689927101135 -0.009997518733143806
-0.13178294897079468 -0.8604651093482971 -0.13845443725585938
-0.13178294897079468 -0.8604651689529419 0.009620878845453262
-0.13178294897079468 -0.8449611663818359 -0.14127933979034424
-0.13178294897079468 -0.8449612855911255 0.021604379639029503
-0.13178294897079468 -0.8294572830200195 -0.14413201808929443
-0.13178294897079468 -0.8294573426246643 0.0323052704334259
-0.13178294897079468 -0.8139535188674927 -0.14724259078502655
-0.13178294897079468 -0.8139535784721375 0.05650923028588295
-0.13178294897079468 -0.7984496355056763 -0.15083864331245422
-0.13178294897079468 -0.7984496355056763 0.07666882872581482
-0.13178294897079468 -0.7829457521438599 -0.15064294636249542
-0.13178294897079468 -0.7829457521438599 0.08829579502344131
-0.13178294897079468 -0.7674418687820435 -0.1497497260570526
-0.13178294897079468 -0.7674418687820435 0.0947326272726059
-0.13178294897079468 -0.751937985420227 -0.14814414083957672
-0.13178294897079468 -0.751937985420227 0.09523718059062958
-0.13178294897079468 -0.7364341020584106 -0.14317339658737183
-0.13178294897079468 -0.7364341020584106 0.09071994572877884
-0.13178294897079468 -0.7209302186965942 -0.137244313955307
-0.13178294897079468 -0.7209302186965942 0.08379761129617691
-0.13178294897079468 -0.7054263353347778 -0.1340787559747696
-0.13178294897079468 -0.7054263353347778 0.0711541473865509
-0.13178294897079468 -0.6899224519729614 -0.13080818951129913
-0.13178294897079468 -0.6899224519729614 0.04859333485364914
-0.13178294897079468 -0.674418568611145 -0.1350843906402588
-0.13178294897079468 -0.6744185090065002 0.04065294191241264
-0.13178294897079468 -0.6589146852493286 -0.1434638947248459
-0.13178294897079468 -0.6589146852493286 0.05317668616771698
-0.13178294897079468 -0.643410861492157 -0.14806018769741058
-0.13178294897079468 -0.643410861492157 0.08424855768680573
-0.13178294897079468 -0.6279069781303406 -0.14897562563419342
-0.13178294897079468 -0.6279069781303406 0.09306702762842178
-0.13178294897079468 -0.6124030947685242 -0.14790280163288116
-0.13178294897079468 -0.6124030947685242 0.09425550699234009
-0.13178294897079468 -0.5968992710113525 -0.14150401949882507
-0.13178294897079468 -0.5968992114067078 0.0898326188325882
-0.13178294897079468 -0.5813953876495361 -0.13374026119709015
-0.13178294897079468 -0.5813953876495361 0.08752532303333282
-0.13178294897079468 -0.5658915042877197 -0.13617552816867828
-0.13178294897079468 -0.5658915042877197 0.08470862358808517
-0.13178294897079468 -0.5503876209259033 -0.13636206090450287
-0.13178294897079468 -0.5503876209259033 0.07591145485639572
-0.13178294897079468 -0.5348837375640869 -0.135623961687088
-0.13178294897079468 -0.5348837375640869 0.06936554610729218
-0.13178294897079468 -0.5193798542022705 -0.1353439837694168
-0.13178294897079468 -0.5193798542022705 0.07101400941610336
-0.13178294897079468 -0.5038759708404541 -0.13500317931175232
-0.13178294897079468 -0.5038759708404541 0.07500709593296051
-0.13178294897079468 -0.4883720874786377 -0.1324714720249176
-0.13178294897079468 -0.4883720874786377 0.07606618851423264
-0.13178294897079468 -0.4728682041168213 -0.125180184841156
-0.13178294897079468 -0.4728682041168213 0.08267498016357422
-0.13178294897079468 -0.4573643207550049 -0.11390349268913269
-0.13178294897079468 -0.4573643207550049 0.08910343050956726
-0.13178294897079468 -0.4418604373931885 -0.10288295149803162
-0.13178294897079468 -0.4418604373931885 0.09173530340194702
-0.13178294897079468 -0.42635661363601685 -0.10353715717792511
-0.13178294897079468 -0.42635661363601685 0.09159380197525024
-0.13178294897079468 -0.41085273027420044 -0.11055929958820343
-0.13178294897079468 -0.41085273027420044 0.09274261444807053
-0.13178294897079468 -0.39534884691238403 -0.11443539708852768
-0.13178294897079468 -0.39534884691238403 0.09211161732673645
-0.13178294897079468 -0.3798449635505676 -0.11640343815088272
-0.13178294897079468 -0.3798449635505676 0.08821390569210052
-0.13178294897079468 -0.3643410801887512 -0.11542683094739914
-0.13178294897079468 -0.3643410801887512 0.08295471221208572
-0.13178294897079468 -0.3488372266292572 -0.11215665191411972
-0.13178294897079468 -0.3488371968269348 0.07360440492630005
-0.13178294897079468 -0.3333333134651184 -0.10646554827690125
-0.13178294897079468 -0.3333333134651184 0.06372256577014923
-0.13178294897079468 -0.317829430103302 -0.09430509805679321
-0.13178294897079468 -0.317829430103302 0.05548391863703728
-0.13178294897079468 -0.30232560634613037 -0.08597631752490997
-0.13178294897079468 -0.30232560634613037 0.07165409624576569
-0.13178294897079468 -0.28682172298431396 -0.0987817719578743
-0.13178294897079468 -0.28682172298431396 0.09196605533361435
-0.13178294897079468 -0.27131783962249756 -0.10603555291891098
-0.13178293406963348 -0.27131783962249756 0.10098370909690857
-0.13178294897079468 -0.25581395626068115 -0.11381451785564423
-0.13178294897079468 -0.25581395626068115 0.10481452941894531
-0.13178294897079468 -0.24031007289886475 -0.12274590134620667
-0.13178294897079468 -0.24031007289886475 0.10520947724580765
-0.13178294897079468 -0.22480620443820953 -0.1294613629579544
-0.13178294897079468 -0.22480618953704834 0.10431546717882156
-0.13178294897079468 -0.20930230617523193 -0.13479706645011902
-0.13178294897079468 -0.20930230617523193 0.10282251238822937
-0.13178294897079468 -0.19379842281341553 -0.13753657042980194
-0.13178294897079468 -0.19379842281341553 0.10172124952077866
-0.13178294897079468 -0.1782945990562439 -0.13803361356258392
-0.13178294897079468 -0.1782945841550827 0.1019585132598877
-0.13178294897079468 -0.1627907156944275 -0.1380009949207306
-0.13178294897079468 -0.1627907156944275 0.10356198251247406
-0.13178294897079468 -0.14728683233261108 -0.1382710188627243
-0.13178294897079468 -0.14728683233261108 0.10373181104660034
-0.13178294897079468 -0.13178294897079468 -0.13849756121635437
-0.13178294897079468 -0.13178294897079468 0.10314825922250748
-0.13178294897079468 -0.11627906560897827 -0.1394631266593933
-0.13178294897079468 -0.11627906560897827 0.10032125562429428
-0.13178294897079468 -0.10077518224716187 -0.14104999601840973
-0.13178294897079468 -0.10077518224716187 0.09787881374359131
-0.13178294897079468 -0.08527129888534546 -0.14225804805755615
-0.13178294897079468 -0.08527129888534546 0.10149037092924118
-0.13178294897079468 -0.06976741552352905 -0.1406894475221634
-0.13178294897079468 -0.06976741552352905 0.10643548518419266
-0.13178294897079468 -0.05426359176635742 -0.13927406072616577
-0.13178294897079468 -0.05426359176635742 0.1098470389842987
-0.13178294897079468 -0.038759708404541016 -0.14009663462638855
-0.13178294897079468 -0.038759708404541016 0.11198750138282776
-0.13178294897079468 -0.02325582504272461 -0.1405479609966278
-0.13178294897079468 -0.02325582504272461 0.11275080591440201
-0.13178294897079468 -0.007751941680908203 -0.13871745765209198
-0.13178294897079468 -0.007751941680908203 0.11379250884056091
-0.13178294897079468 0.007751941680908203 -0.1356731802225113
-0.13178294897079468 0.007751941680908203 0.11413348466157913
-0.13178294897079468 0.02325582504272461 -0.1310240626335144
-0.13178294897079468 0.02325582504272461 0.11160082370042801
-0.13178294897079468 0.038759708404541016 -0.12746863067150116
-0.13178294897079468 0.038759708404541016 0.10874217748641968
-0.13178294897079468 0.05426359176635742 -0.12679214775562286
-0.13178294897079468 0.05426359176635742 0.10429277271032333
-0.13178294897079468 0.06976747512817383 -0.13359270989894867
-0.13178294897079468 0.06976747512817383 0.09836836904287338
-0.13178294897079468 0.08527135848999023 -0.13942131400108337
-0.13178294897079468 0.08527135848999023 0.09968901425600052
-0.13178294897079468 0.10077524185180664 -0.14148056507110596
-0.13178294897079468 0.10077524185180664 0.10219525545835495
-0.13178294897079468 0.11627912521362305 -0.1428224742412567
-0.13178294897079468 0.11627912521362305 0.1022840291261673
-0.13178294897079468 0.1317828893661499 -0.14507393538951874
-0.13178294897079468 0.1317828893661499 0.10330604761838913
-0.13178294897079468 0.1472867727279663 -0.1483307182788849
-0.13178294897079468 0.1472867727279663 0.10691370069980621
-0.13178294897079468 0.16279065608978271 -0.14936260879039764
-0.13178294897079468 0.16279065608978271 0.10936429351568222
-0.13178294897079468 0.17829453945159912 -0.14772339165210724
-0.13178294897079468 0.17829453945159912 0.11075209081172943
-0.13178294897079468 0.19379842281341553 -0.14241637289524078
-0.13178294897079468 0.19379842281341553 0.10933995246887207
-0.13178294897079468 0.20930230617523193 -0.13509297370910645
-0.13178294897079468 0.20930230617523193 0.10344164818525314
-0.13178294897079468 0.22480618953704834 -0.10904425382614136
-0.13178294897079468 0.22480617463588715 0.0906473696231842
-0.13178294897079468 0.24031007289886475 -0.10155396908521652
-0.13178294897079468 0.24031007289886475 0.08861609548330307
-0.13178294897079468 0.25581395626068115 -0.11664406955242157
-0.13178294897079468 0.25581395626068115 0.09528331458568573
-0.13178294897079468 0.27131783962249756 -0.12068057805299759
-0.13178294897079468 0.27131783962249756 0.1001340001821518
-0.13178294897079468 0.28682172298431396 -0.11972545087337494
-0.13178294897079468 0.2868216931819916 0.10227718949317932
-0.13178294897079468 0.30232560634613037 -0.12090139091014862
-0.13178294897079468 0.30232560634613037 0.10451774299144745
-0.13178294897079468 0.3178294897079468 -0.12482237815856934
-0.13178294897079468 0.3178294897079468 0.10660506784915924
-0.13178294897079468 0.3333333730697632 -0.12494881451129913
-0.13178294897079468 0.3333333730697632 0.10624155402183533
-0.13178294897079468 0.3488372564315796 -0.12301239371299744
-0.13178294897079468 0.3488372564315796 0.10397995263338089
-0.13178294897079468 0.364341139793396 -0.11983971297740936
-0.13178294897079468 0.364341139793396 0.09991323202848434
-0.13178294897079468 0.37984490394592285 -0.11277131736278534
-0.13178294897079468 0.37984490394592285 0.09313386678695679
-0.13178294897079468 0.39534878730773926 -0.11102915555238724
-0.13178294897079468 0.39534881711006165 0.08736437559127808
-0.13178294897079468 0.41085267066955566 -0.11176106333732605
-0.13178294897079468 0.41085267066955566 0.08102516829967499
-0.13178294897079468 0.4263565242290497 -0.11345598101615906
-0.13178294897079468 0.42635655403137207 0.07831795513629913
-0.13178294897079468 0.4418604373931885 -0.11701039969921112
-0.13178294897079468 0.4418604373931885 0.07687217742204666
-0.13178294897079468 0.4573643207550049 -0.11828038096427917
-0.13178294897079468 0.4573643207550049 0.07412894070148468
-0.13178294897079468 0.4728682041168213 -0.11800138652324677
-0.13178294897079468 0.4728682041168213 0.07009819149971008
-0.13178294897079468 0.4883720874786377 -0.1180703192949295
-0.13178294897079468 0.4883720874786377 0.06701427698135376
-0.13178294897079468 0.5038759708404541 -0.11877074092626572
-0.13178294897079468 0.5038759708404541 0.07671023160219193
-0.13178294897079468 0.5193798542022705 -0.12485121190547943
-0.13178294897079468 0.5193798542022705 0.09077470004558563
-0.13178294897079468 0.5348837375640869 -0.13333891332149506
-0.13178294897079468 0.5348837375640869 0.0956890657544136
-0.13178294897079468 0.5503876209259033 -0.13617895543575287
-0.13178294897079468 0.5503876209259033 0.09677361696958542
-0.13178294897079468 0.5658915042877197 -0.1399758756160736
-0.13178294897079468 0.5658915042877197 0.09528475999832153
-0.13178294897079468 0.5813953876495361 -0.14027221500873566
-0.13178294897079468 0.5813953876495361 0.09209839254617691
-0.13178294897079468 0.5968992710113525 -0.14084863662719727
-0.13178294897079468 0.5968992710113525 0.08196122199296951
-0.13178294897079468 0.612403154373169 -0.14481288194656372
-0.13178294897079468 0.612403154373169 0.06639312207698822
-0.13178294897079468 0.6279069781303406 -0.14688289165496826
-0.13178294897079468 0.6279069185256958 0.057798415422439575
-0.13178294897079468 0.6434108018875122 -0.1488713175058365
-0.13178294897079468 0.6434108018875122 0.059622861444950104
-0.13178294897079468 0.6589146852493286 -0.14948810636997223
-0.13178294897079468 0.6589146852493286 0.055250003933906555
-0.13178294897079468 0.674418568611145 -0.14894305169582367
-0.13178294897079468 0.674418568611145 0.045422520488500595
-0.13178294897079468 0.6899224519729614 -0.14777791500091553
-0.13178294897079468 0.6899224519729614 0.06292269378900528
-0.13178294897079468 0.7054263353347778 -0.14829209446907043
-0.13178294897079468 0.7054263353347778 0.095243901014328
-0.13178294897079468 0.7209302186965942 -0.1492442786693573
-0.13178294897079468 0.7209302186965942 0.10098893940448761
-0.13178294897079468 0.7364341020584106 -0.14857342839241028
-0.13178294897079468 0.7364341020584106 0.10147859156131744
-0.13178294897079468 0.751937985420227 -0.14244985580444336
-0.13178294897079468 0.751937985420227 0.10003674030303955
-0.13178294897079468 0.7674418687820435 -0.1396036446094513
-0.13178294897079468 0.7674418687820435 0.09526382386684418
-0.13178294897079468 0.7829457521438599 -0.13934527337551117
-0.13178294897079468 0.7829457521438599 0.08675161004066467
-0.13178294897079468 0.7984496355056763 -0.1395876109600067
-0.13178294897079468 0.7984496355056763 0.07306919991970062
-0.13178294897079468 0.8139535188674927 -0.14022347331047058
-0.13178294897079468 0.8139535188674927 0.06386958062648773
-0.13178294897079468 0.8294574022293091 -0.13989856839179993
-0.13178294897079468 0.8294574022293091 0.05451060086488724
-0.13178294897079468 0.8449612855911255 -0.13899582624435425
-0.13178294897079468 0.8449612855911255 0.04265613108873367
-0.13178294897079468 0.8604651689529419 -0.13753193616867065
-0.13178294897079468 0.8604651689529419 0.026914924383163452
-0.13178294897079468 0.8759689331054688 -0.12998023629188538
-0.13178294897079468 0.8759689331054688 0.01399579830467701
-0.13178294897079468 0.8914728164672852 -0.11240630596876144
-0.13178294897079468 0.8914728164672852 0.008330097422003746
-0.13178294897079468 0.9069766998291016 -0.0694054439663887
-0.13178294897079468 0.9069766998291016 0.0010342961177229881
-0.13178294897079468 0.922480583190918 -0.038867346942424774
-0.13178294897079468 0.922480583190918 -0.020753920078277588
-0.11627906560897827 -0.9069768190383911 -0.11844567209482193
-0.11627906560897827 -0.9069767594337463 -0.05795697122812271
-0.11627906560897827 -0.8914728760719299 -0.13395065069198608
-0.11627906560897827 -0.8914728760719299 -0.00843860488384962
-0.11627906560897827 -0.8759689927101135 -0.1406552493572235
-0.11627906560897827 -0.8759689927101135 0.006989727728068829
-0.11627907305955887 -0.8604651093482971 -0.1461004912853241
-0.11627906560897827 -0.8604650497436523 0.018039971590042114
-0.11627906560897827 -0.8449612259864807 -0.14855659008026123
-0.11627906560897827 -0.8449612855911255 0.025670183822512627
-0.11627906560897827 -0.8294573426246643 -0.1497010886669159
-0.11627906560897827 -0.8294574022293091 0.04175638034939766
-0.11627906560897827 -0.8139535188674927 -0.15209782123565674
-0.11627906560897827 -0.8139535188674927 0.07212129980325699
-0.11627906560897827 -0.7984496355056763 -0.1550995409488678
-0.11627906560897827 -0.7984496355056763 0.0894879475235939
-0.11627906560897827 -0.7829457521438599 -0.1536361277103424
-0.11627906560897827 -0.7829457521438599 0.09949459135532379
-0.11627906560897827 -0.7674418687820435 -0.15277674794197083
-0.11627906560897827 -0.7674418687820435 0.10527405142784119
-0.11627906560897827 -0.751937985420227 -0.1521691232919693
-0.11627906560897827 -0.751937985420227 0.10613614320755005
-0.11627906560897827 -0.7364341020584106 -0.1508408486843109
-0.11627906560897827 -0.7364341020584106 0.10390279442071915
-0.11627906560897827 -0.720930278301239 -0.14498262107372284
-0.11627906560897827 -0.7209302186965942 0.09916466474533081
-0.11627906560897827 -0.7054263353347778 -0.1378970444202423
-0.11627906560897827 -0.7054263353347778 0.09113673865795135
-0.11627906560897827 -0.6899224519729614 -0.1338779628276825
-0.11627906560897827 -0.6899224519729614 0.07918640971183777
-0.11627906560897827 -0.674418568611145 -0.13916589319705963
-0.11627906560897827 -0.674418568611145 0.05752626433968544
-0.11627906560897827 -0.6589146852493286 -0.14959301054477692
-0.11627906560897827 -0.6589146852493286 0.09330004453659058
-0.11627906560897827 -0.643410861492157 -0.15164093673229218
-0.11627906560897827 -0.643410861492157 0.10658682882785797
-0.11627906560897827 -0.6279069781303406 -0.15252578258514404
-0.11627906560897827 -0.6279069781303406 0.11153346300125122
-0.11627906560897827 -0.6124030947685242 -0.15265008807182312
-0.11627906560897827 -0.6124030947685242 0.11311012506484985
-0.11627906560897827 -0.5968992114067078 -0.15081308782100677
