-0.6124030947685242 -0.03598060831427574 -0.02325582504272461
-0.612403154373169 -0.0316343791782856 0.06976747512817383
-0.6124030947685242 -0.026563409715890884 0.08527135848999023
-0.6124030947685242 -0.02654733508825302 0.10077524185180664
-0.6124030947685242 -0.026285169646143913 0.11627912521362305
-0.6124030351638794 -0.02559654228389263 0.1317828893661499
-0.6124030947685242 -0.025234796106815338 0.1472867727279663
-0.6124030947685242 -0.025095202028751373 0.16279065608978271
-0.6124030947685242 -0.024954114109277725 0.17829453945159912
-0.6124030947685242 -0.0248306505382061 0.19379842281341553
-0.6124030947685242 -0.024928728118538857 0.20930230617523193
-0.6124030947685242 -0.024847112596035004 0.22480618953704834
-0.6124030947685242 -0.0246839951723814 0.24031007289886475
-0.6124030947685242 -0.02471747435629368 0.25581395626068115
-0.6124030947685242 -0.014436719007790089 -0.25581395626068115
-0.6124030947685242 0.012519489042460918 -0.25581395626068115
-0.6124030351638794 0.030502883717417717 -0.25581395626068115
-0.6124030947685242 0.04314754530787468 -0.25581395626068115
-0.6124030947685242 0.053907908499240875 -0.05426359176635742
-0.6124030947685242 0.05340776592493057 -0.038759708404541016
-0.6124030947685242 0.052717749029397964 -0.02325582504272461
-0.6124030947685242 0.052668992429971695 -0.007751941680908203
-0.6124030351638794 0.053070250898599625 0.007751941680908203
-0.6124030947685242 0.053453121334314346 0.02325582504272461
-0.6124030947685242 0.053852859884500504 0.038759708404541016
-0.6124030947685242 0.05418520048260689 0.16279065608978271
-0.6124030947685242 0.05380472168326378 0.17829453945159912
-0.6124030947685242 0.05301929637789726 0.19379842281341553
-0.6124030947685242 0.05266794189810753 0.20930230617523193
-0.6124030947685242 0.052465565502643585 0.22480618953704834
-0.6124030947685242 0.05253645032644272 0.24031007289886475
-0.6124030947685242 0.05086585506796837 0.25581395626068115
-0.6124030947685242 0.05545873939990997 -0.24031007289886475
-0.6124030947685242 0.0548342764377594 -0.22480618953704834
-0.6124030947685242 0.05464886501431465 -0.20930232107639313
-0.6124030947685242 0.05468028038740158 -0.19379842281341553
-0.6124030947685242 0.05479726567864418 -0.1782945990562439
-0.6124030947685242 0.054970771074295044 -0.1627907156944275
-0.6124030947685242 0.05500379204750061 -0.14728683233261108
-0.6124030351638794 0.05489329248666763 -0.13178294897079468
-0.6124030947685242 0.054715439677238464 -0.11627906560897827
-0.6124030947685242 0.05459240823984146 -0.10077518224716187
-0.6124030947685242 0.054492026567459106 -0.08527129888534546
-0.6124030947685242 0.05435426905751228 -0.06976740807294846
-0.6124030947685242 0.054310355335474014 0.05426359176635742
-0.6124030947685242 0.05444759503006935 0.06976747512817383
-0.6124030947685242 0.05450904369354248 0.08527135848999023
-0.6124030947685242 0.0544777512550354 0.10077524930238724
-0.6124030947685242 0.05435318127274513 0.11627912521362305
-0.6124030947685242 0.05432664602994919 0.1317828893661499
-0.6124030947685242 0.05430510640144348 0.1472867876291275
-0.5968992114067078 -0.039407484233379364 0.007751941680908203
-0.5968992114067078 -0.03961639478802681 0.02325582504272461
-0.596899151802063 -0.04090817645192146 0.038759708404541016
-0.5968992114067078 -0.04067618399858475 0.05426359176635742
-0.5968992114067078 -0.023871466517448425 -0.24031007289886475
-0.5968992710113525 -0.025223471224308014 -0.22480618953704834
-0.5968992114067078 -0.026519708335399628 -0.20930230617523193
-0.5968992114067078 -0.02883242815732956 -0.19379842281341553
-0.5968992114067078 -0.031335994601249695 -0.1782945990562439
-0.5968992114067078 -0.032581161707639694 -0.1627907156944275
-0.5968992114067078 -0.030265040695667267 -0.14728683233261108
-0.5968992114067078 -0.026540853083133698 -0.13178294897079468
-0.5968992114067078 -0.025097036734223366 -0.11627906560897827
-0.5968992114067078 -0.024966007098555565 -0.10077518224716187
-0.5968992114067078 -0.025120731443166733 -0.08527129888534546
-0.5968992114067078 -0.025530699640512466 -0.06976741552352905
-0.5968992114067078 -0.026451144367456436 -0.05426359176635742
-0.5968992114067078 -0.028449878096580505 -0.038759708404541016
-0.5968992114067078 -0.03289099782705307 -0.02325582504272461
-0.5968992114067078 -0.03861040249466896 -0.007751941680908203
-0.596899151802063 -0.0322219617664814 0.06976747512817383
-0.5968992114067078 -0.026367176324129105 0.08527135848999023
-0.5968992114067078 -0.026590833440423012 0.10077524185180664
-0.5968992114067078 -0.026469040662050247 0.11627912521362305
-0.5968992114067078 -0.025729428976774216 0.1317828893661499
-0.5968992114067078 -0.02525712549686432 0.1472867727279663
-0.5968992114067078 -0.02504945918917656 0.16279065608978271
-0.5968992114067078 -0.024912811815738678 0.17829453945159912
-0.5968992114067078 -0.024920597672462463 0.19379842281341553
-0.5968992114067078 -0.025075580924749374 0.20930230617523193
-0.5968992114067078 -0.024902375414967537 0.22480618953704834
-0.5968992114067078 -0.02476547658443451 0.24031007289886475
-0.5968992114067078 -0.023989882320165634 0.25581395626068115
-0.5968992114067078 0.05411901697516441 -0.06976741552352905
-0.5968992114067078 0.053200434893369675 -0.05426359176635742
-0.5968992114067078 0.05263805016875267 -0.038759708404541016
-0.5968992114067078 0.05188081040978432 -0.02325582504272461
-0.5968992114067078 0.05180045962333679 -0.007751941680908203
-0.5968992114067078 0.05213352292776108 0.007751941680908203
-0.5968992114067078 0.05261244624853134 0.02325582504272461
-0.5968992114067078 0.05333169549703598 0.038759708404541016
-0.5968992114067078 0.05401228368282318 0.05426359176635742
-0.5968992114067078 0.05391467362642288 0.11627912521362305
-0.5968992114067078 0.053601499646902084 0.1317828893661499
-0.5968992114067078 0.053275540471076965 0.1472867727279663
-0.5968992114067078 0.052759844809770584 0.16279065608978271
-0.5968992114067078 0.05249757692217827 0.17829453945159912
-0.5968992114067078 0.05214010551571846 0.19379842281341553
-0.5968992710113525 0.05227043852210045 0.20930230617523193
-0.5968992114067078 0.0519283190369606 0.22480618953704834
-0.5968992114067078 0.05230007693171501 0.24031007289886475
-0.5968992114067078 0.04142957180738449 0.25581395626068115
-0.5968992114067078 0.05529898405075073 -0.24031007289886475
-0.5968992114067078 0.055008381605148315 -0.22480618953704834
-0.5968992114067078 0.05466732755303383 -0.20930229127407074
-0.5968992114067078 0.05464737117290497 -0.19379842281341553
-0.5968992114067078 0.054740697145462036 -0.1782945990562439
-0.5968992114067078 0.054861441254615784 -0.1627907156944275
-0.5968992114067078 0.05491257458925247 -0.14728683233261108
-0.5968992114067078 0.05483824759721756 -0.13178294897079468
-0.5968992114067078 0.05466211587190628 -0.11627906560897827
-0.5968992114067078 0.05453076958656311 -0.10077518224716187
-0.596899151802063 0.05439670383930206 -0.08527129143476486
-0.5968992114067078 0.05433693900704384 0.06976747512817383
-0.5968992114067078 0.05437576398253441 0.08527136594057083
-0.5968992114067078 0.054337143898010254 0.10077524185180664
-0.5813953876495361 -0.054578207433223724 -0.1627907156944275
-0.5813953876495361 -0.041666388511657715 -0.14728683233261108
-0.5813953876495361 -0.03981352970004082 -0.007751941680908203
-0.5813953876495361 -0.04018740728497505 0.007751941680908203
-0.5813953876495361 -0.039559781551361084 0.02325582504272461
-0.5813953876495361 -0.04067874699831009 0.038759708404541016
-0.5813953876495361 -0.04102108255028725 0.05426359176635742
-0.5813953876495361 -0.02576489932835102 -0.22480618953704834
-0.5813953876495361 -0.027767695486545563 -0.20930230617523193
-0.5813953876495361 -0.030390877276659012 -0.19379842281341553
-0.5813953876495361 -0.03433586284518242 -0.1782945990562439
-0.5813953876495361 -0.030618000775575638 -0.13178294897079468
-0.5813953876495361 -0.026565201580524445 -0.11627906560897827
-0.5813953876495361 -0.02588510513305664 -0.10077518224716187
-0.5813953876495361 -0.026024263352155685 -0.08527129888534546
-0.5813953876495361 -0.026747241616249084 -0.06976741552352905
-0.5813953876495361 -0.02858804725110531 -0.05426359176635742
-0.5813953876495361 -0.03205759450793266 -0.038759708404541016
-0.5813953876495361 -0.037611380219459534 -0.02325582504272461
-0.5813953876495361 -0.034272342920303345 0.06976747512817383
-0.5813953876495361 -0.026768289506435394 0.08527135848999023
-0.5813953876495361 -0.02679058164358139 0.10077524185180664
-0.5813953876495361 -0.026684749871492386 0.11627912521362305
-0.5813953876495361 -0.025902312248945236 0.1317828893661499
-0.5813953876495361 -0.025334931910037994 0.1472867727279663
-0.5813953876495361 -0.025066472589969635 0.16279065608978271
-0.5813953876495361 -0.024985648691654205 0.17829453945159912
-0.5813953876495361 -0.025111887603998184 0.19379842281341553
-0.5813953876495361 -0.025158800184726715 0.20930230617523193
-0.5813953876495361 -0.024853117763996124 0.22480618953704834
-0.5813953876495361 -0.024870626628398895 0.24031007289886475
-0.5813953876495361 0.054001934826374054 -0.08527129888534546
-0.5813953876495361 0.05305637791752815 -0.06976741552352905
-0.5813953876495361 0.05201887711882591 -0.05426359176635742
-0.5813953876495361 0.05134051293134689 -0.038759708404541016
-0.5813953876495361 0.05051663890480995 -0.02325582504272461
-0.5813953876495361 0.050357308238744736 -0.007751941680908203
-0.5813953876495361 0.0505908839404583 0.007751941680908203
-0.5813953876495361 0.051205024123191833 0.02325582504272461
-0.5813953876495361 0.05221144109964371 0.038759708404541016
-0.5813953876495361 0.05295904725790024 0.05426359176635742
-0.5813953876495361 0.05357611924409866 0.06976747512817383
-0.5813953876495361 0.05366326496005058 0.08527135848999023
-0.5813953876495361 0.05340639874339104 0.10077524185180664
-0.5813953876495361 0.05270784720778465 0.11627912521362305
-0.5813953876495361 0.05233830586075783 0.1317828893661499
-0.5813953876495361 0.0519583523273468 0.1472867727279663
-0.5813953876495361 0.05141089856624603 0.16279065608978271
-0.5813953876495361 0.05130000784993172 0.17829453945159912
-0.5813953876495361 0.05149638280272484 0.19379842281341553
-0.5813953876495361 0.05161290243268013 0.20930230617523193
-0.5813953876495361 0.05152595043182373 0.22480618953704834
-0.5813953876495361 0.05019579827785492 0.24031007289886475
-0.5813953876495361 0.05521734803915024 -0.22480618953704834
-0.5813953876495361 0.05472330003976822 -0.20930230617523193
-0.5813953876495361 0.05457472801208496 -0.19379842281341553
-0.5813953280448914 0.054621029645204544 -0.1782945990562439
-0.5813953876495361 0.05470528453588486 -0.16279073059558868
-0.5813953876495361 0.05471831560134888 -0.14728683233261108
-0.5813953876495361 0.05462776497006416 -0.13178294897079468
-0.5813953876495361 0.05449383333325386 -0.11627906560897827
-0.5813953876495361 0.05437736213207245 -0.10077518224716187
-0.5658915042877197 -0.05518573150038719 -0.1627907156944275
-0.5658915042877197 -0.047761380672454834 -0.14728683233261108
-0.5658915042877197 -0.03878369554877281 -0.038759708404541016
-0.5658915042877197 -0.04046883434057236 -0.02325582504272461
-0.5658915042877197 -0.04161065071821213 -0.007751941680908203
-0.5658915042877197 -0.04165250062942505 0.007751941680908203
-0.5658915042877197 -0.041018046438694 0.02325582504272461
-0.5658915042877197 -0.041232187300920486 0.038759708404541016
-0.5658915042877197 -0.04102012515068054 0.05426359176635742
-0.5658915042877197 -0.025788694620132446 -0.22480618953704834
-0.5658915042877197 -0.029286842793226242 -0.20930230617523193
-0.5658915042877197 -0.03190389648079872 -0.19379842281341553
-0.5658915042877197 -0.03631342202425003 -0.1782945990562439
-0.5658915042877197 -0.034728407859802246 -0.13178294897079468
-0.5658915042877197 -0.028730232268571854 -0.11627906560897827
-0.5658915042877197 -0.027521878480911255 -0.10077518224716187
-0.5658915042877197 -0.02787436544895172 -0.08527129888534546
-0.5658915042877197 -0.029656805098056793 -0.06976741552352905
-0.5658915042877197 -0.03349477797746658 -0.05426359549164772
-0.5658915042877197 -0.03525759279727936 0.06976747512817383
-0.5658915042877197 -0.027138564735651016 0.08527135848999023
-0.5658915042877197 -0.026942681521177292 0.10077524185180664
-0.5658915042877197 -0.026717232540249825 0.11627912521362305
-0.5658915042877197 -0.025906052440404892 0.1317828893661499
-0.5658915042877197 -0.025298886001110077 0.1472867727279663
-0.5658915042877197 -0.025014039129018784 0.16279065608978271
-0.5658915042877197 -0.025026913732290268 0.17829453945159912
-0.5658915042877197 -0.025207750499248505 0.19379842281341553
-0.5658915042877197 -0.025071825832128525 0.20930230617523193
-0.5658915042877197 -0.024878021329641342 0.22480618953704834
-0.5658915042877197 -0.024384573101997375 0.24031007289886475
-0.5658915042877197 0.05413796752691269 -0.10077518224716187
-0.5658915042877197 0.05310148373246193 -0.08527129888534546
-0.5658915042877197 0.05209093540906906 -0.06976741552352905
-0.5658915042877197 0.05092703551054001 -0.05426359176635742
-0.5658915042877197 0.05019305646419525 -0.038759708404541016
-0.5658915042877197 0.049379248172044754 -0.02325582504272461
-0.5658915042877197 0.04918646067380905 -0.007751941680908203
-0.5658915042877197 0.049320038408041 0.007751941680908203
-0.5658915042877197 0.050044283270835876 0.02325582504272461
-0.5658915042877197 0.05124424397945404 0.038759708404541016
-0.5658915042877197 0.0518299862742424 0.05426359176635742
-0.5658915042877197 0.05227863788604736 0.06976747512817383
-0.5658915042877197 0.05214701592922211 0.08527135848999023
-0.5658915042877197 0.05201060324907303 0.10077524185180664
-0.5658915042877197 0.051592353731393814 0.11627912521362305
-0.5658915042877197 0.05132684484124184 0.1317828893661499
-0.5658915042877197 0.05104643851518631 0.1472867727279663
-0.5658915042877197 0.05058170482516289 0.16279065608978271
-0.5658915042877197 0.05078146606683731 0.17829453945159912
-0.5658915042877197 0.05152396857738495 0.19379842281341553
-0.5658915042877197 0.051260557025671005 0.20930230617523193
-0.5658915042877197 0.051401153206825256 0.22480618953704834
-0.5658915042877197 0.04308254271745682 0.24031007289886475
-0.5658915042877197 0.05480320751667023 -0.22480620443820953
-0.5658915042877197 0.05498111620545387 -0.20930230617523193
-0.5658915042877197 0.05464257299900055 -0.19379842281341553
-0.5658915042877197 0.05460440367460251 -0.1782945990562439
-0.5658915042877197 0.0546770878136158 -0.1627907156944275
-0.5658915042877197 0.05465405806899071 -0.14728684723377228
-0.5658915042877197 0.05451041832566261 -0.13178294897079468
-0.5658915042877197 0.054368142038583755 -0.11627906560897827
-0.5503876209259033 -0.05526158958673477 -0.1627907156944275
-0.5503876209259033 -0.04843691736459732 -0.14728683233261108
-0.5503876209259033 -0.03913159668445587 -0.05426359176635742
-0.5503876209259033 -0.04086509719491005 -0.038759708404541016
-0.5503876209259033 -0.04206762835383415 -0.02325582504272461
-0.5503876209259033 -0.04233451187610626 -0.007751941680908203
-0.5503876209259033 -0.04205436259508133 0.007751941680908203
-0.5503876209259033 -0.041630301624536514 0.02325582504272461
-0.5503876209259033 -0.04139232635498047 0.038759708404541016
-0.5503876209259033 -0.04078156501054764 0.05426359176635742
-0.5503876209259033 -0.02432265505194664 -0.22480618953704834
-0.5503876209259033 -0.031175244599580765 -0.20930230617523193
-0.5503876209259033 -0.033901382237672806 -0.19379842281341553
-0.5503876209259033 -0.03656444326043129 -0.1782945990562439
-0.5503876209259033 -0.03704412654042244 -0.13178294897079468
-0.5503876209259033 -0.030957184731960297 -0.11627906560897827
-0.5503876209259033 -0.029504189267754555 -0.10077518224716187
-0.5503876209259033 -0.03028632141649723 -0.08527129888534546
-0.5503876209259033 -0.033830393105745316 -0.06976741552352905
-0.5503876209259033 -0.036143068224191666 0.06976747512817383
-0.5503876209259033 -0.027805715799331665 0.08527135848999023
-0.5503876209259033 -0.027149412781000137 0.10077524185180664
-0.5503876209259033 -0.02670704945921898 0.11627912521362305
-0.5503876209259033 -0.0259023979306221 0.1317828893661499
-0.5503876209259033 -0.02532769739627838 0.1472867727279663
-0.5503876209259033 -0.02502995915710926 0.16279065608978271
-0.5503876209259033 -0.025088652968406677 0.17829453945159912
-0.5503876209259033 -0.02526267059147358 0.19379842281341553
-0.5503876209259033 -0.025107458233833313 0.20930230617523193
-0.5503876209259033 -0.025029005482792854 0.22480618953704834
-0.5503876209259033 -0.014703302644193172 -0.22480618953704834
-0.5503876209259033 0.05382817983627319 -0.11627906560897827
-0.5503876209259033 0.05306340381503105 -0.10077518224716187
-0.5503876209259033 0.05200914293527603 -0.08527129888534546
-0.5503876209259033 0.05099914222955704 -0.06976741552352905
-0.5503876209259033 0.04978877305984497 -0.05426359176635742
-0.5503876209259033 0.04904812574386597 -0.038759708404541016
-0.5503876209259033 0.048289280384778976 -0.02325582504272461
-0.5503876209259033 0.04804188385605812 -0.007751941680908203
-0.5503876209259033 0.047930553555488586 0.007751941680908203
-0.5503876209259033 0.04852942377328873 0.02325582504272461
-0.5503876209259033 0.04979923740029335 0.038759708404541016
-0.5503876209259033 0.05033326894044876 0.05426359176635742
-0.5503876209259033 0.050576720386743546 0.06976747512817383
-0.5503876209259033 0.050197720527648926 0.08527135848999023
-0.5503876209259033 0.050228051841259 0.10077524185180664
-0.5503876209259033 0.05021508038043976 0.11627912521362305
-0.5503876209259033 0.05026524141430855 0.1317828893661499
-0.5503876209259033 0.05025105178356171 0.1472867727279663
-0.5503876209259033 0.0499681755900383 0.16279065608978271
-0.5503876209259033 0.050710879266262054 0.17829453945159912
-0.5503876209259033 0.05148031562566757 0.19379842281341553
-0.5503876209259033 0.051402170211076736 0.20930230617523193
-0.5503876209259033 0.04929227754473686 0.22480618953704834
-0.5503876805305481 0.055293064564466476 -0.20930232107639313
-0.5503876209259033 0.05479993671178818 -0.19379842281341553
-0.5503876209259033 0.054727703332901 -0.1782945990562439
-0.5503876209259033 0.05489508807659149 -0.1627907156944275
-0.5503876209259033 0.054728567600250244 -0.14728683233261108
-0.5503876805305481 0.05437937006354332 -0.13178294897079468
-0.5348837375640869 -0.055123358964920044 -0.1627907156944275
-0.5348837375640869 -0.04693939536809921 -0.14728683233261108
-0.5348837375640869 -0.04021478444337845 -0.05426359176635742
-0.5348837375640869 -0.04145932197570801 -0.038759708404541016
-0.5348837375640869 -0.04165525361895561 -0.02325582504272461
-0.5348837375640869 -0.04157982021570206 -0.007751941680908203
-0.5348837375640869 -0.04138961434364319 0.007751941680908203
-0.5348837375640869 -0.041181985288858414 0.02325582504272461
-0.5348837375640869 -0.041029881685972214 0.038759708404541016
-0.5348837375640869 -0.04047693312168121 0.05426359176635742
-0.5348837375640869 -0.03195637837052345 -0.20930230617523193
-0.5348837375640869 -0.03605329990386963 -0.19379842281341553
-0.5348837375640869 -0.03776434808969498 -0.1782945990562439
-0.5348837375640869 -0.03816869109869003 -0.13178294897079468
-0.5348837375640869 -0.03256785869598389 -0.11627906560897827
-0.5348837375640869 -0.030847668647766113 -0.10077518224716187
-0.5348837375640869 -0.03204449266195297 -0.08527129888534546
-0.5348837375640869 -0.03718336299061775 -0.06976741552352905
-0.5348837375640869 -0.03667660430073738 0.06976747512817383
-0.5348837375640869 -0.028503429144620895 0.08527135848999023
-0.5348837375640869 -0.02720831334590912 0.10077524185180664
-0.5348837375640869 -0.026646312326192856 0.11627912521362305
-0.5348837375640869 -0.025947939604520798 0.1317828893661499
-0.5348837375640869 -0.025500763207674026 0.1472867727279663
-0.5348837375640869 -0.025179656222462654 0.16279065608978271
-0.5348837375640869 -0.02514682710170746 0.17829453945159912
-0.5348837375640869 -0.025295622646808624 0.19379842281341553
-0.5348837375640869 -0.025274138897657394 0.20930230617523193
-0.5348837375640869 -0.024405334144830704 0.22480618953704834
-0.5348837375640869 0.054051708430051804 -0.13178294897079468
-0.5348837375640869 0.05251650512218475 -0.11627906560897827
-0.5348837375640869 0.051755428314208984 -0.10077518224716187
-0.5348837375640869 0.05064617469906807 -0.08527129888534546
-0.5348837375640869 0.04966209828853607 -0.06976741552352905
-0.5348837375640869 0.048544690012931824 -0.05426359176635742
-0.5348837375640869 0.047885067760944366 -0.038759708404541016
-0.5348837375640869 0.04715970903635025 -0.02325582504272461
-0.5348837375640869 0.046756405383348465 -0.007751941680908203
-0.5348837375640869 0.04631810262799263 0.007751941680908203
-0.5348837375640869 0.046354442834854126 0.02325582504272461
-0.5348837375640869 0.047183502465486526 0.038759708404541016
-0.5348837375640869 0.047852665185928345 0.05426359176635742
-0.5348837375640869 0.04819686710834503 0.06976747512817383
-0.5348837375640869 0.04753069579601288 0.08527135848999023
-0.5348837375640869 0.04764654114842415 0.10077524185180664
-0.5348837375640869 0.04816316068172455 0.11627912521362305
-0.5348837375640869 0.04887586832046509 0.1317828893661499
-0.5348837375640869 0.04947810247540474 0.1472867727279663
-0.5348837375640869 0.04953745752573013 0.16279065608978271
-0.5348837375640869 0.05061478540301323 0.17829453945159912
-0.5348837375640869 0.050615545362234116 0.19379842281341553
-0.5348837375640869 0.05070369690656662 0.20930230617523193
-0.5348837375640869 0.04105640947818756 0.22480618953704834
-0.5348837375640869 0.054686546325683594 -0.20930230617523193
-0.5348837375640869 0.05506221950054169 -0.19379842281341553
-0.5348837375640869 0.055046580731868744 -0.1782945841550827
-0.5348837375640869 0.055165745317935944 -0.1627907156944275
-0.5348837375640869 0.05485669523477554 -0.14728683233261108
-0.5193798542022705 -0.05507534369826317 -0.1627907156944275
-0.5193798542022705 -0.046171754598617554 -0.1782945990562439
-0.5193798542022705 -0.04694247245788574 -0.14728683233261108
-0.5193798542022705 -0.03884945064783096 -0.13178294897079468
-0.5193798542022705 -0.03877072408795357 -0.06976741552352905
-0.5193798542022705 -0.040376048535108566 -0.05426359176635742
-0.5193798542022705 -0.040953487157821655 -0.038759708404541016
-0.5193798542022705 -0.04088864102959633 -0.02325582504272461
-0.5193798542022705 -0.04087787866592407 -0.007751941680908203
-0.5193798542022705 -0.040808774530887604 0.007751941680908203
-0.5193798542022705 -0.04073395952582359 0.02325582504272461
-0.5193798542022705 -0.040747709572315216 0.038759708404541016
-0.5193798542022705 -0.04028579592704773 0.05426359176635742
-0.5193798542022705 -0.025932321324944496 -0.20930230617523193
-0.5193798542022705 -0.036252863705158234 -0.19379843771457672
-0.5193798542022705 -0.03322865441441536 -0.11627906560897827
-0.5193798542022705 -0.03117022104561329 -0.10077518224716187
-0.5193798542022705 -0.03265170753002167 -0.08527129888534546
-0.5193798542022705 -0.03550662100315094 0.06976747512817383
-0.5193798542022705 -0.027388140559196472 0.08527135848999023
-0.5193798542022705 -0.026598762720823288 0.10077524185180664
-0.5193798542022705 -0.026265161111950874 0.11627912521362305
-0.5193798542022705 -0.02589915506541729 0.1317828893661499
-0.5193798542022705 -0.025668133050203323 0.1472867727279663
-0.5193798542022705 -0.02528509870171547 0.16279065608978271
-0.5193798542022705 -0.025016512721776962 0.17829453945159912
-0.5193798542022705 -0.025090191513299942 0.19379842281341553
-0.5193798542022705 -0.02493518404662609 0.20930230617523193
-0.5193798542022705 -0.019204195588827133 -0.20930229127407074
-0.5193798542022705 0.05369063839316368 -0.13178294897079468
-0.5193798542022705 0.052170634269714355 -0.11627906560897827
-0.5193798542022705 0.05120231211185455 -0.10077518224716187
-0.5193798542022705 0.04960182309150696 -0.08527129888534546
-0.5193798542022705 0.04852556437253952 -0.06976741552352905
-0.5193798542022705 0.04763694852590561 -0.05426359176635742
-0.5193798542022705 0.04718637466430664 -0.038759708404541016
-0.5193798542022705 0.04648497700691223 -0.02325582504272461
-0.5193798542022705 0.045967116951942444 -0.007751941680908203
-0.5193798542022705 0.04554809629917145 0.00775194214656949
-0.5193798542022705 0.04539545625448227 0.02325582504272461
-0.5193798542022705 0.0454995259642601 0.038759708404541016
-0.5193798542022705 0.045884840190410614 0.05426359176635742
-0.5193798542022705 0.04600583761930466 0.06976747512817383
-0.5193798542022705 0.044850245118141174 0.08527135848999023
-0.5193798542022705 0.04474020376801491 0.10077524185180664
-0.5193798542022705 0.045592568814754486 0.11627912521362305
-0.5193798542022705 0.047435659915208817 0.1317828893661499
-0.5193798542022705 0.04886242747306824 0.1472867727279663
-0.5193798542022705 0.04889504238963127 0.16279065608978271
-0.5193798542022705 0.049644771963357925 0.17829453945159912
-0.5193798542022705 0.04932146146893501 0.19379842281341553
-0.5193798542022705 0.045810215175151825 0.20930230617523193
-0.5193798542022705 0.055333059281110764 -0.19379843771457672
-0.5193798542022705 0.055226460099220276 -0.1782945841550827
-0.5193798542022705 0.05519302189350128 -0.1627907156944275
-0.5193798542022705 0.05485748499631882 -0.14728683233261108
-0.5038759708404541 -0.054969821125268936 -0.1627907156944275
-0.5038759708404541 -0.048100173473358154 -0.1782945990562439
-0.5038759708404541 -0.04661327600479126 -0.14728683233261108
-0.5038759708404541 -0.039128247648477554 -0.13178294897079468
-0.5038759708404541 -0.03882621228694916 -0.06976741552352905
-0.5038759708404541 -0.04012037813663483 -0.05426359176635742
-0.5038759708404541 -0.04050341621041298 -0.038759708404541016
-0.5038759708404541 -0.04037840664386749 -0.02325582504272461
-0.5038759708404541 -0.04037408158183098 -0.007751941680908203
-0.5038759708404541 -0.04036992788314819 0.007751941680908203
-0.5038759708404541 -0.04031291604042053 0.02325582504272461
-0.5038759708404541 -0.040471889078617096 0.038759708404541016
-0.5038759708404541 -0.04014034941792488 0.05426359176635742
-0.5038759708404541 -0.029744774103164673 -0.19379842281341553
-0.5038759708404541 -0.0336248017847538 -0.11627906560897827
-0.5038759708404541 -0.03112337924540043 -0.10077518224716187
-0.5038759708404541 -0.03243042156100273 -0.08527129888534546
-0.5038759708404541 -0.03271665796637535 0.06976747512817383
-0.5038759708404541 -0.025893090292811394 0.08527135848999023
-0.5038759708404541 -0.02587338164448738 0.10077524185180664
-0.5038759708404541 -0.025885337963700294 0.11627912521362305
-0.5038759708404541 -0.02596503496170044 0.1317828893661499
-0.5038759708404541 -0.02585841342806816 0.1472867727279663
-0.5038759708404541 -0.025355856865644455 0.16279065608978271
-0.5038759708404541 -0.024776963517069817 0.17829453945159912
-0.5038759708404541 -0.024641115218400955 0.19379842281341553
-0.5038759708404541 -0.00530697125941515 -0.19379842281341553
-0.5038759708404541 0.05358756706118584 -0.13178294897079468
-0.5038759708404541 0.05347497761249542 -0.11627906560897827
-0.5038759708404541 0.05240396782755852 -0.10077518224716187
-0.5038759708404541 0.04962408170104027 -0.08527129888534546
-0.5038759708404541 0.047973718494176865 -0.06976741552352905
-0.5038759708404541 0.04738639295101166 -0.05426359176635742
-0.5038759708404541 0.047253720462322235 -0.038759708404541016
-0.5038759708404541 0.04660440981388092 -0.02325582504272461
-0.5038759708404541 0.046024322509765625 -0.007751941680908203
-0.5038759708404541 0.04582609981298447 0.00775194214656949
-0.5038759708404541 0.04582006856799126 0.02325582504272461
-0.5038759708404541 0.04516331106424332 0.038759708404541016
-0.5038759708404541 0.044873736798763275 0.05426359176635742
-0.5038759708404541 0.04461127519607544 0.06976747512817383
-0.5038759708404541 0.04311124607920647 0.08527135848999023
-0.5038759708404541 0.04290296137332916 0.10077524185180664
-0.5038759708404541 0.044009529054164886 0.11627912521362305
-0.5038759708404541 0.04731103777885437 0.1317828893661499
-0.5038759708404541 0.049068618565797806 0.1472867727279663
-0.5038759708404541 0.04804083704948425 0.16279065608978271
-0.5038759708404541 0.04759994149208069 0.17829453945159912
-0.5038759708404541 0.04636231064796448 0.19379842281341553
-0.5038759708404541 0.055132780224084854 -0.1782945990562439
-0.5038759708404541 0.05504921078681946 -0.1627907156944275
-0.5038759708404541 0.05465830862522125 -0.1472868174314499
-0.4883720874786377 -0.054390039294958115 -0.1627907156944275
-0.4883720874786377 -0.04360906034708023 -0.1782945990562439
-0.4883720874786377 -0.045004650950431824 -0.14728683233261108
-0.4883720874786377 -0.03902165964245796 -0.13178294897079468
-0.4883720874786377 -0.03980029374361038 -0.05426359176635742
-0.4883720874786377 -0.040090981870889664 -0.038759708404541016
-0.4883720874786377 -0.03993520140647888 -0.02325582504272461
-0.4883720874786377 -0.03984463959932327 -0.007751941680908203
-0.4883720874786377 -0.0398658812046051 0.007751941680908203
-0.4883720874786377 -0.03988466039299965 0.02325582504272461
-0.4883720874786377 -0.04014165326952934 0.038759708404541016
-0.4883720874786377 -0.03998201712965965 0.05426359176635742
-0.4883721172809601 -0.03351828455924988 -0.11627906560897827
-0.4883720874786377 -0.03129532188177109 -0.10077518224716187
-0.4883720874786377 -0.03253111243247986 -0.08527129888534546
-0.4883720874786377 -0.03842729330062866 -0.06976741552352905
-0.4883720874786377 -0.03167484700679779 0.06976747512817383
-0.4883720874786377 -0.025668611750006676 0.08527135848999023
-0.4883720874786377 -0.025946147739887238 0.10077524185180664
-0.4883720874786377 -0.02595413848757744 0.11627912521362305
-0.4883720874786377 -0.02604537084698677 0.1317828893661499
-0.4883720874786377 -0.02595425583422184 0.1472867727279663
-0.4883720874786377 -0.025360409170389175 0.16279065608978271
-0.4883720874786377 -0.024459296837449074 0.17829453945159912
-0.4883720874786377 0.03824465721845627 0.19379842281341553
-0.4883720874786377 0.053700849413871765 -0.13178294897079468
-0.4883720874786377 0.054202284663915634 -0.11627906560897827
-0.4883720874786377 0.05312113091349602 -0.10077518224716187
-0.4883720874786377 0.05025661736726761 -0.08527129888534546
-0.4883720874786377 0.04816560447216034 -0.06976741552352905
-0.4883720874786377 0.0478830561041832 -0.05426359176635742
-0.4883720874786377 0.04808637127280235 -0.038759708404541016
-0.4883720874786377 0.0475003719329834 -0.02325582504272461
-0.4883720874786377 0.046936482191085815 -0.007751941680908203
-0.4883720874786377 0.04695583134889603 0.007751941680908203
-0.4883720874786377 0.04706466943025589 0.02325582504272461
-0.4883720874786377 0.04607676714658737 0.038759708404541016
-0.4883720874786377 0.04511161893606186 0.05426359176635742
-0.4883720874786377 0.04435645043849945 0.06976747512817383
-0.4883720874786377 0.04292600601911545 0.08527135848999023
-0.4883720874786377 0.043182991445064545 0.10077524185180664
-0.4883721172809601 0.044844578951597214 0.11627912521362305
-0.4883720874786377 0.04863192141056061 0.1317828893661499
-0.4883720874786377 0.04969692975282669 0.1472867727279663
-0.4883720874786377 0.04766147583723068 0.16279065608978271
-0.4883720874786377 0.0457770861685276 0.17829453945159912
-0.4883720874786377 0.0388425812125206 0.19379843771457672
-0.4883720576763153 0.05492375046014786 -0.1782945990562439
-0.4883720874786377 0.054848749190568924 -0.1627907156944275
-0.4883721172809601 0.05441907048225403 -0.14728683233261108
-0.4728682041168213 -0.049636662006378174 -0.1627907156944275
-0.4728682041168213 -0.042826324701309204 -0.14728683233261108
-0.4728682041168213 -0.03951789438724518 -0.05426359176635742
-0.4728682041168213 -0.03974075987935066 -0.038759708404541016
-0.4728682041168213 -0.039574917405843735 -0.02325582504272461
-0.4728682041168213 -0.039448659867048264 -0.007751941680908203
-0.4728682041168213 -0.03946208208799362 0.007751941680908203
-0.4728682041168213 -0.03951018676161766 0.02325582504272461
-0.4728682041168213 -0.03983299434185028 0.038759708404541016
-0.4728682041168213 -0.039790987968444824 0.05426359176635742
-0.4728682041168213 -0.029976749792695045 -0.1782945990562439
-0.4728682041168213 -0.03727896139025688 -0.13178294897079468
-0.4728682041168213 -0.03229328244924545 -0.11627906560897827
-0.4728682041168213 -0.030852075666189194 -0.10077518224716187
-0.4728682041168213 -0.032599374651908875 -0.08527129888534546
-0.4728682041168213 -0.03766555339097977 -0.06976741552352905
-0.4728682041168213 -0.03231154382228851 0.06976747512817383
-0.4728682041168213 -0.026802264153957367 0.08527135848999023
-0.4728682041168213 -0.027253009378910065 0.10077524185180664
-0.4728682041168213 -0.02681254968047142 0.11627912521362305
-0.4728682041168213 -0.026301123201847076 0.1317828893661499
-0.4728682041168213 -0.02596442401409149 0.1472867727279663
-0.4728682041168213 -0.025385279208421707 0.16279065608978271
-0.4728682041168213 -0.024003619328141212 0.17829453945159912
-0.4728682041168213 -0.002124698832631111 -0.1782945990562439
-0.4728682041168213 0.054060257971286774 -0.13178294897079468
-0.4728682041168213 0.05420735478401184 -0.11627906560897827
-0.4728682041168213 0.05290576070547104 -0.10077518224716187
-0.4728682041168213 0.05058260262012482 -0.08527129888534546
-0.4728682041168213 0.048512063920497894 -0.06976741552352905
-0.4728682041168213 0.04862307384610176 -0.05426359176635742
-0.4728682041168213 0.04917845129966736 -0.038759708404541016
-0.4728682041168213 0.04866695776581764 -0.02325582504272461
-0.4728682041168213 0.04802276939153671 -0.007751941680908203
-0.4728682041168213 0.047972142696380615 0.007751941680908203
-0.4728682041168213 0.04787310212850571 0.02325582504272461
-0.4728682041168213 0.0464131236076355 0.038759708404541016
-0.4728682041168213 0.04495441913604736 0.05426359176635742
-0.4728682041168213 0.04401171952486038 0.06976747512817383
-0.4728682041168213 0.04358934611082077 0.08527135848999023
-0.4728682041168213 0.04520048946142197 0.10077524185180664
-0.4728682041168213 0.047470204532146454 0.11627912521362305
-0.4728682041168213 0.049956537783145905 0.1317828893661499
-0.4728682041168213 0.04998619854450226 0.1472867727279663
-0.4728682041168213 0.04760616272687912 0.16279065608978271
-0.4728682041168213 0.04338560998439789 0.17829453945159912
-0.4728682041168213 0.05471517890691757 -0.1627907156944275
-0.4728682041168213 0.054336536675691605 -0.14728683233261108
-0.4573643207550049 -0.04345092549920082 -0.1627907156944275
-0.4573643207550049 -0.04036307334899902 -0.14728683233261108
-0.4573643207550049 -0.0389186330139637 -0.05426359176635742
-0.4573643207550049 -0.039201438426971436 -0.038759708404541016
-0.4573643207550049 -0.03909967467188835 -0.02325582504272461
-0.4573643207550049 -0.03900953382253647 -0.007751941680908203
-0.4573643207550049 -0.0390060693025589 0.007751941680908203
-0.4573643207550049 -0.039050545543432236 0.02325582504272461
-0.4573643207550049 -0.03933968022465706 0.038759708404541016
-0.4573643207550049 -0.039410244673490524 0.05426359176635742
-0.4573643207550049 -0.03425556793808937 -0.13178294897079468
-0.4573643207550049 -0.03156207501888275 -0.11627906560897827
-0.4573643207550049 -0.031011031940579414 -0.10077518224716187
-0.4573643207550049 -0.03261032700538635 -0.08527129888534546
-0.4573643207550049 -0.03629199415445328 -0.06976741552352905
-0.4573643207550049 -0.035015251487493515 0.06976747512817383
-0.4573643207550049 -0.030010301619768143 0.08527135848999023
-0.4573643207550049 -0.028292376548051834 0.10077524185180664
-0.4573643207550049 -0.02722850814461708 0.11627912521362305
-0.4573643207550049 -0.026207633316516876 0.1317828893661499
-0.4573643207550049 -0.02566041797399521 0.1472867727279663
-0.4573643207550049 -0.02510467730462551 0.16279065608978271
-0.4573643207550049 0.052910104393959045 -0.10077518224716187
-0.4573643207550049 0.051204752177000046 -0.08527129888534546
-0.4573643207550049 0.049037035554647446 -0.06976741552352905
-0.4573643207550049 0.04951243847608566 -0.05426359176635742
-0.4573643207550049 0.050288908183574677 -0.038759708404541016
-0.4573643207550049 0.04990163445472717 -0.02325582504272461
-0.4573643207550049 0.04901738464832306 -0.007751941680908203
-0.4573643207550049 0.04843117296695709 0.007751941680908203
-0.4573643207550049 0.04781271517276764 0.02325582504272461
-0.4573643207550049 0.045507147908210754 0.038759708404541016
-0.4573643207550049 0.04406438767910004 0.05426359176635742
-0.4573643207550049 0.04407840967178345 0.06976747512817383
-0.4573643207550049 0.04532645642757416 0.08527135848999023
-0.4573643207550049 0.04802009090781212 0.10077524185180664
-0.4573643207550049 0.049814194440841675 0.11627912521362305
-0.4573643207550049 0.05074127018451691 0.1317828893661499
-0.4573643207550049 0.050145477056503296 0.1472867727279663
-0.4573643207550049 0.04750996083021164 0.16279065608978271
-0.4573643207550049 0.05459555611014366 -0.1627907156944275
-0.4573643207550049 0.05433695390820503 -0.1472868174314499
-0.45736435055732727 0.0542888380587101 -0.13178294897079468
-0.4573643207550049 0.05428089201450348 -0.11627906560897827
-0.4418604373931885 -0.03956288844347 -0.1627907156944275
-0.4418604373931885 -0.03877205774188042 -0.038759708404541016
-0.4418604373931885 -0.03887322545051575 0.038759708404541016
-0.4418604373931885 -0.03891747072339058 0.05426359176635742
-0.4418604373931885 -0.038046158850193024 -0.14728683233261108
-0.4418604373931885 -0.032974984496831894 -0.13178294897079468
-0.4418604373931885 -0.03123055398464203 -0.11627906560897827
-0.4418604373931885 -0.030666448175907135 -0.10077518224716187
-0.4418604373931885 -0.032007843255996704 -0.08527129888534546
-0.4418604373931885 -0.03505215793848038 -0.06976741552352905
-0.4418604373931885 -0.03780161216855049 -0.05426359176635742
-0.4418604373931885 -0.03870515897870064 -0.02325582504272461
-0.4418604373931885 -0.03845157474279404 -0.007751941680908203
-0.44186046719551086 -0.038523118942976 0.00775194214656949
-0.4418604373931885 -0.038657017052173615 0.02325582504272461
-0.4418604373931885 -0.03593813627958298 0.06976747512817383
-0.4418604373931885 -0.03130732476711273 0.08527135848999023
-0.4418604373931885 -0.028255365788936615 0.10077524185180664
-0.4418604373931885 -0.027159325778484344 0.11627912521362305
-0.4418604373931885 -0.02596345916390419 0.1317828893661499
-0.4418604373931885 -0.025332538411021233 0.1472867727279663
-0.4418604373931885 -0.02463158592581749 0.16279065608978271
-0.4418604373931885 0.054248955100774765 -0.11627906560897827
-0.4418604373931885 0.052866145968437195 -0.10077518224716187
-0.4418604373931885 0.05145767703652382 -0.08527129888534546
-0.4418604373931885 0.04919904097914696 -0.06976741552352905
-0.4418604373931885 0.04976380243897438 -0.05426359176635742
-0.4418604373931885 0.05065128579735756 -0.038759708404541016
-0.4418604373931885 0.05045868083834648 -0.02325582504272461
-0.4418604373931885 0.04952729493379593 -0.007751941680908203
-0.4418604373931885 0.048384372144937515 0.007751941680908203
-0.4418604373931885 0.04700130224227905 0.02325582504272461
-0.4418604075908661 0.04351403936743736 0.038759708404541016
-0.4418604373931885 0.0418158695101738 0.05426359176635742
-0.4418604373931885 0.043236106634140015 0.06976747512817383
-0.4418604373931885 0.046678394079208374 0.08527135848999023
-0.4418604373931885 0.04997921362519264 0.10077524185180664
-0.4418604373931885 0.050842031836509705 0.11627912521362305
-0.4418604373931885 0.0509854331612587 0.1317828893661499
-0.4418604373931885 0.04998575523495674 0.1472867727279663
-0.4418604373931885 0.04679172486066818 0.16279065608978271
-0.4418604075908661 0.054369308054447174 -0.1627907156944275
-0.4418604373931885 0.05428438261151314 -0.14728683233261108
-0.4418604373931885 0.05426615849137306 -0.13178294897079468
-0.42635661363601685 -0.03548230975866318 -0.1627907156944275
-0.42635661363601685 -0.03461103141307831 -0.14728683233261108
-0.42635661363601685 -0.03171965852379799 -0.13178294897079468
-0.42635661363601685 -0.03025505319237709 -0.11627906560897827
-0.42635661363601685 -0.029453933238983154 -0.10077518224716187
-0.42635661363601685 -0.030682343989610672 -0.08527129888534546
-0.42635661363601685 -0.03389952331781387 -0.06976741552352905
-0.42635661363601685 -0.03675070405006409 -0.05426359176635742
-0.42635664343833923 -0.03804592788219452 -0.038759712129831314
-0.42635661363601685 -0.038173455744981766 -0.02325582504272461
-0.42635661363601685 -0.037881772965192795 -0.007751941680908203
-0.42635664343833923 -0.03801893815398216 0.00775194214656949
-0.42635661363601685 -0.03813401609659195 0.02325582504272461
-0.42635661363601685 -0.03843948617577553 0.038759708404541016
-0.42635661363601685 -0.03845782205462456 0.05426359176635742
-0.42635661363601685 -0.035207320004701614 0.06976747512817383
-0.42635661363601685 -0.031131912022829056 0.08527135848999023
-0.42635661363601685 -0.0277846846729517 0.10077524185180664
-0.42635661363601685 -0.02675795927643776 0.11627912521362305
-0.42635661363601685 -0.025621840730309486 0.1317828893661499
-0.42635661363601685 -0.02502453699707985 0.1472867727279663
-0.42635661363601685 -0.0243708286434412 0.16279065608978271
-0.42635661363601685 0.037671271711587906 0.05426359176635742
-0.42635661363601685 0.05417459458112717 -0.1627907156944275
-0.42635661363601685 0.054235462099313736 -0.14728683233261108
-0.42635661363601685 0.054171957075595856 -0.11627906560897827
-0.42635661363601685 0.05278566852211952 -0.10077518224716187
-0.42635661363601685 0.05135940760374069 -0.08527129888534546
-0.42635661363601685 0.049065105617046356 -0.06976741552352905
-0.42635661363601685 0.049622852355241776 -0.05426359176635742
-0.42635661363601685 0.050621140748262405 -0.038759708404541016
-0.42635661363601685 0.05059244483709335 -0.02325582504272461
-0.42635661363601685 0.049753908067941666 -0.007751941680908203
-0.42635661363601685 0.04834090545773506 0.007751941680908203
-0.42635661363601685 0.04593578726053238 0.02325582504272461
-0.42635661363601685 0.04073400795459747 0.038759712129831314
-0.42635661363601685 0.040404073894023895 0.06976747512817383
-0.42635661363601685 0.0460069514811039 0.08527135848999023
-0.42635661363601685 0.05035238713026047 0.10077524185180664
-0.42635661363601685 0.05082504451274872 0.11627912521362305
-0.42635661363601685 0.05090297758579254 0.1317828893661499
-0.42635661363601685 0.04984554648399353 0.1472867727279663
-0.42635661363601685 0.045811839401721954 0.16279065608978271
-0.42635664343833923 0.05426427349448204 -0.13178294897079468
-0.41085273027420044 -0.03223733231425285 -0.1627907156944275
-0.41085273027420044 -0.03221532329916954 -0.14728683233261108
-0.41085273027420044 -0.03075898066163063 -0.13178294897079468
-0.41085273027420044 -0.029675669968128204 -0.11627906560897827
-0.41085273027420044 -0.028926314786076546 -0.10077518224716187
-0.41085273027420044 -0.030088812112808228 -0.08527129888534546
-0.41085273027420044 -0.03324965015053749 -0.06976741552352905
-0.41085273027420044 -0.03630093112587929 -0.05426359176635742
-0.4108527600765228 -0.03761738911271095 -0.038759708404541016
-0.41085273027420044 -0.03788631036877632 -0.02325582504272461
-0.41085273027420044 -0.03786299377679825 -0.007751941680908203
-0.4108527600765228 -0.038444261997938156 0.007751941680908203
-0.41085273027420044 -0.038622692227363586 0.02325582504272461
-0.41085273027420044 -0.038617704063653946 0.038759708404541016
-0.41085273027420044 -0.038029011338949203 0.05426359176635742
-0.41085273027420044 -0.032784394919872284 0.06976747512817383
-0.41085273027420044 -0.030873363837599754 0.08527135848999023
-0.41085273027420044 -0.027713049203157425 0.10077524185180664
-0.41085273027420044 -0.02652910351753235 0.11627912521362305
-0.41085273027420044 -0.025382958352565765 0.1317828893661499
-0.41085273027420044 -0.024792633950710297 0.1472867727279663
-0.41085273027420044 -0.024338500574231148 0.16279065608978271
-0.41085273027420044 0.029688652604818344 -0.1782945990562439
-0.41085273027420044 0.032216355204582214 0.038759708404541016
-0.41085273027420044 0.02778361737728119 0.05426359176635742
-0.41085273027420044 0.03471192345023155 0.06976747512817383
-0.41085273027420044 0.052723634988069534 -0.1782945990562439
-0.41085273027420044 0.054163817316293716 -0.1627907156944275
-0.41085273027420044 0.054083094000816345 -0.11627906560897827
-0.41085273027420044 0.05283471196889877 -0.10077518224716187
-0.41085273027420044 0.05098150670528412 -0.08527129888534546
-0.41085273027420044 0.04855639860033989 -0.06976741552352905
-0.41085273027420044 0.048924628645181656 -0.05426359176635742
-0.41085273027420044 0.05034482106566429 -0.038759708404541016
-0.41085273027420044 0.05073235183954239 -0.02325582504272461
-0.41085273027420044 0.05015657842159271 -0.007751941680908203
-0.41085273027420044 0.04843796789646149 0.007751941680908203
-0.41085273027420044 0.044131070375442505 0.02325582504272461
-0.41085273027420044 0.04439062625169754 0.08527135848999023
-0.41085273027420044 0.05021955445408821 0.10077524185180664
-0.41085273027420044 0.050748053938150406 0.11627912521362305
-0.41085273027420044 0.050870541483163834 0.1317828893661499
-0.41085273027420044 0.04996480047702789 0.1472867727279663
-0.41085273027420044 0.04537948593497276 0.16279065608978271
-0.41085273027420044 0.0542914904654026 -0.14728683233261108
-0.4108527600765228 0.05428650975227356 -0.13178294897079468
-0.39534884691238403 -0.024248691275715828 -0.1782945990562439
-0.39534884691238403 -0.029986318200826645 -0.1627907156944275
-0.39534884691238403 -0.02971707656979561 -0.14728683233261108
-0.39534884691238403 -0.029155656695365906 -0.13178294897079468
-0.39534884691238403 -0.028631266206502914 -0.11627906560897827
-0.39534884691238403 -0.028274549171328545 -0.10077518224716187
-0.39534884691238403 -0.029448818415403366 -0.08527129888534546
-0.39534884691238403 -0.03229094669222832 -0.06976741552352905
-0.39534884691238403 -0.035680241882801056 -0.05426359549164772
-0.39534884691238403 -0.03718765825033188 -0.038759708404541016
-0.39534884691238403 -0.03737159073352814 -0.02325582504272461
-0.39534884691238403 -0.037653543055057526 -0.007751941680908203
-0.39534884691238403 -0.038334812968969345 0.007751941680908203
-0.39534884691238403 -0.03832100331783295 0.02325582504272461
-0.39534884691238403 -0.03690379112958908 0.038759708404541016
-0.39534884691238403 -0.033377956598997116 0.05426359176635742
-0.39534884691238403 -0.028717294335365295 0.06976747512817383
-0.39534884691238403 -0.030046381056308746 0.08527135848999023
-0.39534884691238403 -0.027643688023090363 0.10077524185180664
-0.39534884691238403 -0.026302747428417206 0.11627912521362305
-0.39534884691238403 -0.02516983076930046 0.1317828893661499
-0.39534884691238403 -0.02468685992062092 0.1472867727279663
-0.39534884691238403 -0.024378204718232155 0.16279065608978271
-0.39534884691238403 0.025437332689762115 0.038759708404541016
-0.39534884691238403 0.02540639042854309 0.05426359176635742
-0.39534884691238403 0.03151208907365799 0.06976747512817383
-0.39534884691238403 0.053914058953523636 -0.11627906560897827
-0.39534884691238403 0.05313413217663765 -0.10077518224716187
-0.39534884691238403 0.052226096391677856 -0.08527129888534546
-0.39534884691238403 0.048724666237831116 -0.06976741552352905
-0.39534884691238403 0.04866843298077583 -0.05426359176635742
-0.39534884691238403 0.05039925128221512 -0.038759708404541016
-0.39534884691238403 0.050999291241168976 -0.02325582504272461
-0.39534884691238403 0.050687260925769806 -0.007751941680908203
-0.39534884691238403 0.04908008873462677 0.007751941680908203
-0.39534884691238403 0.04341668635606766 0.02325582504272461
-0.39534884691238403 0.042866162955760956 0.08527135103940964
