-0.22480618953704834 -0.008272060193121433 0.05426359176635742
-0.22480618953704834 -0.017957303673028946 0.06976747512817383
-0.22480618953704834 0.019364820793271065 -0.7054263353347778
-0.22480618953704834 0.008567843586206436 -0.02325582504272461
-0.22480618953704834 0.0097055584192276 0.03875970467925072
-0.22480618953704834 0.024320747703313828 -0.00775194214656949
-0.22480618953704834 0.0300644151866436 0.007751941680908203
-0.22480618953704834 0.025881949812173843 0.02325582504272461
-0.22480618953704834 0.045190226286649704 -0.7054263353347778
-0.22480618953704834 0.05209964141249657 -0.6899224519729614
-0.22480618953704834 0.05136764794588089 -0.674418568611145
-0.22480618953704834 0.05072088539600372 -0.6589146852493286
-0.22480618953704834 0.05003942549228668 -0.643410861492157
-0.22480618953704834 0.049612388014793396 -0.6279069781303406
-0.22480618953704834 0.048903487622737885 -0.6124030947685242
-0.22480618953704834 0.048025164753198624 -0.5968992114067078
-0.22480618953704834 0.04731971025466919 -0.5813953876495361
-0.22480618953704834 0.046604230999946594 -0.5658915042877197
-0.22480618953704834 0.04591285437345505 -0.5503876209259033
-0.22480618953704834 0.046062786132097244 -0.5348837375640869
-0.22480618953704834 0.04671110212802887 -0.5193798542022705
-0.22480618953704834 0.047317296266555786 -0.5038759708404541
-0.22480618953704834 0.047737546265125275 -0.4883720874786377
-0.22480618953704834 0.048113398253917694 -0.4728682041168213
-0.22480618953704834 0.0485386922955513 -0.4573643207550049
-0.22480618953704834 0.04934600368142128 -0.4418604373931885
-0.22480618953704834 0.05051850527524948 -0.42635661363601685
-0.22480618953704834 0.05223236232995987 -0.41085273027420044
-0.22480618953704834 0.053528644144535065 -0.39534884691238403
-0.22480618953704834 0.05367396026849747 -0.3798449635505676
-0.22480618953704834 0.05275426432490349 -0.3643410801887512
-0.22480618953704834 0.05164644122123718 -0.3488371968269348
-0.22480618953704834 0.05088045820593834 -0.3333333134651184
-0.22480618953704834 0.050407733768224716 -0.317829430103302
-0.22480618953704834 0.05072762817144394 -0.30232560634613037
-0.22480618953704834 0.051490359008312225 -0.28682172298431396
-0.22480618953704834 0.05304689705371857 -0.27131783962249756
-0.22480618953704834 0.0525989793241024 0.17829453945159912
-0.22480618953704834 0.049045298248529434 0.19379842281341553
-0.22480618953704834 0.054270751774311066 -0.25581392645835876
-0.22480618953704834 0.054525550454854965 -0.24031005799770355
-0.22480618953704834 0.05479438602924347 -0.22480618953704834
-0.22480618953704834 0.05496285855770111 -0.20930230617523193
-0.22480618953704834 0.055129628628492355 -0.19379842281341553
-0.22480617463588715 0.05533858761191368 -0.1782945841550827
-0.22480618953704834 0.0555022768676281 -0.1627907156944275
-0.22480618953704834 0.05556746572256088 -0.14728683233261108
-0.22480618953704834 0.05548816919326782 -0.13178294897079468
-0.22480617463588715 0.055275071412324905 -0.11627905815839767
-0.22480618953704834 0.055289167910814285 -0.10077518224716187
-0.22480618953704834 0.055588871240615845 -0.08527129888534546
-0.22480618953704834 0.05590786412358284 -0.06976741552352905
-0.22480618953704834 0.056102581322193146 -0.05426359176635742
-0.22480618953704834 0.05622909590601921 -0.038759708404541016
-0.22480618953704834 0.056123413145542145 -0.02325582504272461
-0.22480618953704834 0.0560343861579895 -0.00775194214656949
-0.22480618953704834 0.05593900755047798 0.00775194214656949
-0.22480618953704834 0.05649314075708389 0.02325582504272461
-0.22480618953704834 0.05720978230237961 0.038759708404541016
-0.22480618953704834 0.05757807195186615 0.05426359176635742
-0.22480620443820953 0.05758099630475044 0.06976747512817383
-0.22480618953704834 0.05749009922146797 0.08527135848999023
-0.22480618953704834 0.057218000292778015 0.10077524185180664
-0.22480618953704834 0.056796103715896606 0.11627912521362305
-0.22480620443820953 0.05634240061044693 0.1317828893661499
-0.22480618953704834 0.05560401454567909 0.1472867727279663
-0.22480620443820953 0.05473973974585533 0.1627906709909439
-0.20930230617523193 -0.038948655128479004 -0.3488371968269348
-0.20930230617523193 -0.04084603115916252 -0.3333333134651184
-0.20930230617523193 -0.043887943029403687 -0.317829430103302
-0.20930230617523193 -0.04387379065155983 -0.30232560634613037
-0.20930230617523193 -0.04164927452802658 -0.28682172298431396
-0.20930230617523193 -0.04079007729887962 -0.27131783962249756
-0.20930230617523193 -0.040313828736543655 -0.25581395626068115
-0.20930230617523193 -0.040028296411037445 -0.24031007289886475
-0.20930230617523193 -0.04016663134098053 -0.22480618953704834
-0.20930230617523193 -0.04094454646110535 -0.20930230617523193
-0.20930230617523193 -0.040657415986061096 -0.19379842281341553
-0.20930230617523193 -0.0388510525226593 -0.1782945990562439
-0.20930230617523193 -0.023887332528829575 -0.643410861492157
-0.20930230617523193 -0.024891527369618416 -0.6279069781303406
-0.20930230617523193 -0.025309789925813675 -0.6124030947685242
-0.20930230617523193 -0.02540135756134987 -0.5968992114067078
-0.20930230617523193 -0.025810344144701958 -0.5813953876495361
-0.20930230617523193 -0.026553409174084663 -0.5658915042877197
-0.20930230617523193 -0.026666946709156036 -0.5503876209259033
-0.20930230617523193 -0.02557976357638836 -0.5348837375640869
-0.20930230617523193 -0.0250569898635149 -0.5193798542022705
-0.20930230617523193 -0.025461535900831223 -0.5038759708404541
-0.20930230617523193 -0.02602248266339302 -0.4883720874786377
-0.20930230617523193 -0.026270095258951187 -0.4728682041168213
-0.20930230617523193 -0.027087729424238205 -0.4573643207550049
-0.20930230617523193 -0.0314263254404068 -0.4418604373931885
-0.20930230617523193 -0.03401961177587509 -0.42635661363601685
-0.20930230617523193 -0.035611286759376526 -0.41085270047187805
-0.20930230617523193 -0.036804743111133575 -0.39534884691238403
-0.20930230617523193 -0.03774113953113556 -0.37984499335289
-0.20930230617523193 -0.038205210119485855 -0.3643410801887512
-0.20930230617523193 -0.03654741868376732 -0.1627907156944275
-0.20930230617523193 -0.035281725227832794 -0.14728683233261108
-0.20930230617523193 -0.033699408173561096 -0.13178294897079468
-0.20930230617523193 -0.030688952654600143 -0.11627906560897827
-0.20930230617523193 -0.027639660984277725 -0.10077518224716187
-0.20930230617523193 -0.026436712592840195 -0.08527129888534546
-0.20930230617523193 -0.025907211005687714 -0.06976741552352905
-0.20930230617523193 -0.02479841373860836 -0.05426359176635742
-0.20930230617523193 -0.024092553183436394 0.08527135848999023
-0.20930230617523193 -0.0247048232704401 0.10077524185180664
-0.20930230617523193 -0.024605637416243553 0.11627912521362305
-0.20930230617523193 -0.024441739544272423 0.1317828893661499
-0.20930230617523193 -0.024385575205087662 0.1472867727279663
-0.20930230617523193 -0.024404678493738174 0.16279065608978271
-0.20930230617523193 -0.024326002225279808 0.17829453945159912
-0.20930230617523193 -0.02379079908132553 0.19379842281341553
-0.20930230617523193 -0.011121464893221855 -0.674418568611145
-0.20930230617523193 -0.01978626661002636 -0.6589146852493286
-0.20930230617523193 -0.022840915247797966 -0.038759708404541016
-0.20930230617523193 -0.010305017232894897 -0.02325582504272461
-0.20930230617523193 -0.01001096423715353 0.05426359176635742
-0.20930230617523193 -0.018922334536910057 0.06976747512817383
-0.20930230617523193 0.00666755810379982 -0.007751941680908203
-0.20930230617523193 0.0033623669296503067 0.038759708404541016
-0.20930230617523193 0.018232306465506554 0.007751941680908203
-0.20930230617523193 0.015495252795517445 0.02325582504272461
-0.20930230617523193 0.0282828900963068 -0.6899224519729614
-0.20930230617523193 0.043337561190128326 -0.6899224519729614
-0.20930230617523193 0.05066941678524017 -0.674418568611145
-0.20930230617523193 0.05028600990772247 -0.6589146852493286
-0.20930230617523193 0.04973463714122772 -0.643410861492157
-0.20930230617523193 0.04933139681816101 -0.6279069781303406
-0.20930230617523193 0.04864520579576492 -0.6124030947685242
-0.20930230617523193 0.04793069511651993 -0.5968992114067078
-0.20930230617523193 0.04736560210585594 -0.5813953876495361
-0.20930230617523193 0.04669114574790001 -0.5658915042877197
-0.20930230617523193 0.045920439064502716 -0.5503876209259033
-0.20930230617523193 0.04596635699272156 -0.5348837375640869
-0.20930230617523193 0.04658729210495949 -0.5193798542022705
-0.20930230617523193 0.04721585661172867 -0.5038759708404541
-0.20930230617523193 0.04768960177898407 -0.4883720874786377
-0.20930230617523193 0.04813550412654877 -0.4728682041168213
-0.20930230617523193 0.04869704693555832 -0.4573643207550049
-0.20930230617523193 0.04975326359272003 -0.4418604373931885
-0.20930230617523193 0.05103132501244545 -0.42635661363601685
-0.20930230617523193 0.052868958562612534 -0.41085273027420044
-0.20930230617523193 0.05367094650864601 -0.3643410801887512
-0.20930230617523193 0.052380554378032684 -0.3488371968269348
-0.20930230617523193 0.05139761045575142 -0.3333333134651184
-0.20930230617523193 0.05066265910863876 -0.317829430103302
-0.20930230617523193 0.050966933369636536 -0.30232560634613037
-0.20930230617523193 0.05188038572669029 -0.28682172298431396
-0.20930230617523193 0.053737424314022064 -0.27131783962249756
-0.20930230617523193 0.05150514468550682 0.17829453945159912
-0.20930230617523193 0.048026762902736664 0.19379842281341553
-0.20930230617523193 0.05429733917117119 -0.39534884691238403
-0.20930232107639313 0.05437415465712547 -0.3798449635505676
-0.20930230617523193 0.05445317178964615 -0.25581395626068115
-0.20930230617523193 0.05474357306957245 -0.24031008780002594
-0.20930230617523193 0.055050142109394073 -0.22480620443820953
-0.20930230617523193 0.055292196571826935 -0.20930230617523193
-0.20930230617523193 0.05559768155217171 -0.19379842281341553
-0.20930230617523193 0.05596712976694107 -0.1782945990562439
-0.20930230617523193 0.05628708750009537 -0.1627907156944275
-0.20930230617523193 0.056400116533041 -0.14728683233261108
-0.20930230617523193 0.05618720129132271 -0.13178294897079468
-0.20930230617523193 0.05593542382121086 -0.11627906560897827
-0.20930230617523193 0.05601462721824646 -0.10077518224716187
-0.20930230617523193 0.056261397898197174 -0.08527129888534546
-0.20930230617523193 0.056528281420469284 -0.06976741552352905
-0.20930230617523193 0.05673340708017349 -0.05426359176635742
-0.20930230617523193 0.056873660534620285 -0.038759712129831314
-0.20930230617523193 0.0568714439868927 -0.02325582504272461
-0.20930230617523193 0.05684467777609825 -0.007751941680908203
-0.20930230617523193 0.05668187886476517 0.007751941680908203
-0.20930230617523193 0.056801438331604004 0.02325582690536976
-0.20930230617523193 0.05710291489958763 0.038759708404541016
-0.20930230617523193 0.05722030997276306 0.05426359176635742
-0.20930230617523193 0.05705288425087929 0.06976747512817383
-0.20930230617523193 0.05690080299973488 0.08527135848999023
-0.20930230617523193 0.0566423237323761 0.10077524185180664
-0.20930230617523193 0.05623510479927063 0.11627912521362305
-0.20930230617523193 0.055778712034225464 0.1317828893661499
-0.20930230617523193 0.0551055483520031 0.1472867727279663
-0.20930229127407074 0.05430604889988899 0.16279064118862152
-0.19379842281341553 -0.03901888430118561 -0.3488371968269348
-0.19379842281341553 -0.04000100865960121 -0.3333333134651184
-0.19379842281341553 -0.04201604425907135 -0.317829430103302
-0.19379842281341553 -0.043624021112918854 -0.30232560634613037
-0.19379842281341553 -0.04231744259595871 -0.28682172298431396
-0.19379842281341553 -0.04072391614317894 -0.27131783962249756
-0.19379842281341553 -0.04003947600722313 -0.25581395626068115
-0.19379842281341553 -0.039810143411159515 -0.24031007289886475
-0.19379842281341553 -0.03993091359734535 -0.22480618953704834
-0.19379842281341553 -0.04029868170619011 -0.20930230617523193
-0.19379842281341553 -0.039894819259643555 -0.19379842281341553
-0.19379842281341553 -0.03909970819950104 -0.1782945990562439
-0.19379842281341553 -0.023632053285837173 -0.5658915042877197
-0.19379842281341553 -0.02496183291077614 -0.5503876209259033
-0.19379842281341553 -0.02489844150841236 -0.5348837375640869
-0.19379842281341553 -0.024416010826826096 -0.5193798542022705
-0.19379842281341553 -0.024682052433490753 -0.5038759708404541
-0.19379842281341553 -0.025615157559514046 -0.4883720874786377
-0.19379842281341553 -0.026434753090143204 -0.4728682041168213
-0.19379842281341553 -0.02920258417725563 -0.4573643207550049
-0.19379842281341553 -0.0329587422311306 -0.44186046719551086
-0.19379842281341553 -0.03534631431102753 -0.42635661363601685
-0.19379842281341553 -0.037282999604940414 -0.41085273027420044
-0.19379842281341553 -0.037941962480545044 -0.39534884691238403
-0.19379842281341553 -0.03829258680343628 -0.3798449635505676
-0.19379840791225433 -0.038752615451812744 -0.36434105038642883
-0.19379843771457672 -0.038594380021095276 -0.1627907156944275
-0.19379842281341553 -0.0365409255027771 -0.14728683233261108
-0.19379842281341553 -0.03417346626520157 -0.13178294897079468
-0.19379842281341553 -0.03187967836856842 -0.11627906560897827
-0.19379842281341553 -0.029489636421203613 -0.10077518224716187
-0.19379842281341553 -0.027479957789182663 -0.08527129888534546
-0.19379842281341553 -0.02644142508506775 -0.06976741552352905
-0.19379842281341553 -0.025582078844308853 -0.05426359176635742
-0.19379842281341553 -0.024288322776556015 -0.038759708404541016
-0.19379842281341553 -0.023417571559548378 0.10077524185180664
-0.19379842281341553 -0.023503534495830536 0.11627912521362305
-0.19379842281341553 -0.023379100486636162 0.1317828893661499
-0.19379842281341553 -0.023446116596460342 0.1472867727279663
-0.19379842281341553 -0.023618051782250404 0.16279065608978271
-0.19379842281341553 -0.02361653745174408 0.17829453945159912
-0.19379842281341553 -0.009959804825484753 -0.6279069781303406
-0.19379842281341553 -0.011854767799377441 -0.6124030947685242
-0.19379842281341553 -0.013064421713352203 -0.5968992114067078
-0.19379842281341553 -0.01658848114311695 -0.5813953876495361
-0.19379842281341553 -0.016571786254644394 -0.02325582504272461
-0.19379842281341553 -0.012891175225377083 0.06976747512817383
-0.19379842281341553 -0.019006699323654175 0.08527135848999023
-0.19379842281341553 -0.021155033260583878 0.19379842281341553
-0.19379842281341553 -0.005238668993115425 -0.643410861492157
-0.19379842281341553 0.001223643310368061 -0.007751941680908203
-0.19379842281341553 0.0050964076071977615 0.038759708404541016
-0.19379840791225433 -0.00638174032792449 0.05426359176635742
-0.19379842281341553 0.011775555089116096 -0.6589146852493286
-0.19379842281341553 0.014294657856225967 0.007751941680908203
-0.19379842281341553 0.014442689716815948 0.02325582504272461
-0.19379842281341553 0.045383043587207794 -0.6589146852493286
-0.19379842281341553 0.04715301841497421 -0.643410861492157
-0.19379842281341553 0.04804125428199768 -0.6279069781303406
-0.19379842281341553 0.04797324538230896 -0.6124030947685242
-0.19379842281341553 0.04767300933599472 -0.5968992114067078
-0.19379842281341553 0.047469086945056915 -0.5813953876495361
-0.19379842281341553 0.047099702060222626 -0.5658915042877197
-0.19379842281341553 0.0464528426527977 -0.5503876209259033
-0.19379842281341553 0.046491146087646484 -0.5348837375640869
-0.19379842281341553 0.047145210206508636 -0.5193798542022705
-0.19379842281341553 0.04773087799549103 -0.5038759708404541
-0.19379842281341553 0.04818277060985565 -0.4883720874786377
-0.19379842281341553 0.048673443496227264 -0.4728682041168213
-0.19379842281341553 0.049532584846019745 -0.4573643207550049
-0.19379842281341553 0.05097232758998871 -0.4418604373931885
-0.19379842281341553 0.05224215239286423 -0.42635661363601685
-0.19379842281341553 0.05418795719742775 -0.41085273027420044
-0.19379842281341553 0.05381878465414047 -0.3488371968269348
-0.19379842281341553 0.05243945121765137 -0.3333333134651184
-0.19379842281341553 0.05128229409456253 -0.317829430103302
-0.19379842281341553 0.05145347863435745 -0.30232560634613037
-0.19379842281341553 0.05254697427153587 -0.28682172298431396
-0.19379842281341553 0.05331512168049812 0.1317828893661499
-0.19379842281341553 0.05129537731409073 0.1472867727279663
-0.19379842281341553 0.05003735050559044 0.16279065608978271
-0.19379842281341553 0.04823966324329376 0.17829453945159912
-0.19379842281341553 0.04325538128614426 0.19379842281341553
-0.19379842281341553 0.05472210422158241 -0.39534884691238403
-0.19379842281341553 0.05484964698553085 -0.3798449635505676
-0.19379842281341553 0.05455735698342323 -0.3643410801887512
-0.19379842281341553 0.054324518889188766 -0.27131783962249756
-0.19379840791225433 0.054642096161842346 -0.25581395626068115
-0.19379842281341553 0.05499466136097908 -0.24031007289886475
-0.19379842281341553 0.05534399673342705 -0.22480618953704834
-0.19379842281341553 0.055628981441259384 -0.20930230617523193
-0.19379842281341553 0.055995527654886246 -0.19379842281341553
-0.19379842281341553 0.05647081881761551 -0.1782945990562439
-0.19379842281341553 0.056882377713918686 -0.1627907156944275
-0.19379842281341553 0.05706135928630829 -0.14728683233261108
-0.19379842281341553 0.05691659823060036 -0.13178294897079468
-0.19379842281341553 0.056714192032814026 -0.11627906560897827
-0.19379842281341553 0.056717559695243835 -0.10077518224716187
-0.19379842281341553 0.056754909455776215 -0.08527129888534546
-0.19379842281341553 0.05682532861828804 -0.06976741552352905
-0.19379842281341553 0.056927308440208435 -0.05426359176635742
-0.19379842281341553 0.056979820132255554 -0.038759708404541016
-0.19379843771457672 0.05685343220829964 -0.02325582504272461
-0.19379842281341553 0.05666445940732956 -0.007751941680908203
-0.19379842281341553 0.056325845420360565 0.007751941680908203
-0.19379842281341553 0.05622703209519386 0.02325582504272461
-0.19379842281341553 0.05632997304201126 0.038759708404541016
-0.19379842281341553 0.05629701167345047 0.05426359176635742
-0.19379842281341553 0.056053321808576584 0.06976747512817383
-0.19379842281341553 0.05586957186460495 0.08527135848999023
-0.19379843771457672 0.05545399338006973 0.10077524930238724
-0.19379842281341553 0.05476681515574455 0.11627912521362305
-0.1782945990562439 -0.03897971659898758 -0.41085273027420044
-0.1782945990562439 -0.03891822323203087 -0.39534884691238403
-0.1782945990562439 -0.038889024406671524 -0.3488371968269348
-0.1782945990562439 -0.039728790521621704 -0.3333333134651184
-0.1782945990562439 -0.04078376665711403 -0.317829430103302
-0.1782945990562439 -0.04244910180568695 -0.30232560634613037
-0.1782945990562439 -0.04263410344719887 -0.28682172298431396
-0.1782945990562439 -0.04131574183702469 -0.27131783962249756
-0.1782945990562439 -0.040238991379737854 -0.25581395626068115
-0.1782945990562439 -0.039882972836494446 -0.24031007289886475
-0.1782945990562439 -0.039818279445171356 -0.22480618953704834
-0.1782945990562439 -0.03970372676849365 -0.20930230617523193
-0.1782945990562439 -0.039523862302303314 -0.19379842281341553
-0.1782945990562439 -0.039285872131586075 -0.1782945990562439
-0.1782945990562439 -0.039048269391059875 -0.1627907156944275
-0.1782945990562439 -0.024347025901079178 -0.5503876209259033
-0.1782945990562439 -0.024952072650194168 -0.5348837375640869
-0.1782945990562439 -0.02433212473988533 -0.5193798542022705
-0.1782945990562439 -0.024120431393384933 -0.5038759708404541
-0.1782945990562439 -0.024873822927474976 -0.4883720874786377
-0.1782945990562439 -0.02605433389544487 -0.4728682041168213
-0.1782945990562439 -0.03072010725736618 -0.4573643207550049
-0.1782945990562439 -0.03447848930954933 -0.4418604373931885
-0.1782945990562439 -0.03776004537940025 -0.42635661363601685
-0.1782945990562439 -0.03860751911997795 -0.3798449635505676
-0.1782945841550827 -0.038560446351766586 -0.36434105038642883
-0.1782945990562439 -0.0381259061396122 -0.14728683233261108
-0.1782945990562439 -0.036403484642505646 -0.13178294897079468
-0.1782945990562439 -0.03456229344010353 -0.11627906560897827
-0.1782945990562439 -0.03227977827191353 -0.10077518224716187
-0.1782945990562439 -0.028533902019262314 -0.08527129888534546
-0.1782945990562439 -0.026186233386397362 -0.06976741552352905
-0.1782945990562439 -0.024985941126942635 -0.05426359176635742
-0.1782945990562439 -0.023761045187711716 -0.038759708404541016
-0.1782945990562439 -0.014771846123039722 -0.5658915042877197
-0.1782945990562439 -0.009001856669783592 -0.02325582504272461
-0.1782945990562439 0.007557316683232784 -0.5968992114067078
-0.1782945990562439 0.0015957935247570276 -0.5813953876495361
-0.1782945990562439 0.007696367800235748 0.05426359176635742
-0.1782945990562439 0.0027884524315595627 0.06976747512817383
-0.1782945990562439 0.0030009548645466566 0.08527135848999023
-0.1782945990562439 0.02073037624359131 -0.6279069781303406
-0.1782945990562439 0.012366815470159054 -0.6124030947685242
-0.1782945990562439 0.018409214913845062 -0.007751941680908203
-0.1782945990562439 0.0203216765075922 0.038759708404541016
-0.1782945990562439 0.020489439368247986 0.10077524185180664
-0.1782945990562439 0.031185656785964966 0.007751941680908203
-0.1782945990562439 0.03103405423462391 0.02325582504272461
-0.1782945990562439 0.026174092665314674 0.10077524185180664
-0.1782945990562439 0.04182295873761177 -0.6279069781303406
-0.1782945990562439 0.04337170720100403 -0.6124030947685242
-0.1782945990562439 0.04422470182180405 -0.5968992114067078
-0.1782945990562439 0.044940002262592316 -0.5813953876495361
-0.1782945990562439 0.0457574725151062 -0.5658915042877197
-0.1782945990562439 0.04669070243835449 -0.5503876209259033
-0.1782945990562439 0.04787338897585869 -0.5348837375640869
-0.1782945990562439 0.04886525869369507 -0.5193798542022705
-0.1782945990562439 0.04900927096605301 -0.5038759708404541
-0.1782945990562439 0.049211468547582626 -0.4883720874786377
-0.1782945990562439 0.04982014000415802 -0.4728682041168213
-0.1782945990562439 0.05152198299765587 -0.4573643207550049
-0.1782945990562439 0.05360325425863266 -0.4418604373931885
-0.1782945990562439 0.053828634321689606 -0.3333333134651184
-0.1782945990562439 0.05242527276277542 -0.317829430103302
-0.1782945990562439 0.05244523286819458 -0.30232560634613037
-0.1782945990562439 0.053496893495321274 -0.28682172298431396
-0.1782945990562439 0.052328143268823624 0.007751941680908203
-0.1782945990562439 0.050826296210289 0.02325582504272461
-0.1782945990562439 0.04945196211338043 0.08527135848999023
-0.1782945990562439 0.05435067415237427 -0.42635661363601685
-0.1782945990562439 0.05480566248297691 -0.41085273027420044
-0.1782945841550827 0.055322445929050446 -0.39534881711006165
-0.1782945990562439 0.05543902888894081 -0.37984499335289
-0.1782945990562439 0.055080387741327286 -0.3643410801887512
-0.1782945841550827 0.05457321181893349 -0.3488371968269348
-0.1782945990562439 0.05449230596423149 -0.27131783962249756
-0.1782945990562439 0.054849520325660706 -0.25581395626068115
-0.1782945841550827 0.055238086730241776 -0.24031005799770355
-0.1782945990562439 0.05559714138507843 -0.22480618953704834
-0.1782946139574051 0.05585334077477455 -0.20930230617523193
-0.1782945990562439 0.05613606050610542 -0.19379842281341553
-0.1782945990562439 0.05653313919901848 -0.1782945990562439
-0.1782945990562439 0.056918658316135406 -0.1627907156944275
-0.1782945990562439 0.05715598165988922 -0.14728683233261108
-0.1782945990562439 0.057105641812086105 -0.13178294897079468
-0.1782945990562439 0.056906379759311676 -0.11627906560897827
-0.1782945990562439 0.0566650852560997 -0.10077518224716187
-0.1782945990562439 0.05611744150519371 -0.08527129888534546
-0.1782945990562439 0.05555965378880501 -0.06976741552352905
-0.1782945841550827 0.05536327511072159 -0.05426358804106712
-0.1782945990562439 0.05556439980864525 -0.038759708404541016
-0.1782945990562439 0.05541091412305832 -0.02325582504272461
-0.1782945990562439 0.054900094866752625 -0.007751941680908203
-0.1782945990562439 0.05448596924543381 0.038759708404541016
-0.1782945990562439 0.054701026529073715 0.05426359176635742
-0.1782946139574051 0.054465897381305695 0.06976747512817383
-0.1627907156944275 -0.03906191885471344 -0.42635661363601685
-0.1627907156944275 -0.03935973718762398 -0.41085273027420044
-0.1627907156944275 -0.039208415895700455 -0.39534884691238403
-0.1627907156944275 -0.038861773908138275 -0.3798449635505676
-0.1627907156944275 -0.03951482102274895 -0.3333333134651184
-0.1627907156944275 -0.04052815958857536 -0.317829430103302
-0.1627907156944275 -0.04181452468037605 -0.30232560634613037
-0.1627907156944275 -0.041802968829870224 -0.28682172298431396
-0.1627907156944275 -0.04053270444273949 -0.27131783962249756
-0.1627907156944275 -0.03953872621059418 -0.25581395626068115
-0.1627907156944275 -0.0392569899559021 -0.24031007289886475
-0.1627907156944275 -0.03908085078001022 -0.22480618953704834
-0.1627907156944275 -0.03882599249482155 -0.20930230617523193
-0.1627907156944275 -0.0390477180480957 -0.1627907156944275
-0.1627907156944275 -0.03914409503340721 -0.14728683233261108
-0.1627907156944275 -0.038920968770980835 -0.13178294897079468
-0.1627907156944275 -0.024537086486816406 -0.5348837375640869
-0.1627907156944275 -0.024215731769800186 -0.5193798542022705
-0.1627907156944275 -0.02335304580628872 -0.5038759708404541
-0.1627907156944275 -0.02335510402917862 -0.4728682041168213
-0.1627907156944275 -0.032683610916137695 -0.4573643207550049
-0.1627907156944275 -0.0372600331902504 -0.4418604373931885
-0.1627907007932663 -0.03845476731657982 -0.36434105038642883
-0.1627907156944275 -0.03863150253891945 -0.3488371968269348
-0.16279073059558868 -0.038658443838357925 -0.19379842281341553
-0.1627907156944275 -0.038727033883333206 -0.1782945990562439
-0.1627907156944275 -0.03741688281297684 -0.11627906560897827
-0.1627907156944275 -0.03427751734852791 -0.10077518224716187
-0.1627907156944275 -0.024496695026755333 -0.08527129888534546
-0.1627907156944275 -0.020923493430018425 -0.5503876209259033
-0.1627907156944275 -0.021007535979151726 -0.4883720874786377
-0.1627907156944275 0.004371343180537224 -0.5658915042877197
-0.1627907156944275 0.03488786891102791 -0.5658915042877197
-0.1627907156944275 0.04252815991640091 -0.5503876209259033
-0.1627907156944275 0.046493057161569595 -0.5348837375640869
-0.1627907156944275 0.04899591580033302 -0.5193798542022705
-0.1627907156944275 0.04895961657166481 -0.5038759708404541
-0.1627907156944275 0.048650894314050674 -0.4883720874786377
-0.1627907156944275 0.05009037256240845 -0.4728682041168213
-0.1627907156944275 0.053974997252225876 -0.4573643207550049
-0.1627907156944275 0.053028304129838943 -0.317829430103302
-0.1627907156944275 0.052961625158786774 -0.30232560634613037
-0.1627907156944275 0.0539201945066452 -0.28682172298431396
-0.1627907156944275 0.043676480650901794 -0.08527129888534546
-0.1627907156944275 0.054802969098091125 -0.4418604373931885
-0.16279073059558868 0.05493883416056633 -0.42635661363601685
-0.1627907156944275 0.0552387610077858 -0.41085273027420044
-0.16279073059558868 0.05570670962333679 -0.3953488767147064
-0.1627907156944275 0.055794939398765564 -0.3798449635505676
-0.1627907156944275 0.055420346558094025 -0.3643410801887512
-0.1627907156944275 0.05487193912267685 -0.3488371968269348
-0.1627907156944275 0.05436082184314728 -0.3333333134651184
-0.1627907156944275 0.05452162027359009 -0.27131783962249756
-0.1627907156944275 0.05487867817282677 -0.25581395626068115
-0.1627907156944275 0.055311042815446854 -0.24031005799770355
-0.1627907007932663 0.05571243166923523 -0.22480618953704834
-0.1627907156944275 0.055962007492780685 -0.20930230617523193
-0.1627907156944275 0.05605553835630417 -0.19379842281341553
-0.1627907156944275 0.05619048699736595 -0.1782945841550827
-0.1627907156944275 0.05654285103082657 -0.1627907156944275
-0.1627907156944275 0.05705826357007027 -0.14728683233261108
-0.1627907156944275 0.05730990320444107 -0.13178294897079468
-0.1627907156944275 0.0570237934589386 -0.11627905815839767
-0.1627907156944275 0.05582784116268158 -0.10077518224716187
-0.14728683233261108 -0.03926258534193039 -0.4418604373931885
-0.14728683233261108 -0.0395430363714695 -0.42635661363601685
-0.14728683233261108 -0.039588794112205505 -0.41085273027420044
-0.14728683233261108 -0.03932349011301994 -0.39534884691238403
-0.14728683233261108 -0.03898235037922859 -0.3798449635505676
-0.14728683233261108 -0.03878813609480858 -0.3488371968269348
-0.14728683233261108 -0.03959627449512482 -0.3333333134651184
-0.14728683233261108 -0.04056273400783539 -0.317829430103302
-0.14728683233261108 -0.04149835556745529 -0.30232560634613037
-0.14728683233261108 -0.0400255024433136 -0.28682172298431396
-0.14728683233261108 -0.038790516555309296 -0.1627907156944275
-0.14728683233261108 -0.039959389716386795 -0.14728683233261108
-0.14728683233261108 -0.03988146036863327 -0.13178294897079468
-0.14728683233261108 -0.039521459490060806 -0.11627906560897827
-0.1472868174314499 -0.03741314262151718 -0.4573643207550049
-0.14728683233261108 -0.03867622837424278 -0.3643410801887512
-0.14728683233261108 -0.03591553494334221 -0.27131783962249756
-0.14728683233261108 -0.031096260994672775 -0.25581395626068115
-0.14728683233261108 -0.03868994489312172 -0.10077518224716187
-0.14728683233261108 -0.018017638474702835 -0.5348837375640869
-0.14728683233261108 -0.020529791712760925 -0.5193798542022705
-0.14728683233261108 -0.014207115396857262 -0.5038759708404541
-0.14728683233261108 -0.00890855211764574 -0.4883720874786377
-0.14728684723377228 -0.02234782464802265 -0.24031007289886475
-0.14728683233261108 -0.013213422149419785 -0.1782945990562439
-0.14728683233261108 -0.0017907831352204084 -0.5503876209259033
-0.14728683233261108 -0.006307715550065041 -0.4728682041168213
-0.14728683233261108 0.0015564339701086283 -0.22480618953704834
-0.14728683233261108 0.003842764301225543 -0.19379842281341553
-0.14728683233261108 0.008597515523433685 -0.20930230617523193
-0.14728683233261108 0.031026648357510567 -0.5503876209259033
-0.14728683233261108 0.041899364441633224 -0.5348837375640869
-0.14728683233261108 0.04502163827419281 -0.5193798542022705
-0.14728683233261108 0.046042777597904205 -0.5038759708404541
-0.14728683233261108 0.046147242188453674 -0.4883720874786377
-0.14728683233261108 0.050057750195264816 -0.4728682041168213
-0.14728683233261108 0.05365801230072975 -0.317829430103302
-0.14728683233261108 0.05386791750788689 -0.30232560634613037
-0.14728683233261108 0.05470699444413185 -0.4573643207550049
-0.14728683233261108 0.0554332360625267 -0.44186046719551086
-0.14728683233261108 0.05543289706110954 -0.42635661363601685
-0.14728683233261108 0.055422909557819366 -0.41085273027420044
-0.14728683233261108 0.05569421127438545 -0.39534884691238403
-0.14728683233261108 0.055783551186323166 -0.37984499335289
-0.14728683233261108 0.05555130913853645 -0.36434105038642883
-0.14728683233261108 0.055109135806560516 -0.3488371968269348
-0.14728683233261108 0.054534491151571274 -0.3333333134651184
-0.14728683233261108 0.05439583212137222 -0.28682172298431396
-0.14728683233261108 0.05461769551038742 -0.27131786942481995
-0.14728683233261108 0.054862551391124725 -0.25581395626068115
-0.14728683233261108 0.055170632898807526 -0.24031007289886475
-0.14728683233261108 0.055408552289009094 -0.22480618953704834
-0.14728684723377228 0.055732131004333496 -0.20930230617523193
-0.14728683233261108 0.05606062337756157 -0.19379843771457672
-0.14728683233261108 0.05623655393719673 -0.1782945990562439
-0.14728683233261108 0.056854572147130966 -0.1627907156944275
-0.14728683233261108 0.0579240657389164 -0.14728683233261108
-0.14728683233261108 0.0582687184214592 -0.13178294897079468
-0.14728683233261108 0.057441599667072296 -0.11627906560897827
-0.14728683233261108 0.054707981646060944 -0.10077518224716187
-0.13178294897079468 -0.039078403264284134 -0.4573643207550049
-0.13178294897079468 -0.03982925042510033 -0.4418604373931885
-0.13178294897079468 -0.039774417877197266 -0.42635661363601685
-0.13178294897079468 -0.039501070976257324 -0.41085273027420044
-0.13178294897079468 -0.039040956646203995 -0.39534884691238403
-0.13178294897079468 -0.03882380574941635 -0.3798449635505676
-0.13178294897079468 -0.038802266120910645 -0.3643410801887512
-0.13178294897079468 -0.03918193280696869 -0.3488371968269348
-0.13178294897079468 -0.04009764641523361 -0.3333333134651184
-0.13178294897079468 -0.04084939509630203 -0.317829430103302
-0.13178294897079468 -0.03979999199509621 -0.30232560634613037
-0.13178294897079468 -0.04079596698284149 -0.14728683233261108
-0.13178294897079468 -0.04051967337727547 -0.13178294897079468
-0.13178294897079468 -0.04021266847848892 -0.11627906560897827
-0.13178294897079468 -0.040067654103040695 -0.10077518224716187
-0.13178294897079468 -0.03289693593978882 -0.28682172298431396
-0.13178294897079468 -0.025333117693662643 -0.27131783962249756
-0.13178294897079468 -0.0340968519449234 -0.1627907156944275
-0.13178294897079468 -0.037403713911771774 -0.08527129888534546
-0.13178294897079468 -0.01123383454978466 -0.25581395626068115
-0.13178294897079468 -0.015103848651051521 -0.08527129888534546
-0.13178294897079468 -0.006841930560767651 -0.5193798542022705
-0.13178294897079468 -0.0031321037095040083 -0.5038759708404541
-0.13178294897079468 0.004135859198868275 -0.4883720874786377
-0.13178294897079468 -0.0003323298878967762 -0.4728682041168213
-0.13178294897079468 0.007810408715158701 -0.5348837375640869
-0.13178294897079468 0.013752929866313934 -0.24031007289886475
-0.13178294897079468 0.007875983603298664 -0.1782945990562439
-0.13178294897079468 0.024684637784957886 -0.5348837375640869
-0.13178294897079468 0.04028676822781563 -0.5193798542022705
-0.13178294897079468 0.04122444987297058 -0.5038759708404541
-0.13178294897079468 0.04173043742775917 -0.4883720874786377
-0.13178294897079468 0.05056562274694443 -0.4728682041168213
-0.13178294897079468 0.04745956510305405 -0.19379842281341553
-0.13178294897079468 0.050889477133750916 -0.10077518224716187
-0.13178294897079468 0.05518428608775139 -0.4573643207550049
-0.13178294897079468 0.05591709166765213 -0.4418604373931885
-0.13178294897079468 0.05577909201383591 -0.42635661363601685
-0.13178294897079468 0.05547676235437393 -0.41085273027420044
-0.13178294897079468 0.055464111268520355 -0.39534884691238403
-0.13178294897079468 0.05555926263332367 -0.3798449635505676
-0.13178294897079468 0.05557795614004135 -0.3643410801887512
-0.13178294897079468 0.05534305423498154 -0.3488371968269348
-0.13178294897079468 0.05476702004671097 -0.3333333134651184
-0.13178294897079468 0.05432374030351639 -0.317829430103302
-0.13178294897079468 0.05438865348696709 -0.30232560634613037
-0.13178294897079468 0.0545886866748333 -0.28682172298431396
-0.13178294897079468 0.05465562269091606 -0.27131783962249756
-0.13178294897079468 0.054754916578531265 -0.25581395626068115
-0.13178294897079468 0.054569970816373825 -0.24031007289886475
-0.13178294897079468 0.05472467839717865 -0.19379842281341553
-0.13178294897079468 0.056502506136894226 -0.1782945990562439
-0.13178294897079468 0.05748964846134186 -0.1627907156944275
-0.13178294897079468 0.058376245200634 -0.14728683233261108
-0.13178294897079468 0.05817694216966629 -0.13178294897079468
-0.13178294897079468 0.056950077414512634 -0.11627906560897827
-0.11627906560897827 -0.03938838467001915 -0.4573643207550049
-0.11627906560897827 -0.04074949026107788 -0.4418604373931885
-0.11627906560897827 -0.04020719230175018 -0.42635661363601685
-0.11627906560897827 -0.039529260247945786 -0.41085273027420044
-0.11627906560897827 -0.03892810642719269 -0.39534884691238403
-0.11627906560897827 -0.038869328796863556 -0.3798449635505676
-0.11627906560897827 -0.039226923137903214 -0.3643410801887512
-0.11627906560897827 -0.03996624797582626 -0.3488371968269348
-0.11627906560897827 -0.04080621898174286 -0.3333333134651184
-0.11627906560897827 -0.04011448845267296 -0.317829430103302
-0.11627906560897827 -0.04160873219370842 -0.14728683233261108
-0.11627906560897827 -0.0411575511097908 -0.13178294897079468
-0.11627906560897827 -0.040692038834095 -0.11627906560897827
-0.11627906560897827 -0.04078082740306854 -0.10077518224716187
-0.11627906560897827 -0.04052610695362091 -0.08527129888534546
-0.11627906560897827 -0.039183683693408966 -0.06976741552352905
-0.11627906560897827 -0.03507182002067566 -0.30232560634613037
-0.11627906560897827 -0.0266595259308815 -0.28682172298431396
-0.11627906560897827 -0.008905643597245216 -0.27131783962249756
-0.11627906560897827 -0.012576627545058727 -0.1627907156944275
-0.11627906560897827 -0.01897372491657734 -0.06976741552352905
-0.11627906560897827 -0.0043811374343931675 -0.4728682041168213
-0.11627906560897827 0.005322502925992012 -0.08527129888534546
-0.11627906560897827 0.018734633922576904 -0.25581395626068115
-0.11627906560897827 0.05157570168375969 -0.4728682041168213
-0.11627906560897827 0.05171184241771698 -0.25581395626068115
-0.11627906560897827 0.04477870464324951 -0.10077518224716187
-0.11627906560897827 0.05549533665180206 -0.4573643207550049
-0.11627907305955887 0.056123532354831696 -0.44186046719551086
-0.11627906560897827 0.055915746837854385 -0.42635661363601685
-0.11627906560897827 0.05549590289592743 -0.41085273027420044
-0.11627906560897827 0.05533771961927414 -0.39534884691238403
-0.11627906560897827 0.05548165738582611 -0.3798449635505676
-0.11627906560897827 0.055722206830978394 -0.3643410801887512
-0.11627906560897827 0.055623725056648254 -0.3488371968269348
-0.11627906560897827 0.05502082780003548 -0.3333333134651184
-0.11627906560897827 0.05450501665472984 -0.317829430103302
-0.11627906560897827 0.05452878400683403 -0.30232560634613037
-0.11627906560897827 0.054660357534885406 -0.28682172298431396
-0.11627906560897827 0.05437421053647995 -0.27131783962249756
-0.11627906560897827 0.05725349485874176 -0.1627907156944275
-0.11627906560897827 0.05772450566291809 -0.14728683233261108
-0.11627906560897827 0.05712415277957916 -0.13178294897079468
-0.11627906560897827 0.055627770721912384 -0.11627906560897827
-0.10077518224716187 -0.03962012007832527 -0.4573643207550049
-0.10077518224716187 -0.04202384874224663 -0.4418604373931885
-0.10077518224716187 -0.041077591478824615 -0.42635661363601685
-0.10077518224716187 -0.03967790678143501 -0.41085273027420044
-0.10077518224716187 -0.039162881672382355 -0.39534884691238403
-0.10077518224716187 -0.0396675206720829 -0.3798449635505676
-0.10077518224716187 -0.04023534432053566 -0.3643410801887512
-0.10077518224716187 -0.0406363420188427 -0.3488371968269348
-0.10077518224716187 -0.04046400263905525 -0.3333333134651184
-0.10077518224716187 -0.042487796396017075 -0.14728683233261108
-0.10077518224716187 -0.04252272844314575 -0.13178294897079468
-0.10077518224716187 -0.041868120431900024 -0.11627906560897827
-0.10077518224716187 -0.04187935218214989 -0.10077518224716187
-0.10077518224716187 -0.04190811887383461 -0.08527129888534546
-0.10077518224716187 -0.041447173804044724 -0.06976741552352905
-0.10077518224716187 -0.04105066880583763 -0.05426359176635742
-0.10077518224716187 -0.04050241783261299 -0.038759708404541016
-0.10077518224716187 -0.03953085467219353 -0.02325582504272461
-0.10077518224716187 -0.03866563364863396 -0.317829430103302
-0.10077518224716187 -0.03265543654561043 -0.30232560634613037
-0.10077518224716187 -0.023961355909705162 -0.28682172298431396
-0.10077518224716187 -0.025448983535170555 -0.007751941680908203
-0.10077518224716187 -0.008736472576856613 -0.4728682041168213
-0.10077518224716187 -0.011284423992037773 -0.02325582504272461
-0.10077518224716187 -0.022073430940508842 -0.007751941680908203
-0.10077518224716187 0.007112691178917885 -0.08527129888534546
-0.10077518224716187 -0.005167786963284016 -0.06976741552352905
-0.10077518224716187 -0.006390073336660862 -0.05426359176635742
-0.10077518224716187 -0.006906813010573387 -0.038759708404541016
-0.10077518224716187 0.03691503778100014 -0.27131783962249756
-0.10077518224716187 0.029513420537114143 -0.10077518224716187
-0.10077518224716187 0.050774700939655304 -0.4728682041168213
-0.10077518224716187 0.0401541106402874 -0.27131783962249756
-0.10077518224716187 0.04892188683152199 -0.11627906560897827
-0.10077518224716187 0.05565972626209259 -0.4573643207550049
-0.10077518224716187 0.056214652955532074 -0.4418604373931885
-0.10077518224716187 0.05608971044421196 -0.42635661363601685
-0.10077518224716187 0.05565882846713066 -0.41085273027420044
-0.10077518224716187 0.055469922721385956 -0.39534884691238403
-0.10077518224716187 0.05575719475746155 -0.3798449635505676
-0.10077518224716187 0.05618279427289963 -0.3643410801887512
-0.10077518224716187 0.0561366081237793 -0.3488371968269348
-0.10077517479658127 0.05544879287481308 -0.3333333134651184
-0.10077518224716187 0.05480343475937843 -0.317829430103302
-0.10077517479658127 0.05476779863238335 -0.30232560634613037
-0.10077518224716187 0.054765816777944565 -0.28682172298431396
-0.10077518224716187 0.05613299086689949 -0.14728683233261108
-0.10077518224716187 0.05536834895610809 -0.13178294897079468
-0.08527129888534546 -0.039206668734550476 -0.4573643207550049
-0.08527129888534546 -0.04153948277235031 -0.4418604373931885
-0.08527129888534546 -0.04039405658841133 -0.42635661363601685
-0.08527129888534546 -0.03933310881257057 -0.3798449635505676
-0.08527129888534546 -0.04023481532931328 -0.3643410801887512
-0.08527129888534546 -0.04036986082792282 -0.3488371968269348
-0.08527129888534546 -0.03953687101602554 -0.3333333134651184
-0.08527129888534546 -0.04159845411777496 -0.14728683233261108
-0.08527129888534546 -0.04434274137020111 -0.13178294897079468
-0.08527129888534546 -0.04352086782455444 -0.11627906560897827
-0.08527129888534546 -0.04343859851360321 -0.10077518224716187
-0.08527129888534546 -0.04351012036204338 -0.08527129888534546
-0.08527129888534546 -0.04348623380064964 -0.06976741552352905
-0.08527129888534546 -0.04367281496524811 -0.05426359176635742
-0.08527129888534546 -0.04351264238357544 -0.038759708404541016
-0.08527129888534546 -0.043122828006744385 -0.02325582504272461
-0.08527129888534546 -0.041915301233530045 -0.007751941680908203
-0.08527129888534546 -0.039329372346401215 0.007751941680908203
-0.08527130633592606 -0.03714326396584511 -0.41085273027420044
-0.08527129888534546 -0.03640246391296387 -0.39534884691238403
-0.08527129888534546 -0.03662203624844551 -0.317829430103302
-0.08527129888534546 -0.02992355078458786 -0.30232560634613037
-0.08527129888534546 -0.013353506103157997 -0.007751941680908203
-0.08527129888534546 -0.020228153094649315 0.007751941680908203
-0.08527129888534546 -0.006527517922222614 -0.2868216931819916
-0.08527129888534546 0.0009314806666225195 -0.08527129888534546
-0.08527129888534546 -0.004402734339237213 -0.06976741552352905
-0.08527129888534546 -0.00518517941236496 -0.05426359176635742
-0.08527129888534546 -0.005831278860569 -0.038759708404541016
-0.08527129888534546 -0.007116437889635563 -0.02325582504272461
-0.08527129888534546 0.010645272210240364 -0.4728682041168213
-0.08527129888534546 0.007873457856476307 -0.14728683233261108
-0.08527129888534546 0.013231417164206505 -0.10077518224716187
-0.08527129888534546 0.038623109459877014 -0.13178294897079468
-0.08527129888534546 0.02850768156349659 -0.11627906560897827
-0.08527129888534546 0.045227326452732086 -0.4728682041168213
-0.08527129888534546 0.05565550550818443 -0.4573643207550049
-0.08527129888534546 0.05622674897313118 -0.4418604075908661
-0.08527129888534546 0.056238144636154175 -0.42635661363601685
-0.08527129143476486 0.05585882440209389 -0.41085273027420044
-0.08527129888534546 0.05570860207080841 -0.39534884691238403
-0.08527129888534546 0.05616367235779762 -0.3798449635505676
-0.08527129888534546 0.05668257921934128 -0.3643410801887512
-0.08527129888534546 0.056651826947927475 -0.3488371968269348
-0.08527129888534546 0.05595501884818077 -0.3333333134651184
-0.08527129888534546 0.05514821782708168 -0.317829430103302
-0.08527129888534546 0.05501755699515343 -0.30232560634613037
-0.08527129888534546 0.05458212271332741 -0.28682172298431396
-0.06976741552352905 -0.04038715362548828 -0.4418604373931885
-0.06976741552352905 -0.039219699800014496 -0.42635661363601685
-0.06976741552352905 -0.03956538811326027 -0.3643410801887512
-0.06976741552352905 -0.03970440477132797 -0.3488371968269348
-0.06976741552352905 -0.045928385108709335 -0.13178294897079468
-0.06976741552352905 -0.04502250999212265 -0.11627906560897827
-0.06976741552352905 -0.04484119266271591 -0.10077518224716187
-0.06976741552352905 -0.04506310075521469 -0.08527129888534546
-0.06976741552352905 -0.04542184993624687 -0.06976741552352905
-0.06976741552352905 -0.04589865356683731 -0.05426359176635742
-0.06976741552352905 -0.04606488347053528 -0.038759708404541016
-0.06976741552352905 -0.046429358422756195 -0.02325582504272461
-0.06976741552352905 -0.0466022714972496 -0.007751941680908203
-0.06976741552352905 -0.04588300734758377 0.007751941680908203
-0.06976741552352905 -0.043270062655210495 0.02325582504272461
-0.06976741552352905 -0.03540550172328949 -0.4573643207550049
-0.06976741552352905 -0.03292363882064819 -0.41085273027420044
-0.06976741552352905 -0.033566560596227646 -0.39534884691238403
-0.06976741552352905 -0.03796352073550224 -0.3798449635505676
-0.06976741552352905 -0.03857383131980896 -0.3333333134651184
-0.06976741552352905 -0.03441790118813515 -0.317829430103302
-0.06976741552352905 -0.026312975212931633 -0.30232560634613037
-0.06976741552352905 -0.012227730825543404 -0.007751941680908203
-0.06976741552352905 -0.017045041546225548 0.007751941680908203
-0.06976741552352905 -0.020899487659335136 0.02325582504272461
-0.06976741552352905 0.0026036780327558517 -0.10077518224716187
-0.06976741552352905 -0.0042047882452607155 -0.08527129888534546
-0.06976741552352905 -0.005584980361163616 -0.06976741552352905
-0.06976741552352905 -0.0059702107682824135 -0.05426359176635742
-0.06976741552352905 -0.00657397136092186 -0.03875970467925072
-0.06976741552352905 -0.0076135690324008465 -0.02325582504272461
-0.06976741552352905 0.00930690299719572 -0.13178294897079468
-0.06976741552352905 0.010810650885105133 -0.11627906560897827
-0.06976741552352905 0.037491120398044586 -0.28682172298431396
-0.06976741552352905 0.04084094241261482 -0.28682172298431396
-0.06976741552352905 0.05554316192865372 -0.4573643207550049
-0.06976741552352905 0.056250233203172684 -0.4418604373931885
-0.06976741552352905 0.056382980197668076 -0.42635664343833923
-0.06976741552352905 0.05608179792761803 -0.41085273027420044
-0.06976741552352905 0.05602630600333214 -0.39534884691238403
-0.06976741552352905 0.05657707527279854 -0.3798449635505676
-0.06976741552352905 0.057063955813646317 -0.3643410801887512
-0.06976741552352905 0.05704355612397194 -0.3488371968269348
-0.06976741552352905 0.056429073214530945 -0.3333333134651184
-0.06976741552352905 0.05555303022265434 -0.317829430103302
-0.06976742297410965 0.055262863636016846 -0.30232560634613037
-0.05426359176635742 -0.039310622960329056 -0.4418604373931885
-0.05426359176635742 -0.03907322511076927 -0.3643410801887512
-0.05426359176635742 -0.03908148780465126 -0.3488371968269348
-0.05426359176635742 -0.04436682537198067 -0.13178294897079468
-0.05426359176635742 -0.046151965856552124 -0.11627906560897827
-0.05426359176635742 -0.0459308996796608 -0.10077518224716187
-0.05426359176635742 -0.04634057730436325 -0.08527129888534546
-0.05426359176635742 -0.04693752899765968 -0.06976741552352905
-0.05426359176635742 -0.047516316175460815 -0.05426359176635742
-0.05426359176635742 -0.04784071445465088 -0.038759708404541016
-0.05426359176635742 -0.04835683852434158 -0.02325582504272461
-0.05426359176635742 -0.048787254840135574 -0.007751941680908203
-0.05426359176635742 -0.04909481480717659 0.007751941680908203
-0.05426359176635742 -0.04895737022161484 0.02325582504272461
-0.05426359176635742 -0.04622066020965576 0.038759708404541016
