-0.27131783962249756 -0.8724830746650696 -0.05426359176635742
-0.27131783962249756 -0.6808525323867798 0.02325582504272461
-0.27131783962249756 -0.6425176858901978 0.02325582504272461
-0.27131783962249756 -0.5238519906997681 -0.02325582504272461
-0.27131783962249756 -0.5267688035964966 -0.007751941680908203
-0.27131783962249756 -0.5228051543235779 0.007751941680908203
-0.27131783962249756 -0.5157058238983154 -0.038759708404541016
-0.27131783962249756 -0.232356458902359 -0.038759708404541016
-0.27131783962249756 -0.23040923476219177 -0.02325582504272461
-0.27131783962249756 -0.23124806582927704 -0.007751941680908203
-0.27131783962249756 -0.23261070251464844 0.007751941680908203
-0.27131783962249756 -0.2255544811487198 0.02325582504272461
-0.27131783962249756 -0.21513435244560242 0.02325582504272461
-0.27131783962249756 -0.14347052574157715 0.02325582504272461
-0.27131783962249756 -0.11734668910503387 -0.007751941680908203
-0.27131783962249756 -0.12986525893211365 0.02325582504272461
-0.27131783962249756 -0.10878375172615051 -0.038759708404541016
-0.27131783962249756 -0.11574903130531311 -0.02325582504272461
-0.27131783962249756 -0.11452189832925797 0.007751941680908203
-0.25581395626068115 -0.908587634563446 -0.038759708404541016
-0.25581395626068115 -0.8979828357696533 -0.05426359176635742
-0.25581395626068115 -0.9041111469268799 -0.02325582504272461
-0.25581395626068115 -0.9025905132293701 -0.007751941680908203
-0.25581395626068115 -0.9066147804260254 0.007751941215246916
-0.25581395626068115 -0.8870254755020142 -0.05426359549164772
-0.25581395626068115 -0.6969009637832642 0.02325582504272461
-0.25581395626068115 -0.6353225708007812 0.02325582504272461
-0.25581395626068115 -0.4729728400707245 -0.038759708404541016
-0.25581395626068115 -0.48326942324638367 -0.02325582504272461
-0.25581395626068115 -0.48644912242889404 -0.007751941680908203
-0.25581395626068115 -0.48293352127075195 0.007751941680908203
-0.25581395626068115 -0.256376177072525 -0.038759708404541016
-0.25581395626068115 -0.2530016303062439 -0.02325582690536976
-0.25581395626068115 -0.25248798727989197 -0.007751941680908203
-0.25581395626068115 -0.25370529294013977 0.007751941680908203
-0.25581395626068115 -0.22620755434036255 0.02325582504272461
-0.25581395626068115 -0.22375954687595367 0.02325582504272461
-0.25581395626068115 -0.11053904891014099 0.02325582504272461
-0.25581395626068115 -0.08628193289041519 -0.007751941680908203
-0.25581395626068115 -0.09824874997138977 0.02325582504272461
-0.25581395626068115 -0.07805181294679642 -0.038759708404541016
-0.25581395626068115 -0.08422727137804031 -0.02325582690536976
-0.25581395626068115 -0.08419016003608704 0.00775194214656949
-0.24031007289886475 -0.9234907627105713 -0.038759708404541016
-0.24031007289886475 -0.9126455783843994 -0.05426359176635742
-0.24031007289886475 -0.9187924265861511 -0.02325582504272461
-0.24031007289886475 -0.9171175956726074 -0.007751941680908203
-0.24031007289886475 -0.9201728105545044 0.007751941680908203
-0.24031007289886475 -0.9017806649208069 -0.05426359176635742
-0.24031008780002594 -0.7037177681922913 0.02325582504272461
-0.24031007289886475 -0.6952320337295532 0.038759708404541016
-0.24031007289886475 -0.6442291736602783 0.038759708404541016
-0.24031007289886475 -0.6290693879127502 0.02325582504272461
-0.24031007289886475 -0.4420102536678314 -0.007751941680908203
-0.24031007289886475 -0.4361138939857483 -0.02325582504272461
-0.24031007289886475 -0.43378496170043945 0.007751941680908203
-0.24031007289886475 -0.4156573414802551 -0.038759708404541016
-0.24031007289886475 -0.2858354449272156 -0.038759708404541016
-0.24031005799770355 -0.27974987030029297 -0.02325582504272461
-0.24031007289886475 -0.27854230999946594 -0.007751941680908203
-0.24031007289886475 -0.28158432245254517 0.007751941680908203
-0.24031007289886475 -0.2497462034225464 0.02325582504272461
-0.24031007289886475 -0.2214219719171524 0.02325582504272461
-0.24031007289886475 -0.08414862304925919 0.02325582504272461
-0.24031007289886475 -0.0561133474111557 -0.02325582504272461
-0.24031007289886475 -0.05822962149977684 -0.007751941680908203
-0.24031007289886475 -0.057569634169340134 0.007751941680908203
-0.24031007289886475 -0.06847211718559265 0.02325582504272461
-0.24031007289886475 -0.052218858152627945 -0.038759708404541016
-0.22480618953704834 -0.9271020889282227 -0.05426359176635742
-0.22480618953704834 -0.9345661401748657 -0.038759708404541016
-0.22480618953704834 -0.9301612377166748 -0.02325582504272461
-0.22480618953704834 -0.9290748834609985 -0.007751941680908203
-0.22480618953704834 -0.9313652515411377 0.00775194214656949
-0.22480618953704834 -0.9167934656143188 -0.05426358804106712
-0.22480618953704834 -0.7105453610420227 0.02325582504272461
-0.22480617463588715 -0.7028622031211853 0.038759708404541016
-0.22480618953704834 -0.6462860107421875 0.038759708404541016
-0.22480618953704834 -0.6313883066177368 0.02325582504272461
-0.22480618953704834 -0.45408737659454346 0.02325582318007946
-0.22480618953704834 -0.43828797340393066 0.02325582504272461
-0.22480620443820953 -0.34229978919029236 -0.02325582504272461
-0.22480618953704834 -0.3435133099555969 -0.007751941680908203
-0.22480618953704834 -0.3416392207145691 0.007751941680908203
-0.22480618953704834 -0.3281632661819458 -0.02325582504272461
-0.22480618953704834 -0.3260938823223114 -0.007751941680908203
-0.22480618953704834 -0.33032000064849854 0.007751941680908203
-0.22480618953704834 -0.29968950152397156 -0.05426359176635742
-0.22480618953704834 -0.28210198879241943 -0.05426359549164772
-0.22480618953704834 -0.2680530548095703 0.02325582318007946
-0.22480618953704834 -0.21500243246555328 0.02325582504272461
-0.22480618953704834 -0.06322063505649567 0.02325582504272461
-0.22480618953704834 -0.05122017860412598 0.02325582504272461
-0.22480618953704834 -0.032919012010097504 -0.038759708404541016
-0.22480618953704834 -0.03631196543574333 -0.02325582504272461
-0.22480618953704834 -0.0374898724257946 -0.007751941680908203
-0.22480618953704834 -0.036978211253881454 0.007751941215246916
-0.20930230617523193 -0.942832350730896 -0.038759708404541016
-0.20930230617523193 -0.94060218334198 -0.02325582504272461
-0.20930230617523193 -0.9399527907371521 -0.007751941680908203
-0.20930230617523193 -0.9415489435195923 0.007751941680908203
-0.20930230617523193 -0.7018824815750122 0.02325582504272461
-0.20930230617523193 -0.6930795907974243 0.038759708404541016
-0.20930230617523193 -0.6613979935646057 0.038759708404541016
-0.20930230617523193 -0.6495884656906128 0.02325582504272461
-0.20930230617523193 -0.47965192794799805 0.02325582504272461
-0.20930230617523193 -0.39145535230636597 0.02325582504272461
-0.20930230617523193 -0.28323590755462646 0.02325582504272461
-0.20930230617523193 -0.2117902934551239 0.02325582504272461
-0.20930230617523193 -0.05021800845861435 0.02325582504272461
-0.20930230617523193 -0.03609025850892067 0.02325582504272461
-0.20930230617523193 -0.020101936534047127 -0.038759708404541016
-0.20930232107639313 -0.0224837027490139 -0.02325582504272461
-0.20930230617523193 -0.02309616468846798 -0.007751941215246916
-0.20930230617523193 -0.022777613252401352 0.007751941680908203
-0.19379842281341553 -0.9543753266334534 -0.038759708404541016
-0.19379842281341553 -0.9453821182250977 -0.05426359176635742
-0.19379842281341553 -0.9504068493843079 -0.02325582504272461
-0.19379842281341553 -0.9490879774093628 -0.007751941680908203
-0.19379842281341553 -0.9520498514175415 0.00775194214656949
-0.19379842281341553 -0.9326018691062927 -0.05426359176635742
-0.19379840791225433 -0.4875909090042114 0.02325582504272461
-0.19379842281341553 -0.21036016941070557 0.02325582504272461
-0.19379842281341553 -0.050132207572460175 0.02325582504272461
-0.19379842281341553 -0.03669428825378418 0.02325582504272461
-0.19379842281341553 -0.017916927114129066 -0.038759708404541016
-0.19379842281341553 -0.021876582875847816 -0.02325582504272461
-0.19379842281341553 -0.0230918787419796 -0.007751941680908203
-0.19379842281341553 -0.02280738390982151 0.007751941680908203
-0.1782945990562439 -0.9546644687652588 -0.05426359176635742
-0.1782945990562439 -0.9601230621337891 -0.038759708404541016
-0.1782945990562439 -0.9579017758369446 -0.02325582504272461
-0.1782945990562439 -0.9575202465057373 -0.007751941680908203
-0.1782945990562439 -0.9593049883842468 0.007751941680908203
-0.1782945990562439 -0.9474835991859436 -0.05426359176635742
-0.1782945990562439 -0.5833672285079956 -0.05426359176635742
-0.1782945990562439 -0.5805287957191467 -0.05426359176635742
-0.1782945990562439 -0.49493271112442017 0.02325582504272461
-0.1782945990562439 -0.4138282835483551 0.02325582504272461
-0.1782945990562439 -0.37734127044677734 0.02325582504272461
-0.1782945990562439 -0.2546856701374054 -0.05426359176635742
-0.1782945990562439 -0.20239320397377014 -0.05426359176635742
-0.1782945990562439 -0.1929638832807541 0.02325582504272461
-0.1782945990562439 -0.11910019814968109 0.02325582504272461
-0.1782945990562439 -0.07565729320049286 -0.05426359176635742
-0.1782945990562439 -0.05963796749711037 -0.05426359176635742
-0.1782945990562439 -0.0259389765560627 -0.02325582504272461
-0.1782945990562439 -0.028644390404224396 -0.007751941680908203
-0.1782945990562439 -0.02877839282155037 0.007751941680908203
-0.1782945990562439 -0.03787881135940552 0.02325582690536976
-0.1782945990562439 -0.02082115225493908 -0.038759708404541016
-0.1627907156944275 -0.9695559740066528 -0.038759708404541016
-0.1627907156944275 -0.9618912935256958 -0.05426359176635742
-0.1627907156944275 -0.965490460395813 -0.02325582504272461
-0.1627907156944275 -0.9646342992782593 -0.007751941215246916
-0.1627907156944275 -0.9673206210136414 0.00775194214656949
-0.1627907156944275 -0.9474078416824341 -0.05426358804106712
-0.1627907156944275 -0.6792014241218567 0.02325582504272461
-0.1627907156944275 -0.6708414554595947 0.02325582318007946
-0.1627907156944275 -0.634299635887146 -0.05426359176635742
-0.1627907156944275 -0.5372194051742554 -0.05426359176635742
-0.1627907156944275 -0.47700971364974976 0.02325582504272461
-0.1627907156944275 -0.4541938006877899 0.02325582504272461
-0.1627907156944275 -0.3506474792957306 0.02325582504272461
-0.1627907156944275 -0.2823173403739929 -0.05426359176635742
-0.1627907156944275 -0.18633390963077545 -0.05426359176635742
-0.1627907156944275 -0.13754181563854218 0.02325582504272461
-0.1627907156944275 -0.10208741575479507 -0.05426359176635742
-0.1627907156944275 -0.039162300527095795 -0.007751941680908203
-0.1627907156944275 -0.041559457778930664 0.007751941680908203
-0.1627907156944275 -0.03859737515449524 -0.05426359549164772
-0.1627907156944275 -0.03042275831103325 -0.038759708404541016
-0.1627907156944275 -0.03632266819477081 -0.02325582504272461
-0.14728683233261108 -0.973217248916626 -0.038759708404541016
-0.14728683233261108 -0.970964252948761 -0.02325582504272461
-0.14728683233261108 -0.9704693555831909 -0.007751941680908203
-0.14728683233261108 -0.9721001982688904 0.007751941680908203
-0.14728683233261108 -0.9648480415344238 -0.05426359176635742
-0.14728683233261108 -0.9514975547790527 -0.05426359176635742
-0.14728683233261108 -0.6374996900558472 -0.05426359176635742
-0.14728683233261108 -0.5338212251663208 -0.05426359176635742
-0.14728683233261108 -0.49132266640663147 0.02325582504272461
-0.14728683233261108 -0.4695065915584564 0.02325582504272461
-0.14728683233261108 -0.3571648597717285 0.02325582504272461
-0.14728683233261108 -0.3031083941459656 -0.05426359176635742
-0.14728683233261108 -0.16186828911304474 0.02325582504272461
-0.14728683233261108 -0.13568450510501862 -0.05426359176635742
-0.14728683233261108 -0.13598106801509857 -0.02325582504272461
-0.14728683233261108 -0.14244234561920166 -0.007751941680908203
-0.14728683233261108 -0.1444326788187027 0.007751941680908203
-0.14728683233261108 -0.11822755634784698 -0.038759708404541016
-0.14728683233261108 -0.09616595506668091 -0.038759708404541016
-0.14728683233261108 -0.08226004242897034 -0.05426359176635742
-0.14728683233261108 -0.06677833944559097 -0.05426359176635742
-0.1472868174314499 -0.05321110412478447 -0.038759708404541016
-0.13178294897079468 -0.9705044031143188 -0.05426359176635742
-0.13178294897079468 -0.9761450886726379 -0.038759708404541016
-0.13178294897079468 -0.9741295576095581 -0.02325582504272461
-0.13178294897079468 -0.9739090800285339 -0.007751941680908203
-0.13178294897079468 -0.9756883382797241 0.007751941680908203
-0.13178294897079468 -0.9613434076309204 -0.05426359176635742
-0.13178294897079468 -0.6287696361541748 -0.05426359176635742
-0.13178294897079468 -0.5436164140701294 -0.05426359176635742
-0.13178294897079468 -0.5166013240814209 0.02325582504272461
-0.13178294897079468 -0.3009393513202667 -0.05426358804106712
-0.13178294897079468 -0.1804359406232834 -0.007751941680908203
-0.13178294897079468 -0.1797409951686859 0.007751941680908203
-0.13178294897079468 -0.19288471341133118 0.02325582504272461
-0.13178294897079468 -0.1713009774684906 -0.05426359176635742
-0.13178294897079468 -0.16566188633441925 -0.038759708404541016
-0.13178294897079468 -0.17574775218963623 -0.02325582504272461
-0.11627906560897827 -0.9735851287841797 -0.05426359176635742
-0.11627906560897827 -0.9807109832763672 -0.038759708404541016
-0.11627907305955887 -0.9780317544937134 -0.02325582504272461
-0.11627906560897827 -0.97767174243927 -0.007751941680908203
-0.11627906560897827 -0.9801359176635742 0.007751941680908203
-0.11627906560897827 -0.9613825082778931 -0.05426359176635742
-0.11627906560897827 -0.6112351417541504 -0.05426359176635742
-0.11627906560897827 -0.573654294013977 -0.05426359176635742
-0.11627906560897827 -0.5687651038169861 0.02325582504272461
-0.11627906560897827 -0.5090786814689636 0.02325582504272461
-0.11627906560897827 -0.45764514803886414 0.02325582504272461
-0.11627906560897827 -0.28307774662971497 -0.05426359176635742
-0.11627906560897827 -0.20018066465854645 -0.02325582504272461
-0.11627906560897827 -0.2044079750776291 -0.007751941680908203
-0.11627906560897827 -0.20476675033569336 0.007751941680908203
-0.11627906560897827 -0.20867300033569336 0.02325582504272461
-0.11627906560897827 -0.19166022539138794 -0.05426359176635742
-0.11627905815839767 -0.19208544492721558 -0.038759708404541016
-0.10077518224716187 -0.9851917028427124 -0.038759708404541016
-0.10077518224716187 -0.984529435634613 -0.02325582504272461
-0.10077518224716187 -0.984869122505188 0.007751941680908203
-0.10077518224716187 -0.9757208824157715 -0.05426359176635742
-0.10077518224716187 -0.983703076839447 -0.007751941680908203
-0.10077518224716187 -0.9616459012031555 -0.05426359176635742
-0.10077518224716187 -0.6300795078277588 0.02325582504272461
-0.10077517479658127 -0.6080601215362549 0.02325582318007946
-0.10077518224716187 -0.5808332562446594 0.02325582504272461
-0.10077518224716187 -0.5058006048202515 0.02325582504272461
-0.10077518224716187 -0.4915943145751953 0.007751941680908203
-0.10077517479658127 -0.4688904583454132 0.007751941680908203
-0.10077518224716187 -0.4488716721534729 0.02325582504272461
-0.10077518224716187 -0.2630476951599121 -0.05426359176635742
-0.10077518224716187 -0.21678605675697327 0.02325582504272461
-0.10077518969774246 -0.2059503048658371 -0.05426359549164772
-0.10077518224716187 -0.20495790243148804 -0.038759708404541016
-0.10077517479658127 -0.2076762467622757 -0.02325582504272461
-0.10077518224716187 -0.20859722793102264 -0.007751941680908203
-0.10077518224716187 -0.20850133895874023 0.00775194214656949
-0.08527129888534546 -0.986088216304779 -0.038759708404541016
-0.08527129888534546 -0.9853805899620056 -0.02325582504272461
-0.08527129888534546 -0.985258162021637 -0.007751941680908203
-0.08527129888534546 -0.9857154488563538 0.007751941680908203
-0.08527129888534546 -0.9756891131401062 -0.05426359176635742
-0.08527129888534546 -0.9631799459457397 -0.05426359176635742
-0.08527129888534546 -0.6499984264373779 0.02325582504272461
-0.08527129888534546 -0.491921067237854 0.007751941680908203
-0.08527129888534546 -0.5003818273544312 0.02325582504272461
-0.08527129888534546 -0.46701207756996155 0.007751941680908203
-0.08527129888534546 -0.453706830739975 0.02325582504272461
-0.08527129888534546 -0.305540531873703 0.007751941680908203
-0.08527129888534546 -0.31147482991218567 0.02325582504272461
-0.08527129888534546 -0.2984299659729004 0.007751941680908203
-0.08527129888534546 -0.2907600998878479 0.02325582504272461
-0.08527129888534546 -0.24582628905773163 -0.05426359176635742
-0.08527129888534546 -0.21430344879627228 -0.007751941680908203
-0.08527129888534546 -0.21558904647827148 0.007751941680908203
-0.08527129888534546 -0.22120584547519684 0.02325582504272461
-0.08527129888534546 -0.20787212252616882 -0.05426359176635742
-0.08527129888534546 -0.20600526034832 -0.038759708404541016
-0.08527129888534546 -0.2090207189321518 -0.02325582504272461
-0.06976741552352905 -0.9866228103637695 -0.038759708404541016
-0.06976741552352905 -0.9858536124229431 -0.02325582504272461
-0.06976741552352905 -0.985745906829834 -0.007751941680908203
-0.06976741552352905 -0.9862501621246338 0.007751941680908203
-0.06976741552352905 -0.9793378114700317 -0.05426359176635742
-0.06976741552352905 -0.9655569195747375 -0.05426359176635742
-0.06976741552352905 -0.6425274610519409 0.02325582504272461
-0.06976741552352905 -0.4960642457008362 0.02325582504272461
-0.06976741552352905 -0.4654105305671692 0.02325582504272461
-0.06976741552352905 -0.3222779929637909 0.007751941680908203
-0.06976741552352905 -0.3240831196308136 0.02325582504272461
-0.06976741552352905 -0.3165408968925476 -0.007751941680908203
-0.06976741552352905 -0.293882817029953 -0.007751941680908203
-0.06976741552352905 -0.2802353501319885 0.007751941680908203
-0.06976741552352905 -0.2758297622203827 0.02325582504272461
-0.06976741552352905 -0.21114575862884521 -0.05426359176635742
-0.06976741552352905 -0.2175370454788208 0.02325582504272461
-0.06976741552352905 -0.19818364083766937 -0.02325582504272461
-0.06976741552352905 -0.20544399321079254 -0.00775194214656949
-0.06976741552352905 -0.20821399986743927 0.007751941680908203
-0.06976740807294846 -0.19356314837932587 -0.05426358804106712
-0.06976741552352905 -0.1908133178949356 -0.038759708404541016
-0.06976741552352905 0.7347457408905029 -0.007751941680908203
-0.06976741552352905 0.723379373550415 0.007751941680908203
-0.06976741552352905 0.732731819152832 0.02325582504272461
-0.06976741552352905 0.7585440874099731 -0.007751941680908203
-0.06976740807294846 0.7519404292106628 0.02325582504272461
-0.06976741552352905 0.7953896522521973 0.007751941680908203
-0.05426359176635742 -0.9875372052192688 -0.038759708404541016
-0.05426359176635742 -0.9866356253623962 -0.02325582504272461
-0.05426359176635742 -0.9862964749336243 -0.007751941680908203
-0.05426359176635742 -0.9867141246795654 0.007751941680908203
-0.05426358804106712 -0.6382604837417603 0.02325582504272461
-0.05426359176635742 -0.18325209617614746 -0.05426359176635742
-0.05426359176635742 -0.17720773816108704 -0.05426359176635742
-0.05426359176635742 -0.1709071397781372 -0.038759708404541016
-0.05426359176635742 -0.17705361545085907 -0.02325582504272461
-0.05426359549164772 -0.1782509982585907 -0.00775194214656949
-0.05426359176635742 -0.17452026903629303 0.007751941215246916
-0.05426359176635742 -0.16216464340686798 0.02325582504272461
-0.05426359176635742 0.7196687459945679 0.02325582504272461
-0.05426359176635742 0.7271654605865479 0.007751941680908203
-0.05426359176635742 0.7801622152328491 -0.007751941680908203
-0.05426359176635742 0.7818242907524109 0.02325582504272461
-0.05426359176635742 0.8135803937911987 -0.007751941680908203
-0.05426359176635742 0.8228216767311096 0.007751941680908203
-0.05426359176635742 0.8449175953865051 -0.007751941680908203
-0.05426359549164772 0.8449945449829102 -0.007751941680908203
-0.038759708404541016 -0.988934338092804 -0.038759708404541016
-0.038759708404541016 -0.9881604909896851 -0.02325582504272461
-0.038759708404541016 -0.9875862002372742 -0.007751941680908203
-0.038759708404541016 -0.9877391457557678 0.007751941680908203
-0.038759708404541016 -0.7173043489456177 0.02325582504272461
-0.038759708404541016 -0.15128828585147858 -0.038759708404541016
-0.038759708404541016 -0.15755631029605865 -0.02325582504272461
-0.038759708404541016 -0.1518915891647339 -0.007751941680908203
-0.038759708404541016 -0.1355494260787964 -0.038759708404541016
-0.038759708404541016 -0.11727592349052429 -0.05426359176635742
-0.038759708404541016 -0.12043068557977676 -0.02325582504272461
-0.038759708404541016 -0.11585284769535065 -0.007751941680908203
-0.038759708404541016 -0.08236484974622726 -0.05426359176635742
-0.038759708404541016 -0.06401927769184113 -0.038759708404541016
-0.038759708404541016 -0.06809692829847336 -0.02325582318007946
-0.038759708404541016 -0.06814268976449966 -0.007751941680908203
-0.038759712129831314 -0.03718375414609909 0.007751941680908203
-0.038759708404541016 0.025904309004545212 0.02325582690536976
-0.038759708404541016 0.6809947490692139 0.02325582504272461
-0.038759708404541016 0.7131009101867676 0.007751941680908203
-0.038759708404541016 0.759676456451416 -0.007751941680908203
-0.038759708404541016 0.8065093755722046 0.02325582504272461
-0.038759708404541016 0.8750918507575989 0.007751941680908203
-0.038759708404541016 0.8782216310501099 -0.007751941680908203
-0.02325582504272461 -0.9896805882453918 -0.038759708404541016
-0.02325582504272461 -0.9892611503601074 -0.02325582504272461
-0.02325582504272461 -0.9888076186180115 -0.007751941680908203
-0.02325582504272461 -0.9888685345649719 0.007751941680908203
-0.02325582504272461 -0.7366271615028381 0.02325582504272461
-0.02325582504272461 -0.06264239549636841 -0.038759708404541016
-0.02325582504272461 -0.0647292509675026 -0.02325582504272461
-0.02325582504272461 -0.05852944403886795 -0.007751941680908203
-0.02325582504272461 0.0033724242821335793 0.007751941680908203
-0.02325582504272461 0.6982680559158325 0.007751941680908203
-0.02325582504272461 0.7650004029273987 -0.007751941680908203
-0.02325582690536976 0.8004721999168396 0.02325582690536976
-0.02325582504272461 0.8852869868278503 -0.02325582504272461
-0.02325582504272461 0.9222609996795654 -0.02325582504272461
-0.02325582504272461 0.9193661212921143 0.007751941680908203
-0.02325582504272461 0.925361692905426 -0.007751941680908203
-0.007751941680908203 -0.9900898933410645 -0.038759708404541016
-0.007751941680908203 -0.9898319840431213 -0.02325582504272461
-0.007751941680908203 -0.9894997477531433 -0.007751941680908203
-0.007751941680908203 -0.9895575642585754 0.007751941680908203
-0.007751941680908203 -0.7437541484832764 0.02325582504272461
-0.007751941680908203 -0.13957296311855316 -0.02325582504272461
-0.007751941680908203 -0.12275733053684235 -0.02325582504272461
-0.007751941680908203 -0.07820936292409897 -0.02325582504272461
-0.007751941680908203 -0.07031892985105515 -0.007751941680908203
-0.00775194214656949 -0.06911368668079376 -0.038759708404541016
-0.007751941680908203 0.006714890711009502 0.007751941680908203
-0.007751941680908203 0.6963037252426147 0.007751941680908203
-0.007751941680908203 0.7819011807441711 -0.007751941680908203
-0.007751941680908203 0.7885279059410095 0.02325582504272461
-0.007751941680908203 0.8854835629463196 -0.02325582504272461
-0.007751941680908203 0.9350214004516602 0.007751941680908203
-0.007751941680908203 0.938740611076355 -0.02325582504272461
-0.007751941680908203 0.9400966167449951 -0.007751941680908203
0.007751941680908203 -0.9900358319282532 -0.038759708404541016
0.007751941680908203 -0.9897775650024414 -0.02325582504272461
0.007751941680908203 -0.9894493222236633 -0.007751941680908203
0.007751941680908203 -0.9895625710487366 0.007751941680908203
0.007751941680908203 -0.7485899329185486 0.02325582504272461
0.007751941680908203 -0.15083390474319458 -0.02325582504272461
0.00775194214656949 -0.14557167887687683 -0.038759708404541016
0.007751941680908203 -0.137739896774292 -0.007751941680908203
0.007751941680908203 -0.102010577917099 -0.038759708404541016
0.007751941680908203 -0.0919899046421051 -0.038759708404541016
0.007751941215246916 -0.005091098602861166 0.007751941215246916
0.007751941680908203 0.7031952142715454 0.007751941680908203
0.007751941680908203 0.7907900810241699 0.02325582504272461
0.007751941215246916 0.8004001379013062 -0.007751941215246916
0.007751941680908203 0.8863850831985474 -0.02325582504272461
0.007751941680908203 0.9422777891159058 -0.02325582504272461
0.007751941680908203 0.9453748464584351 -0.007751941680908203
0.007751941680908203 0.9422403573989868 0.007751941680908203
0.02325582504272461 -0.9894843101501465 -0.038759708404541016
0.02325582504272461 -0.989112138748169 -0.02325582504272461
0.02325582504272461 -0.9886968731880188 -0.007751941680908203
0.02325582504272461 -0.9888688325881958 0.007751941680908203
0.02325582504272461 -0.7462028861045837 0.02325582504272461
0.02325582504272461 -0.5685486197471619 -0.05426359176635742
0.02325582504272461 -0.5647135972976685 -0.05426359176635742
0.02325582504272461 -0.16411516070365906 -0.02325582504272461
0.02325582504272461 -0.16068397462368011 -0.038759708404541016
0.02325582504272461 -0.15649327635765076 -0.007751941680908203
0.02325582504272461 -0.0484735406935215 0.007751941215246916
0.02325582504272461 0.2631126642227173 0.02325582504272461
0.02325582504272461 0.3144277334213257 0.02325582504272461
0.02325582504272461 0.449842244386673 0.02325582504272461
0.02325582504272461 0.48778432607650757 0.02325582504272461
0.02325582504272461 0.716276228427887 0.007751941680908203
0.02325582504272461 0.8067010641098022 -0.007751941680908203
0.02325582504272461 0.8058717250823975 0.02325582504272461
0.02325582504272461 0.8874087333679199 -0.02325582504272461
0.02325582504272461 0.9479294419288635 -0.02325582504272461
0.02325582504272461 0.9523722529411316 -0.007751941680908203
0.02325582504272461 0.9488890767097473 0.007751941680908203
0.038759708404541016 -0.9844964146614075 -0.05426359176635742
0.038759708404541016 -0.9883846044540405 -0.038759708404541016
0.038759708404541016 -0.9878998398780823 -0.02325582504272461
0.038759708404541016 -0.9875378012657166 -0.007751941680908203
0.038759708404541016 -0.9877927899360657 0.007751941680908203
0.038759708404541016 -0.9844281673431396 -0.05426359176635742
0.038759708404541016 -0.740132212638855 0.02325582504272461
0.038759708404541016 -0.2406645566225052 -0.02325582504272461
0.038759708404541016 -0.24492371082305908 -0.007751941680908203
0.038759708404541016 -0.22858916223049164 -0.038759708404541016
0.038759708404541016 -0.1535523235797882 0.007751941680908203
0.038759708404541016 0.031124407425522804 0.02325582504272461
0.038759708404541016 0.695085883140564 0.02325582504272461
0.038759708404541016 0.7236694693565369 0.007751941680908203
0.038759708404541016 0.8230903148651123 -0.007751941680908203
0.038759708404541016 0.824304461479187 0.02325582504272461
0.038759708404541016 0.8949949145317078 -0.02325582504272461
0.038759708404541016 0.9569963812828064 -0.02325582504272461
0.038759708404541016 0.9608105421066284 -0.007751941680908203
0.038759708404541016 0.9589081406593323 0.007751941680908203
0.05426359176635742 -0.9846780300140381 -0.05426359176635742
0.05426359176635742 -0.9871928691864014 -0.038759708404541016
0.05426359176635742 -0.9866755604743958 -0.02325582504272461
0.05426359176635742 -0.9864907264709473 -0.007751941680908203
0.05426359176635742 -0.9868423938751221 0.007751941680908203
0.05426359176635742 -0.966944694519043 -0.05426359176635742
0.05426359176635742 -0.7340376377105713 0.02325582504272461
0.05426359176635742 -0.47444090247154236 0.02325582504272461
0.05426359176635742 -0.4389171898365021 0.02325582504272461
0.05426359176635742 -0.24384400248527527 -0.02325582504272461
0.05426359176635742 -0.2479875683784485 -0.007751941680908203
0.05426359176635742 -0.24908855557441711 0.007751941680908203
0.05426359176635742 -0.24856746196746826 0.02325582504272461
0.05426359176635742 -0.23733478784561157 -0.038759708404541016
0.05426359176635742 0.718045711517334 0.02325582504272461
0.05426359176635742 0.7312915325164795 0.007751941680908203
0.05426359176635742 0.8434038758277893 0.02325582504272461
0.05426359176635742 0.8449937105178833 -0.007751941680908203
0.05426359176635742 0.9124865531921387 -0.02325582504272461
0.05426358804106712 0.9702413082122803 -0.02325582504272461
0.05426359176635742 0.9715530276298523 -0.007751941680908203
0.05426359176635742 0.9702386856079102 0.007751941215246916
0.06976747512817383 -0.986562967300415 -0.038759708404541016
0.06976747512817383 -0.9860052466392517 -0.02325582504272461
0.06976747512817383 -0.9858828783035278 -0.007751941680908203
0.06976747512817383 -0.9862483143806458 0.007751941680908203
0.06976747512817383 -0.9795875549316406 -0.05426359176635742
0.06976747512817383 -0.9644138813018799 -0.05426359176635742
0.06976747512817383 -0.7256015539169312 0.02325582504272461
0.06976747512817383 -0.49882128834724426 0.02325582504272461
0.06976747512817383 -0.4224698543548584 0.02325582504272461
0.06976747512817383 -0.24577301740646362 -0.02325582504272461
0.06976747512817383 -0.24802055954933167 -0.007751941680908203
0.06976747512817383 -0.24827168881893158 0.007751941215246916
0.06976747512817383 -0.25162026286125183 0.02325582504272461
0.06976747512817383 -0.2393641620874405 -0.038759708404541016
0.06976747512817383 0.7351371645927429 0.007751941680908203
0.06976747512817383 0.7312143445014954 0.02325582504272461
0.06976747512817383 0.7594358325004578 0.007751941680908203
0.06976747512817383 0.7644290328025818 0.02325582504272461
0.06976747512817383 0.793363094329834 0.007751941680908203
0.06976747512817383 0.7973302006721497 0.02325582504272461
0.06976747512817383 0.8418236970901489 0.02325582504272461
0.06976746767759323 0.8620550036430359 -0.007751941680908203
0.06976747512817383 0.9257494807243347 -0.02325582504272461
0.06976747512817383 0.9610307216644287 -0.038759708404541016
0.06976747512817383 0.9730408191680908 -0.038759708404541016
0.06976747512817383 0.9802020788192749 -0.02325582504272461
0.06976747512817383 0.9839088320732117 -0.007751941680908203
0.06976747512817383 0.9748141765594482 0.007751941680908203
0.08527135848999023 -0.986027717590332 -0.038759708404541016
0.08527135848999023 -0.9854283332824707 -0.02325582504272461
0.08527135848999023 -0.9852756857872009 -0.007751941680908203
0.08527135848999023 -0.9856417775154114 0.007751941680908203
0.08527135848999023 -0.9757747054100037 -0.05426359176635742
0.08527135848999023 -0.9626203179359436 -0.05426359176635742
0.08527135848999023 -0.9091330170631409 -0.05426359176635742
0.08527135848999023 -0.8620185256004333 -0.05426359176635742
0.08527135848999023 -0.7152494192123413 0.02325582504272461
0.08527135848999023 -0.4428323805332184 0.02325582504272461
0.08527135848999023 -0.4409206807613373 0.02325582504272461
0.08527135848999023 -0.2847104072570801 -0.05426359176635742
0.08527135848999023 -0.2672855257987976 -0.05426359176635742
0.08527135848999023 -0.24748961627483368 -0.038759708404541016
0.08527135848999023 -0.25000256299972534 -0.02325582504272461
0.08527135848999023 -0.2508247196674347 -0.007751941680908203
0.08527135848999023 -0.2496175467967987 0.007751941680908203
0.08527135848999023 -0.25233304500579834 0.02325582504272461
0.08527135103940964 0.8465189933776855 0.007751941680908203
0.08527135848999023 0.9005410671234131 0.007751941680908203
0.08527135848999023 0.9094524383544922 0.007751941680908203
0.08527135848999023 0.92254239320755 -0.007751941680908203
0.08527135848999023 0.9437252283096313 -0.02325582504272461
0.08527135848999023 0.9635807275772095 -0.038759708404541016
0.08527135848999023 0.9812980890274048 0.007751941680908203
0.08527135848999023 0.9856715202331543 -0.038759708404541016
0.08527135848999023 0.9867849349975586 -0.02325582504272461
0.08527135848999023 0.9865128993988037 -0.007751941680908203
0.10077524185180664 -0.9851357936859131 -0.038759708404541016
0.10077524185180664 -0.9845041036605835 -0.02325582504272461
0.10077524185180664 -0.9847285747528076 0.007751941680908203
0.10077524185180664 -0.9756753444671631 -0.05426359176635742
0.10077524185180664 -0.9833306670188904 -0.007751941680908203
0.10077524185180664 -0.9612246751785278 -0.05426359176635742
0.10077524185180664 -0.9091163277626038 -0.05426359176635742
0.10077524185180664 -0.8524854779243469 -0.05426359176635742
0.10077524185180664 -0.7082783579826355 0.02325582504272461
0.10077524185180664 -0.29493221640586853 -0.05426359176635742
0.10077524185180664 -0.26006224751472473 -0.05426359176635742
0.10077524185180664 -0.25274598598480225 -0.038759708404541016
0.10077524185180664 -0.25355857610702515 -0.02325582504272461
0.10077524185180664 -0.2532734274864197 -0.007751941215246916
0.10077524185180664 -0.25142523646354675 0.007751941680908203
0.10077524185180664 -0.2542423903942108 0.02325582504272461
0.11627912521362305 -0.9742417931556702 -0.05426359176635742
0.11627912521362305 -0.9808523058891296 -0.038759708404541016
0.11627912521362305 -0.97817462682724 -0.02325582504272461
0.11627912521362305 -0.977789580821991 -0.007751941680908203
0.11627912521362305 -0.9799124598503113 0.007751941680908203
0.11627912521362305 -0.9604976177215576 -0.05426359176635742
0.11627912521362305 -0.9030900597572327 -0.05426359176635742
0.11627912521362305 -0.8415380120277405 -0.05426359176635742
0.11627912521362305 -0.7068259716033936 0.02325582504272461
0.11627912521362305 -0.6444717645645142 0.02325582504272461
0.11627912521362305 -0.6122979521751404 0.02325582504272461
0.11627912521362305 -0.29921218752861023 -0.05426359176635742
0.11627912521362305 -0.2680010497570038 -0.05426359176635742
0.11627912521362305 -0.2560470998287201 -0.038759708404541016
0.11627912521362305 -0.2589251399040222 -0.02325582504272461
0.11627912521362305 -0.26206174492836 0.02325582504272461
0.11627912521362305 -0.25561192631721497 -0.007751941680908203
0.11627912521362305 -0.2536761164665222 0.007751941680908203
0.1317828893661499 -0.9706876277923584 -0.05426359176635742
0.1317828893661499 -0.9759367108345032 -0.038759708404541016
0.1317828893661499 -0.9741220474243164 -0.02325582504272461
0.1317828893661499 -0.9739232063293457 -0.007751941680908203
0.1317828893661499 -0.9755764603614807 0.007751941680908203
0.1317828893661499 -0.9607076048851013 -0.05426359176635742
0.1317828893661499 -0.8922441601753235 -0.05426359176635742
0.1317828893661499 -0.8261196613311768 -0.05426359176635742
0.1317828893661499 -0.7052298784255981 0.02325582504272461
0.1317828893661499 -0.6444265842437744 -0.05426359176635742
0.1317828893661499 -0.6389907002449036 0.02325582504272461
0.1317828893661499 -0.6259651184082031 -0.05426359176635742
0.1317828893661499 -0.6060445308685303 0.02325582504272461
0.1317828893661499 -0.5346812009811401 -0.05426359549164772
0.1317828893661499 -0.45374786853790283 -0.05426359176635742
0.1317828893661499 -0.30054372549057007 -0.05426359549164772
0.1317828893661499 -0.27010872960090637 -0.05426359176635742
0.1317828893661499 -0.26597851514816284 -0.038759708404541016
0.1317828893661499 -0.26650452613830566 -0.02325582318007946
0.1317828893661499 -0.2657623589038849 -0.007751941680908203
0.1317828893661499 -0.2627790570259094 0.007751941680908203
0.1317828893661499 -0.26717862486839294 0.02325582504272461
0.1472867727279663 -0.9727370142936707 -0.038759708404541016
0.1472867727279663 -0.9713630080223083 -0.02325582504272461
0.1472867727279663 -0.97105473279953 -0.007751941680908203
0.1472867727279663 -0.9722881317138672 0.007751941680908203
0.1472867727279663 -0.9626309871673584 -0.05426359176635742
0.1472867727279663 -0.9501867294311523 -0.05426359176635742
0.1472867727279663 -0.8711403608322144 -0.05426359176635742
0.1472867727279663 -0.815880298614502 -0.05426359176635742
0.1472867727279663 -0.7037403583526611 0.02325582504272461
0.1472867727279663 -0.6656402349472046 -0.05426359176635742
0.1472867727279663 -0.6361404061317444 0.02325582504272461
0.1472867727279663 -0.6080594658851624 -0.05426359176635742
0.1472867727279663 -0.5955794453620911 0.02325582504272461
0.1472867727279663 -0.5437299013137817 -0.05426359176635742
0.1472867727279663 -0.4247913658618927 -0.05426359176635742
0.1472867876291275 -0.3011993169784546 -0.05426359549164772
0.1472867727279663 -0.2766934931278229 -0.05426359176635742
0.1472867876291275 -0.2692219316959381 -0.038759708404541016
0.1472867727279663 -0.2696734666824341 -0.02325582690536976
0.1472867727279663 -0.2693522870540619 -0.007751941680908203
0.1472867727279663 -0.2681381106376648 0.007751941680908203
0.1472867727279663 -0.2697390913963318 0.02325582504272461
0.16279065608978271 -0.9691475629806519 -0.038759708404541016
0.16279065608978271 -0.9604209661483765 -0.05426359176635742
0.16279065608978271 -0.9653096795082092 -0.02325582504272461
0.16279065608978271 -0.9648463726043701 -0.007751941215246916
0.16279065608978271 -0.9673261046409607 0.00775194214656949
0.16279065608978271 -0.9461702108383179 -0.05426359176635742
0.16279065608978271 -0.848653256893158 -0.05426359176635742
0.16279065608978271 -0.795954167842865 -0.05426358804106712
0.16279065608978271 -0.7040770053863525 0.02325582504272461
0.16279065608978271 -0.6727613806724548 -0.05426359176635742
0.16279065608978271 -0.6357992887496948 0.02325582504272461
0.16279065608978271 -0.5942171812057495 -0.05426359176635742
0.16279065608978271 -0.5862281918525696 0.02325582504272461
0.16279065608978271 -0.5567533373832703 -0.05426359176635742
0.16279065608978271 -0.39985015988349915 -0.05426359176635742
0.16279065608978271 -0.3709796071052551 -0.05426359176635742
0.16279065608978271 -0.321799635887146 -0.05426359176635742
0.16279065608978271 -0.2979271113872528 -0.05426359176635742
0.16279065608978271 -0.2846711277961731 -0.05426359176635742
0.16279065608978271 -0.2719583213329315 -0.02325582504272461
0.16279065608978271 -0.2721289396286011 -0.007751941680908203
0.16279065608978271 -0.2749621570110321 0.02325582504272461
0.16279065608978271 -0.2705743908882141 -0.038759708404541016
0.16279065608978271 -0.27069294452667236 0.00775194214656949
0.17829453945159912 -0.9535216689109802 -0.05426359176635742
0.17829453945159912 -0.9603346586227417 -0.038759708404541016
0.17829453945159912 -0.9582610130310059 -0.02325582504272461
0.17829453945159912 -0.9577999711036682 -0.007751941680908203
0.17829453945159912 -0.9594178199768066 0.007751941680908203
0.17829453945159912 -0.9532372355461121 -0.05426359176635742
0.17829453945159912 -0.8404899835586548 -0.05426359176635742
0.17829453945159912 -0.7880122661590576 -0.05426359176635742
0.17829453945159912 -0.6992312073707581 0.02325582504272461
0.17829453945159912 -0.6747411489486694 -0.05426359176635742
0.17829453945159912 -0.6455896496772766 0.02325582504272461
0.17829453945159912 -0.5868373513221741 0.02325582504272461
0.17829453945159912 -0.5705727338790894 0.02325582504272461
0.17829453945159912 -0.5612879991531372 0.02325582690536976
0.17829453945159912 -0.3078444302082062 -0.05426359176635742
0.17829453945159912 -0.2758009433746338 -0.02325582504272461
0.17829453945159912 -0.27731770277023315 -0.007751941680908203
0.17829453945159912 -0.2737499177455902 0.007751941680908203
0.17829453945159912 -0.2802305221557617 0.02325582504272461
0.17829453945159912 -0.27094894647598267 -0.03875970467925072
0.19379842281341553 -0.9540969133377075 -0.038759708404541016
0.19379842281341553 -0.9440134763717651 -0.05426359176635742
0.19379842281341553 -0.9506091475486755 -0.02325582504272461
0.19379840791225433 -0.950188159942627 -0.007751941680908203
0.19379842281341553 -0.9533705711364746 0.007751941215246916
0.19379842281341553 -0.9309637546539307 -0.05426359176635742
0.19379842281341553 -0.8383042812347412 -0.05426359176635742
0.19379842281341553 -0.8006688952445984 -0.05426359176635742
0.19379842281341553 -0.6874414682388306 0.02325582504272461
0.19379842281341553 -0.6682077646255493 -0.05426359176635742
0.19379842281341553 -0.6621413826942444 0.02325582504272461
0.19379842281341553 -0.58394455909729 -0.05426359176635742
0.19379842281341553 -0.5566679239273071 -0.05426359176635742
0.19379842281341553 -0.4875846207141876 0.02325582504272461
0.19379842281341553 -0.4253877103328705 0.02325582318007946
0.19379842281341553 -0.4031994342803955 0.02325582504272461
0.19379842281341553 -0.28858229517936707 -0.05426359176635742
0.19379842281341553 -0.2714075744152069 -0.007751941680908203
0.19379842281341553 -0.27256983518600464 0.02325582504272461
0.19379842281341553 -0.2696758806705475 -0.03875970467925072
0.19379842281341553 -0.27105867862701416 -0.02325582504272461
0.19379842281341553 -0.27014389634132385 0.007751941680908203
0.20930230617523193 -0.9380109906196594 -0.05426359176635742
0.20930230617523193 -0.9444909691810608 -0.038759708404541016
0.20930230617523193 -0.9422783255577087 -0.02325582504272461
0.20930230617523193 -0.941920816898346 -0.007751941680908203
0.20930230617523193 -0.9436110854148865 0.007751941680908203
0.20930229127407074 -0.9222421050071716 -0.05426358804106712
0.20930230617523193 -0.8417107462882996 -0.05426359176635742
0.20930230617523193 -0.7918775081634521 -0.05426359176635742
0.20930230617523193 -0.5453531742095947 -0.05426359176635742
0.20930230617523193 -0.44700953364372253 0.02325582504272461
0.20930230617523193 -0.415101021528244 0.02325582504272461
0.20930230617523193 -0.4088915288448334 0.02325582318007946
0.20930230617523193 -0.2707846760749817 -0.05426359176635742
0.20930230617523193 -0.2657463550567627 -0.038759708404541016
0.20930230617523193 -0.2670467793941498 -0.02325582504272461
0.20930230617523193 -0.2666800916194916 -0.007751941680908203
0.20930230617523193 -0.2644790709018707 0.007751941680908203
0.20930230617523193 -0.2672986388206482 0.02325582504272461
0.22480618953704834 -0.9379963874816895 -0.038759708404541016
0.22480618953704834 -0.9287781715393066 -0.05426359176635742
0.22480618953704834 -0.9335474967956543 -0.02325582504272461
0.22480618953704834 -0.9331117272377014 -0.007751941680908203
0.22480618953704834 -0.9359540343284607 0.007751941680908203
0.22480618953704834 -0.9119682312011719 -0.05426359176635742
0.22480618953704834 -0.8336294889450073 -0.05426359176635742
0.22480618953704834 -0.7543541193008423 -0.05426359176635742
0.22480618953704834 -0.746685266494751 -0.05426359176635742
0.22480618953704834 -0.5984453558921814 -0.05426359176635742
0.22480618953704834 -0.5793319940567017 -0.05426359549164772
0.22480617463588715 -0.48327481746673584 -0.05426359176635742
0.22480618953704834 -0.47244325280189514 0.02325582504272461
0.22480618953704834 -0.31256335973739624 -0.05426359176635742
0.22480618953704834 -0.2688640058040619 -0.05426359176635742
0.22480618953704834 -0.25115615129470825 -0.038759708404541016
0.22480618953704834 -0.25300368666648865 -0.02325582504272461
0.22480618953704834 -0.2527962923049927 -0.007751941680908203
0.22480618953704834 -0.25085169076919556 0.007751941680908203
0.22480617463588715 -0.2554282248020172 0.02325582504272461
0.24031007289886475 -0.9253382682800293 -0.038759708404541016
0.24031007289886475 -0.92314612865448 -0.02325582504272461
0.24031007289886475 -0.9225528836250305 -0.007751941680908203
0.24031007289886475 -0.9242473244667053 0.007751941680908203
0.24031007289886475 -0.9157751798629761 -0.05426359176635742
0.24031007289886475 -0.8993464708328247 -0.05426359176635742
0.24031007289886475 -0.6630535125732422 -0.05426359176635742
0.24031007289886475 -0.6303144693374634 -0.05426359176635742
0.24031007289886475 -0.5079250335693359 0.02325582504272461
0.24031007289886475 -0.23070268332958221 -0.038759708404541016
0.24031007289886475 -0.23388320207595825 -0.02325582504272461
0.24031007289886475 -0.23401080071926117 -0.007751941680908203
0.24031007289886475 -0.23232507705688477 0.007751941680908203
0.24031007289886475 -0.23917359113693237 0.02325582504272461
0.25581395626068115 -0.9119317531585693 -0.038759708404541016
0.25581395626068115 -0.9095168113708496 -0.02325582504272461
0.25581395626068115 -0.9090785384178162 -0.007751941680908203
0.25581395626068115 -0.9109445810317993 0.007751941680908203
0.25581395626068115 -0.8995780944824219 -0.05426359176635742
0.25581395626068115 -0.8864330053329468 -0.05426358804106712
0.25581395626068115 -0.5250051617622375 0.02325582504272461
0.25581395626068115 -0.4875521659851074 0.02325582504272461
0.25581395626068115 -0.45861101150512695 -0.038759708404541016
0.25581395626068115 -0.46283823251724243 -0.02325582504272461
0.25581395626068115 -0.4640587866306305 -0.007751941680908203
0.25581395626068115 -0.46094948053359985 0.007751941680908203
0.25581395626068115 -0.33073070645332336 -0.038759708404541016
0.25581395626068115 -0.3225093185901642 -0.02325582504272461
0.25581395626068115 -0.3218226134777069 0.007751941680908203
0.25581395626068115 -0.31731149554252625 -0.007751941680908203
0.25581395626068115 -0.29357439279556274 0.02325582504272461
0.25581395626068115 -0.21136127412319183 -0.007751941680908203
0.25581395626068115 -0.21011264622211456 0.007751941680908203
0.25581395626068115 -0.22166992723941803 0.02325582504272461
0.25581395626068115 -0.20671774446964264 -0.038759708404541016
0.25581395626068115 -0.20882391929626465 -0.02325582504272461
0.27131783962249756 -0.8966697454452515 -0.038759708404541016
0.27131783962249756 -0.894112229347229 -0.02325582504272461
0.27131783962249756 -0.8938246369361877 -0.007751941680908203
0.27131783962249756 -0.8960326910018921 0.007751941680908203
0.27131783962249756 -0.8836196660995483 -0.05426359176635742
0.27131783962249756 -0.8721285462379456 -0.05426359176635742
0.27131783962249756 -0.5084646940231323 -0.02325582504272461
0.27131783962249756 -0.509344220161438 -0.007751941680908203
0.27131783962249756 -0.5052302479743958 0.007751941680908203
0.27131783962249756 -0.5019588470458984 -0.038759708404541016
0.27131783962249756 -0.27261269092559814 -0.038759708404541016
0.27131783962249756 -0.2645528316497803 -0.02325582504272461
0.27131783962249756 -0.26262596249580383 -0.007751941680908203
0.27131783962249756 -0.26472240686416626 0.007751941680908203
0.27131783962249756 -0.25064945220947266 0.02325582504272461
0.27131783962249756 -0.1962631642818451 -0.007751941680908203
0.27131783962249756 -0.19698701798915863 0.007751941680908203
0.27131783962249756 -0.20533420145511627 0.02325582504272461
0.27131783962249756 -0.19290482997894287 -0.038759708404541016
0.27131780982017517 -0.1937846541404724 -0.02325582318007946
0.28682172298431396 -0.8800502419471741 -0.038759708404541016
0.28682172298431396 -0.8775885701179504 -0.02325582504272461
0.28682172298431396 -0.8774275779724121 -0.007751941680908203
0.28682172298431396 -0.8798139095306396 0.007751941680908203
0.28682172298431396 -0.8686963319778442 -0.05426359176635742
0.28682172298431396 -0.8548634052276611 -0.05426359176635742
0.28682172298431396 -0.5510823726654053 -0.02325582504272461
0.28682172298431396 -0.5513784885406494 -0.007751941680908203
0.28682172298431396 -0.5445766448974609 -0.038759708404541016
0.28682172298431396 -0.5471924543380737 0.007751941680908203
0.30232560634613037 -0.8628796935081482 -0.038759708404541016
0.30232560634613037 -0.8628997802734375 0.007751941680908203
0.30232560634613037 -0.8545875549316406 -0.05426359176635742
0.30232560634613037 -0.8598821759223938 -0.02325582504272461
0.30232560634613037 -0.8598067164421082 -0.007751941215246916
0.30232560634613037 -0.8340436220169067 -0.05426359176635742
0.30232560634613037 -0.5854446887969971 -0.038759708404541016
0.30232560634613037 -0.5921360850334167 -0.02325582504272461
0.30232560634613037 -0.5918704271316528 -0.007751941680908203
0.30232560634613037 -0.5868740081787109 0.007751941680908203
0.3178294897079468 -0.8322399854660034 -0.05426359176635742
0.3178294897079468 -0.8416203260421753 -0.038759708404541016
0.3178294897079468 -0.8358429670333862 -0.02325582504272461
0.3178294897079468 -0.8355575203895569 -0.007751941680908203
0.3178294897079468 -0.8405093550682068 0.007751941680908203
0.3178294897079468 -0.8204930424690247 0.02325582504272461
