-0.2894187867641449 -0.5968992114067078 -0.05426359176635742
-0.2878926396369934 -0.5968992114067078 -0.038759708404541016
-0.2877340018749237 -0.5968992114067078 -0.02325582504272461
-0.2876443564891815 -0.5968992114067078 -0.007751941680908203
-0.2881280779838562 -0.5968992114067078 0.007751941680908203
-0.29118117690086365 -0.5968992114067078 0.02325582504272461
-0.2887304425239563 -0.25581395626068115 -0.06976741552352905
-0.28893640637397766 -0.25581395626068115 -0.05426359176635742
-0.28755101561546326 -0.25581395626068115 -0.038759708404541016
-0.28767985105514526 -0.25581395626068115 -0.02325582504272461
-0.28760093450546265 -0.25581395626068115 -0.007751941680908203
-0.28815749287605286 -0.25581395626068115 0.007751941680908203
-0.2920224368572235 -0.25581395626068115 0.02325582504272461
-0.2939872443675995 -0.24031007289886475 -0.06976741552352905
-0.29487842321395874 -0.24031007289886475 -0.05426359176635742
-0.29309195280075073 -0.24031007289886475 -0.038759708404541016
-0.29312774538993835 -0.24031007289886475 -0.02325582504272461
-0.2927958369255066 -0.24031007289886475 -0.007751941680908203
-0.29344987869262695 -0.24031007289886475 0.007751941680908203
-0.2985467314720154 -0.24031005799770355 0.02325582504272461
-0.30048251152038574 -0.22480618953704834 -0.06976741552352905
-0.30207550525665283 -0.22480620443820953 -0.05426359549164772
-0.29883062839508057 -0.22480618953704834 -0.038759708404541016
-0.29877087473869324 -0.22480618953704834 -0.02325582504272461
-0.29843616485595703 -0.22480620443820953 -0.007751941680908203
-0.30003422498703003 -0.22480618953704834 0.007751941680908203
-0.2996848225593567 -0.11627906560897827 -0.06976741552352905
-0.30183276534080505 -0.11627906560897827 -0.05426359176635742
-0.2975498139858246 -0.11627906560897827 -0.038759708404541016
-0.2970855236053467 -0.11627906560897827 -0.02325582504272461
-0.2967970371246338 -0.11627906560897827 -0.007751941680908203
-0.29746630787849426 -0.11627906560897827 0.007751941680908203
-0.2930847406387329 -0.10077518224716187 -0.06976741552352905
-0.2935401201248169 -0.10077518224716187 -0.05426359176635742
-0.29165002703666687 -0.10077518224716187 -0.038759708404541016
-0.29137375950813293 -0.10077518224716187 -0.02325582504272461
-0.29125216603279114 -0.10077518224716187 -0.007751941680908203
-0.29173824191093445 -0.10077518224716187 0.007751941680908203
-0.29575657844543457 -0.10077518224716187 0.02325582504272461
-0.2875661551952362 -0.08527129888534546 -0.06976741552352905
-0.2881558835506439 -0.08527129888534546 -0.05426359176635742
-0.2868402302265167 -0.08527129888534546 -0.038759708404541016
-0.2871091663837433 -0.08527129888534546 0.007751941680908203
-0.2888776659965515 -0.08527129888534546 0.02325582504272461
-0.2733533978462219 -0.8759690523147583 -0.06976741552352905
-0.27216288447380066 -0.8759689927101135 -0.05426359176635742
-0.2739333510398865 -0.8759690523147583 0.02325582504272461
-0.28636857867240906 -0.8604651093482971 -0.038759708404541016
-0.28453895449638367 -0.8604651689529419 -0.02325582690536976
-0.28410303592681885 -0.8604651093482971 -0.007751941680908203
-0.28621914982795715 -0.8604651093482971 0.007751941680908203
-0.2760477066040039 -0.5813953876495361 -0.06976741552352905
-0.2780565321445465 -0.5813953876495361 -0.05426359176635742
-0.27646851539611816 -0.5813953876495361 -0.038759708404541016
-0.27660462260246277 -0.5813953876495361 -0.02325582504272461
-0.27678894996643066 -0.5813953876495361 -0.007751941680908203
-0.277427077293396 -0.5813953876495361 0.007751941680908203
-0.2801247537136078 -0.5813953876495361 0.02325582504272461
-0.27289000153541565 -0.5658915042877197 0.02325582504272461
-0.2716324031352997 -0.28682172298431396 -0.06976741552352905
-0.27259698510169983 -0.28682172298431396 -0.05426359176635742
-0.2714575231075287 -0.28682172298431396 -0.02325582504272461
-0.2714691162109375 -0.28682172298431396 -0.007751941680908203
-0.27175289392471313 -0.28682172298431396 0.007751941680908203
-0.2746132016181946 -0.28682172298431396 0.02325582504272461
-0.27880769968032837 -0.27131783962249756 -0.06976741552352905
-0.2814927101135254 -0.27131783962249756 -0.05426359176635742
-0.27951404452323914 -0.27131783962249756 -0.038759708404541016
-0.27961987257003784 -0.27131783962249756 -0.02325582504272461
-0.27933332324028015 -0.27131783962249756 -0.007751941680908203
-0.2799760401248932 -0.27131783962249756 0.007751941680908203
-0.28484225273132324 -0.27131783962249756 0.02325582504272461
-0.28614702820777893 -0.08527129888534546 -0.02325582504272461
-0.28612175583839417 -0.08527129888534546 -0.00775194214656949
-0.27689221501350403 -0.06976741552352905 -0.06976741552352905
-0.2784567177295685 -0.06976741552352905 -0.05426359176635742
-0.2766769230365753 -0.06976741552352905 -0.038759708404541016
-0.2763454020023346 -0.06976741552352905 -0.02325582504272461
-0.2758420407772064 -0.06976741552352905 -0.007751941680908203
-0.2756950855255127 -0.06976741552352905 0.007751941680908203
-0.27796825766563416 -0.06976741552352905 0.02325582504272461
-0.26583629846572876 -0.8759690523147583 -0.038759708404541016
-0.2633756995201111 -0.8759689927101135 -0.02325582504272461
-0.2630595564842224 -0.8759689927101135 -0.007751941680908203
-0.26524436473846436 -0.8759689927101135 0.007751941680908203
-0.26488393545150757 -0.5658915042877197 -0.06976741552352905
-0.270755797624588 -0.5658915042877197 -0.05426359176635742
-0.26698067784309387 -0.5658915042877197 -0.038759708404541016
-0.26696863770484924 -0.5658915042877197 -0.02325582504272461
-0.2672589123249054 -0.5658915042877197 -0.00775194214656949
-0.26897168159484863 -0.5658915042877197 0.007751941680908203
-0.25750550627708435 -0.5503876209259033 -0.06976741552352905
-0.2583085596561432 -0.5503876209259033 -0.05426359176635742
-0.2573235034942627 -0.5503876209259033 -0.038759708404541016
-0.2574334740638733 -0.5503876209259033 -0.02325582504272461
-0.2576189935207367 -0.5503876209259033 -0.007751941680908203
-0.2584618628025055 -0.5503876209259033 0.007751941680908203
-0.2613312005996704 -0.5503876209259033 0.02325582504272461
-0.2594936788082123 -0.30232560634613037 -0.06976741552352905
-0.26049792766571045 -0.30232560634613037 -0.05426359176635742
-0.25921040773391724 -0.30232560634613037 -0.038759708404541016
-0.25933367013931274 -0.30232560634613037 -0.02325582504272461
-0.2593756914138794 -0.30232560634613037 -0.007751941680908203
-0.2594168186187744 -0.30232560634613037 0.007751941680908203
-0.2621329128742218 -0.30232560634613037 0.02325582504272461
-0.271270215511322 -0.28682172298431396 -0.03875970467925072
-0.265414297580719 -0.05426358804106712 -0.06976741552352905
-0.26920369267463684 -0.05426359176635742 -0.05426359176635742
-0.2654702067375183 -0.05426359176635742 -0.038759708404541016
-0.2635621726512909 -0.05426359176635742 -0.02325582504272461
-0.25856444239616394 -0.05426359176635742 -0.007751941680908203
-0.253146767616272 -0.8914728760719299 -0.06976741552352905
-0.250775545835495 -0.8914728760719299 -0.05426359176635742
-0.24448707699775696 -0.8914728760719299 -0.038759708404541016
-0.24265830218791962 -0.8914728760719299 -0.02325582504272461
-0.2424793690443039 -0.8914728760719299 -0.007751941680908203
-0.24408575892448425 -0.8914728760719299 0.007751941680908203
-0.2527220845222473 -0.8914729356765747 0.02325582504272461
-0.24507704377174377 -0.5348837375640869 -0.06976741552352905
-0.24673247337341309 -0.5348837375640869 -0.05426359176635742
-0.2452799379825592 -0.5348837375640869 -0.038759708404541016
-0.24547848105430603 -0.5348837375640869 -0.02325582504272461
-0.24564912915229797 -0.5348837375640869 -0.007751941680908203
-0.24662558734416962 -0.5348837375640869 0.007751941680908203
-0.2506898045539856 -0.5348837375640869 0.02325582504272461
-0.2406865507364273 -0.5193798542022705 -0.05426359176635742
-0.24102827906608582 -0.5193798542022705 0.02325582504272461
-0.2411167323589325 -0.3333333134651184 -0.05426359176635742
-0.24065932631492615 -0.3333333134651184 -0.02325582504272461
-0.24139149487018585 -0.3333333134651184 -0.007751941680908203
-0.24205724895000458 -0.3333333134651184 0.007751941680908203
-0.24356618523597717 -0.3333333134651184 0.02325582504272461
-0.24674996733665466 -0.317829430103302 -0.06976741552352905
-0.2493840903043747 -0.317829430103302 -0.05426359176635742
-0.24796299636363983 -0.317829430103302 -0.038759708404541016
-0.2484675645828247 -0.317829430103302 -0.02325582504272461
-0.2490963637828827 -0.317829430103302 -0.007751941680908203
-0.24937236309051514 -0.317829430103302 0.00775194214656949
-0.25122618675231934 -0.317829430103302 0.02325582504272461
-0.24307242035865784 -0.08527129888534546 -0.007751941680908203
-0.24714037775993347 -0.08527129888534546 0.007751941680908203
-0.2489946186542511 -0.08527129888534546 0.02325582504272461
-0.24328549206256866 -0.06976741552352905 -0.02325582504272461
-0.24807098507881165 -0.06976741552352905 -0.007751941680908203
-0.2518579959869385 -0.06976741552352905 0.007751941680908203
-0.25419726967811584 -0.06976741552352905 0.02325582504272461
-0.24522635340690613 -0.05426359176635742 -0.038759708404541016
-0.24942009150981903 -0.05426359176635742 -0.02325582504272461
-0.2541784942150116 -0.05426359176635742 -0.007751941215246916
-0.22856411337852478 -0.9069767594337463 -0.06976741552352905
-0.22677603363990784 -0.9069766998291016 -0.05426359176635742
-0.22803904116153717 -0.9069767594337463 0.02325582504272461
-0.23546507954597473 -0.5193798542022705 -0.06976741552352905
-0.2377893626689911 -0.5193798542022705 -0.038759708404541016
-0.23772577941417694 -0.5193798542022705 -0.02325582504272461
-0.2377929836511612 -0.5193798542022705 -0.007751941680908203
-0.23904450237751007 -0.5193798542022705 0.007751941680908203
-0.2294137179851532 -0.5038759708404541 -0.06976741552352905
-0.23070842027664185 -0.5038759708404541 -0.05426359176635742
-0.22902482748031616 -0.5038759708404541 -0.038759708404541016
-0.22901871800422668 -0.5038759708404541 -0.02325582504272461
-0.22966738045215607 -0.5038759708404541 -0.007751941680908203
-0.2310086339712143 -0.5038759708404541 0.007751941680908203
-0.23293337225914001 -0.5038759708404541 0.02325582504272461
-0.2258252203464508 -0.4883720874786377 -0.06976741552352905
-0.22696736454963684 -0.4883720874786377 -0.05426359176635742
-0.22576236724853516 -0.4883720874786377 -0.038759708404541016
-0.2258514165878296 -0.4883720874786377 -0.02325582504272461
-0.22665350139141083 -0.4883720874786377 -0.007751941680908203
-0.22812104225158691 -0.4883720874786377 0.007751941680908203
-0.2298065721988678 -0.4883720874786377 0.02325582504272461
-0.2252230942249298 -0.4728682041168213 -0.05426359176635742
-0.22512750327587128 -0.4728682041168213 -0.007751941680908203
-0.22642861306667328 -0.4728682041168213 0.007751941680908203
-0.22754691541194916 -0.4728682041168213 0.02325582504272461
-0.22537890076637268 -0.4573643207550049 0.007751941680908203
-0.22616001963615417 -0.4573643207550049 0.02325582504272461
-0.2251540869474411 -0.4418604373931885 0.02325582504272461
-0.2248186618089676 -0.39534884691238403 0.007751941680908203
-0.22539293766021729 -0.39534884691238403 0.02325582504272461
-0.22503119707107544 -0.3798449635505676 -0.05426359176635742
-0.22538655996322632 -0.3798449635505676 -0.007751941680908203
-0.22640828788280487 -0.3798449635505676 0.007751941680908203
-0.2272460162639618 -0.3798449635505676 0.02325582504272461
-0.225747749209404 -0.3643410801887512 -0.06976741552352905
-0.22778160870075226 -0.3643410801887512 -0.05426359176635742
-0.226883664727211 -0.3643410801887512 -0.038759708404541016
-0.2275206297636032 -0.3643410801887512 -0.02325582504272461
-0.22866737842559814 -0.3643410801887512 -0.007751941680908203
-0.2294992357492447 -0.3643410801887512 0.007751941680908203
-0.23059767484664917 -0.3643410801887512 0.02325582504272461
-0.23020656406879425 -0.3488371968269348 -0.06976741552352905
-0.23259323835372925 -0.3488371968269348 -0.05426359176635742
-0.2316908836364746 -0.3488371968269348 -0.038759708404541016
-0.23259872198104858 -0.3488371968269348 -0.02325582504272461
-0.23370277881622314 -0.3488371968269348 -0.00775194214656949
-0.23429469764232635 -0.3488371968269348 0.007751941215246916
-0.236005961894989 -0.3488371968269348 0.02325582504272461
-0.23548229038715363 -0.3333333134651184 -0.06976741552352905
-0.2402101457118988 -0.333333283662796 -0.038759708404541016
-0.2270648181438446 -0.11627906560897827 -0.02325582504272461
-0.23137709498405457 -0.11627906560897827 -0.007751941680908203
-0.2336023598909378 -0.11627906560897827 0.007751941680908203
-0.23323120176792145 -0.11627906560897827 0.02325582504272461
-0.22810588777065277 -0.10077518224716187 -0.06976741552352905
-0.2294825315475464 -0.10077518224716187 -0.05426359176635742
-0.23417481780052185 -0.10077518224716187 -0.038759708404541016
-0.23644748330116272 -0.10077518224716187 -0.02325582504272461
-0.2383021116256714 -0.10077518224716187 -0.007751941680908203
-0.2397034764289856 -0.10077518224716187 0.007751941680908203
-0.23985573649406433 -0.10077518224716187 0.02325582504272461
-0.23678453266620636 -0.08527129888534546 -0.06976741552352905
-0.23644304275512695 -0.08527129888534546 -0.05426359176635742
-0.23820476233959198 -0.08527129888534546 -0.038759712129831314
-0.23953722417354584 -0.08527129888534546 -0.02325582504272461
-0.23870301246643066 -0.06976741552352905 -0.06976741552352905
-0.23818525671958923 -0.06976741552352905 -0.05426358804106712
-0.23976385593414307 -0.06976741552352905 -0.038759708404541016
-0.24013559520244598 -0.05426359176635742 -0.06976741552352905
-0.24001698195934296 -0.05426359549164772 -0.05426359549164772
-0.21993094682693481 -0.9069768190383911 -0.038759708404541016
-0.2168031930923462 -0.9069767594337463 -0.02325582504272461
-0.2162996530532837 -0.9069767594337463 -0.007751941680908203
-0.21824237704277039 -0.9069768190383911 0.007751941680908203
-0.21930669248104095 -0.4728682041168213 -0.06976741552352905
-0.22305583953857422 -0.4728682041168213 -0.03875970467925072
-0.22358377277851105 -0.4728682041168213 -0.02325582504272461
-0.21681228280067444 -0.4573643207550049 -0.06976741552352905
-0.22263482213020325 -0.4573643207550049 -0.05426359176635742
-0.2206006646156311 -0.4573643207550049 -0.038759708404541016
-0.22144412994384766 -0.4573643207550049 -0.02325582504272461
-0.22330425679683685 -0.4573643207550049 -0.007751941680908203
-0.21586546301841736 -0.4418604373931885 -0.06976741552352905
-0.21932286024093628 -0.4418604373931885 -0.05426359176635742
-0.2182302474975586 -0.4418604373931885 -0.038759708404541016
-0.21930910646915436 -0.4418604373931885 -0.02325582504272461
-0.22130383551120758 -0.44186046719551086 -0.007751941680908203
-0.22386875748634338 -0.4418604373931885 0.007751941215246916
-0.21525239944458008 -0.42635661363601685 -0.06976741552352905
-0.21788817644119263 -0.42635661363601685 -0.05426359176635742
-0.2169763743877411 -0.42635661363601685 -0.038759708404541016
-0.2179768830537796 -0.42635661363601685 -0.02325582504272461
-0.21987295150756836 -0.42635661363601685 -0.007751941215246916
-0.22198495268821716 -0.42635661363601685 0.007751941680908203
-0.22357739508152008 -0.42635661363601685 0.02325582504272461
-0.21507349610328674 -0.41085273027420044 -0.06976741552352905
-0.21774965524673462 -0.41085273027420044 -0.05426359176635742
-0.21684220433235168 -0.41085273027420044 -0.038759708404541016
-0.2178940773010254 -0.41085273027420044 -0.02325582504272461
-0.21979369223117828 -0.41085273027420044 -0.007751941680908203
-0.22193507850170135 -0.41085273027420044 0.007751941680908203
-0.22363696992397308 -0.4108527600765228 0.02325582504272461
-0.215663880109787 -0.39534884691238403 -0.06976741552352905
-0.21956267952919006 -0.39534884691238403 -0.05426359176635742
-0.21856719255447388 -0.39534884691238403 -0.038759708404541016
-0.21988791227340698 -0.39534884691238403 -0.02325582690536976
-0.2220546454191208 -0.39534884691238403 -0.007751941680908203
-0.21721279621124268 -0.3798449635505676 -0.06976741552352905
-0.22288742661476135 -0.3798449635505676 -0.038759708404541016
-0.22396841645240784 -0.3798449635505676 -0.02325582504272461
-0.2141750305891037 -0.13178294897079468 -0.02325582504272461
-0.22064241766929626 -0.13178294897079468 -0.007751941680908203
-0.2233627885580063 -0.13178294897079468 0.007751941215246916
-0.22259385883808136 -0.13178294897079468 0.02325582504272461
-0.21181704103946686 -0.11627906560897827 -0.06976741552352905
-0.21534615755081177 -0.11627906560897827 -0.05426359176635742
-0.22250114381313324 -0.11627906560897827 -0.038759708404541016
-0.20274117588996887 -0.9224806427955627 -0.06976741552352905
-0.20143944025039673 -0.9224806427955627 -0.05426359176635742
-0.1963830441236496 -0.9224807024002075 -0.038759708404541016
-0.19473102688789368 -0.9224806427955627 -0.02325582504272461
-0.19438466429710388 -0.9224806427955627 -0.007751941680908203
-0.19528868794441223 -0.9224806427955627 0.007751941680908203
-0.2028627246618271 -0.9224806427955627 0.02325582504272461
-0.19782651960849762 -0.14728683233261108 -0.007751941680908203
-0.20440509915351868 -0.14728683233261108 0.007751941680908203
-0.20081844925880432 -0.14728683233261108 0.02325582504272461
-0.20389577746391296 -0.13178294897079468 -0.038759708404541016
-0.17949314415454865 -0.9379844665527344 -0.06976741552352905
-0.17936398088932037 -0.9379844665527344 0.02325582504272461
-0.18563854694366455 -0.14728683233261108 -0.02325582504272461
-0.1918184608221054 -0.13178294897079468 -0.06976741552352905
-0.19341368973255157 -0.13178294897079468 -0.05426359176635742
-0.1769537478685379 -0.9379844665527344 -0.05426359176635742
-0.16848552227020264 -0.9379844665527344 -0.038759708404541016
-0.166409432888031 -0.9379844665527344 -0.02325582504272461
-0.1661752462387085 -0.9379844665527344 -0.007751941680908203
-0.1680639088153839 -0.9379844665527344 0.007751941680908203
-0.16286097466945648 -0.14728683233261108 -0.05426359176635742
-0.17320512235164642 -0.14728683233261108 -0.038759708404541016
-0.14833098649978638 -0.9534883499145508 -0.06976741552352905
-0.15950119495391846 -0.14728683233261108 -0.06976741552352905
-0.14558033645153046 -0.9534883499145508 -0.05426359176635742
-0.13508661091327667 -0.9534883499145508 -0.038759708404541016
-0.13417492806911469 -0.9534883499145508 0.007751941680908203
-0.14710810780525208 -0.9534883499145508 0.02325582504272461
-0.1341279000043869 -0.1627907156944275 -0.05426359176635742
-0.13913986086845398 -0.1627907156944275 -0.038759708404541016
-0.14176635444164276 -0.1627907156944275 -0.02325582504272461
-0.1445472538471222 -0.1627907156944275 -0.007751941680908203
-0.1468646228313446 -0.1627907156944275 0.00775194214656949
-0.1420958936214447 -0.1627907156944275 0.02325582504272461
-0.13093334436416626 -0.9534883499145508 -0.02325582690536976
-0.13032767176628113 -0.9534883499145508 -0.007751941680908203
-0.11854341626167297 -0.1782945990562439 -0.05426359176635742
-0.12270134687423706 -0.1782945990562439 -0.038759708404541016
-0.12360399961471558 -0.1782945990562439 -0.02325582504272461
-0.1247151792049408 -0.1782945990562439 -0.007751941680908203
-0.12617413699626923 -0.1782945990562439 0.007751941680908203
-0.12359874695539474 -0.1782945990562439 0.02325582504272461
-0.13117752969264984 -0.1627907156944275 -0.06976741552352905
-0.10366478562355042 -0.9689922332763672 -0.06976741552352905
-0.10147924721240997 -0.9689922332763672 0.02325582504272461
-0.10181140154600143 -0.19379842281341553 -0.038759708404541016
-0.10212084650993347 -0.19379842281341553 -0.02325582504272461
-0.10242817550897598 -0.19379842281341553 -0.007751941680908203
-0.10450436174869537 -0.19379842281341553 0.007751941680908203
-0.10193993151187897 -0.19379842281341553 0.02325582504272461
-0.11565911024808884 -0.1782945990562439 -0.06976741552352905
-0.09894058108329773 -0.9689922332763672 -0.05426359176635742
-0.08755139261484146 -0.9689922332763672 -0.038759708404541016
-0.08660607784986496 -0.9689922332763672 0.007751941680908203
-0.09518598020076752 -0.19379842281341553 -0.06976741552352905
-0.09863056242465973 -0.19379843771457672 -0.05426359176635742
-0.085344098508358 0.751937985420227 -0.007751941680908203
-0.08538737893104553 0.7674418687820435 -0.007751941680908203
-0.08790405094623566 0.7984496355056763 -0.007751941680908203
-0.08791335672140121 0.8139535188674927 -0.02325582504272461
-0.08753209561109543 0.8139535188674927 -0.007751941680908203
-0.08633430302143097 0.8294574022293091 -0.02325582504272461
-0.08601663261651993 0.922480583190918 -0.038759708404541016
-0.08321889489889145 -0.9689922332763672 -0.02325582318007946
-0.08221626281738281 -0.9689922332763672 -0.007751941680908203
-0.07057280838489532 0.7364341020584106 0.007751941680908203
-0.07909126579761505 0.751937985420227 0.007751941680908203
-0.07385590672492981 0.7674418687820435 0.007751941680908203
-0.0700017586350441 0.7829457521438599 -0.007751941680908203
-0.08056440204381943 0.8294574022293091 -0.007751941680908203
-0.08355789631605148 0.8449612855911255 -0.02325582504272461
-0.07200557738542557 0.8449612855911255 -0.007751941680908203
-0.07768029719591141 0.8604651689529419 -0.02325582504272461
-0.07096383720636368 0.9069766998291016 -0.038759708404541016
-0.07692727446556091 0.9069766998291016 -0.02325582504272461
-0.07792218774557114 0.922480583190918 -0.02325582504272461
-0.07407410442829132 0.9379844665527344 -0.038759708404541016
-0.07048700749874115 0.9379844665527344 -0.02325582504272461
-0.0595121867954731 -0.19379842281341553 -0.06976741552352905
-0.05730273947119713 -0.19379842281341553 -0.05426359176635742
-0.05554267764091492 -0.19379842281341553 -0.038759708404541016
-0.055628638714551926 -0.19379842281341553 -0.02325582504272461
-0.05680730938911438 -0.19379842281341553 -0.007751941680908203
-0.059052497148513794 -0.19379842281341553 0.007751941680908203
-0.06353737413883209 -0.19379842281341553 0.02325582504272461
-0.05528833717107773 -0.1782945990562439 -0.007751941680908203
-0.057155217975378036 -0.1782945990562439 0.007751941680908203
-0.060492098331451416 -0.1782945990562439 0.02325582504272461
-0.05447770655155182 -0.1627907156944275 -0.007751941680908203
-0.05587129667401314 -0.1627907156944275 0.007751941680908203
-0.05808761343359947 -0.1627907156944275 0.02325582504272461
-0.0545387826859951 -0.14728683233261108 0.007751941680908203
-0.056073881685733795 -0.14728683233261108 0.02325582504272461
-0.05459190905094147 -0.13178294897079468 0.02325582504272461
-0.05860995501279831 0.7054263353347778 0.02325582504272461
-0.058514874428510666 0.7209302186965942 0.007751941680908203
-0.05723382532596588 0.7209302186965942 0.02325582504272461
-0.057547979056835175 0.7829457521438599 0.007751941680908203
-0.06071789562702179 0.8604651689529419 -0.007751941680908203
-0.069661945104599 0.8759689331054688 -0.02325582504272461
-0.05950198322534561 0.8914728164672852 -0.02325582504272461
-0.06587091833353043 0.9069766402244568 -0.038759708404541016
-0.05711483210325241 0.9534883499145508 -0.038759708404541016
-0.04205004870891571 -0.1782945990562439 -0.038759708404541016
-0.049898821860551834 -0.1782945990562439 -0.02325582690536976
-0.0402224101126194 -0.1627907156944275 -0.038759708404541016
-0.04729378595948219 -0.1627907156944275 -0.02325582504272461
-0.038933005183935165 -0.14728683233261108 -0.038759708404541016
-0.044382594525814056 -0.14728683233261108 -0.02325582504272461
-0.050662484019994736 -0.14728683233261108 -0.007751941215246916
-0.044635653495788574 -0.14728683233261108 0.038759708404541016
-0.04194523021578789 -0.13178294897079468 -0.02325582504272461
-0.046430110931396484 -0.13178294897079468 -0.007751941680908203
-0.050128646194934845 -0.13178294897079468 0.007751941680908203
-0.0430845208466053 -0.13178294897079468 0.038759708404541016
-0.04027147218585014 -0.11627906560897827 -0.02325582504272461
-0.043673075735569 -0.11627906560897827 -0.007751941680908203
-0.04613139107823372 -0.11627906560897827 0.007751941680908203
-0.050377704203128815 -0.11627907305955887 0.02325582504272461
-0.04242076724767685 -0.11627906560897827 0.038759708404541016
-0.03890342265367508 -0.10077518224716187 -0.02325582504272461
-0.04197552800178528 -0.10077518224716187 -0.007751941680908203
-0.04402785748243332 -0.10077518224716187 0.007751941680908203
-0.0467301681637764 -0.10077518224716187 0.02325582504272461
-0.04126604646444321 -0.10077518224716187 0.038759708404541016
-0.04085027053952217 -0.08527129888534546 -0.007751941680908203
-0.042807336896657944 -0.08527129888534546 0.007751941680908203
-0.045205943286418915 -0.08527129888534546 0.02325582504272461
-0.04048585519194603 -0.08527129888534546 0.038759708404541016
-0.03968086466193199 -0.06976741552352905 -0.007751941680908203
-0.04178815335035324 -0.06976741552352905 0.007751941680908203
-0.04431489109992981 -0.06976741552352905 0.02325582504272461
-0.039970409125089645 -0.06976741552352905 0.038759708404541016
-0.040996186435222626 -0.05426359176635742 0.007751941680908203
-0.044162288308143616 -0.05426359176635742 0.02325582504272461
-0.0398753322660923 -0.05426359176635742 0.038759708404541016
-0.040404465049505234 -0.038759708404541016 0.007751941680908203
-0.04470014572143555 -0.038759708404541016 0.02325582504272461
-0.040137194097042084 -0.038759708404541016 0.038759708404541016
-0.03959650918841362 -0.02325582504272461 0.007751941680908203
-0.04555477201938629 -0.02325582504272461 0.02325582504272461
-0.04093378037214279 -0.02325582504272461 0.038759708404541016
-0.04628651961684227 -0.007751941680908203 0.02325582504272461
-0.04214836657047272 -0.007751941680908203 0.038759708404541016
-0.04593697190284729 0.007751941680908203 0.02325582504272461
-0.04296085610985756 0.007751941680908203 0.038759708404541016
-0.04512344300746918 0.02325582504272461 0.02325582504272461
-0.04320768639445305 0.02325582504272461 0.038759708404541016
-0.04357541352510452 0.038759708404541016 0.02325582504272461
-0.04254661872982979 0.038759708404541016 0.038759708404541016
-0.042376644909381866 0.05426359176635742 0.02325582504272461
-0.042543068528175354 0.05426359176635742 0.038759708404541016
-0.04174860566854477 0.06976747512817383 0.02325582504272461
-0.04271969944238663 0.06976747512817383 0.038759708404541016
-0.041534993797540665 0.08527135848999023 0.02325582504272461
-0.04334155470132828 0.08527135848999023 0.038759708404541016
-0.04252587631344795 0.10077524185180664 0.02325582504272461
-0.04482963681221008 0.10077524185180664 0.038759708404541016
-0.043968845158815384 0.11627912521362305 0.02325582504272461
-0.04656367376446724 0.11627912521362305 0.038759708404541016
-0.04492023587226868 0.1317828893661499 0.02325582504272461
-0.048129625618457794 0.1317828893661499 0.038759708404541016
-0.04537384212017059 0.1472867727279663 0.02325582504272461
-0.04910840839147568 0.1472867727279663 0.038759708404541016
-0.045372940599918365 0.16279065608978271 0.02325582504272461
-0.049348384141922 0.16279065608978271 0.038759708404541016
-0.044735174626111984 0.17829453945159912 0.02325582504272461
-0.048988040536642075 0.17829453945159912 0.038759708404541016
-0.043532006442546844 0.19379842281341553 0.02325582504272461
-0.04854821786284447 0.19379842281341553 0.038759708404541016
-0.04233785718679428 0.20930230617523193 0.02325582504272461
-0.04807914420962334 0.20930230617523193 0.038759708404541016
-0.04099477082490921 0.22480618953704834 0.02325582504272461
-0.04736638069152832 0.22480618953704834 0.038759708404541016
-0.03890032321214676 0.24031007289886475 0.02325582504272461
-0.046570777893066406 0.24031007289886475 0.038759708404541016
-0.04573974013328552 0.25581395626068115 0.038759708404541016
-0.04499249905347824 0.27131783962249756 0.038759708404541016
-0.04431266337633133 0.28682172298431396 0.038759708404541016
-0.04380510374903679 0.30232560634613037 0.038759708404541016
-0.043506212532520294 0.3178294897079468 0.038759708404541016
-0.042985815554857254 0.3333333730697632 0.038759708404541016
-0.042437613010406494 0.3488372564315796 0.038759708404541016
-0.04180067032575607 0.364341139793396 0.038759708404541016
-0.041153304278850555 0.37984490394592285 0.038759708404541016
-0.04037652909755707 0.39534878730773926 0.038759708404541016
-0.03982730209827423 0.41085267066955566 0.038759708404541016
-0.039413854479789734 0.42635655403137207 0.038759708404541016
-0.0392223596572876 0.4418604373931885 0.038759708404541016
-0.03906599432229996 0.4573643207550049 0.038759708404541016
-0.03901272267103195 0.4728682041168213 0.038759708404541016
-0.03910500556230545 0.4883720874786377 0.038759708404541016
-0.039251722395420074 0.5038759708404541 0.038759708404541016
-0.03958616033196449 0.5193798542022705 0.038759708404541016
-0.040059894323349 0.5348837375640869 0.038759708404541016
-0.04058823734521866 0.5503876209259033 0.038759708404541016
-0.0395912230014801 0.5658915042877197 0.02325582504272461
-0.04097979515790939 0.5658915042877197 0.038759708404541016
-0.04097762703895569 0.5813953876495361 0.02325582504272461
-0.04127304628491402 0.5813953876495361 0.038759708404541016
-0.041375838220119476 0.5968992710113525 0.02325582504272461
-0.041167162358760834 0.5968992710113525 0.038759708404541016
-0.040743425488471985 0.612403154373169 0.02325582504272461
-0.04063643887639046 0.612403154373169 0.038759708404541016
-0.039813973009586334 0.6279069185256958 0.02325582504272461
-0.03986654803156853 0.6279069185256958 0.038759708404541016
-0.03945104032754898 0.6434108018875122 0.02325582504272461
-0.03923765942454338 0.6434108018875122 0.038759708404541016
-0.04004696011543274 0.6589146852493286 0.02325582504272461
-0.042169563472270966 0.674418568611145 0.02325582504272461
-0.05050182715058327 0.6899224519729614 0.02325582504272461
-0.04821925237774849 0.7054263353347778 0.007751941680908203
-0.05089549720287323 0.7364341020584106 -0.007751941680908203
-0.043491605669260025 0.7364341020584106 0.02325582504272461
-0.04101699963212013 0.8759689331054688 -0.007751941680908203
-0.0492338128387928 0.9534883499145508 -0.02325582504272461
-0.05073048919439316 0.9689922332763672 -0.038759708404541016
-0.03010890632867813 -0.9844961166381836 -0.06976741552352905
-0.03618539124727249 -0.9844961166381836 -0.05426359549164772
-0.030037658289074898 -0.9844961166381836 0.02325582504272461
-0.027936579659581184 -0.1782945990562439 -0.05426359176635742
-0.03867301717400551 -0.1627907156944275 0.03875970467925072
-0.032342132180929184 -0.13178294897079468 -0.038759708404541016
-0.027023006230592728 -0.11627906560897827 -0.038759708404541016
-0.034884799271821976 -0.08527129888534546 -0.02325582504272461
-0.030359510332345963 -0.06976741552352905 -0.02325582504272461
-0.025589898228645325 -0.05426359176635742 -0.02325582504272461
-0.03751816600561142 -0.05426359176635742 -0.007751941680908203
-0.033329449594020844 -0.038759708404541016 -0.007751941680908203
-0.027874335646629333 -0.02325582504272461 -0.007751941680908203
-0.03705555573105812 -0.007751941680908203 0.007751941680908203
-0.031770311295986176 0.00775194214656949 0.00775194214656949
-0.023952022194862366 0.02325582504272461 0.007751941680908203
-0.03646470606327057 0.25581395626068115 0.02325582504272461
-0.034576866775751114 0.27131783962249756 0.02325582504272461
-0.03356859087944031 0.28682172298431396 0.02325582504272461
-0.033861324191093445 0.30232560634613037 0.02325582504272461
-0.03438263759016991 0.3178294897079468 0.02325582504272461
-0.03491387888789177 0.3333333730697632 0.02325582504272461
-0.03537043184041977 0.3488372564315796 0.02325582504272461
-0.03567102923989296 0.364341139793396 0.02325582504272461
-0.03553998842835426 0.37984490394592285 0.02325582504272461
-0.03482585772871971 0.39534878730773926 0.02325582504272461
-0.03357403352856636 0.41085267066955566 0.02325582504272461
-0.031836215406656265 0.42635655403137207 0.02325582504272461
-0.029760221019387245 0.4418604373931885 0.02325582504272461
-0.028087683022022247 0.4573643207550049 0.02325582504272461
-0.027596160769462585 0.4728682041168213 0.02325582504272461
-0.028058886528015137 0.4883720874786377 0.02325582504272461
-0.029442057013511658 0.5038759708404541 0.02325582504272461
-0.03136079013347626 0.5193798542022705 0.02325582504272461
-0.034019604325294495 0.5348837375640869 0.02325582504272461
-0.036752745509147644 0.5503876209259033 0.02325582504272461
-0.0369676873087883 0.6589146852493286 0.038759708404541016
-0.023707015439867973 0.674418568611145 0.038759708404541016
-0.029978536069393158 0.6899224519729614 0.007751941680908203
-0.02922963909804821 0.7209302186965942 -0.007751941680908203
-0.03621295839548111 0.9844960570335388 -0.038759708404541016
-0.021251097321510315 -0.9844961166381836 -0.038759708404541016
-0.01815100386738777 -0.9844961166381836 -0.02325582504272461
-0.0178099162876606 -0.9844961166381836 -0.007751941680908203
-0.02073545940220356 -0.9844961166381836 0.007751941680908203
-0.01662222482264042 -0.1627907156944275 -0.05426359176635742
-0.019624484702944756 -0.10077518224716187 -0.038759708404541016
-0.008421546779572964 0.674418568611145 0.007751941680908203
-0.022202877327799797 0.674418568611145 0.038759708404541016
-0.02312498353421688 0.875968873500824 -0.007751941680908203
-0.010774090886116028 0.9534883499145508 -0.02325582504272461
0.0019221389666199684 -0.8294573426246643 -0.06976741552352905
-0.0022409269586205482 -0.8139535188674927 -0.06976741552352905
0.005988052114844322 -0.19379842281341553 -0.06976741552352905
-0.0017063179984688759 -0.1627907156944275 -0.05426359176635742
0.005672666244208813 -0.10077518224716187 -0.038759708404541016
0.006469570100307465 0.02325582504272461 0.007751941680908203
-0.002508658217266202 0.674418568611145 0.007751941680908203
0.0016810977831482887 0.8139535188674927 -0.02325582504272461
0.021169424057006836 -0.8294574022293091 -0.06976741552352905
0.014200689271092415 -0.19379842281341553 -0.06976741552352905
0.012177090160548687 -0.1782945990562439 -0.05426359176635742
0.01231931522488594 -0.1782945990562439 0.038759708404541016
0.02026870660483837 -0.13178294897079468 -0.038759708404541016
0.013337869197130203 -0.11627906560897827 -0.038759708404541016
0.014744844287633896 -0.05426359176635742 -0.02325582504272461
0.01766921393573284 -0.02325582504272461 -0.007751941680908203
0.01930548995733261 0.007751941680908203 0.007751941680908203
0.022063584998250008 0.25581395626068115 0.02325582504272461
0.020706357434391975 0.27131783962249756 0.02325582504272461
0.020218441262841225 0.28682172298431396 0.02325582504272461
0.021390991285443306 0.30232560634613037 0.02325582504272461
0.023204578086733818 0.3178294897079468 0.02325582504272461
0.022477509453892708 0.4418604373931885 0.02325582504272461
0.0198306143283844 0.4573643207550049 0.02325582504272461
0.018818067386746407 0.4728682041168213 0.02325582504272461
0.018936770036816597 0.4883720874786377 0.02325582504272461
0.020160894840955734 0.5038759708404541 0.02325582504272461
0.022025542333722115 0.5193798542022705 0.02325582504272461
0.012087137438356876 0.674418568611145 0.038759708404541016
0.017295440658926964 0.7209302186965942 -0.007751941680908203
0.01154707558453083 0.8139535188674927 -0.02325582504272461
0.02210451476275921 0.8759689331054688 -0.007751941680908203
0.0167930219322443 0.9534883499145508 -0.02325582504272461
0.029483934864401817 -0.8139535188674927 -0.06976741552352905
0.03403026983141899 -0.20930230617523193 0.038759708404541016
0.025833439081907272 -0.19379842281341553 0.038759708404541016
0.030555574223399162 -0.1782945990562439 -0.038759708404541016
0.026423780247569084 -0.1627907156944275 -0.038759708404541016
0.03694766014814377 -0.1627907156944275 -0.02325582504272461
0.024414485320448875 -0.14728683233261108 -0.038759708404541016
0.03413468971848488 -0.14728683233261108 -0.02325582504272461
0.032061394304037094 -0.13178294897079468 -0.02325582504272461
0.030063290148973465 -0.11627906560897827 -0.02325582504272461
0.028006576001644135 -0.10077518224716187 -0.02325582318007946
0.03777867928147316 -0.10077518224716187 -0.007751941680908203
0.02630336955189705 -0.08527129888534546 -0.02325582504272461
0.03583777695894241 -0.08527129888534546 -0.007751941680908203
0.023754792287945747 -0.06976741552352905 -0.02325582504272461
0.0334227979183197 -0.06976741552352905 -0.007751941680908203
0.02997787483036518 -0.05426359176635742 -0.007751941680908203
0.038061656057834625 -0.05426359176635742 0.007751941680908203
0.026190055534243584 -0.038759708404541016 -0.007751941680908203
0.035219527781009674 -0.038759708404541016 0.007751941680908203
0.03187241405248642 -0.02325582504272461 0.007751941680908203
0.027316823601722717 -0.007751941680908203 0.007751941680908203
0.037615589797496796 0.007751941680908203 0.02325582504272461
0.034752316772937775 0.02325582504272461 0.02325582504272461
0.031322181224823 0.038759708404541016 0.02325582504272461
0.037871718406677246 0.038759708404541016 0.038759708404541016
0.02849925309419632 0.05426359176635742 0.02325582504272461
0.036180779337882996 0.05426359176635742 0.038759708404541016
0.026570729911327362 0.06976747512817383 0.02325582504272461
0.035324521362781525 0.06976747512817383 0.038759708404541016
0.025741981342434883 0.08527135848999023 0.02325582504272461
0.03521380573511124 0.08527135848999023 0.038759708404541016
0.026148615404963493 0.10077524185180664 0.02325582504272461
0.03591759502887726 0.10077524185180664 0.038759708404541016
0.027036771178245544 0.11627912521362305 0.02325582504272461
0.03688419610261917 0.11627912521362305 0.038759708404541016
0.027899285778403282 0.1317828893661499 0.02325582504272461
0.037498775869607925 0.1317828893661499 0.038759708404541016
0.028566038236021996 0.1472867727279663 0.02325582504272461
0.03842930123209953 0.1472867727279663 0.038759708404541016
0.028775129467248917 0.16279065608978271 0.02325582504272461
0.028495140373706818 0.17829453945159912 0.02325582504272461
0.027394205331802368 0.19379842281341553 0.02325582504272461
0.03818102553486824 0.19379842281341553 0.038759708404541016
0.026472484692931175 0.20930230617523193 0.02325582504272461
0.0370025597512722 0.20930230617523193 0.038759708404541016
0.025537503883242607 0.22480618953704834 0.02325582504272461
0.035515278577804565 0.22480618953704834 0.038759708404541016
0.023724611848592758 0.24031007289886475 0.02325582504272461
0.03399571031332016 0.24031007289886475 0.038759708404541016
0.0327703133225441 0.25581395626068115 0.038759708404541016
0.03200411796569824 0.27131783962249756 0.038759708404541016
0.031572312116622925 0.28682172298431396 0.038759708404541016
0.03149297833442688 0.30232560634613037 0.038759708404541016
0.031928159296512604 0.3178294897079468 0.038759708404541016
0.024529170244932175 0.3333333730697632 0.02325582318007946
0.032160259783267975 0.3333333730697632 0.038759708404541016
0.025818906724452972 0.3488372564315796 0.02325582504272461
0.032292865216732025 0.3488372564315796 0.038759708404541016
0.027073942124843597 0.364341139793396 0.02325582504272461
0.03224855661392212 0.364341139793396 0.038759708404541016
0.027585744857788086 0.37984490394592285 0.02325582318007946
0.03181232139468193 0.37984490394592285 0.038759708404541016
0.027321260422468185 0.39534878730773926 0.02325582504272461
0.031038695946335793 0.39534878730773926 0.038759708404541016
0.026255017146468163 0.41085267066955566 0.02325582504272461
0.030273672193288803 0.41085267066955566 0.038759708404541016
0.024784551933407784 0.42635655403137207 0.02325582504272461
0.02971035987138748 0.42635655403137207 0.038759708404541016
0.028967373073101044 0.4418604373931885 0.038759708404541016
0.028148788958787918 0.45736435055732727 0.038759708404541016
0.0275938231498003 0.4728682041168213 0.038759708404541016
0.027303636074066162 0.4883720874786377 0.038759708404541016
0.02702740766108036 0.5038759708404541 0.038759708404541016
0.027107998728752136 0.5193798542022705 0.038759708404541016
0.0241473987698555 0.5348837375640869 0.02325582504272461
0.027458634227514267 0.5348837375640869 0.038759708404541016
0.025827717036008835 0.5503876209259033 0.02325582504272461
0.027861611917614937 0.5503876209259033 0.038759708404541016
0.027785060927271843 0.5658915042877197 0.02325582504272461
0.02830110490322113 0.5658915042877197 0.038759708404541016
0.02886957675218582 0.5813953876495361 0.02325582504272461
0.028632543981075287 0.5813953876495361 0.038759708404541016
0.02929186262190342 0.5968992710113525 0.02325582504272461
0.028698202222585678 0.5968992710113525 0.038759708404541016
0.029033981263637543 0.612403154373169 0.02325582504272461
0.02838919498026371 0.612403154373169 0.038759708404541016
0.028460871428251266 0.6279069185256958 0.02325582504272461
0.027861114591360092 0.6279069185256958 0.038759708404541016
0.028355274349451065 0.6434108018875122 0.02325582504272461
0.027252264320850372 0.6434108018875122 0.038759708404541016
0.02930966392159462 0.6589146852493286 0.02325582504272461
0.026265155524015427 0.6589146852493286 0.038759708404541016
0.032441653311252594 0.674418568611145 0.02325582504272461
0.02472541108727455 0.674418568611145 0.038759712129831314
0.02580241486430168 0.6899224519729614 0.007751941680908203
0.024979865178465843 0.8759689331054688 -0.007751941680908203
0.031672049313783646 0.9844961166381836 -0.038759708404541016
0.040806230157613754 -0.20930230617523193 0.038759708404541016
0.039378970861434937 -0.19379842281341553 -0.06976741552352905
0.04662484675645828 -0.19379842281341553 -0.05426359176635742
0.045514605939388275 -0.19379842281341553 -0.038759708404541016
0.04545357823371887 -0.19379842281341553 -0.02325582504272461
0.04671920835971832 -0.19379842281341553 -0.007751941680908203
0.04989922046661377 -0.19379842281341553 0.007751941680908203
0.042591746896505356 -0.19379842281341553 0.038759708404541016
0.039518795907497406 -0.1782945990562439 -0.02325582504272461
0.0431077815592289 -0.1782945990562439 -0.007751941680908203
0.0474715530872345 -0.1782945990562439 0.007751941680908203
0.04355764389038086 -0.1782945990562439 0.038759708404541016
0.04187657684087753 -0.1627907156944275 -0.00775194214656949
0.045783087611198425 -0.1627907156944275 0.007751941680908203
0.051852792501449585 -0.1627907156944275 0.02325582504272461
0.043645039200782776 -0.1627907156944275 0.038759708404541016
0.04083831608295441 -0.14728683233261108 -0.007751941680908203
0.0444323793053627 -0.14728683233261108 0.007751941680908203
0.049199823290109634 -0.14728683233261108 0.02325582504272461
0.04347901791334152 -0.14728683233261108 0.038759708404541016
0.04000309854745865 -0.13178294897079468 -0.007751941680908203
0.04341293126344681 -0.13178294897079468 0.007751941680908203
0.04698173701763153 -0.13178294897079468 0.02325582504272461
0.04280824959278107 -0.13178294897079468 0.038759708404541016
0.039262525737285614 -0.11627905815839767 -0.007751941680908203
0.04239041730761528 -0.11627906560897827 0.007751941680908203
0.04517800360918045 -0.11627906560897827 0.02325582504272461
0.04222467541694641 -0.11627906560897827 0.038759708404541016
0.0412973091006279 -0.10077518224716187 0.007751941680908203
0.043769098818302155 -0.10077518224716187 0.02325582504272461
0.041450317949056625 -0.10077518224716187 0.038759708404541016
0.04049061983823776 -0.08527129888534546 0.007751941680908203
0.042894717305898666 -0.08527129888534546 0.02325582690536976
0.04089002683758736 -0.08527129888534546 0.038759708404541016
0.03958054631948471 -0.06976741552352905 0.007751941680908203
0.04214034229516983 -0.06976741552352905 0.02325582504272461
0.040497973561286926 -0.06976741552352905 0.038759708404541016
0.04146091639995575 -0.05426359176635742 0.02325582504272461
0.040299978107213974 -0.05426359176635742 0.038759708404541016
0.04099053516983986 -0.038759708404541016 0.02325582318007946
0.04034317657351494 -0.03875970467925072 0.03875970467925072
0.04046047851443291 -0.02325582690536976 0.02325582690536976
0.040567394345998764 -0.02325582504272461 0.038759708404541016
0.03951548784971237 -0.007751941680908203 0.02325582504272461
0.040489960461854935 -0.00775194214656949 0.038759708404541016
0.04001009091734886 0.007751941680908203 0.038759708404541016
0.03935396671295166 0.02325582504272461 0.038759708404541016
0.0388166606426239 0.16279065608978271 0.038759708404541016
0.038816049695014954 0.17829453945159912 0.038759708404541016
0.04108770936727524 0.6899224519729614 0.02325582504272461
0.04053962230682373 0.7054263353347778 0.007751941680908203
0.046997107565402985 0.7054263353347778 0.02325582504272461
0.04500468447804451 0.7209302186965942 0.007751941680908203
0.046866923570632935 0.7209302186965942 0.02325582504272461
0.040789373219013214 0.7364341616630554 -0.007751941680908203
0.052825238555669785 0.7364341020584106 0.007751941680908203
0.039994023740291595 0.7364341020584106 0.02325582504272461
0.05053403601050377 0.7829457521438599 0.007751941680908203
0.04052601382136345 0.8139534592628479 -0.02325582318007946
0.04856463521718979 0.9534883499145508 -0.038759708404541016
0.04115147888660431 0.9534884095191956 -0.02325582504272461
0.044029414653778076 0.9689922332763672 -0.038759708404541016
0.06957286596298218 -0.24031007289886475 -0.007751941680908203
0.06736163049936295 -0.24031007289886475 0.007751941680908203
0.06536645442247391 -0.22480618953704834 -0.02325582504272461
0.06117713451385498 -0.22480618953704834 -0.007751941215246916
0.059025637805461884 -0.22480620443820953 0.007751941680908203
0.061723653227090836 -0.22480618953704834 0.02325582504272461
0.05856341868638992 -0.20930229127407074 -0.06976741552352905
0.06119249016046524 -0.20930230617523193 -0.05426359176635742
0.05899761617183685 -0.20930230617523193 -0.038759708404541016
0.05696437880396843 -0.20930230617523193 -0.02325582504272461
0.05516659468412399 -0.20930230617523193 -0.007751941215246916
0.05473731458187103 -0.20930230617523193 0.007751941680908203
0.05662640929222107 -0.20930232107639313 0.02325582504272461
0.05502437427639961 -0.19379842281341553 0.02325582504272461
0.054338984191417694 -0.1782945990562439 0.02325582504272461
0.0578157901763916 0.751937985420227 -0.007751941680908203
0.06728535890579224 0.751937985420227 0.007751941680908203
0.067044697701931 0.7674418687820435 0.007751941680908203
0.06113133206963539 0.7829457521438599 -0.007751941215246916
0.06247159466147423 0.8139535188674927 -0.02325582504272461
0.05599530041217804 0.8604651689529419 -0.007751941680908203
0.06056622043251991 0.8759689331054688 -0.02325582504272461
0.05647754669189453 0.8914728164672852 -0.02325582504272461
0.06347531825304031 0.9379844665527344 -0.02325582504272461
0.07914213836193085 -0.8294572830200195 0.038759708404541016
0.07696738839149475 -0.8294573426246643 0.05426359176635742
0.07512640208005905 -0.8139535188674927 0.038759708404541016
0.07316974550485611 -0.8139535188674927 0.05426359176635742
0.08424827456474304 -0.7984496355056763 0.038759708404541016
0.08403820544481277 -0.7984496355056763 0.05426359176635742
0.07893611490726471 -0.24031007289886475 -0.038759708404541016
0.07382082939147949 -0.24031007289886475 -0.02325582504272461
0.07612623274326324 -0.24031007289886475 0.02325582504272461
0.07132231444120407 -0.22480617463588715 -0.06976741552352905
0.07193733006715775 -0.22480618953704834 -0.05426359176635742
0.06997035443782806 -0.22480618953704834 -0.038759708404541016
0.07037398964166641 0.8449612855911255 -0.007751941680908203
0.08487114310264587 0.8604651689529419 -0.02325582504272461
0.07243750989437103 0.9069766998291016 -0.02325582504272461
0.07622845470905304 0.922480583190918 -0.02325582504272461
0.07003285735845566 0.9379844069480896 -0.038759708404541016
0.09606863558292389 -0.8449611663818359 0.05426359176635742
0.09414444863796234 -0.7829457521438599 -0.06976741552352905
0.0866052508354187 -0.7674418687820435 -0.06976741552352905
0.08626600354909897 -0.751937985420227 -0.06976741552352905
0.09001249074935913 -0.7364341020584106 -0.06976741552352905
0.0931902602314949 -0.7209302186965942 -0.06976741552352905
