0.09517864882946014 0.5503876209259033 0.06976747512817383
0.09687775373458862 0.5658915042877197 -0.20930230617523193
0.08871331065893173 0.5658915042877197 0.06976747512817383
0.09671630710363388 0.5813953876495361 -0.22480618953704834
0.09510542452335358 0.5968992710113525 0.05426359176635742
0.09785405546426773 0.612403154373169 -0.27131783962249756
0.09103494882583618 0.612403154373169 0.05426359176635742
0.09631162136793137 0.6279069185256958 -0.28682172298431396
0.08632556349039078 0.6279069185256958 0.05426359176635742
0.08811300247907639 0.6589146852493286 -0.30232560634613037
0.0964011698961258 0.674418568611145 0.038759708404541016
0.09316571056842804 0.6899224519729614 -0.317829430103302
0.08852102607488632 0.6899224519729614 0.038759708404541016
0.09186528623104095 0.7054263353347778 -0.3333333134651184
0.08789587765932083 0.720930278301239 -0.3488371968269348
0.10065524280071259 0.7209302186965942 0.02325582504272461
0.08623994141817093 0.7364341020584106 -0.3643410801887512
0.08946618437767029 0.7364341020584106 0.02325582504272461
0.09521137177944183 0.751937985420227 -0.41085273027420044
0.09973493963479996 0.751937985420227 0.007751941680908203
0.09468749165534973 0.7674418687820435 -0.5038759708404541
0.10031939297914505 0.7674418687820435 -0.007751941680908203
0.10006432980298996 0.7829457521438599 -0.674418568611145
0.09582784026861191 0.7829457521438599 -0.6589146852493286
0.09100571274757385 0.7829457521438599 -0.643410861492157
0.09826596081256866 0.7829457521438599 -0.038759708404541016
0.09157800674438477 0.7829457521438599 -0.02325582504272461
0.09800980985164642 0.7984496355056763 -0.19379842281341553
0.09409669786691666 0.7984496355056763 -0.1782945990562439
0.09160694479942322 0.7984496355056763 -0.1627907156944275
0.08853159844875336 0.7984496355056763 -0.14728683233261108
0.0990779846906662 0.8139535188674927 -0.27131783962249756
0.09448778629302979 0.8139535188674927 -0.25581395626068115
0.0902484804391861 0.8139535188674927 -0.24031007289886475
0.08588284254074097 0.8139535188674927 -0.22480618953704834
0.09968897700309753 0.8294574022293091 -0.751937985420227
0.08801116794347763 0.8294574022293091 -0.7364341020584106
0.09854861348867416 0.8294574022293091 -0.317829430103302
0.0941876769065857 0.8294574022293091 -0.30232560634613037
0.08961600065231323 0.8294574022293091 -0.28682172298431396
0.08947588503360748 0.8449612259864807 -0.5813953876495361
0.10054469853639603 0.8449612855911255 -0.5658915042877197
0.09962007403373718 0.8449612855911255 -0.5193798542022705
0.09688097983598709 0.8449612855911255 -0.5038759708404541
0.09432372450828552 0.8449612855911255 -0.4883720874786377
0.09294596314430237 0.8449612855911255 -0.4728682041168213
0.09255953878164291 0.8449612855911255 -0.4573643207550049
0.09252163767814636 0.8449612855911255 -0.4418604373931885
0.09283684194087982 0.8449612855911255 -0.42635661363601685
0.09306800365447998 0.8449612855911255 -0.41085273027420044
0.0934319943189621 0.8449612855911255 -0.39534884691238403
0.09318383783102036 0.8449612855911255 -0.3798449635505676
0.09295579791069031 0.8449612855911255 -0.3643410801887512
0.09233179688453674 0.8449612855911255 -0.3488371968269348
0.09087333083152771 0.8449612855911255 -0.3333333134651184
0.08824847638607025 0.8449612855911255 -0.317829430103302
0.1008373275399208 -0.20930230617523193 -0.08527129888534546
0.10743437707424164 -0.20930230617523193 -0.06976741552352905
0.10761870443820953 -0.20930230617523193 -0.05426359176635742
0.10463183373212814 -0.20930230617523193 -0.038759708404541016
0.10183130949735641 -0.20930230617523193 -0.02325582318007946
0.10935375094413757 -0.19379842281341553 -0.11627906560897827
0.11398903280496597 -0.19379842281341553 -0.05426359176635742
0.11091298609972 -0.19379842281341553 -0.038759708404541016
0.10853898525238037 -0.19379842281341553 -0.02325582504272461
0.10530596971511841 -0.19379842281341553 -0.007751941215246916
0.10256102681159973 -0.19379842281341553 0.007751941680908203
0.10082904994487762 -0.1782945990562439 -0.14728683233261108
0.11582420766353607 -0.1782945990562439 -0.038759708404541016
0.11302841454744339 -0.1782945990562439 -0.02325582504272461
0.11062653362751007 -0.1782945990562439 -0.007751941680908203
0.10801751911640167 -0.1782945990562439 0.007751941680908203
0.10476513206958771 -0.1782945990562439 0.02325582504272461
0.10213440656661987 -0.1782945990562439 0.038759708404541016
0.11518260836601257 -0.1627907156944275 -0.007751941680908203
0.1128275915980339 -0.1627907156944275 0.007751941680908203
0.11023751646280289 -0.1627907156944275 0.02325582504272461
0.10699982941150665 -0.1627907156944275 0.038759708404541016
0.10404171049594879 -0.1627907156944275 0.05426359549164772
0.10184792429208755 -0.1627907156944275 0.06976747512817383
0.11521155387163162 -0.14728683233261108 0.02325582504272461
0.11235129833221436 -0.14728683233261108 0.038759708404541016
0.10938647389411926 -0.14728683233261108 0.05426359176635742
0.10600598156452179 -0.14728683233261108 0.06976747512817383
0.1037079319357872 -0.14728683233261108 0.08527135848999023
0.10119815915822983 -0.14728683233261108 0.10077524185180664
0.10200908035039902 -0.13178294897079468 -0.22480618953704834
0.11500278115272522 -0.13178294897079468 -0.20930230617523193
0.11450963467359543 -0.13178294897079468 0.05426359176635742
0.1111219972372055 -0.13178294897079468 0.06976747512817383
0.10794264078140259 -0.13178294897079468 0.08527135848999023
0.10462541878223419 -0.13178294897079468 0.10077524185180664
0.10473839193582535 -0.11627906560897827 -0.27131783962249756
0.11317664384841919 -0.11627906560897827 0.08527135848999023
0.10817596316337585 -0.11627906560897827 0.10077524185180664
0.10369527339935303 -0.11627906560897827 0.11627912521362305
0.11612512916326523 -0.10077518224716187 -0.9379844665527344
0.1102139875292778 -0.10077518224716187 -0.922480583190918
0.10547425597906113 -0.10077518224716187 -0.3333333134651184
0.11143907904624939 -0.10077518224716187 -0.317829430103302
0.11253160983324051 -0.10077518224716187 0.10077524185180664
0.10633547604084015 -0.10077517479658127 0.11627912521362305
0.10602255910634995 -0.08527129888534546 -0.9689922332763672
0.11586194485425949 -0.08527129888534546 -0.8759689927101135
0.11450013518333435 -0.08527129888534546 -0.8604650497436523
0.11372002959251404 -0.08527129888534546 -0.8449612855911255
0.1131577119231224 -0.08527129888534546 -0.8294574022293091
0.11244852840900421 -0.08527129888534546 -0.8139535188674927
0.11195219308137894 -0.08527129888534546 -0.7984496355056763
0.1119304820895195 -0.08527129888534546 -0.7829457521438599
0.1119753047823906 -0.08527129888534546 -0.7674418687820435
0.11172628402709961 -0.08527129888534546 -0.751937985420227
0.11209717392921448 -0.08527129888534546 -0.7364341020584106
0.11252470314502716 -0.08527129888534546 -0.7209302186965942
0.11325058341026306 -0.08527129888534546 -0.7054263353347778
0.11397036164999008 -0.08527129888534546 -0.6899224519729614
0.11465778946876526 -0.08527129888534546 -0.674418568611145
0.1152607649564743 -0.08527129888534546 -0.6589146852493286
0.11556515097618103 -0.08527129888534546 -0.643410861492157
0.11581733822822571 -0.08527129888534546 -0.6279069781303406
0.11584789305925369 -0.08527129888534546 -0.6124030947685242
0.11604060232639313 -0.08527129888534546 -0.5968992114067078
0.11593393236398697 -0.08527129888534546 -0.5813953876495361
0.11579474061727524 -0.08527129888534546 -0.5658915042877197
0.11566386371850967 -0.08527129888534546 -0.5503876209259033
0.11587885022163391 -0.08527129888534546 -0.5348837375640869
0.10895171761512756 -0.08527129888534546 0.11627912521362305
0.10176576673984528 -0.08527130633592606 0.1317828893661499
0.10177283734083176 -0.06976741552352905 -0.7829457521438599
0.10435470938682556 -0.06976741552352905 -0.7674418687820435
0.10644014179706573 -0.06976741552352905 -0.751937985420227
0.1077667623758316 -0.06976741552352905 -0.7364341020584106
0.10885629057884216 -0.06976741552352905 -0.7209302186965942
0.10964636504650116 -0.06976741552352905 -0.7054263353347778
0.11050841212272644 -0.06976741552352905 -0.6899224519729614
0.1114111989736557 -0.06976741552352905 -0.674418568611145
0.11216127127408981 -0.06976741552352905 -0.6589146852493286
0.11296796053647995 -0.06976741552352905 -0.643410861492157
0.11370989680290222 -0.06976741552352905 -0.6279069781303406
0.11445240676403046 -0.06976741552352905 -0.6124030947685242
0.11522720009088516 -0.06976741552352905 -0.5968992114067078
0.11595902591943741 -0.06976741552352905 -0.5813953876495361
0.11207175254821777 -0.06976741552352905 0.11627912521362305
0.10396813601255417 -0.06976741552352905 0.1317828893661499
0.10462276637554169 -0.05426359176635742 -0.4573643207550049
0.10817397385835648 -0.05426359176635742 -0.4418604373931885
0.11132971942424774 -0.05426359176635742 -0.42635661363601685
0.11429168283939362 -0.05426359176635742 -0.41085273027420044
0.11621246486902237 -0.05426359176635742 -0.39534884691238403
0.11538707464933395 -0.05426359176635742 0.11627912521362305
0.10576102137565613 -0.05426359176635742 0.1317828893661499
0.10462091118097305 -0.038759708404541016 -0.30232560634613037
0.11383622884750366 -0.038759708404541016 -0.28682172298431396
0.10699853301048279 -0.038759708404541016 0.1317828893661499
0.10758808255195618 -0.02325582504272461 0.1317828893661499
0.10687898844480515 -0.007751941680908203 0.1317828893661499
0.10442016273736954 0.007751941680908203 0.1317828893661499
0.10171917080879211 0.02325582504272461 0.1317828893661499
0.10487224906682968 0.038759708404541016 -0.1782945990562439
0.10259667783975601 0.038759708404541016 0.1317828893661499
0.10556402802467346 0.05426359176635742 0.1317828893661499
0.11150425672531128 0.06976747512817383 -0.1627907156944275
0.10836175084114075 0.06976747512817383 0.1317828893661499
0.11086012423038483 0.08527135848999023 -0.1627907156944275
0.11069265007972717 0.08527135848999023 0.1317828893661499
0.11303607374429703 0.10077524185180664 0.1317828893661499
0.10125613957643509 0.11627911776304245 -0.1782945990562439
0.11388470232486725 0.11627912521362305 0.1317828893661499
0.10469605028629303 0.1317828893661499 -0.1782945990562439
0.11408551037311554 0.1317828893661499 0.1317828893661499
0.10604424774646759 0.1472867727279663 -0.1782945990562439
0.11328990757465363 0.1472867727279663 0.1317828893661499
0.10602191835641861 0.16279065608978271 -0.1782945990562439
0.11153116822242737 0.16279065608978271 0.1317828893661499
0.10514777898788452 0.17829453945159912 -0.1782945990562439
0.10910725593566895 0.17829453945159912 0.1317828893661499
0.10316527634859085 0.19379842281341553 -0.1782945990562439
0.10703487694263458 0.19379842281341553 0.1317828893661499
0.10098203271627426 0.20930230617523193 -0.1782945990562439
0.10474879294633865 0.20930230617523193 0.1317828893661499
0.11563702672719955 0.22480618953704834 -0.1627907156944275
0.11616799235343933 0.22480618953704834 0.11627912521362305
0.10225383937358856 0.22480618953704834 0.1317828893661499
0.11456052958965302 0.24031007289886475 -0.1627907156944275
0.11187095195055008 0.24031007289886475 0.11627912521362305
0.11444433033466339 0.25581395626068115 -0.1627907156944275
0.10989835858345032 0.25581395626068115 0.11627912521362305
0.1157393530011177 0.27131783962249756 -0.1627907156944275
0.10946201533079147 0.27131783962249756 0.11627912521362305
0.10149847716093063 0.28682172298431396 -0.1782945990562439
0.10925519466400146 0.28682172298431396 0.11627912521362305
0.10387105494737625 0.30232560634613037 -0.1782945990562439
0.10889489948749542 0.30232560634613037 0.11627912521362305
0.10640411078929901 0.3178294897079468 -0.1782945990562439
0.10853122174739838 0.3178294897079468 0.11627912521362305
0.10873821377754211 0.3333333730697632 -0.1782945990562439
0.10783399641513824 0.3333333730697632 0.11627912521362305
0.11044453084468842 0.3488372564315796 -0.1782945990562439
0.10636208206415176 0.3488372564315796 0.11627912521362305
0.11009708046913147 0.364341139793396 -0.1782945990562439
0.11493436247110367 0.364341139793396 0.10077524185180664
0.10349954664707184 0.364341139793396 0.11627912521362305
0.10801169276237488 0.37984490394592285 -0.1782945990562439
0.11003822833299637 0.37984490394592285 0.10077524185180664
0.1058073341846466 0.39534878730773926 -0.1782945990562439
0.10605296492576599 0.39534878730773926 0.10077524185180664
0.10374987125396729 0.41085267066955566 -0.1782945990562439
0.11571981012821198 0.41085267066955566 0.08527135848999023
0.10174760222434998 0.42635655403137207 -0.1782946139574051
0.11274484544992447 0.42635655403137207 0.08527135848999023
0.10170686990022659 0.4418604373931885 -0.1782945990562439
0.11089053004980087 0.4418604373931885 0.08527135848999023
0.10266169905662537 0.4573642909526825 -0.1782945990562439
0.10933516174554825 0.4573643207550049 0.08527135848999023
0.10417823493480682 0.4728682041168213 -0.1782945990562439
0.10749612748622894 0.4728682041168213 0.08527135848999023
0.10592110455036163 0.4883720874786377 -0.1782945990562439
0.10455755889415741 0.4883720874786377 0.08527135848999023
0.10918284207582474 0.5038759708404541 -0.1782945990562439
0.11332689970731735 0.5038759708404541 0.06976747512817383
0.10920405387878418 0.5193798542022705 0.06976747512817383
0.10203258693218231 0.5348837375640869 -0.19379842281341553
0.11514385044574738 0.5348837375640869 0.05426359176635742
0.10429932177066803 0.5348837375640869 0.06976747512817383
0.10946352034807205 0.5503876209259033 0.05426359176635742
0.10539790987968445 0.5658915042877197 -0.20930230617523193
0.11541721224784851 0.5658915042877197 0.038759708404541016
0.1046781837940216 0.5658915042877197 0.05426359176635742
0.10944799333810806 0.5813953876495361 -0.22480618953704834
0.11208678781986237 0.5813953876495361 0.038759708404541016
0.10084567964076996 0.5813953876495361 0.05426359176635742
0.11021026968955994 0.5968992710113525 0.038759708404541016
0.11221835017204285 0.612403154373169 -0.27131783962249756
0.1091148853302002 0.612403154373169 0.038759708404541016
0.10785822570323944 0.6279069185256958 0.038759708404541016
0.10089956969022751 0.6434108018875122 -0.30232560634613037
0.10621817409992218 0.6434108018875122 0.038759708404541016
0.1033962219953537 0.6589147448539734 0.038759708404541016
0.10512936115264893 0.674418568611145 -0.317829430103302
0.11017988622188568 0.6899224519729614 -0.9689922332763672
0.11256953328847885 0.6899224519729614 0.02325582504272461
0.11116155982017517 0.7054263353347778 -0.3488371968269348
0.1069866195321083 0.7054263353347778 0.02325582504272461
0.10479631274938583 0.7209301590919495 -0.953488290309906
0.10731438547372818 0.7209302186965942 -0.3643410801887512
0.10144377499818802 0.7364341020584106 -0.9379844665527344
0.11551772803068161 0.7364341020584106 -0.3798449635505676
0.11409999430179596 0.751937985420227 -0.9379844665527344
0.1071375161409378 0.751937985420227 -0.922480583190918
0.10377120971679688 0.751937985420227 -0.9069767594337463
0.10123024135828018 0.751937985420227 -0.8914728760719299
0.11004596948623657 0.751937985420227 -0.41085273027420044
0.11041802167892456 0.7674418687820435 -0.9689922332763672
0.11552026122808456 0.7674418687820435 -0.9224806427955627
0.11035972833633423 0.7674418687820435 -0.9069767594337463
0.10740973800420761 0.7674418687820435 -0.8914728760719299
0.10516859591007233 0.7674418687820435 -0.8759689927101135
0.1014450192451477 0.7674418091773987 -0.8604651093482971
0.10406289994716644 0.7674418687820435 -0.5038759708404541
0.11167097091674805 0.7674418687820435 -0.4883720874786377
0.10898712277412415 0.7829457521438599 -0.9224806427955627
0.11040125042200089 0.7829457521438599 -0.9069766998291016
0.11086277663707733 0.7829457521438599 -0.8914729356765747
0.10931709408760071 0.7829457521438599 -0.8759689927101135
0.10740433633327484 0.7829457521438599 -0.8604650497436523
0.10537208616733551 0.7829457521438599 -0.8449612855911255
0.10274249315261841 0.7829457521438599 -0.8294573426246643
0.10103697329759598 0.7829457521438599 -0.674418568611145
0.10259629040956497 0.7829457521438599 -0.6589146852493286
0.10419338941574097 0.7829457521438599 -0.643410861492157
0.10628214478492737 0.7829457521438599 -0.6279070377349854
0.10888318717479706 0.7829457521438599 -0.6124030947685242
0.11166385561227798 0.7829457521438599 -0.5968992114067078
0.1142614558339119 0.7829457521438599 -0.5813953876495361
0.11382052302360535 0.7829457521438599 -0.06976741552352905
0.10800468921661377 0.7829457521438599 -0.05426359176635742
0.10495646297931671 0.7984496355056763 -0.8759689927101135
0.10718698799610138 0.7984496355056763 -0.8604651689529419
0.10774919390678406 0.7984496355056763 -0.8449612855911255
0.10803315043449402 0.7984496355056763 -0.8294574022293091
0.10794436931610107 0.7984496355056763 -0.8139535188674927
0.10746155679225922 0.7984496355056763 -0.7984496355056763
0.1074691116809845 0.7984496355056763 -0.7829457521438599
0.10764897614717484 0.7984496355056763 -0.7674418687820435
0.10818715393543243 0.7984496355056763 -0.751937985420227
0.10921971499919891 0.7984496355056763 -0.7364341020584106
0.11054772138595581 0.7984496355056763 -0.7209302186965942
0.11180730909109116 0.7984496355056763 -0.7054263353347778
0.11343839764595032 0.7984496355056763 -0.6899224519729614
0.11530725657939911 0.7984496355056763 -0.674418568611145
0.111328125 0.7984496355056763 -0.22480618953704834
0.10565158724784851 0.7984496355056763 -0.20930230617523193
0.10415752232074738 0.8139535188674927 -0.8139535188674927
0.10677823424339294 0.8139535188674927 -0.7984496355056763
0.10884247720241547 0.8139535188674927 -0.7829457521438599
0.11032852530479431 0.8139535188674927 -0.7674418687820435
0.11112840473651886 0.8139535188674927 -0.751937985420227
0.11155973374843597 0.8139535188674927 -0.7364341020584106
0.11337323486804962 0.8139535188674927 -0.7209302186965942
0.11496943235397339 0.8139535188674927 -0.7054263353347778
0.11162526160478592 0.8139535188674927 -0.30232560634613037
0.10652603209018707 0.8139535188674927 -0.28682172298431396
0.10099946707487106 0.8294574618339539 -0.751937985420227
0.1047506034374237 0.8294574022293091 -0.7364341020584106
0.10820916295051575 0.8294574022293091 -0.7209302186965942
0.10963083803653717 0.8294574022293091 -0.7054263353347778
0.11217197775840759 0.8294574022293091 -0.6899224519729614
0.11551380157470703 0.8294574022293091 -0.674418568611145
0.11452313512563705 0.8294574022293091 -0.39534884691238403
0.11206015944480896 0.8294574022293091 -0.3798449635505676
0.11011707782745361 0.8294574022293091 -0.3643410801887512
0.10783041268587112 0.8294574022293091 -0.3488371968269348
0.10436857491731644 0.8294574022293091 -0.3333333134651184
0.10224555432796478 0.8449612855911255 -0.5503876209259033
0.10184353590011597 0.8449612855911255 -0.5348837375640869
0.11846493184566498 -0.19379840791225433 -0.10077517479658127
0.11858455836772919 -0.19379842281341553 -0.08527129888534546
0.11693718284368515 -0.19379840791225433 -0.06976741552352905
0.12153445184230804 -0.1782945990562439 -0.13178294897079468
0.12463442981243134 -0.1782945990562439 -0.11627906560897827
0.12364278733730316 -0.1782945990562439 -0.10077518224716187
0.12162186205387115 -0.1782945990562439 -0.08527129888534546
0.11968088150024414 -0.1782945990562439 -0.06976741552352905
0.11781905591487885 -0.1782945990562439 -0.05426359549164772
0.1172391027212143 -0.1627907156944275 -0.1627907156944275
0.12494536489248276 -0.1627907156944275 -0.14728683233261108
0.1277635097503662 -0.1627907156944275 -0.13178294897079468
0.12731803953647614 -0.1627907156944275 -0.11627906560897827
0.12598109245300293 -0.1627907156944275 -0.10077518224716187
0.12393108010292053 -0.1627907156944275 -0.08527129888534546
0.12181824445724487 -0.1627907156944275 -0.06976741552352905
0.12005245685577393 -0.1627907156944275 -0.05426359549164772
0.11835204064846039 -0.1627907156944275 -0.038759708404541016
0.11706075072288513 -0.1627907156944275 -0.02325582504272461
0.11904476583003998 -0.14728683233261108 -0.1782945990562439
0.12625807523727417 -0.14728683233261108 -0.1627907156944275
0.13026896119117737 -0.14728683233261108 -0.14728683233261108
0.13078966736793518 -0.14728683233261108 -0.11627906560897827
0.1284349411725998 -0.14728683233261108 -0.10077518224716187
0.1263592392206192 -0.14728683233261108 -0.08527129888534546
0.12461298704147339 -0.14728683233261108 -0.06976741552352905
0.12277833372354507 -0.14728683233261108 -0.05426359176635742
0.12117311358451843 -0.14728683233261108 -0.038759708404541016
0.12014450132846832 -0.14728683233261108 -0.02325582504272461
0.11890681087970734 -0.14728683233261108 -0.007751941215246916
0.11734932661056519 -0.14728683233261108 0.007751941680908203
0.11897297203540802 -0.13178294897079468 -0.19379842281341553
0.12517668306827545 -0.13178294897079468 -0.1782945990562439
0.13099990785121918 -0.13178294897079468 -0.1627907156944275
0.12910397350788116 -0.13178294897079468 -0.08527129888534546
0.127129465341568 -0.13178294897079468 -0.06976741552352905
0.12589049339294434 -0.13178294897079468 -0.05426359176635742
0.12481442093849182 -0.13178294897079468 -0.038759708404541016
0.12399576604366302 -0.13178294897079468 -0.02325582504272461
0.122765451669693 -0.13178294897079468 -0.007751941680908203
0.12106645107269287 -0.13178294897079468 0.007751941680908203
0.11899931728839874 -0.13178294897079468 0.02325582504272461
0.1169610470533371 -0.13178294897079468 0.038759708404541016
0.12369982898235321 -0.11627906560897827 -0.9844961166381836
0.11675295233726501 -0.11627906560897827 -0.25581395626068115
0.11900737136602402 -0.11627906560897827 -0.24031007289886475
0.12086354941129684 -0.11627906560897827 -0.22480618953704834
0.12248359620571136 -0.11627906560897827 -0.20930230617523193
0.12497057765722275 -0.11627906560897827 -0.19379842281341553
0.1295904517173767 -0.11627906560897827 -0.1782945990562439
0.130482017993927 -0.11627906560897827 -0.06976741552352905
0.1290474534034729 -0.11627906560897827 -0.05426359176635742
0.12811274826526642 -0.11627906560897827 -0.038759708404541016
0.1275477409362793 -0.11627906560897827 -0.02325582504272461
0.1266648918390274 -0.11627906560897827 -0.007751941680908203
0.12538675963878632 -0.11627906560897827 0.007751941680908203
0.1233496367931366 -0.11627906560897827 0.02325582504272461
0.12056474387645721 -0.11627906560897827 0.038759708404541016
0.11842575669288635 -0.11627906560897827 0.05426359176635742
0.11663047224283218 -0.11627906560897827 0.06976747512817383
0.12515109777450562 -0.10077518224716187 -0.9844961166381836
0.11792504042387009 -0.10077518224716187 -0.9689922332763672
0.11658390611410141 -0.10077518224716187 -0.9534883499145508
0.1169004812836647 -0.10077518224716187 -0.302325576543808
0.11905378103256226 -0.10077518224716187 -0.28682172298431396
0.12153403460979462 -0.10077518224716187 -0.27131783962249756
0.12255987524986267 -0.10077518224716187 -0.25581395626068115
0.12374204397201538 -0.10077518224716187 -0.24031007289886475
0.1252119541168213 -0.10077518224716187 -0.22480618953704834
0.1265397071838379 -0.10077518224716187 -0.20930230617523193
0.12991748750209808 -0.10077518224716187 -0.19379842281341553
0.1313953697681427 -0.10077518224716187 -0.02325582504272461
0.13046987354755402 -0.10077518224716187 -0.007751941680908203
0.12918126583099365 -0.10077518224716187 0.007751941680908203
0.1273922324180603 -0.10077518224716187 0.02325582504272461
0.12499161064624786 -0.10077518224716187 0.038759708404541016
0.12222437560558319 -0.10077518224716187 0.05426359176635742
0.11958803981542587 -0.10077518224716187 0.06976747512817383
0.11758628487586975 -0.10077518224716187 0.08527135848999023
0.11712788790464401 -0.08527129888534546 -0.9534883499145508
0.11920971423387527 -0.08527129888534546 -0.9379844665527344
0.11923421174287796 -0.08527129888534546 -0.9224806427955627
0.11807355284690857 -0.08527129888534546 -0.9069767594337463
0.11683688312768936 -0.08527129888534546 -0.8914729356765747
0.11642041802406311 -0.08527129888534546 -0.5193798542022705
0.11673697084188461 -0.08527129888534546 -0.5038759708404541
0.11716709285974503 -0.08527130633592606 -0.4883720874786377
0.11764983832836151 -0.08527129888534546 -0.4728681743144989
0.11805365979671478 -0.08527129888534546 -0.4573643207550049
0.11847424507141113 -0.08527129888534546 -0.4418604373931885
0.11858157068490982 -0.08527129888534546 -0.42635661363601685
0.1186145767569542 -0.08527129888534546 -0.41085273027420044
0.11853364109992981 -0.08527129888534546 -0.39534884691238403
0.11865515261888504 -0.08527129888534546 -0.3798449635505676
0.11871278285980225 -0.08527129888534546 -0.3643410801887512
0.11922317743301392 -0.08527129888534546 -0.3488371968269348
0.12006177008152008 -0.08527129888534546 -0.3333333134651184
0.12100314348936081 -0.08527129888534546 -0.317829430103302
0.1219492107629776 -0.08527129888534546 -0.30232560634613037
0.12260796129703522 -0.08527129888534546 -0.28682172298431396
0.12341371178627014 -0.08527129888534546 -0.27131783962249756
0.1244884729385376 -0.08527129888534546 -0.25581395626068115
0.12554971873760223 -0.08527129888534546 -0.24031007289886475
0.12733447551727295 -0.08527129888534546 -0.22480618953704834
0.13136069476604462 -0.08527129888534546 -0.20930230617523193
0.13123467564582825 -0.08527129888534546 0.02325582504272461
0.12907470762729645 -0.08527129888534546 0.038759708404541016
0.1265336275100708 -0.08527129888534546 0.05426359176635742
0.12347570806741714 -0.08527129888534546 0.06976747512817383
0.12021329998970032 -0.08527129888534546 0.08527135848999023
0.11662884056568146 -0.08527129888534546 0.10077524185180664
0.11633570492267609 -0.06976740807294846 -0.5658915042877197
0.11650610715150833 -0.06976741552352905 -0.5503876209259033
0.11671315878629684 -0.06976741552352905 -0.5348837375640869
0.11697839200496674 -0.06976740807294846 -0.5193798542022705
0.11737528443336487 -0.06976741552352905 -0.5038759708404541
0.11795308440923691 -0.06976741552352905 -0.4883720874786377
0.11857827007770538 -0.06976741552352905 -0.4728682041168213
0.11911622434854507 -0.06976741552352905 -0.4573643207550049
0.11956503242254257 -0.06976741552352905 -0.4418604373931885
0.11967283487319946 -0.06976741552352905 -0.42635661363601685
0.11972372233867645 -0.06976741552352905 -0.4108527600765228
0.11971490830183029 -0.06976741552352905 -0.39534884691238403
0.1199323982000351 -0.06976741552352905 -0.3798449635505676
0.12007516622543335 -0.06976741552352905 -0.3643410801887512
0.12049072980880737 -0.06976741552352905 -0.3488371968269348
0.12104107439517975 -0.06976741552352905 -0.3333333134651184
0.12160199880599976 -0.06976741552352905 -0.317829430103302
0.12226296961307526 -0.06976741552352905 -0.30232560634613037
0.12300553172826767 -0.06976741552352905 -0.28682172298431396
0.12411078810691833 -0.06976741552352905 -0.27131783962249756
0.12503521144390106 -0.06976741552352905 -0.25581395626068115
0.1269521713256836 -0.06976741552352905 -0.24031007289886475
0.1304914802312851 -0.06976741552352905 -0.22480618953704834
0.1313665211200714 -0.06976741552352905 0.05426359176635742
0.1283026933670044 -0.06976741552352905 0.06976747512817383
0.12414582073688507 -0.06976741552352905 0.08527135848999023
0.1193753033876419 -0.06976741552352905 0.10077524185180664
0.1168714389204979 -0.05426359176635742 -0.3798449635505676
0.11732511222362518 -0.05426359176635742 -0.3643410801887512
0.11798019707202911 -0.05426359176635742 -0.3488372266292572
0.11886315047740936 -0.05426359176635742 -0.3333333134651184
0.11987142264842987 -0.05426359176635742 -0.317829430103302
0.12100429087877274 -0.05426359176635742 -0.30232560634613037
0.12202957272529602 -0.05426359176635742 -0.28682172298431396
0.12344695627689362 -0.05426359176635742 -0.27131783962249756
0.1250263899564743 -0.05426359176635742 -0.25581395626068115
0.1272890716791153 -0.05426359176635742 -0.24031007289886475
0.12949331104755402 -0.05426359176635742 0.08527135848999023
0.12246821820735931 -0.05426359176635742 0.10077524185180664
0.11835555732250214 -0.038759708404541016 -0.27131783962249756
0.12095907330513 -0.038759708404541016 -0.25581395626068115
0.12437070161104202 -0.038759708404541016 -0.24031007289886475
0.1277024894952774 -0.038759708404541016 -0.22480618953704834
0.12627840042114258 -0.038759708404541016 0.10077524185180664
0.11768053472042084 -0.038759708404541016 0.11627912521362305
0.11633259803056717 -0.02325582504272461 -0.24031008780002594
0.12102362513542175 -0.02325582504272461 -0.22480618953704834
0.12682121992111206 -0.02325582504272461 -0.20930230617523193
0.13137847185134888 -0.02325582504272461 0.10077524185180664
0.11953173577785492 -0.02325582504272461 0.11627912521362305
0.11914592981338501 -0.007751941680908203 -0.20930230617523193
0.12658041715621948 -0.007751941680908203 -0.19379842281341553
0.12059210240840912 -0.007751941680908203 0.11627912521362305
0.11895933002233505 0.007751941680908203 -0.19379842281341553
0.12821201980113983 0.007751941680908203 -0.1782945990562439
0.12020450085401535 0.007751941680908203 0.11627912521362305
0.12036101520061493 0.02325582504272461 -0.1782945990562439
0.11918044835329056 0.02325582504272461 0.11627912521362305
0.1246008425951004 0.038759708404541016 -0.1627907156944275
0.12157294154167175 0.038759708404541016 0.11627912521362305
0.11832984536886215 0.05426359176635742 -0.1627907156944275
0.1258578598499298 0.05426359176635742 0.11627912521362305
0.12975627183914185 0.06976747512817383 0.11627912521362305
0.1309441328048706 0.08527135848999023 -0.14728683233261108
0.11692584306001663 0.10077524185180664 -0.1627907007932663
0.11990489065647125 0.11627912521362305 -0.1627907156944275
0.12122605741024017 0.1317828893661499 -0.1627907156944275
0.1214229166507721 0.1472867727279663 -0.1627907156944275
0.13071638345718384 0.1472867727279663 0.11627912521362305
0.12104839086532593 0.16279065608978271 -0.1627907156944275
0.12833668291568756 0.16279065608978271 0.11627912521362305
0.12024552375078201 0.17829453945159912 -0.1627907156944275
0.13151803612709045 0.17829453945159912 -0.14728683233261108
0.12547123432159424 0.17829453945159912 0.11627912521362305
0.11872490495443344 0.19379842281341553 -0.1627907156944275
0.12942999601364136 0.19379842281341553 -0.14728683233261108
0.12296341359615326 0.19379842281341553 0.11627912521362305
0.11711549013853073 0.20930230617523193 -0.16279073059558868
0.1273726522922516 0.20930230617523193 -0.14728683233261108
0.12002038210630417 0.20930230617523193 0.11627912521362305
0.12569749355316162 0.22480618953704834 -0.14728683233261108
0.13127510249614716 0.22480618953704834 0.10077524185180664
0.124803826212883 0.24031007289886475 -0.14728683233261108
0.12727411091327667 0.24031007289886475 0.10077524185180664
0.12459415197372437 0.25581395626068115 -0.14728683233261108
0.1252397894859314 0.25581395626068115 0.10077524185180664
0.1253242790699005 0.27131783962249756 -0.14728683233261108
0.1243649572134018 0.27131783962249756 0.10077524185180664
0.11702524125576019 0.28682172298431396 -0.1627907156944275
0.1264103800058365 0.28682172298431396 -0.14728683233261108
0.12361928075551987 0.28682172298431396 0.10077524185180664
0.11857916414737701 0.30232560634613037 -0.1627907156944275
0.12767288088798523 0.30232560634613037 -0.14728683233261108
0.12271364033222198 0.30232560634613037 0.10077524185180664
0.1202678382396698 0.3178294897079468 -0.1627907156944275
0.12916700541973114 0.3178294897079468 -0.14728683233261108
0.12176355719566345 0.3178294897079468 0.10077524185180664
0.12138354778289795 0.3333333730697632 -0.1627907156944275
0.13070333003997803 0.3333333730697632 -0.14728683233261108
0.13087870180606842 0.3333333730697632 0.08527135848999023
0.12043774127960205 0.3333333730697632 0.10077524185180664
0.12207254022359848 0.3488372564315796 -0.1627907156944275
0.12843376398086548 0.3488372564315796 0.08527135848999023
0.11857722699642181 0.3488372564315796 0.10077524185180664
0.12198588997125626 0.364341139793396 -0.1627907156944275
0.1316927671432495 0.364341139793396 -0.14728683233261108
0.12581565976142883 0.364341139793396 0.08527135848999023
0.1212562844157219 0.37984490394592285 -0.1627907156944275
0.13022708892822266 0.37984490394592285 -0.14728683233261108
0.12329460680484772 0.37984490394592285 0.08527135848999023
0.12046787142753601 0.39534878730773926 -0.1627907156944275
0.12874945998191833 0.39534878730773926 -0.14728683233261108
0.1293913573026657 0.39534878730773926 0.06976747512817383
0.11970678716897964 0.39534878730773926 0.08527135848999023
0.11962370574474335 0.41085267066955566 -0.1627907156944275
0.12746661901474 0.41085267066955566 -0.14728683233261108
0.12635335326194763 0.41085267066955566 0.06976747512817383
0.11868371069431305 0.42635655403137207 -0.1627907156944275
0.1264985203742981 0.42635655403137207 -0.14728683233261108
0.13143089413642883 0.42635655403137207 0.05426359176635742
0.12438671290874481 0.42635655403137207 0.06976747512817383
0.11848390102386475 0.4418604373931885 -0.1627907156944275
0.12638689577579498 0.4418604373931885 -0.14728683233261108
0.13169978559017181 0.4418604373931885 0.038759708404541016
0.12853945791721344 0.4418604373931885 0.05426359176635742
0.12282822281122208 0.4418604373931885 0.06976747512817383
0.11889483034610748 0.4573643207550049 -0.1627907156944275
0.12684156000614166 0.4573643207550049 -0.14728683233261108
0.12988141179084778 0.4573643207550049 0.02325582504272461
0.12826316058635712 0.4573643207550049 0.038759708404541016
0.1260526329278946 0.4573643207550049 0.05426359176635742
0.12116266787052155 0.4573643207550049 0.06976747512817383
0.11987895518541336 0.4728682339191437 -0.1627907156944275
0.12801150977611542 0.4728682041168213 -0.14728683233261108
0.12901315093040466 0.4728682041168213 0.007751941680908203
0.1273224949836731 0.4728682041168213 0.02325582504272461
0.12596847116947174 0.4728682041168213 0.038759708404541016
0.12370099127292633 0.4728682041168213 0.05426359176635742
0.11939184367656708 0.4728682041168213 0.06976747512817383
0.12109159678220749 0.4883720874786377 -0.1627907156944275
0.1296888291835785 0.4883720874786377 -0.14728683233261108
0.12936411798000336 0.4883720874786377 -0.007751941680908203
0.1268683224916458 0.4883720874786377 0.007751941680908203
0.12490135431289673 0.4883720874786377 0.02325582504272461
0.12328395247459412 0.4883721172809601 0.038759708404541016
0.12169551104307175 0.4883720874786377 0.05426359176635742
0.1172446683049202 0.4883720874786377 0.06976748257875443
0.12252010405063629 0.5038759708404541 -0.1627907156944275
0.13158196210861206 0.5038759708404541 -0.14728683233261108
0.1311776041984558 0.5038759708404541 -0.02325582504272461
0.12773551046848297 0.5038759708404541 -0.007751941680908203
0.12468777596950531 0.5038759708404541 0.007751941680908203
0.12264150381088257 0.5038759708404541 0.02325582504272461
0.12139254808425903 0.5038759708404541 0.038759708404541016
0.11996175348758698 0.5038759708404541 0.05426359176635742
0.11655579507350922 0.5193798542022705 -0.1782945990562439
0.12475800514221191 0.5193798542022705 -0.1627907156944275
0.13001708686351776 0.5193798542022705 -0.02325582504272461
0.12671896815299988 0.5193798542022705 -0.007751941680908203
0.12326209247112274 0.5193798542022705 0.007751941680908203
0.12131482362747192 0.5193798542022705 0.02325582504272461
0.12006952613592148 0.5193798542022705 0.038759708404541016
0.11801806837320328 0.5193798542022705 0.05426359176635742
0.12026036530733109 0.5348837375640869 -0.1782945990562439
0.12787486612796783 0.5348837375640869 -0.1627907156944275
0.12942001223564148 0.5348837375640869 -0.02325582504272461
0.12601637840270996 0.5348837375640869 -0.007751941680908203
0.1224181056022644 0.5348837375640869 0.007751941680908203
0.1202906146645546 0.5348837375640869 0.02325582504272461
0.11871916800737381 0.5348837375640869 0.038759708404541016
0.11664776504039764 0.5503876209259033 -0.19379840791225433
0.12413749098777771 0.5503876209259033 -0.1782945990562439
0.12920601665973663 0.5503876209259033 -0.02325582504272461
0.1258261501789093 0.5503876209259033 -0.007751941680908203
0.12200261652469635 0.5503876209259033 0.007751941680908203
0.11943019926548004 0.5503876209259033 0.02325582504272461
0.11732552200555801 0.5503875613212585 0.038759708404541016
0.1209677904844284 0.5658915042877197 -0.19379842281341553
0.1278333067893982 0.5658915042877197 -0.1782945990562439
0.12899112701416016 0.5658915042877197 -0.02325582504272461
0.12568596005439758 0.5658915042877197 -0.007751941680908203
0.12168779969215393 0.5658915042877197 0.007751941680908203
0.11870595067739487 0.5658915042877197 0.02325582318007946
0.12005270272493362 0.5813953876495361 -0.20930230617523193
0.12516091763973236 0.5813953876495361 -0.19379842281341553
0.1314987689256668 0.5813953876495361 -0.1782945990562439
0.1289823055267334 0.5813953876495361 -0.02325582504272461
0.12571178376674652 0.5813953876495361 -0.007751941680908203
0.12163567543029785 0.5813953876495361 0.00775194214656949
0.118410125374794 0.5813953876495361 0.02325582318007946
0.11922977864742279 0.5968992710113525 -0.24031007289886475
0.12275402992963791 0.5968992710113525 -0.22480618953704834
0.12589377164840698 0.5968992710113525 -0.20930230617523193
0.12975537776947021 0.5968992710113525 -0.19379842281341553
0.12905745208263397 0.5968992710113525 -0.02325582504272461
0.12581579387187958 0.5968992710113525 -0.007751941680908203
0.1218450665473938 0.5968992710113525 0.007751941680908203
0.1185603141784668 0.5968992710113525 0.02325582318007946
0.12356892973184586 0.612403154373169 -0.25581395626068115
0.1273537278175354 0.612403154373169 -0.24031007289886475
0.12990160286426544 0.612403154373169 -0.22480618953704834
0.1291961967945099 0.612403154373169 -0.02325582504272461
0.12599599361419678 0.612403154373169 -0.007751941680908203
0.12223593890666962 0.612403154373169 0.00775194214656949
0.11894481629133224 0.612403154373169 0.02325582504272461
0.11783386766910553 0.6279069781303406 -0.28682172298431396
0.12698516249656677 0.6279069185256958 -0.27131783962249756
0.13162580132484436 0.6279069185256958 -0.25581395626068115
0.12902259826660156 0.6279069185256958 -0.02325582504272461
0.12595778703689575 0.6279069185256958 -0.007751941680908203
0.12249783426523209 0.6279069185256958 0.007751941680908203
0.11920356750488281 0.6279069185256958 0.02325582504272461
0.11657635122537613 0.6434108018875122 -0.30232560634613037
0.1290512979030609 0.6434108018875122 -0.28682172298431396
0.1286780685186386 0.6434108018875122 -0.02325582504272461
0.12571141123771667 0.6434108018875122 -0.007751941680908203
0.1225755587220192 0.6434108018875122 0.007751941680908203
0.11923112720251083 0.6434108018875122 0.02325582504272461
0.11857163906097412 0.6589147448539734 -0.9844961166381836
0.12784624099731445 0.6589146852493286 -0.30232560634613037
0.12814025580883026 0.6589146852493286 -0.02325582504272461
0.12517908215522766 0.6589146852493286 -0.007751941680908203
0.12232305109500885 0.6589146852493286 0.007751941680908203
0.11875243484973907 0.6589146852493286 0.02325582504272461
0.1219300851225853 0.674418568611145 -0.9844961166381836
0.12020906805992126 0.674418568611145 -0.317829430103302
0.13158908486366272 0.674418568611145 -0.038759708404541016
0.12765254080295563 0.674418568611145 -0.02325582504272461
0.12456971406936646 0.674418568611145 -0.007751941680908203
0.1217532604932785 0.674418568611145 0.007751941680908203
0.11748545616865158 0.674418568611145 0.02325582504272461
0.1221848577260971 0.6899224519729614 -0.9844961762428284
0.12887196242809296 0.6899224519729614 -0.317829430103302
0.13151314854621887 0.6899224519729614 -0.038759708404541016
0.12749382853507996 0.6899224519729614 -0.02325582504272461
0.1242271214723587 0.6899224519729614 -0.007751941680908203
0.121127188205719 0.6899224519729614 0.007751941680908203
0.12080103158950806 0.7054263353347778 -0.9844961166381836
0.11761824041604996 0.7054263353347778 -0.9689922332763672
0.11743242293596268 0.7054263353347778 -0.3488371968269348
0.1272985190153122 0.7054263353347778 -0.3333333134651184
0.128118634223938 0.7054263353347778 -0.02325582504272461
0.12457814812660217 0.7054263353347778 -0.007751941680908203
0.12096229195594788 0.7054263353347778 0.007751941680908203
0.11855306476354599 0.7209302186965942 -0.9844961166381836
0.11952128261327744 0.7209302186965942 -0.9689922332763672
0.11782244592905045 0.7209302186965942 -0.3643410801887512
0.1263846457004547 0.7209302186965942 -0.3488371968269348
0.13019822537899017 0.7209302186965942 -0.02325582504272461
0.12576007843017578 0.7209302186965942 -0.007751941680908203
0.12108542025089264 0.7209302186965942 0.007751941680908203
0.12168174982070923 0.7364341020584106 -0.9689922332763672
0.11629746854305267 0.7364340424537659 -0.953488290309906
0.11637727916240692 0.7364341020584106 -0.3798449635505676
0.12495987117290497 0.7364341020584106 -0.3643410801887512
0.13057073950767517 0.7364341020584106 -0.3488371968269348
0.12658895552158356 0.7364341020584106 -0.007751941680908203
0.11737578362226486 0.7364340424537659 0.007751941680908203
0.12257790565490723 0.751937985420227 -0.9689922332763672
0.11878421157598495 0.7519379258155823 -0.953488290309906
0.12002767622470856 0.751937985420227 -0.39534884691238403
0.12459515780210495 0.751937985420227 -0.3798449635505676
0.12867705523967743 0.751937985420227 -0.3643410801887512
0.12345428764820099 0.751937985420227 -0.007751941680908203
0.11793774366378784 0.7674418687820435 -0.9534883499145508
0.11723392456769943 0.7674418687820435 -0.9379844665527344
0.11718295514583588 0.7674418687820435 -0.4728682041168213
0.11914346367120743 0.7674418687820435 -0.4573643207550049
0.12079319357872009 0.7674418687820435 -0.4418604373931885
0.12264464795589447 0.7674418687820435 -0.42635661363601685
0.12453281879425049 0.7674418687820435 -0.41085273027420044
0.12625038623809814 0.7674418687820435 -0.39534884691238403
0.12814933061599731 0.7674418687820435 -0.3798449635505676
0.13038523495197296 0.7674418687820435 -0.3643410801887512
0.13078705966472626 0.7674418687820435 -0.038759708404541016
0.12077602744102478 0.7674418687820435 -0.02325582690536976
0.11662782728672028 0.7829457521438599 -0.5658915638923645
0.11768563836812973 0.7829457521438599 -0.5503876209259033
0.11875751614570618 0.7829457521438599 -0.5348837375640869
0.11988872289657593 0.7829457521438599 -0.5193798542022705
0.12096020579338074 0.7829457521438599 -0.5038759708404541
0.12201763689517975 0.7829457521438599 -0.4883720874786377
0.12299780547618866 0.7829457521438599 -0.4728682041168213
0.12403279542922974 0.7829457521438599 -0.4573643207550049
0.1251583844423294 0.7829457521438599 -0.4418604373931885
0.12607090175151825 0.7829457521438599 -0.42635661363601685
0.12677881121635437 0.7829457521438599 -0.41085273027420044
0.1275535225868225 0.7829457521438599 -0.39534884691238403
0.12840008735656738 0.7829457521438599 -0.3798449635505676
0.12940038740634918 0.7829457521438599 -0.3643410801887512
0.13091719150543213 0.7829457521438599 -0.3488371968269348
0.13080072402954102 0.7829457521438599 -0.11627906560897827
0.12521612644195557 0.7829457521438599 -0.10077518224716187
0.12019113451242447 0.7829457521438599 -0.08527129888534546
0.11685722321271896 0.7984496355056763 -0.6589146852493286
0.11759421974420547 0.7984496355056763 -0.643410861492157
0.11840352416038513 0.798449695110321 -0.6279070377349854
0.11925403028726578 0.7984495759010315 -0.6124030947685242
0.11993507295846939 0.7984496355056763 -0.5968992114067078
0.12039674818515778 0.7984496355056763 -0.5813953876495361
0.12097224593162537 0.7984496355056763 -0.5658915042877197
0.12154754996299744 0.7984495759010315 -0.5503876209259033
0.12201648205518723 0.7984496355056763 -0.5348837375640869
0.12250539660453796 0.7984496355056763 -0.5193798542022705
0.12299630045890808 0.7984496355056763 -0.5038759708404541
0.12354347109794617 0.7984496355056763 -0.4883720874786377
0.12404803931713104 0.7984496355056763 -0.4728682041168213
0.12459023296833038 0.7984496355056763 -0.4573643207550049
0.12527227401733398 0.7984496355056763 -0.4418604373931885
0.12578141689300537 0.7984496355056763 -0.42635661363601685
0.12611651420593262 0.7984496355056763 -0.41085273027420044
0.12640252709388733 0.7984496355056763 -0.39534884691238403
0.12667803466320038 0.7984496355056763 -0.3798449635505676
0.1270035207271576 0.7984496355056763 -0.3643410801887512
0.1274762898683548 0.7984496355056763 -0.3488371968269348
0.12773123383522034 0.7984496355056763 -0.3333333134651184
0.12734362483024597 0.7984496355056763 -0.317829430103302
0.1266445368528366 0.7984496355056763 -0.30232560634613037
0.12566377222537994 0.7984496355056763 -0.28682172298431396
0.1242101788520813 0.7984496355056763 -0.27131783962249756
0.1216726154088974 0.7984496355056763 -0.25581395626068115
0.11716774851083755 0.7984496355056763 -0.24031007289886475
0.11658629029989243 0.8139535188674927 -0.6899224519729614
0.11747754365205765 0.8139535784721375 -0.674418568611145
0.1186278760433197 0.8139535188674927 -0.6589146256446838
0.11961784958839417 0.8139535188674927 -0.643410861492157
0.12060128897428513 0.8139535188674927 -0.6279069781303406
0.12131556868553162 0.8139535188674927 -0.6124030947685242
0.1216479241847992 0.8139535188674927 -0.5968992710113525
0.1217879056930542 0.8139535188674927 -0.5813953876495361
0.1221579760313034 0.8139535188674927 -0.5658915042877197
0.12259986996650696 0.8139535188674927 -0.5503876209259033
0.12293080985546112 0.8139535188674927 -0.5348837375640869
0.12330508232116699 0.8139535188674927 -0.5193798542022705
0.12365071475505829 0.8139535188674927 -0.5038759708404541
0.1240268349647522 0.8139535188674927 -0.4883720874786377
0.12433180212974548 0.8139535188674927 -0.4728682041168213
0.12459887564182281 0.8139535188674927 -0.4573643207550049
0.12484442442655563 0.8139535188674927 -0.4418604373931885
0.12488742172718048 0.8139535188674927 -0.42635661363601685
0.12469276785850525 0.8139535188674927 -0.41085273027420044
0.12427423894405365 0.8139535188674927 -0.39534884691238403
0.12348279356956482 0.8139535188674927 -0.3798449635505676
0.12240827083587646 0.8139535188674927 -0.3643410801887512
0.12116829305887222 0.8139535188674927 -0.3488371968269348
0.11943447589874268 0.8139535188674927 -0.3333333134651184
0.11679299920797348 0.8139535784721375 -0.317829430103302
0.11705213040113449 0.8294574022293091 -0.6589146852493286
0.11770300567150116 0.8294573426246643 -0.6434108018875122
0.11861389875411987 0.8294574022293091 -0.6279069781303406
0.11992041766643524 0.8294574022293091 -0.6124030947685242
0.12119388580322266 0.8294574022293091 -0.5968992114067078
0.1221926212310791 0.8294574618339539 -0.5813953876495361
0.12317836284637451 0.8294574022293091 -0.5658915042877197
0.12392422556877136 0.8294574022293091 -0.5503876209259033
0.12429779767990112 0.8294574022293091 -0.5348837375640869
0.12425360083580017 0.8294574022293091 -0.5193798542022705
0.1239226758480072 0.8294574022293091 -0.5038759708404541
0.12328736484050751 0.8294574022293091 -0.4883720874786377
0.12234580516815186 0.8294574022293091 -0.4728682041168213
0.1212039589881897 0.8294574022293091 -0.4573643207550049
0.12000736594200134 0.8294574022293091 -0.4418604373931885
0.11860519647598267 0.8294574022293091 -0.42635661363601685
0.11689022928476334 0.8294574022293091 -0.41085273027420044
0.13181957602500916 -0.14728683233261108 -0.13178294897079468
0.13305863738059998 -0.13178294897079468 -0.14728683233261108
0.1340150535106659 -0.13178294897079468 -0.13178294897079468
0.13345855474472046 -0.13178294897079468 -0.11627906560897827
0.13202358782291412 -0.13178294897079468 -0.10077518224716187
0.13324251770973206 -0.11627906560897827 -0.1627907156944275
0.1356678158044815 -0.11627906560897827 -0.14728683233261108
0.13654041290283203 -0.11627906560897827 -0.13178294897079468
0.1360240876674652 -0.11627906560897827 -0.11627906560897827
0.13452281057834625 -0.11627906560897827 -0.10077518224716187
0.13254286348819733 -0.11627906560897827 -0.08527129888534546
