-0.03875970467925072 -0.6899224519729614 0.7829640507698059
-0.038759708404541016 -0.674418568611145 0.7174819707870483
-0.038759708404541016 -0.674418568611145 0.7903544902801514
-0.038759708404541016 -0.6589146852493286 0.7173879742622375
-0.038759708404541016 -0.6589146852493286 0.7954511642456055
-0.038759708404541016 -0.643410861492157 0.7155797481536865
-0.038759708404541016 -0.643410861492157 0.7995955348014832
-0.038759708404541016 -0.6279069781303406 0.7163397073745728
-0.038759708404541016 -0.6279069185256958 0.8027501106262207
-0.038759708404541016 -0.6124030947685242 0.7203943729400635
-0.038759708404541016 -0.6124030947685242 0.8036708831787109
-0.038759708404541016 -0.5968992114067078 0.7343646287918091
-0.038759708404541016 -0.5968992114067078 0.8028202056884766
-0.038759708404541016 -0.5813953876495361 0.7482867240905762
-0.038759708404541016 -0.5813953876495361 0.8015203475952148
-0.038759708404541016 -0.5658915042877197 0.7603159546852112
-0.038759708404541016 -0.5658915042877197 0.7951371669769287
-0.038759708404541016 -0.5038759708404541 0.9327408075332642
-0.038759708404541016 -0.5038759708404541 0.946679949760437
-0.038759708404541016 -0.4883720874786377 0.9164363145828247
-0.038759708404541016 -0.4883720874786377 0.9499893188476562
-0.038759708404541016 -0.4728682041168213 0.9049202799797058
-0.038759708404541016 -0.4728682041168213 0.93975430727005
-0.038759708404541016 -0.317829430103302 0.7191833257675171
-0.038759708404541016 -0.317829430103302 0.8144389390945435
-0.038759708404541016 -0.30232560634613037 0.6857280135154724
-0.038759708404541016 -0.30232560634613037 0.8293073177337646
-0.038759708404541016 -0.28682172298431396 0.6590569019317627
-0.038759708404541016 -0.28682172298431396 0.8292793035507202
-0.038759708404541016 -0.27131783962249756 0.598963737487793
-0.038759708404541016 -0.27131783962249756 0.8207159638404846
-0.038759708404541016 -0.25581395626068115 0.16179881989955902
-0.038759708404541016 -0.25581395626068115 0.34544920921325684
-0.038759708404541016 -0.25581395626068115 0.5059006810188293
-0.038759708404541016 -0.25581395626068115 0.8147438168525696
-0.038759708404541016 -0.24031007289886475 0.09605461359024048
-0.038759708404541016 -0.24031007289886475 0.8029710054397583
-0.038759708404541016 -0.22480618953704834 0.047382108867168427
-0.038759708404541016 -0.22480620443820953 0.7886238694190979
-0.038759708404541016 -0.20930230617523193 -0.008191474713385105
-0.038759712129831314 -0.20930230617523193 0.7695274353027344
-0.038759708404541016 -0.19379840791225433 -0.05281226336956024
-0.038759708404541016 -0.19379842281341553 0.7303849458694458
-0.038759708404541016 -0.1782945990562439 -0.07720993459224701
-0.038759708404541016 -0.1782945990562439 0.6312242746353149
-0.038759708404541016 -0.1627907156944275 -0.09058287739753723
-0.038759708404541016 -0.1627907007932663 0.4264453053474426
-0.038759708404541016 -0.14728683233261108 -0.10292154550552368
-0.038759708404541016 -0.14728683233261108 0.3804389536380768
-0.038759708404541016 -0.13178294897079468 -0.11639036238193512
-0.038759708404541016 -0.13178294897079468 0.32490551471710205
-0.038759708404541016 -0.11627906560897827 -0.12833192944526672
-0.038759708404541016 -0.11627906560897827 0.2780621647834778
-0.038759708404541016 -0.10077518224716187 -0.14278696477413177
-0.038759708404541016 -0.10077518224716187 0.2508789002895355
-0.038759708404541016 -0.08527129888534546 -0.16528157889842987
-0.038759708404541016 -0.08527129143476486 0.24167144298553467
-0.038759708404541016 -0.06976741552352905 -0.18885892629623413
-0.038759708404541016 -0.06976741552352905 0.24092771112918854
-0.038759712129831314 -0.05426359176635742 -0.20783066749572754
-0.038759708404541016 -0.05426359176635742 0.24229969084262848
-0.038759708404541016 -0.038759708404541016 -0.21578431129455566
-0.038759708404541016 -0.038759708404541016 0.24247224628925323
-0.038759708404541016 -0.02325582504272461 -0.21554090082645416
-0.038759708404541016 -0.02325582504272461 0.2411154806613922
-0.038759708404541016 -0.007751941680908203 -0.20952101051807404
-0.038759708404541016 -0.007751941680908203 0.23902438580989838
-0.038759708404541016 0.007751941680908203 -0.19521403312683105
-0.038759708404541016 0.007751941680908203 0.23876520991325378
-0.038759708404541016 0.02325582504272461 -0.1840055286884308
-0.038759708404541016 0.02325582504272461 0.23987217247486115
-0.038759708404541016 0.038759708404541016 -0.18022504448890686
-0.038759708404541016 0.038759708404541016 0.239899680018425
-0.038759708404541016 0.05426359176635742 -0.18061774969100952
-0.038759708404541016 0.05426359176635742 0.23990100622177124
-0.038759708404541016 0.06976747512817383 -0.18248096108436584
-0.038759708404541016 0.06976747512817383 0.24035780131816864
-0.038759708404541016 0.08527135848999023 -0.18472954630851746
-0.03875970467925072 0.08527135848999023 0.2411462515592575
-0.038759708404541016 0.10077524185180664 -0.18815673887729645
-0.038759708404541016 0.10077523440122604 0.2424837052822113
-0.038759708404541016 0.11627912521362305 -0.19192571938037872
-0.038759708404541016 0.11627912521362305 0.24395909905433655
-0.038759708404541016 0.1317828893661499 -0.1937471628189087
-0.038759708404541016 0.1317828893661499 0.2455034852027893
-0.038759708404541016 0.1472867727279663 -0.19365106523036957
-0.038759708404541016 0.1472867727279663 0.24646100401878357
-0.038759708404541016 0.16279065608978271 -0.19126352667808533
-0.038759708404541016 0.16279065608978271 0.2464725375175476
-0.038759708404541016 0.17829453945159912 -0.18734347820281982
-0.038759708404541016 0.17829453945159912 0.24498647451400757
-0.038759708404541016 0.19379842281341553 -0.18319816887378693
-0.038759708404541016 0.19379840791225433 0.2423584908246994
-0.038759708404541016 0.20930230617523193 -0.17972537875175476
-0.038759708404541016 0.20930230617523193 0.2388227880001068
-0.038759708404541016 0.22480618953704834 -0.1760801374912262
-0.038759708404541016 0.22480618953704834 0.23413234949111938
-0.038759708404541016 0.24031007289886475 -0.17231443524360657
-0.038759708404541016 0.24031007289886475 0.23120474815368652
-0.038759708404541016 0.25581395626068115 -0.16925780475139618
-0.038759708404541016 0.25581395626068115 0.22879351675510406
-0.038759708404541016 0.27131783962249756 -0.16648295521736145
-0.038759708404541016 0.27131783962249756 0.22752085328102112
-0.038759708404541016 0.28682172298431396 -0.1643199920654297
-0.038759708404541016 0.28682172298431396 0.22671498358249664
-0.038759708404541016 0.30232560634613037 -0.16345404088497162
-0.038759708404541016 0.30232560634613037 0.22610123455524445
-0.038759708404541016 0.3178294897079468 -0.16304704546928406
-0.03875970467925072 0.3178294897079468 0.22575657069683075
-0.038759708404541016 0.3333333730697632 -0.1629718840122223
-0.038759708404541016 0.3333333730697632 0.22559542953968048
-0.038759708404541016 0.3488372564315796 -0.16335263848304749
-0.038759708404541016 0.3488372564315796 0.22506892681121826
-0.038759708404541016 0.364341139793396 -0.16352257132530212
-0.038759708404541016 0.364341139793396 0.2234051376581192
-0.038759708404541016 0.37984490394592285 -0.16234612464904785
-0.038759708404541016 0.37984490394592285 0.22101551294326782
-0.038759708404541016 0.39534878730773926 -0.1598713994026184
-0.038759708404541016 0.39534878730773926 0.2191239893436432
-0.038759708404541016 0.41085267066955566 -0.15819746255874634
-0.038759708404541016 0.41085267066955566 0.2176312506198883
-0.038759708404541016 0.42635655403137207 -0.15697482228279114
-0.038759708404541016 0.42635655403137207 0.21586960554122925
-0.038759708404541016 0.44186046719551086 -0.15673750638961792
-0.038759708404541016 0.4418604075908661 0.2135819047689438
-0.038759708404541016 0.4573643207550049 -0.15731269121170044
-0.038759708404541016 0.4573643207550049 0.2107328176498413
-0.038759708404541016 0.4728682339191437 -0.15796655416488647
-0.038759708404541016 0.4728682041168213 0.2069365680217743
-0.038759708404541016 0.4883720874786377 -0.15777909755706787
-0.038759708404541016 0.4883720874786377 0.2030956745147705
-0.038759708404541016 0.5038759708404541 -0.15542258322238922
-0.038759708404541016 0.5038759708404541 0.19866390526294708
-0.038759708404541016 0.5193798542022705 -0.1530248373746872
-0.038759708404541016 0.5193798542022705 0.1923515498638153
-0.038759708404541016 0.5348837375640869 -0.15236076712608337
-0.038759708404541016 0.5348837375640869 0.186310276389122
-0.038759708404541016 0.5503876209259033 -0.1578415334224701
-0.038759708404541016 0.5503876805305481 0.17936058342456818
-0.038759708404541016 0.5658915042877197 -0.18488001823425293
-0.038759708404541016 0.5658915042877197 0.17069369554519653
-0.038759708404541016 0.5813953876495361 -0.1981898695230484
-0.038759708404541016 0.5813953876495361 0.16230425238609314
-0.038759708404541016 0.5968992710113525 -0.18852698802947998
-0.038759708404541016 0.5968992710113525 0.15348702669143677
-0.038759708404541016 0.612403154373169 -0.11831704527139664
-0.038759708404541016 0.612403154373169 0.14428813755512238
-0.038759708404541016 0.6279069185256958 -0.07939053326845169
-0.038759708404541016 0.6279069185256958 0.13568854331970215
-0.038759708404541016 0.6434108018875122 -0.05720392242074013
-0.038759708404541016 0.6434108018875122 0.125809907913208
-0.038759708404541016 0.6589146852493286 -0.056877121329307556
-0.038759708404541016 0.6589146852493286 0.05286075547337532
-0.038759708404541016 0.6589146852493286 0.057262517511844635
-0.038759712129831314 0.6589146852493286 0.11900882422924042
-0.038759708404541016 0.674418568611145 -0.06821127980947495
-0.038759708404541016 0.674418568611145 0.11113569140434265
-0.038759708404541016 0.6899224519729614 -0.07896925508975983
-0.038759708404541016 0.6899224519729614 0.10536395013332367
-0.038759708404541016 0.7054263353347778 -0.06990502774715424
-0.038759708404541016 0.7054263353347778 0.096126988530159
-0.038759708404541016 0.7209302186965942 -0.014433481730520725
-0.038759708404541016 0.7209302186965942 0.0846266970038414
-0.038759708404541016 0.7364341020584106 0.009968128986656666
-0.038759708404541016 0.7364341020584106 0.06301992386579514
-0.038759708404541016 0.751937985420227 0.02569051831960678
-0.038759708404541016 0.751937985420227 0.04305204004049301
-0.02325582504272461 -0.8914728760719299 0.6868757605552673
-0.02325582504272461 -0.8914728760719299 0.7025259733200073
-0.02325582504272461 -0.8759690523147583 0.6837624311447144
-0.02325582504272461 -0.8759689927101135 0.7128721475601196
-0.02325582504272461 -0.8604651093482971 0.6830276250839233
-0.02325582504272461 -0.8604650497436523 0.7205997705459595
-0.02325582504272461 -0.8449612855911255 0.6806625127792358
-0.02325582690536976 -0.8449612855911255 0.7259278297424316
-0.02325582504272461 -0.8294573426246643 0.6776943802833557
-0.02325582504272461 -0.8294572830200195 0.732769250869751
-0.02325582504272461 -0.8139535188674927 0.6763414144515991
-0.02325582504272461 -0.8139535784721375 0.7386763691902161
-0.02325582504272461 -0.7984496355056763 0.6796979308128357
-0.02325582504272461 -0.7984496355056763 0.7443413734436035
-0.02325582504272461 -0.7829457521438599 0.68565434217453
-0.02325582504272461 -0.7829457521438599 0.7502685189247131
-0.02325582504272461 -0.7674418687820435 0.6905543804168701
-0.02325582504272461 -0.7674418687820435 0.7547646164894104
-0.02325582504272461 -0.751937985420227 0.7003259062767029
-0.02325582504272461 -0.751937985420227 0.761500358581543
-0.02325582504272461 -0.7364341020584106 0.7040637135505676
-0.02325582690536976 -0.7364341020584106 0.7686406373977661
-0.02325582318007946 -0.7209302186965942 0.7063457369804382
-0.02325582504272461 -0.7209302186965942 0.7779308557510376
-0.02325582504272461 -0.7054263353347778 0.7075459957122803
-0.02325582318007946 -0.7054263353347778 0.7851772308349609
-0.02325582504272461 -0.6899224519729614 0.7052645087242126
-0.02325582504272461 -0.6899224519729614 0.7920126914978027
-0.02325582504272461 -0.674418568611145 0.7044927477836609
-0.02325582504272461 -0.674418568611145 0.7958111763000488
-0.02325582504272461 -0.6589146852493286 0.7043116092681885
-0.02325582504272461 -0.6589146852493286 0.8019664883613586
-0.02325582504272461 -0.643410861492157 0.704461395740509
-0.02325582504272461 -0.643410861492157 0.8084367513656616
-0.02325582504272461 -0.6279069781303406 0.7085267901420593
-0.02325582504272461 -0.6279069781303406 0.8147442936897278
-0.02325582504272461 -0.6124030947685242 0.7173804640769958
-0.02325582504272461 -0.6124030947685242 0.8204492330551147
-0.02325582504272461 -0.5968992114067078 0.7284801006317139
-0.02325582504272461 -0.5968992114067078 0.8236676454544067
-0.02325582504272461 -0.5813953876495361 0.7364059686660767
-0.02325582504272461 -0.5813953876495361 0.8274137377738953
-0.02325582504272461 -0.5658915042877197 0.7493575215339661
-0.02325582504272461 -0.5658915042877197 0.8267241716384888
-0.02325582504272461 -0.5503876209259033 0.7590702772140503
-0.02325582504272461 -0.5503876209259033 0.8236050605773926
-0.02325582504272461 -0.5348837375640869 0.7666916251182556
-0.02325582504272461 -0.5348837375640869 0.821243405342102
-0.02325582504272461 -0.5193798542022705 0.7773836851119995
-0.02325582504272461 -0.5193798542022705 0.8220935463905334
-0.02325582504272461 -0.5038759708404541 0.7806903123855591
-0.02325582504272461 -0.5038759708404541 0.8289181590080261
-0.02325582504272461 -0.4883720874786377 0.7806081771850586
-0.02325582504272461 -0.4883720874786377 0.839362382888794
-0.02325582504272461 -0.4728682041168213 0.7806960344314575
-0.02325582504272461 -0.4728682041168213 0.8438611030578613
-0.02325582504272461 -0.4573643207550049 0.7822486758232117
-0.02325582504272461 -0.4573643207550049 0.8362184762954712
-0.02325582504272461 -0.4418604373931885 0.7860878109931946
-0.02325582504272461 -0.4418604373931885 0.832491934299469
-0.02325582504272461 -0.42635661363601685 0.7890702486038208
-0.02325582504272461 -0.42635661363601685 0.8318970203399658
-0.02325582504272461 -0.41085273027420044 0.7896738052368164
-0.02325582504272461 -0.41085270047187805 0.8315863013267517
-0.02325582504272461 -0.39534884691238403 0.7877795100212097
-0.02325582504272461 -0.39534884691238403 0.831992506980896
-0.02325582504272461 -0.3798449635505676 0.7824044823646545
-0.02325582504272461 -0.37984499335289 0.8339002728462219
-0.02325582504272461 -0.3643410801887512 0.7787168025970459
-0.02325582504272461 -0.3643410801887512 0.8332421779632568
-0.02325582504272461 -0.3488371968269348 0.7689545750617981
-0.02325582504272461 -0.3488371968269348 0.833289384841919
-0.02325582504272461 -0.3333333134651184 0.750260055065155
-0.02325582504272461 -0.3333333134651184 0.8341504335403442
-0.02325582504272461 -0.317829430103302 0.7022601366043091
-0.02325582504272461 -0.317829430103302 0.8368785977363586
-0.02325582504272461 -0.30232560634613037 0.6580336689949036
-0.02325582504272461 -0.30232560634613037 0.8434648513793945
-0.02325582504272461 -0.28682172298431396 0.5719636082649231
-0.02325582504272461 -0.28682172298431396 0.8383986949920654
-0.02325582504272461 -0.27131783962249756 0.17651952803134918
-0.02325582504272461 -0.27131783962249756 0.389057993888855
-0.02325582504272461 -0.27131783962249756 0.4515526294708252
-0.02325582318007946 -0.27131783962249756 0.8320940136909485
-0.02325582504272461 -0.25581395626068115 0.09856076538562775
-0.02325582504272461 -0.25581395626068115 0.8227723836898804
-0.02325582504272461 -0.24031007289886475 0.050320982933044434
-0.02325582504272461 -0.24031007289886475 0.8148660063743591
-0.02325582504272461 -0.22480618953704834 0.004718277603387833
-0.02325582504272461 -0.22480617463588715 0.8021371364593506
-0.02325582504272461 -0.20930230617523193 -0.03810261934995651
-0.02325582504272461 -0.20930229127407074 0.7875689268112183
-0.02325582504272461 -0.19379842281341553 -0.06502634286880493
-0.02325582504272461 -0.19379842281341553 0.7686363458633423
-0.02325582504272461 -0.1782945990562439 -0.0820259228348732
-0.02325582504272461 -0.1782945990562439 0.7183429002761841
-0.02325582504272461 -0.1627907156944275 -0.0921085774898529
-0.02325582504272461 -0.1627907156944275 0.6235151290893555
-0.02325582504272461 -0.14728683233261108 -0.10203839838504791
-0.02325582504272461 -0.14728683233261108 0.5221949815750122
-0.02325582504272461 -0.13178294897079468 -0.110984668135643
-0.02325582504272461 -0.13178294897079468 0.4275588393211365
-0.02325582504272461 -0.11627906560897827 -0.12307414412498474
-0.02325582504272461 -0.11627906560897827 0.34249192476272583
-0.02325582504272461 -0.10077518224716187 -0.13901162147521973
-0.02325582504272461 -0.10077518224716187 0.2909699082374573
-0.02325582504272461 -0.08527129888534546 -0.16285690665245056
-0.02325582504272461 -0.08527129888534546 0.2651330232620239
-0.02325582504272461 -0.06976741552352905 -0.18486550450325012
-0.02325582504272461 -0.06976741552352905 0.25578340888023376
-0.02325582504272461 -0.05426359176635742 -0.2035522311925888
-0.02325582504272461 -0.05426359176635742 0.25185710191726685
-0.02325582504272461 -0.038759708404541016 -0.2147146612405777
-0.02325582504272461 -0.038759708404541016 0.24888876080513
-0.02325582504272461 -0.02325582504272461 -0.21627068519592285
-0.02325582504272461 -0.02325582504272461 0.24577367305755615
-0.02325582504272461 -0.007751941680908203 -0.210438072681427
-0.02325582690536976 -0.00775194214656949 0.24516475200653076
-0.02325582504272461 0.007751941680908203 -0.19831500947475433
-0.02325582504272461 0.007751941680908203 0.24776914715766907
-0.02325582504272461 0.02325582504272461 -0.18888376653194427
-0.02325582504272461 0.02325582504272461 0.2514796555042267
-0.02325582504272461 0.038759708404541016 -0.18434704840183258
-0.02325582504272461 0.038759708404541016 0.2521238923072815
-0.02325582504272461 0.05426359176635742 -0.18437325954437256
-0.02325582504272461 0.05426359176635742 0.251559317111969
-0.02325582504272461 0.06976747512817383 -0.186187744140625
-0.02325582504272461 0.06976747512817383 0.2511461675167084
-0.02325582504272461 0.08527135848999023 -0.18895217776298523
-0.02325582504272461 0.08527135848999023 0.2519248127937317
-0.02325582504272461 0.10077524185180664 -0.19331100583076477
-0.02325582504272461 0.10077524185180664 0.2537054121494293
-0.02325582504272461 0.11627912521362305 -0.19491057097911835
-0.02325582504272461 0.11627912521362305 0.25582560896873474
-0.02325582504272461 0.1317828893661499 -0.19550272822380066
-0.02325582504272461 0.1317828893661499 0.25705957412719727
-0.02325582504272461 0.1472867727279663 -0.1953393816947937
-0.02325582504272461 0.1472867727279663 0.25804659724235535
-0.02325582504272461 0.16279065608978271 -0.19432994723320007
-0.02325582504272461 0.16279065608978271 0.25801146030426025
-0.02325582504272461 0.17829453945159912 -0.19046898186206818
-0.02325582504272461 0.17829453945159912 0.25624075531959534
-0.02325582504272461 0.19379842281341553 -0.18512961268424988
-0.02325582504272461 0.19379842281341553 0.252993643283844
-0.02325582504272461 0.20930230617523193 -0.1811855286359787
-0.02325582504272461 0.20930230617523193 0.2502419352531433
-0.02325582504272461 0.22480618953704834 -0.17840445041656494
-0.02325582504272461 0.22480618953704834 0.24749527871608734
-0.02325582504272461 0.24031007289886475 -0.1748570054769516
-0.02325582504272461 0.24031007289886475 0.24302378296852112
-0.02325582504272461 0.25581395626068115 -0.17201849818229675
-0.02325582504272461 0.25581395626068115 0.23935995995998383
-0.02325582504272461 0.27131783962249756 -0.16948115825653076
-0.02325582504272461 0.27131783962249756 0.2357412874698639
-0.02325582504272461 0.28682172298431396 -0.1678641140460968
-0.02325582504272461 0.28682172298431396 0.2341247797012329
-0.02325582504272461 0.30232560634613037 -0.16728483140468597
-0.02325582504272461 0.30232560634613037 0.23319628834724426
-0.02325582504272461 0.3178294897079468 -0.16700094938278198
-0.02325582504272461 0.3178294897079468 0.23272815346717834
-0.02325582504272461 0.3333333730697632 -0.16691075265407562
-0.02325582504272461 0.3333333730697632 0.23253071308135986
-0.02325582504272461 0.3488372564315796 -0.16740456223487854
-0.02325582504272461 0.3488372564315796 0.23199495673179626
-0.02325582504272461 0.364341139793396 -0.16770106554031372
-0.02325582504272461 0.364341139793396 0.23084692656993866
-0.02325582504272461 0.37984490394592285 -0.16655002534389496
-0.02325582504272461 0.37984490394592285 0.22891484200954437
-0.02325582504272461 0.39534878730773926 -0.16440796852111816
-0.02325582504272461 0.39534878730773926 0.22695095837116241
-0.02325582504272461 0.41085267066955566 -0.16288664937019348
-0.02325582504272461 0.41085267066955566 0.2251131534576416
-0.02325582690536976 0.42635655403137207 -0.16132593154907227
-0.02325582504272461 0.42635655403137207 0.22242146730422974
-0.02325582504272461 0.4418604373931885 -0.16111522912979126
-0.02325582504272461 0.4418604373931885 0.21987956762313843
-0.02325582504272461 0.4573643207550049 -0.16173818707466125
-0.02325582504272461 0.4573643207550049 0.21771109104156494
-0.02325582690536976 0.4728682339191437 -0.1623774766921997
-0.02325582504272461 0.4728681743144989 0.2145337462425232
-0.02325582504272461 0.4883720874786377 -0.1618259847164154
-0.02325582504272461 0.4883720874786377 0.20996598899364471
-0.02325582504272461 0.5038759708404541 -0.15728239715099335
-0.02325582504272461 0.5038759708404541 0.2047221064567566
-0.02325582504272461 0.5193798542022705 -0.15272916853427887
-0.02325582504272461 0.5193798542022705 0.20003166794776917
-0.02325582504272461 0.5348837375640869 -0.14959459006786346
-0.02325582504272461 0.5348837375640869 0.1938561201095581
-0.02325582504272461 0.5503876805305481 -0.14684820175170898
-0.02325582504272461 0.5503876209259033 0.1866178810596466
-0.02325582504272461 0.5658915042877197 -0.13878095149993896
-0.02325582504272461 0.5658915042877197 0.1785241663455963
-0.02325582504272461 0.5813953876495361 -0.1282273530960083
-0.02325582504272461 0.5813953876495361 0.16949358582496643
-0.02325582504272461 0.5968992710113525 -0.09913259744644165
-0.02325582504272461 0.5968992710113525 0.15963317453861237
-0.02325582504272461 0.612403154373169 -0.01578569784760475
-0.02325582504272461 0.612403154373169 0.15105853974819183
-0.02325582504272461 0.6279069185256958 0.07910703122615814
-0.02325582504272461 0.6279069185256958 0.1403234750032425
-0.02325582504272461 0.6434108018875122 0.096259206533432
-0.02325582504272461 0.6434108018875122 0.1329939067363739
-0.02325582504272461 0.6589146852493286 0.09648925065994263
-0.02325582504272461 0.6589146852493286 0.12395238131284714
-0.02325582504272461 0.674418568611145 0.08475382626056671
-0.02325582504272461 0.674418568611145 0.12066234648227692
-0.02325582504272461 0.6899224519729614 -0.003168645082041621
-0.02325582504272461 0.6899224519729614 0.11771607398986816
-0.02325582504272461 0.7054263353347778 -0.027875978499650955
-0.02325582504272461 0.7054263353347778 0.1127682775259018
-0.02325582504272461 0.7209302186965942 -0.032006844878196716
-0.02325582504272461 0.7209302186965942 0.10738953948020935
-0.02325582504272461 0.7364341020584106 -0.12029597163200378
-0.02325582504272461 0.7364341020584106 -0.10190962255001068
-0.02325582504272461 0.7364341020584106 -0.021878626197576523
-0.02325582504272461 0.7364341020584106 0.10082359611988068
-0.02325582690536976 0.751937985420227 -0.16255243122577667
-0.02325582504272461 0.751937985420227 -0.09365969896316528
-0.02325582504272461 0.751937985420227 -0.014728693291544914
-0.02325582504272461 0.751937985420227 0.0901113897562027
-0.02325582504272461 0.7674418687820435 -0.005995593033730984
-0.02325582504272461 0.7674418687820435 0.0763702243566513
-0.02325582504272461 0.7829457521438599 0.006866957992315292
-0.02325582504272461 0.7829457521438599 0.05838178098201752
-0.02325582504272461 0.8294574022293091 -0.4162941575050354
-0.02325582504272461 0.8294574022293091 -0.3727725148200989
-0.02325582504272461 0.8449612855911255 -0.4243637025356293
-0.02325582504272461 0.8449612855911255 -0.3642972409725189
-0.02325582504272461 0.8604651689529419 -0.42091888189315796
-0.02325582504272461 0.8604651689529419 -0.36459049582481384
-0.02325582504272461 0.8759689331054688 -0.4125661551952362
-0.02325582504272461 0.8759689331054688 -0.3667074143886566
-0.02325582504272461 0.8914728164672852 -0.4024917483329773
-0.02325582504272461 0.8914728164672852 -0.36834681034088135
-0.02325582504272461 0.9069766998291016 -0.3864215016365051
-0.02325582504272461 0.9069766998291016 -0.3739390969276428
-0.007751941680908203 -0.8914728164672852 0.6849988102912903
-0.007751941215246916 -0.8914728164672852 0.7121785283088684
-0.007751941680908203 -0.8759689927101135 0.6824132204055786
-0.007751941680908203 -0.8759689927101135 0.7207397222518921
-0.007751941680908203 -0.8604651093482971 0.6811765432357788
-0.00775194214656949 -0.8604651093482971 0.7243928909301758
-0.007751941680908203 -0.8449612855911255 0.6784220933914185
-0.007751941680908203 -0.8449612259864807 0.7308259606361389
-0.007751941680908203 -0.8294573426246643 0.6744479537010193
-0.007751941215246916 -0.8294573426246643 0.73773592710495
-0.007751941680908203 -0.8139535188674927 0.6739262342453003
-0.007751941680908203 -0.8139535188674927 0.7429584264755249
-0.007751941680908203 -0.7984496355056763 0.6748196482658386
-0.007751941680908203 -0.7984496355056763 0.7510522603988647
-0.007751941680908203 -0.7829457521438599 0.6821906566619873
-0.007751941215246916 -0.7829457521438599 0.7546769976615906
-0.007751941680908203 -0.7674418687820435 0.6882690191268921
-0.007751941680908203 -0.7674418687820435 0.7600792646408081
-0.00775194214656949 -0.751937985420227 0.6969192624092102
-0.007751941680908203 -0.751937985420227 0.7675306797027588
-0.007751941680908203 -0.7364341020584106 0.7024345397949219
-0.007751941680908203 -0.7364341020584106 0.7742204666137695
-0.007751941680908203 -0.7209302186965942 0.7043952345848083
-0.007751941680908203 -0.7209302186965942 0.7822284698486328
-0.007751941680908203 -0.7054263353347778 0.7044162750244141
-0.007751941680908203 -0.7054263353347778 0.788810133934021
-0.007751941680908203 -0.6899224519729614 0.7026006579399109
-0.007751941680908203 -0.6899224519729614 0.7924298048019409
-0.007751941680908203 -0.674418568611145 0.6994718909263611
-0.007751941680908203 -0.674418568611145 0.7955955266952515
-0.007751941680908203 -0.6589146852493286 0.6980005502700806
-0.007751941680908203 -0.6589146852493286 0.801886260509491
-0.007751941680908203 -0.643410861492157 0.6999608278274536
-0.007751941680908203 -0.643410861492157 0.8088550567626953
-0.007751941680908203 -0.6279069781303406 0.7044906616210938
-0.007751941680908203 -0.6279069781303406 0.8179442882537842
-0.007751941680908203 -0.6124030947685242 0.7152536511421204
-0.007751941680908203 -0.6124030947685242 0.8269001245498657
-0.007751941680908203 -0.5968992710113525 0.7234218716621399
-0.007751941680908203 -0.5968992114067078 0.8333158493041992
-0.007751941680908203 -0.5813953876495361 0.7346434593200684
-0.007751941680908203 -0.5813953876495361 0.8395031690597534
-0.007751941680908203 -0.5658915042877197 0.7465900778770447
-0.007751941680908203 -0.5658915042877197 0.8451738357543945
-0.007751941680908203 -0.5503876209259033 0.751593291759491
-0.007751941680908203 -0.5503876209259033 0.8459552526473999
-0.007751941680908203 -0.5348837375640869 0.7633531093597412
-0.007751941680908203 -0.5348837375640869 0.848757803440094
-0.007751941680908203 -0.5193798542022705 0.7666709423065186
-0.007751941680908203 -0.5193798542022705 0.8598641157150269
-0.007751941680908203 -0.5038759708404541 0.7713152170181274
-0.007751941680908203 -0.5038759708404541 0.863419771194458
-0.007751941680908203 -0.4883720874786377 0.7737037539482117
-0.007751941215246916 -0.4883720874786377 0.8624082803726196
-0.007751941680908203 -0.4728682041168213 0.7753720879554749
-0.007751941680908203 -0.4728682041168213 0.8541178107261658
-0.007751941680908203 -0.4573643207550049 0.7784889340400696
-0.007751941680908203 -0.4573643207550049 0.8466198444366455
-0.007751941680908203 -0.4418604373931885 0.7798121571540833
-0.007751941680908203 -0.4418604373931885 0.8450300097465515
-0.007751941680908203 -0.42635661363601685 0.7795785665512085
-0.007751941680908203 -0.42635661363601685 0.8440841436386108
-0.007751941680908203 -0.41085273027420044 0.7785791754722595
-0.007751941680908203 -0.41085273027420044 0.8446797132492065
-0.007751941680908203 -0.39534884691238403 0.776250958442688
-0.007751941680908203 -0.39534884691238403 0.8452746868133545
-0.007751941680908203 -0.3798449635505676 0.7692066431045532
-0.007751941680908203 -0.3798449635505676 0.8461869359016418
-0.007751941680908203 -0.3643410801887512 0.7648128867149353
-0.007751941680908203 -0.3643410801887512 0.8467384576797485
-0.007751941680908203 -0.3488371968269348 0.7556387782096863
-0.007751941680908203 -0.3488371968269348 0.8469724059104919
-0.007751941680908203 -0.3333333134651184 0.7353038191795349
-0.007751941680908203 -0.3333333134651184 0.8466532826423645
-0.007751941680908203 -0.317829430103302 0.686678409576416
-0.007751941680908203 -0.317829430103302 0.8456016182899475
-0.00775194214656949 -0.30232560634613037 0.618242084980011
-0.007751941215246916 -0.30232560634613037 0.8450777530670166
-0.007751941680908203 -0.28682172298431396 0.47855108976364136
-0.007751941680908203 -0.28682172298431396 0.8388752937316895
-0.007751941680908203 -0.27131783962249756 0.1445590704679489
-0.007751941680908203 -0.27131783962249756 0.8328648209571838
-0.007751941680908203 -0.25581395626068115 0.074557825922966
-0.007751941680908203 -0.25581395626068115 0.8241762518882751
-0.00775194214656949 -0.24031008780002594 0.030129211023449898
-0.007751941680908203 -0.24031007289886475 0.8152616024017334
-0.007751941680908203 -0.22480618953704834 -0.013284418731927872
-0.007751941680908203 -0.22480618953704834 0.8031607270240784
-0.007751941680908203 -0.20930230617523193 -0.04880291596055031
-0.007751941215246916 -0.20930230617523193 0.7902343273162842
-0.007751941680908203 -0.19379842281341553 -0.07181285321712494
-0.007751941680908203 -0.19379842281341553 0.7742276191711426
-0.007751941680908203 -0.1782945990562439 -0.08620088547468185
-0.007751941680908203 -0.1782945990562439 0.7420185804367065
-0.007751941680908203 -0.1627907156944275 -0.0949581116437912
-0.007751941680908203 -0.1627907156944275 0.6450144052505493
-0.007751941680908203 -0.14728683233261108 -0.10344486683607101
-0.007751941680908203 -0.14728683233261108 0.5595760345458984
-0.007751941680908203 -0.13178294897079468 -0.11160112172365189
-0.007751941680908203 -0.13178294897079468 0.45759499073028564
-0.007751941680908203 -0.11627906560897827 -0.12292535603046417
-0.007751941680908203 -0.11627906560897827 0.3709389567375183
-0.007751941680908203 -0.10077518224716187 -0.13817301392555237
-0.00775194214656949 -0.10077518224716187 0.30924180150032043
-0.007751941680908203 -0.08527129888534546 -0.15976646542549133
-0.007751941680908203 -0.08527129888534546 0.27860891819000244
-0.007751941680908203 -0.06976741552352905 -0.18286359310150146
-0.007751941680908203 -0.06976741552352905 0.2645391821861267
-0.007751941680908203 -0.05426359176635742 -0.201051726937294
-0.007751941215246916 -0.05426359176635742 0.25903189182281494
-0.007751941680908203 -0.038759708404541016 -0.2132163643836975
-0.007751941680908203 -0.038759708404541016 0.25682997703552246
-0.007751941680908203 -0.02325582504272461 -0.21523353457450867
-0.007751941680908203 -0.02325582504272461 0.25546830892562866
-0.007751941680908203 -0.007751941680908203 -0.21048925817012787
-0.007751941680908203 -0.007751941680908203 0.25639835000038147
-0.007751941680908203 0.007751941680908203 -0.19930648803710938
-0.007751941215246916 0.007751941215246916 0.2585761249065399
-0.007751941680908203 0.02325582504272461 -0.1916457712650299
-0.007751941680908203 0.02325582504272461 0.2610059380531311
-0.007751941680908203 0.038759708404541016 -0.18684373795986176
-0.007751941680908203 0.038759708404541016 0.26134711503982544
-0.007751941680908203 0.05426359176635742 -0.18676000833511353
-0.007751941680908203 0.05426359176635742 0.2607036232948303
-0.007751941680908203 0.06976747512817383 -0.1888175904750824
-0.007751941680908203 0.06976747512817383 0.26007401943206787
-0.007751941680908203 0.08527135848999023 -0.19208978116512299
-0.007751941680908203 0.08527135848999023 0.2604837417602539
-0.007751941680908203 0.10077524185180664 -0.19469811022281647
-0.007751941680908203 0.10077524185180664 0.26165539026260376
-0.007751941680908203 0.11627912521362305 -0.19604240357875824
-0.007751941680908203 0.11627912521362305 0.2629524767398834
-0.007751941680908203 0.1317828893661499 -0.19661274552345276
-0.007751941680908203 0.1317828893661499 0.26447075605392456
-0.007751941680908203 0.1472867727279663 -0.19633010029792786
-0.007751941680908203 0.1472867727279663 0.2654191553592682
-0.007751941680908203 0.16279065608978271 -0.19515663385391235
-0.007751941680908203 0.16279065608978271 0.26562395691871643
-0.007751941680908203 0.17829453945159912 -0.19262920320034027
-0.007751941680908203 0.17829453945159912 0.2649950087070465
-0.007751941680908203 0.19379842281341553 -0.18632930517196655
-0.007751941680908203 0.19379842281341553 0.26343005895614624
-0.007751941680908203 0.20930230617523193 -0.18207181990146637
-0.007751941215246916 0.20930230617523193 0.26036185026168823
-0.007751941680908203 0.22480618953704834 -0.17910698056221008
-0.007751941680908203 0.22480618953704834 0.25553014874458313
-0.007751941680908203 0.24031007289886475 -0.17665939033031464
-0.007751941680908203 0.24031007289886475 0.25006726384162903
-0.007751941680908203 0.25581395626068115 -0.1738053858280182
-0.007751941680908203 0.25581395626068115 0.24724365770816803
-0.007751941680908203 0.27131783962249756 -0.17096832394599915
-0.007751941680908203 0.27131783962249756 0.2449798882007599
-0.007751941680908203 0.28682172298431396 -0.16938883066177368
-0.007751941680908203 0.28682172298431396 0.24355821311473846
-0.007751941680908203 0.30232560634613037 -0.16891470551490784
-0.00775194214656949 0.30232560634613037 0.2425135374069214
-0.007751941680908203 0.3178294897079468 -0.16858798265457153
-0.007751941680908203 0.3178294897079468 0.2418183982372284
-0.007751941680908203 0.3333333730697632 -0.1683163046836853
-0.007751941680908203 0.3333333730697632 0.24124276638031006
-0.007751941680908203 0.3488372564315796 -0.16876378655433655
-0.007751941680908203 0.3488372266292572 0.24031993746757507
-0.007751941680908203 0.364341139793396 -0.1691828966140747
-0.007751941680908203 0.364341139793396 0.23790645599365234
-0.007751941680908203 0.37984490394592285 -0.16836993396282196
-0.007751941680908203 0.37984490394592285 0.23513780534267426
-0.007751941680908203 0.39534878730773926 -0.16624575853347778
-0.007751941680908203 0.39534878730773926 0.23317201435565948
-0.007751941680908203 0.41085267066955566 -0.164328932762146
-0.007751941680908203 0.41085267066955566 0.23117998242378235
-0.007751941680908203 0.42635655403137207 -0.1632620245218277
-0.007751941680908203 0.42635655403137207 0.22915568947792053
-0.007751941680908203 0.4418604373931885 -0.16303223371505737
-0.007751941680908203 0.4418604373931885 0.2268039584159851
-0.007751941680908203 0.4573643207550049 -0.16311326622962952
-0.007751941680908203 0.4573643207550049 0.22368279099464417
-0.007751941680908203 0.4728682041168213 -0.16312631964683533
-0.007751941680908203 0.4728682041168213 0.2196832001209259
-0.007751941680908203 0.4883720874786377 -0.162887841463089
-0.007751941680908203 0.4883720874786377 0.2156144678592682
-0.007751941680908203 0.5038759708404541 -0.15823081135749817
-0.007751941680908203 0.5038759708404541 0.2107093334197998
-0.007751941680908203 0.5193798542022705 -0.1524200141429901
-0.007751941680908203 0.5193798542022705 0.204527348279953
-0.007751941680908203 0.5348837375640869 -0.1490340381860733
-0.007751941680908203 0.5348837375640869 0.1993636190891266
-0.007751941680908203 0.5503876209259033 -0.14286470413208008
-0.007751941680908203 0.5503876209259033 0.1910349428653717
-0.007751941680908203 0.5658915042877197 -0.1333783119916916
-0.007751941680908203 0.5658915042877197 0.18365629017353058
-0.007751941680908203 0.5813953876495361 -0.1139875203371048
-0.007751941680908203 0.5813953876495361 0.17358078062534332
-0.007751941680908203 0.5968992710113525 -0.042695920914411545
-0.007751941215246916 0.5968992710113525 0.16486147046089172
-0.007751941680908203 0.612403154373169 0.006164811551570892
-0.007751941680908203 0.612403154373169 0.15436586737632751
-0.007751941680908203 0.6279069185256958 0.07339451462030411
-0.007751941680908203 0.6279069185256958 0.1455821990966797
-0.00775194214656949 0.6434108018875122 0.09259180724620819
-0.007751941680908203 0.6434108018875122 0.13678887486457825
-0.00775194214656949 0.6589146852493286 0.0919577106833458
-0.007751941680908203 0.6589146852493286 0.1323147416114807
-0.007751941215246916 0.674418568611145 0.07264658063650131
-0.007751941680908203 0.674418568611145 0.12672075629234314
-0.007751941680908203 0.6899224519729614 0.002429553074762225
-0.007751941680908203 0.6899224519729614 0.1236565113067627
-0.007751941680908203 0.7054263353347778 -0.023295313119888306
-0.007751941680908203 0.7054263353347778 0.12049026787281036
-0.007751941680908203 0.7209302186965942 -0.09336039423942566
-0.007751941680908203 0.7209302186965942 0.11641488969326019
-0.007751941680908203 0.7364341020584106 -0.18380215764045715
-0.007751941680908203 0.7364341020584106 0.10963607579469681
-0.007751941680908203 0.751937985420227 -0.2787456512451172
-0.007751941680908203 0.751937985420227 0.10377661138772964
-0.007751941680908203 0.7674418687820435 -0.30240631103515625
-0.007751941680908203 0.7674418687820435 0.0939929187297821
-0.007751941680908203 0.7829457521438599 -0.30713188648223877
-0.007751941680908203 0.7829457521438599 -0.18568629026412964
-0.007751941680908203 0.7829457521438599 -0.09555944800376892
-0.007751941680908203 0.7829457521438599 -0.04307851567864418
-0.007751941680908203 0.7829456925392151 -0.03669021651148796
-0.007751941680908203 0.7829457521438599 0.08295430988073349
-0.007751941680908203 0.7984496355056763 -0.3036775290966034
-0.007751941680908203 0.7984496355056763 -0.2532424330711365
-0.007751941680908203 0.7984496355056763 -0.011809080839157104
-0.007751941680908203 0.7984496355056763 0.06535790860652924
-0.007751941680908203 0.8139535188674927 -0.39719244837760925
-0.007751941680908203 0.8139535188674927 -0.3756137490272522
-0.007751941680908203 0.8139535188674927 0.007354576140642166
-0.007751941680908203 0.8139535188674927 0.035720162093639374
-0.00775194214656949 0.8294574022293091 -0.4242374897003174
-0.007751941680908203 0.8294574022293091 -0.35952556133270264
-0.007751941680908203 0.8449612855911255 -0.43297845125198364
-0.007751941680908203 0.8449612855911255 -0.35866063833236694
-0.007751941215246916 0.8604651689529419 -0.4363076388835907
-0.007751941680908203 0.8604651689529419 -0.35980549454689026
-0.007751941680908203 0.8759689331054688 -0.43061715364456177
-0.007751941680908203 0.8759689331054688 -0.3609731197357178
-0.007751941680908203 0.8914728164672852 -0.4190102517604828
-0.007751941680908203 0.8914728164672852 -0.3621581494808197
-0.007751941680908203 0.9069766998291016 -0.4047739505767822
-0.007751941680908203 0.9069766998291016 -0.361564964056015
0.007751941680908203 -0.8914728164672852 0.6851869225502014
0.007751941680908203 -0.8914728164672852 0.711750864982605
0.007751941680908203 -0.8759689927101135 0.6825368404388428
0.007751941680908203 -0.8759689927101135 0.7206681370735168
0.007751941680908203 -0.8604651093482971 0.6814495325088501
0.007751941680908203 -0.8604650497436523 0.724101722240448
0.007751941680908203 -0.8449612259864807 0.6787024140357971
0.007751941680908203 -0.8449612259864807 0.7304215431213379
0.00775194214656949 -0.8294573426246643 0.6746150255203247
0.00775194214656949 -0.8294573426246643 0.7376596331596375
0.007751941680908203 -0.8139535188674927 0.6739199161529541
0.007751941680908203 -0.8139535188674927 0.742687463760376
0.007751941680908203 -0.7984496355056763 0.6747509837150574
0.007751941680908203 -0.7984496355056763 0.7512404322624207
0.007751941680908203 -0.7829457521438599 0.6822164058685303
0.007751941680908203 -0.7829457521438599 0.7547212839126587
0.007751941680908203 -0.7674418687820435 0.6883184313774109
0.007751941680908203 -0.7674418687820435 0.7599625587463379
0.007751941680908203 -0.751937985420227 0.697199285030365
0.007751941680908203 -0.751937985420227 0.767646849155426
0.007751941680908203 -0.7364341020584106 0.7025486826896667
0.007751941680908203 -0.7364341020584106 0.773970365524292
0.007751941680908203 -0.7209302186965942 0.7044357657432556
0.007751941680908203 -0.7209302186965942 0.7820603847503662
0.007751941680908203 -0.7054263353347778 0.704364001750946
0.007751941680908203 -0.7054263353347778 0.7880719900131226
0.007751941680908203 -0.6899224519729614 0.702460765838623
0.007751941680908203 -0.6899224519729614 0.7917109727859497
0.007751941680908203 -0.674418568611145 0.6992542743682861
0.007751941680908203 -0.674418568611145 0.7947251796722412
0.007751941680908203 -0.6589146852493286 0.6977636814117432
0.007751941215246916 -0.6589146852493286 0.8010013699531555
0.007751941680908203 -0.643410861492157 0.6997320652008057
0.007751941680908203 -0.643410861492157 0.8080762624740601
0.007751941680908203 -0.6279069781303406 0.7043278813362122
0.007751941680908203 -0.6279069781303406 0.8169887065887451
0.007751941680908203 -0.6124030947685242 0.7148629426956177
0.007751941680908203 -0.6124030947685242 0.8264292478561401
0.007751941680908203 -0.5968992114067078 0.7227797508239746
0.007751941680908203 -0.5968992114067078 0.8328399062156677
0.007751941680908203 -0.5813953876495361 0.7345468401908875
0.007751941680908203 -0.5813953876495361 0.837928056716919
0.007751941680908203 -0.5658915042877197 0.7466242909431458
0.007751941680908203 -0.5658915042877197 0.8433173894882202
0.007751941680908203 -0.5503876209259033 0.7517233490943909
0.007751941680908203 -0.5503876209259033 0.8451157212257385
0.007751941680908203 -0.5348837375640869 0.7638058662414551
0.00775194214656949 -0.5348837375640869 0.8467904329299927
0.007751941680908203 -0.5193798542022705 0.7669299840927124
0.007751941680908203 -0.5193798542022705 0.8545615077018738
0.007751941680908203 -0.5038759708404541 0.772770881652832
0.00775194214656949 -0.5038759708404541 0.8618951439857483
0.007751941680908203 -0.4883720874786377 0.7748323082923889
0.007751941680908203 -0.4883720874786377 0.8613932132720947
0.007751941680908203 -0.4728682041168213 0.7763333320617676
0.007751941680908203 -0.4728682041168213 0.8513616323471069
0.007751941680908203 -0.4573643207550049 0.7792208790779114
0.007751941680908203 -0.4573643207550049 0.8457887172698975
0.007751941680908203 -0.4418604373931885 0.7804303169250488
0.007751941680908203 -0.4418604373931885 0.8408016562461853
0.007751941680908203 -0.42635661363601685 0.780285120010376
0.007751941680908203 -0.42635661363601685 0.8399795293807983
0.007751941680908203 -0.41085273027420044 0.7795192003250122
0.007751941680908203 -0.41085273027420044 0.8405864238739014
0.007751941680908203 -0.39534884691238403 0.7776370048522949
0.007751941680908203 -0.39534884691238403 0.8422877192497253
0.007751941680908203 -0.3798449635505676 0.7717124223709106
0.007751941680908203 -0.3798449635505676 0.8453366160392761
0.007751941680908203 -0.3643410801887512 0.7655407190322876
0.007751941680908203 -0.3643410801887512 0.8459206819534302
0.007751941680908203 -0.3488371968269348 0.7572633028030396
0.007751941680908203 -0.3488371670246124 0.8462817668914795
0.007751941680908203 -0.3333333134651184 0.7361623644828796
0.007751941215246916 -0.3333333134651184 0.8461134433746338
0.007751941680908203 -0.317829430103302 0.6876406073570251
0.007751941680908203 -0.317829430103302 0.845043957233429
0.007751941680908203 -0.30232560634613037 0.6198587417602539
0.007751941680908203 -0.30232560634613037 0.8442326784133911
0.007751941680908203 -0.28682172298431396 0.4790586233139038
0.007751941680908203 -0.28682172298431396 0.8385487794876099
0.00775194214656949 -0.27131786942481995 0.14818885922431946
0.007751941680908203 -0.27131783962249756 0.8327704071998596
0.007751941680908203 -0.25581395626068115 0.07502906769514084
0.007751941680908203 -0.25581395626068115 0.8241699934005737
0.007751941680908203 -0.24031007289886475 0.030265945941209793
0.007751941680908203 -0.24031007289886475 0.8154253959655762
0.007751941680908203 -0.22480618953704834 -0.013219326734542847
0.007751941680908203 -0.22480618953704834 0.8034079670906067
0.007751941680908203 -0.20930230617523193 -0.04843771830201149
0.007751941680908203 -0.20930230617523193 0.7904691696166992
0.007751941680908203 -0.19379842281341553 -0.07133018970489502
0.007751941680908203 -0.19379842281341553 0.774181604385376
0.007751941680908203 -0.1782945990562439 -0.08550500869750977
0.007751941215246916 -0.1782945990562439 0.7414035201072693
0.007751941680908203 -0.1627907156944275 -0.09385115653276443
0.007751941680908203 -0.1627907156944275 0.6439120173454285
0.007751941680908203 -0.14728683233261108 -0.1026310920715332
0.007751941215246916 -0.14728683233261108 0.557870626449585
0.007751941680908203 -0.13178294897079468 -0.11022438108921051
0.007751941680908203 -0.13178294897079468 0.45597368478775024
0.007751941680908203 -0.11627906560897827 -0.12163190543651581
0.007751941680908203 -0.11627907305955887 0.36969637870788574
0.007751941680908203 -0.10077518224716187 -0.13665533065795898
0.007751941680908203 -0.10077518224716187 0.30854931473731995
0.007751941680908203 -0.08527129888534546 -0.15717251598834991
0.007751941680908203 -0.08527129888534546 0.27792343497276306
0.007751941680908203 -0.06976741552352905 -0.18163461983203888
0.007751941680908203 -0.06976741552352905 0.26413530111312866
0.007751941680908203 -0.05426359176635742 -0.19981399178504944
0.007751941680908203 -0.05426359176635742 0.25894826650619507
0.007751941680908203 -0.038759708404541016 -0.21234051883220673
0.007751941680908203 -0.038759708404541016 0.2568693161010742
0.007751941680908203 -0.02325582504272461 -0.21440911293029785
0.007751941680908203 -0.02325582504272461 0.25581178069114685
0.007751941680908203 -0.007751941680908203 -0.21025098860263824
0.007751941680908203 -0.007751941680908203 0.25653037428855896
0.007751941680908203 0.007751941680908203 -0.1988830864429474
0.007751941680908203 0.007751941680908203 0.25864869356155396
0.007751941680908203 0.02325582504272461 -0.19121238589286804
0.007751941680908203 0.02325582504272461 0.26103323698043823
0.007751941680908203 0.038759708404541016 -0.18653595447540283
0.007751941680908203 0.038759708404541016 0.26139020919799805
0.007751941680908203 0.05426359176635742 -0.18642503023147583
0.007751941680908203 0.05426359176635742 0.260783314704895
0.007751941680908203 0.06976747512817383 -0.18840360641479492
0.007751941680908203 0.06976747512817383 0.2601878046989441
0.007751941680908203 0.08527135103940964 -0.19163475930690765
0.007751941680908203 0.08527135848999023 0.26060250401496887
0.007751941680908203 0.10077524185180664 -0.1945575475692749
0.007751941680908203 0.10077524185180664 0.26177525520324707
0.007751941680908203 0.11627912521362305 -0.19584201276302338
0.007751941680908203 0.11627912521362305 0.26305603981018066
0.007751941680908203 0.1317828893661499 -0.19641447067260742
0.007751941680908203 0.1317828893661499 0.26455721259117126
0.007751941680908203 0.1472867727279663 -0.19618262350559235
0.007751941680908203 0.1472867727279663 0.26550742983818054
0.007751941680908203 0.16279065608978271 -0.19510704278945923
0.007751941680908203 0.16279065608978271 0.26571401953697205
0.007751941680908203 0.17829453945159912 -0.19271279871463776
0.007751941680908203 0.17829453945159912 0.26509562134742737
