-0.07234856486320496 -0.5348837375640869 0.8449612855911255
-0.07215463370084763 -0.5193798542022705 0.8294574022293091
-0.07037054747343063 -0.3333333134651184 0.922480583190918
-0.0704360082745552 -0.3333333134651184 0.9379844665527344
-0.07283684611320496 -0.20930230617523193 -0.08527129888534546
-0.07693397998809814 -0.20930230617523193 -0.06976741552352905
-0.07871225476264954 -0.20930230617523193 -0.05426359176635742
-0.07931189239025116 -0.20930230617523193 -0.038759708404541016
-0.07920054346323013 -0.20930230617523193 -0.02325582504272461
-0.07833871990442276 -0.20930230617523193 -0.007751941680908203
-0.07707832753658295 -0.20930230617523193 0.007751941680908203
-0.07572923600673676 -0.20930230617523193 0.02325582504272461
-0.07462594658136368 -0.20930230617523193 0.038759708404541016
-0.07374294847249985 -0.20930230617523193 0.05426359176635742
-0.07272470742464066 -0.20930230617523193 0.06976747512817383
-0.07135828584432602 -0.20930230617523193 0.08527135848999023
-0.07340490818023682 -0.19379842281341553 -0.11627906560897827
-0.07941262423992157 -0.19379842281341553 -0.10077517479658127
-0.08332515507936478 -0.19379842281341553 -0.08527129888534546
-0.0829310417175293 -0.19379842281341553 0.02325582504272461
-0.08051645010709763 -0.19379843771457672 0.038759708404541016
-0.07866542041301727 -0.19379842281341553 0.05426359176635742
-0.07686614990234375 -0.19379842281341553 0.06976747512817383
-0.07512970268726349 -0.19379842281341553 0.08527135848999023
-0.07284535467624664 -0.19379842281341553 0.10077524185180664
-0.07015988975763321 -0.19379842281341553 0.11627912521362305
-0.07583902776241302 -0.1782945990562439 -0.13178294897079468
-0.08280383795499802 -0.1782945990562439 -0.11627906560897827
-0.0843270942568779 -0.1782945990562439 0.05426359549164772
-0.08143484592437744 -0.1782945990562439 0.06976747512817383
-0.07886939495801926 -0.1782945990562439 0.08527135848999023
-0.07594367861747742 -0.1782945990562439 0.10077524185180664
-0.0728035420179367 -0.1782945990562439 0.11627912521362305
-0.0740736871957779 -0.1627907156944275 -0.14728683233261108
-0.08251778781414032 -0.1627907156944275 -0.13178294897079468
-0.08286058902740479 -0.1627907156944275 0.08527135848999023
-0.07921421527862549 -0.1627907156944275 0.10077524185180664
-0.07548847049474716 -0.1627907156944275 0.11627912521362305
-0.07096008211374283 -0.1627907156944275 0.1317828893661499
-0.07922779768705368 -0.14728683233261108 -0.14728683233261108
-0.08286094665527344 -0.14728683233261108 0.10077524185180664
-0.07823891192674637 -0.14728683233261108 0.11627912521362305
-0.0734637975692749 -0.14728683233261108 0.1317828893661499
-0.07531339675188065 -0.13178294897079468 -0.1627907156944275
-0.0818382203578949 -0.13178294897079468 0.11627912521362305
-0.0761292427778244 -0.13178294897079468 0.1317828893661499
-0.07010085135698318 -0.13178294897079468 0.1472867727279663
-0.07054661959409714 -0.11627906560897827 -0.1782945990562439
-0.08169326186180115 -0.11627906560897827 -0.1627907156944275
-0.07941332459449768 -0.11627906560897827 0.1317828893661499
-0.07318362593650818 -0.11627906560897827 0.1472867727279663
-0.07872799038887024 -0.10077518224716187 -0.1782945990562439
-0.08297975361347198 -0.10077517479658127 0.1317828893661499
-0.07609987258911133 -0.10077518224716187 0.1472867727279663
-0.07700873166322708 -0.08527129888534546 -0.19379842281341553
-0.07902983576059341 -0.08527129888534546 0.1472867727279663
-0.07186824828386307 -0.08527129888534546 0.16279065608978271
-0.07632547616958618 -0.06976741552352905 -0.20930230617523193
-0.08192770183086395 -0.06976741552352905 0.1472867727279663
-0.07448577135801315 -0.06976741552352905 0.16279065608978271
-0.08297570794820786 -0.05426358804106712 -0.22480618953704834
-0.08465969562530518 -0.05426359176635742 0.1472867727279663
-0.07679279148578644 -0.05426359176635742 0.16279065608978271
-0.07512389868497849 -0.038759708404541016 -0.24031007289886475
-0.07907317578792572 -0.038759708404541016 0.16279065608978271
-0.07025697082281113 -0.038759708404541016 0.17829453945159912
-0.0839662030339241 -0.02325582504272461 -0.27131783962249756
-0.07904370129108429 -0.02325582504272461 -0.25581395626068115
-0.08069689571857452 -0.02325582504272461 0.16279065608978271
-0.07177000492811203 -0.02325582504272461 0.17829453945159912
-0.08328753709793091 -0.007751941680908203 -0.28682172298431396
-0.07946565747261047 -0.007751941680908203 -0.27131783962249756
-0.07286389172077179 -0.007751941680908203 -0.25581395626068115
-0.0817413330078125 -0.007751941680908203 0.16279065608978271
-0.07271063327789307 -0.007751941680908203 0.17829453945159912
-0.0851522758603096 0.007751941215246916 -0.3333333134651184
-0.08397877961397171 0.007751941680908203 -0.317829430103302
-0.08219890296459198 0.007751941680908203 -0.30232560634613037
-0.07950802892446518 0.007751941680908203 -0.28682172298431396
-0.07580828666687012 0.007751941680908203 -0.27131783962249756
-0.08268676698207855 0.007751941680908203 0.16279065608978271
-0.07332026958465576 0.007751941680908203 0.17829453945159912
-0.08494281023740768 0.02325582504272461 -0.39534884691238403
-0.08407557010650635 0.02325582504272461 -0.3798449635505676
-0.08295373618602753 0.02325582504272461 -0.3643410801887512
-0.08199518173933029 0.02325582504272461 -0.3488371968269348
-0.08117735385894775 0.02325582318007946 -0.3333333134651184
-0.08016178756952286 0.02325582504272461 -0.317829430103302
-0.07872261852025986 0.02325582504272461 -0.30232560634613037
-0.07647089660167694 0.02325582504272461 -0.28682172298431396
-0.07092271000146866 0.02325582504272461 -0.27131783962249756
-0.0831223875284195 0.02325582504272461 0.16279065608978271
-0.07299544662237167 0.02325582504272461 0.17829453945159912
-0.08339338004589081 0.038759708404541016 -0.9689922332763672
-0.08441697061061859 0.038759712129831314 -0.5348837375640869
-0.08259931951761246 0.038759708404541016 -0.5193798542022705
-0.08162891119718552 0.038759708404541016 -0.5038759708404541
-0.08124557882547379 0.038759708404541016 -0.4883720874786377
-0.08123990148305893 0.038759708404541016 -0.4728682041168213
-0.08120087534189224 0.038759708404541016 -0.4573643207550049
-0.081223264336586 0.038759708404541016 -0.4418604373931885
-0.08105649054050446 0.038759708404541016 -0.42635661363601685
-0.08072849363088608 0.038759708404541016 -0.41085273027420044
-0.0802464708685875 0.038759708404541016 -0.39534884691238403
-0.0795099139213562 0.038759708404541016 -0.3798449635505676
-0.07855536043643951 0.038759708404541016 -0.3643410801887512
-0.07790866494178772 0.038759708404541016 -0.3488371968269348
-0.07742460072040558 0.038759708404541016 -0.3333333134651184
-0.0768321305513382 0.038759708404541016 -0.317829430103302
-0.07588031142950058 0.038759708404541016 -0.30232560634613037
-0.07305198162794113 0.038759708404541016 -0.28682172298431396
-0.083417147397995 0.038759708404541016 0.16279065608978271
-0.07244575023651123 0.038759708404541016 0.17829453945159912
-0.08513106405735016 0.05426359176635742 -0.6899224519729614
-0.08315064013004303 0.05426359176635742 -0.674418568611145
-0.08161969482898712 0.05426359176635742 -0.6589146852493286
-0.08003565669059753 0.05426359176635742 -0.6434109210968018
-0.07837605476379395 0.05426359176635742 -0.6279069781303406
-0.07704437524080276 0.05426359176635742 -0.6124030947685242
-0.0760473757982254 0.05426359176635742 -0.5968992114067078
-0.07521869242191315 0.05426359176635742 -0.5813953876495361
-0.07427729666233063 0.05426359176635742 -0.5658915042877197
-0.07339302450418472 0.05426359176635742 -0.5503876209259033
-0.07274548709392548 0.05426359176635742 -0.5348837375640869
-0.07275278121232986 0.05426359176635742 -0.5193798542022705
-0.07340119779109955 0.05426359176635742 -0.5038759708404541
-0.07439611852169037 0.05426359176635742 -0.4883720874786377
-0.07548177242279053 0.05426359176635742 -0.4728682041168213
-0.07627499103546143 0.05426359176635742 -0.4573643207550049
-0.07689327001571655 0.05426359176635742 -0.4418604373931885
-0.07707766443490982 0.05426359176635742 -0.42635661363601685
-0.07696988433599472 0.05426359176635742 -0.41085273027420044
-0.076581209897995 0.05426359176635742 -0.39534884691238403
-0.07590556889772415 0.05426359176635742 -0.3798449635505676
-0.0751061886548996 0.05426359176635742 -0.3643410801887512
-0.07476300746202469 0.05426359176635742 -0.3488371968269348
-0.07464033365249634 0.05426359176635742 -0.3333333134651184
-0.07421084493398666 0.05426359176635742 -0.317829430103302
-0.0729837715625763 0.05426359176635742 -0.30232560634613037
-0.08421171456575394 0.05426358804106712 0.16279065608978271
-0.07237812876701355 0.05426359176635742 0.17829453945159912
-0.07166946679353714 0.06976747512817383 -0.7674418687820435
-0.07175111770629883 0.06976747512817383 -0.751937985420227
-0.0718950480222702 0.06976747512817383 -0.7364341020584106
-0.07170583307743073 0.06976747512817383 -0.7209302186965942
-0.07123000919818878 0.06976747512817383 -0.7054263353347778
-0.07098388671875 0.06976747512817383 -0.6899224519729614
-0.07090303301811218 0.06976747512817383 -0.674418568611145
-0.0711149275302887 0.06976747512817383 -0.6589146852493286
-0.07047153264284134 0.06976747512817383 -0.643410861492157
-0.07054784893989563 0.06976747512817383 -0.4573643207550049
-0.07270442694425583 0.06976747512817383 -0.4418604373931885
-0.07371292263269424 0.06976747512817383 -0.42635661363601685
-0.07398752123117447 0.06976747512817383 -0.41085273027420044
-0.07374511659145355 0.06976747512817383 -0.39534884691238403
-0.07297108322381973 0.06976747512817383 -0.3798449635505676
-0.07225048542022705 0.06976747512817383 -0.3643410801887512
-0.07235881686210632 0.06976747512817383 -0.3488371968269348
-0.07276389002799988 0.06976747512817383 -0.3333333134651184
-0.07259520888328552 0.06976747512817383 -0.317829430103302
-0.07098732888698578 0.06976747512817383 -0.30232560634613037
-0.07344949245452881 0.06976747512817383 0.17829453945159912
-0.07029471546411514 0.08527135848999023 -0.8139535188674927
-0.07342898845672607 0.08527135848999023 -0.7984496355056763
-0.07499370723962784 0.08527135848999023 -0.7829457521438599
-0.07611392438411713 0.08527135848999023 -0.7674418687820435
-0.07550287246704102 0.08527135848999023 -0.751937985420227
-0.0752355307340622 0.08527135848999023 -0.7364341020584106
-0.07488486170768738 0.08527135848999023 -0.7209302186965942
-0.07455429434776306 0.08527135848999023 -0.7054263353347778
-0.0745658129453659 0.08527135848999023 -0.6899224519729614
-0.07473181188106537 0.08527135848999023 -0.674418568611145
-0.07512068748474121 0.08527135848999023 -0.6589146852493286
-0.07477835565805435 0.08527135848999023 -0.643410861492157
-0.07391729950904846 0.08527135848999023 -0.6279069781303406
-0.07224597781896591 0.08527135848999023 -0.6124030947685242
-0.07058356702327728 0.08527135848999023 -0.5968992114067078
-0.07122225314378738 0.08527135848999023 -0.4728682041168213
-0.0729464590549469 0.08527135848999023 -0.4573643207550049
-0.07455769181251526 0.08527135848999023 -0.4418604373931885
-0.07550674676895142 0.08527135848999023 -0.42635661363601685
-0.07570788264274597 0.08527135848999023 -0.41085273027420044
-0.07541593164205551 0.08527135848999023 -0.39534884691238403
-0.07460921257734299 0.08527135848999023 -0.3798449635505676
-0.07402975857257843 0.08527135848999023 -0.3643410801887512
-0.07420333474874496 0.08527135848999023 -0.3488371968269348
-0.07465141266584396 0.08527135848999023 -0.3333333134651184
-0.07452268898487091 0.08527135848999023 -0.317829430103302
-0.07274696975946426 0.08527135848999023 -0.30232560634613037
-0.07482714205980301 0.08527135848999023 0.17829453945159912
-0.07380905747413635 0.10077524185180664 -0.9844961166381836
-0.07205857336521149 0.10077524185180664 -0.9689922332763672
-0.0711125060915947 0.10077524185180664 -0.9534883499145508
-0.07107250392436981 0.10077524185180664 -0.9379844665527344
-0.07081496715545654 0.10077524185180664 -0.9224806427955627
-0.08253856003284454 0.10077524185180664 -0.30232560634613037
-0.07518284767866135 0.10077524185180664 -0.28682172298431396
-0.07576672732830048 0.10077524185180664 0.17829453945159912
-0.07652729749679565 0.11627912521362305 0.17829453945159912
-0.07716423273086548 0.1317828893661499 0.17829453945159912
-0.07682640850543976 0.1472867727279663 0.17829453945159912
-0.07473239302635193 0.16279065608978271 0.17829453945159912
-0.07000452280044556 0.17829453945159912 0.17829453945159912
-0.07946668565273285 0.19379842281341553 -0.19379842281341553
-0.07960288226604462 0.19379842281341553 0.16279065608978271
-0.07616788148880005 0.20930230617523193 -0.19379842281341553
-0.07271195948123932 0.20930230617523193 0.16279065608978271
-0.07254032790660858 0.22480618953704834 -0.19379842281341553
-0.08012895286083221 0.22480618953704834 0.1472867727279663
-0.07350350171327591 0.24031007289886475 0.1472867727279663
-0.0847184881567955 0.25581395626068115 -0.1782945990562439
-0.0815010815858841 0.27131783962249756 -0.1782945990562439
-0.0827251523733139 0.27131783962249756 0.1317828893661499
-0.07955431193113327 0.28682172298431396 -0.1782945990562439
-0.081599660217762 0.28682172298431396 0.1317828893661499
-0.0792330652475357 0.30232560634613037 -0.1782945990562439
-0.08152954280376434 0.30232560634613037 0.1317828893661499
-0.07927001267671585 0.3178294897079468 -0.1782945990562439
-0.08152715116739273 0.3178294897079468 0.1317828893661499
-0.07878006994724274 0.3333333730697632 -0.1782945990562439
-0.08139228820800781 0.3333333730697632 0.1317828893661499
-0.07868492603302002 0.3488372564315796 -0.1782945990562439
-0.08123546838760376 0.3488372564315796 0.1317828893661499
-0.07916754484176636 0.364341139793396 -0.1782945990562439
-0.08104178309440613 0.364341139793396 0.1317828893661499
-0.08076244592666626 0.37984490394592285 -0.1782945990562439
-0.07987150549888611 0.37984490394592285 0.1317828893661499
-0.08342473208904266 0.39534878730773926 -0.1782945990562439
-0.07785730808973312 0.39534878730773926 0.1317828893661499
-0.0752805545926094 0.41085267066955566 0.1317828893661499
-0.07228909432888031 0.42635655403137207 0.1317828893661499
-0.07047105580568314 0.4418604373931885 0.1317828893661499
-0.07015366852283478 0.4573643207550049 0.1317828893661499
-0.07080543041229248 0.4728682041168213 0.1317828893661499
-0.07209950685501099 0.4883720874786377 0.1317828893661499
-0.0731605812907219 0.5038759708404541 0.1317828893661499
-0.0719485878944397 0.5193798542022705 0.1317828893661499
-0.07602764666080475 0.5348837375640869 -0.20930230617523193
-0.08483657985925674 0.5503876209259033 0.11627912521362305
-0.07596554607152939 0.5658915042877197 0.11627912521362305
-0.08447752147912979 0.5813953876495361 -0.22480618953704834
-0.08475539088249207 0.5813953876495361 0.10077524185180664
-0.075942263007164 0.5968992710113525 -0.24031007289886475
-0.07599812746047974 0.5968992710113525 0.10077524185180664
-0.08179207891225815 0.612403154373169 -0.27131783962249756
-0.08484961837530136 0.612403154373169 0.08527135848999023
-0.07054542005062103 0.612403154373169 0.10077524185180664
-0.08137954771518707 0.6279069185256958 -0.28682172298431396
-0.08098112046718597 0.6279069185256958 0.08527135848999023
-0.0828585997223854 0.6434108018875122 -0.30232563614845276
-0.08002808690071106 0.6434108018875122 0.08527135848999023
-0.0849836990237236 0.6589146852493286 -0.317829430103302
-0.07987435162067413 0.6589146852493286 0.08527135848999023
-0.08522644639015198 0.674418568611145 -0.9844961166381836
-0.07884174585342407 0.674418568611145 -0.317829430103302
-0.0792064368724823 0.674418568611145 0.08527135848999023
-0.08495845645666122 0.6899224519729614 -0.3333333134651184
-0.0781458169221878 0.6899224519729614 -0.317829430103302
-0.07701124995946884 0.6899224519729614 0.08527135848999023
-0.08435993641614914 0.7054263353347778 -0.3333333432674408
-0.08127623051404953 0.7054263353347778 -0.317829430103302
-0.07440615445375443 0.7054263353347778 -0.30232560634613037
-0.07089928537607193 0.7054263353347778 0.08527135848999023
-0.0718633309006691 0.7209302186965942 -0.9689922332763672
-0.07424814999103546 0.7209302186965942 -0.9534883499145508
-0.07218018174171448 0.7209302186965942 -0.9379844665527344
-0.07151161134243011 0.7209302186965942 -0.9224806427955627
-0.07384511083364487 0.7209302186965942 -0.9069767594337463
-0.07834864407777786 0.7209302186965942 -0.8914729356765747
-0.08322692662477493 0.7209302186965942 -0.8759689927101135
-0.08483350276947021 0.7209302186965942 -0.4728682041168213
-0.08374961465597153 0.7209302186965942 -0.4573643207550049
-0.08325433731079102 0.7209302186965942 -0.4418604373931885
-0.08306863158941269 0.7209302186965942 -0.42635661363601685
-0.0831037312746048 0.7209302186965942 -0.41085273027420044
-0.08325135707855225 0.720930278301239 -0.3953488767147064
-0.08333031088113785 0.7209302186965942 -0.3798449635505676
-0.08333630859851837 0.720930278301239 -0.3643410801887512
-0.08341989666223526 0.720930278301239 -0.3488371968269348
-0.08329334110021591 0.7209302186965942 -0.3333333134651184
-0.08246725797653198 0.7209302186965942 -0.317829430103302
-0.08061296492815018 0.7209302186965942 -0.30232560634613037
-0.07767578214406967 0.7209302186965942 -0.28682172298431396
-0.07339377701282501 0.7209302186965942 -0.27131783962249756
-0.07588594406843185 0.7364341020584106 -0.8604651093482971
-0.07987122982740402 0.7364341020584106 -0.8449612259864807
-0.08256486803293228 0.7364341616630554 -0.8294574022293091
-0.08453863114118576 0.7364341020584106 -0.8139535188674927
-0.08425435423851013 0.7364341020584106 -0.5193798542022705
-0.08318440616130829 0.7364340424537659 -0.5038759708404541
-0.08224304020404816 0.7364341020584106 -0.4883721172809601
-0.08157982677221298 0.7364341020584106 -0.4728682041168213
-0.08112142980098724 0.7364341020584106 -0.45736435055732727
-0.08102588355541229 0.7364340424537659 -0.4418604075908661
-0.08116485178470612 0.7364340424537659 -0.42635661363601685
-0.08149121701717377 0.7364341020584106 -0.41085273027420044
-0.08194485306739807 0.7364341020584106 -0.39534884691238403
-0.08235356211662292 0.7364341020584106 -0.3798449635505676
-0.08278877288103104 0.7364341616630554 -0.3643411099910736
-0.08341139554977417 0.7364341020584106 -0.3488371968269348
-0.08399053663015366 0.7364341020584106 -0.3333333134651184
-0.08411168307065964 0.7364341020584106 -0.317829430103302
-0.08373115956783295 0.7364341020584106 -0.30232560634613037
-0.0828954428434372 0.7364341020584106 -0.28682172298431396
-0.08155149221420288 0.7364341020584106 -0.27131783962249756
-0.07935521751642227 0.7364341020584106 -0.25581395626068115
-0.07452627271413803 0.7364341020584106 -0.24031007289886475
-0.07483671605587006 0.7364341020584106 0.06976747512817383
-0.07431693375110626 0.751937985420227 -0.9069767594337463
-0.07087122648954391 0.751937985420227 -0.8604651093482971
-0.07525952160358429 0.751937985420227 -0.8449612259864807
-0.07852466404438019 0.751937985420227 -0.8294573426246643
-0.0803704559803009 0.751937985420227 -0.8139534592628479
-0.08156382292509079 0.751937985420227 -0.7984496355056763
-0.08255427330732346 0.7519379258155823 -0.7829457521438599
-0.0834135040640831 0.751937985420227 -0.7674418687820435
-0.08403630554676056 0.751937985420227 -0.751937985420227
-0.08456484973430634 0.751937985420227 -0.7364341020584106
-0.0848841443657875 0.7519379258155823 -0.7209302186965942
-0.08482193946838379 0.751937985420227 -0.7054263353347778
-0.08463132381439209 0.751937985420227 -0.6899224519729614
-0.08439148217439651 0.751937985420227 -0.674418568611145
-0.08405658602714539 0.751937985420227 -0.6589146852493286
-0.08387287706136703 0.751937985420227 -0.643410861492157
-0.08381173759698868 0.751937985420227 -0.6279069185256958
-0.0837688222527504 0.7519379258155823 -0.6124030947685242
-0.08375586569309235 0.7519379258155823 -0.5968992114067078
-0.08365568518638611 0.751937985420227 -0.5813953876495361
-0.08349458128213882 0.751937985420227 -0.5658915042877197
-0.08336052298545837 0.751937985420227 -0.5503876209259033
-0.08302470296621323 0.751937985420227 -0.5348837375640869
-0.08261270076036453 0.7519380450248718 -0.5193798542022705
-0.08219181001186371 0.751937985420227 -0.5038759708404541
-0.08179475367069244 0.751937985420227 -0.4883720874786377
-0.08152756839990616 0.751937985420227 -0.4728682041168213
-0.08140324056148529 0.751937985420227 -0.4573643207550049
-0.08166055381298065 0.751937985420227 -0.4418604373931885
-0.08222401142120361 0.751937985420227 -0.42635661363601685
-0.08299990743398666 0.751937985420227 -0.41085273027420044
-0.08389681577682495 0.751937985420227 -0.39534884691238403
-0.08480556309223175 0.7519380450248718 -0.37984499335289
-0.08200840651988983 0.751937985420227 -0.24031007289886475
-0.08001682162284851 0.751937985420227 0.05426359176635742
-0.08377482742071152 0.7674419283866882 -0.8139535188674927
-0.08310286700725555 0.7674418687820435 -0.7984496355056763
-0.08282148838043213 0.7674418687820435 -0.7829457521438599
-0.08270919322967529 0.7674418687820435 -0.7674418687820435
-0.0827612429857254 0.7674418687820435 -0.751937985420227
-0.0830460712313652 0.7674418687820435 -0.7364341020584106
-0.08325834572315216 0.7674418687820435 -0.7209302186965942
-0.08308034390211105 0.7674418091773987 -0.7054263353347778
-0.08284193277359009 0.7674419283866882 -0.6899224519729614
-0.08264424651861191 0.7674418687820435 -0.674418568611145
-0.08234317600727081 0.7674418687820435 -0.6589146852493286
-0.08228055387735367 0.7674418687820435 -0.643410861492157
-0.08232078701257706 0.7674418687820435 -0.6279070377349854
-0.08242464810609818 0.7674418687820435 -0.6124030947685242
-0.08255580812692642 0.7674418687820435 -0.5968992114067078
-0.08258510380983353 0.7674418687820435 -0.5813953876495361
-0.08262871205806732 0.7674418687820435 -0.5658915042877197
-0.08284425735473633 0.7674419283866882 -0.5503876209259033
-0.08299613744020462 0.7674418687820435 -0.5348837375640869
-0.08321377635002136 0.7674418687820435 -0.5193798542022705
-0.08345827460289001 0.7674418687820435 -0.5038759708404541
-0.08389856666326523 0.7674418687820435 -0.4883720874786377
-0.08439353108406067 0.7674418687820435 -0.4728682041168213
-0.08501853048801422 0.7674418687820435 -0.4573643207550049
-0.07947796583175659 0.7674418687820435 0.038759708404541016
-0.08506037294864655 0.7829457521438599 -0.6899225115776062
-0.08455178141593933 0.7829457521438599 -0.674418568611145
-0.08401031792163849 0.7829458117485046 -0.6589146852493286
-0.08381102979183197 0.7829457521438599 -0.643410861492157
-0.08386336266994476 0.7829457521438599 -0.6279069781303406
-0.08401720225811005 0.7829457521438599 -0.6124030947685242
-0.08427157998085022 0.7829456925392151 -0.5968992114067078
-0.08448399603366852 0.7829457521438599 -0.5813953876495361
-0.08475732803344727 0.7829458117485046 -0.5658915042877197
-0.0810658410191536 0.7829457521438599 -0.1782945990562439
-0.08286575227975845 0.7829457521438599 0.007751941680908203
-0.0735795795917511 0.7829457521438599 0.02325582504272461
-0.05465136468410492 -0.6589146852493286 0.7984496355056763
-0.05440906062722206 -0.643410861492157 0.7674418687820435
-0.05590298771858215 -0.6434109210968018 0.7829457521438599
-0.05695434287190437 -0.6434108018875122 0.7984496355056763
-0.05488849803805351 -0.643410861492157 0.8139535188674927
-0.05552297458052635 -0.6279069781303406 0.7674418687820435
-0.05728573352098465 -0.6279069781303406 0.7829457521438599
-0.05896021053195 -0.6279069781303406 0.7984496355056763
-0.0576154850423336 -0.6279069781303406 0.8139535188674927
-0.05436050146818161 -0.6124030947685242 0.751937985420227
-0.05643932893872261 -0.6124030947685242 0.7674418687820435
-0.05840016156435013 -0.6124030947685242 0.7829457521438599
-0.05994782596826553 -0.6124030947685242 0.7984496355056763
-0.0598570741713047 -0.6124030947685242 0.8139535188674927
-0.054767921566963196 -0.6124030947685242 0.8294574022293091
-0.054341696202754974 -0.5968992114067078 0.751937985420227
-0.05682628974318504 -0.5968992114067078 0.7674418687820435
-0.058760710060596466 -0.5968992114067078 0.7829457521438599
-0.06023319065570831 -0.5968992114067078 0.7984496355056763
-0.060481294989585876 -0.5968992114067078 0.8139535188674927
-0.056263234466314316 -0.5968992710113525 0.8294574022293091
-0.05663318932056427 -0.5813953876495361 0.7674418687820435
-0.05869466811418533 -0.5813953876495361 0.7829457521438599
-0.0600799024105072 -0.5813953876495361 0.7984496355056763
-0.0600067600607872 -0.5813953876495361 0.8139535188674927
-0.056764181703329086 -0.5813953876495361 0.8294574022293091
-0.05600384995341301 -0.5658915042877197 0.7674418687820435
-0.05840231850743294 -0.5658915042877197 0.7829457521438599
-0.060110609978437424 -0.5658915042877197 0.7984496355056763
-0.06255074590444565 -0.5658915042877197 0.8139535188674927
-0.06407579779624939 -0.5658915042877197 0.8294574022293091
-0.05484528839588165 -0.5503876209259033 0.7674418687820435
-0.057576075196266174 -0.5503876209259033 0.7829457521438599
-0.060367755591869354 -0.5503876209259033 0.7984496355056763
-0.0681023895740509 -0.5503876209259033 0.8139534592628479
-0.05615512654185295 -0.5348837375640869 0.7829457521438599
-0.05882120132446289 -0.5348837375640869 0.7984496355056763
-0.06706975400447845 -0.5348837375640869 0.8139535188674927
-0.057014647871255875 -0.5348837375640869 0.8604651689529419
-0.05466547608375549 -0.5193798542022705 0.7829457521438599
-0.055769942700862885 -0.5193798542022705 0.7984496355056763
-0.0593276172876358 -0.5193798542022705 0.8139535188674927
-0.06970888376235962 -0.5193798542022705 0.8449612855911255
-0.06028285250067711 -0.5193798542022705 0.8604651689529419
-0.05751645565032959 -0.5038759708404541 0.8294574022293091
-0.05875425413250923 -0.5038759708404541 0.8449612855911255
-0.05825774371623993 -0.5038759708404541 0.8604651689529419
-0.05567663908004761 -0.3643410801887512 0.7674418687820435
-0.05506151542067528 -0.3643410801887512 0.7829457521438599
-0.05466203764081001 -0.3643410801887512 0.922480583190918
-0.057160165160894394 -0.3488371968269348 0.751937985420227
-0.05750618129968643 -0.3488371968269348 0.7674418687820435
-0.05548008158802986 -0.3488371968269348 0.7829457521438599
-0.05621519684791565 -0.3488371968269348 0.8914728164672852
-0.05845441669225693 -0.3488371968269348 0.9069766998291016
-0.0596652626991272 -0.3488371968269348 0.922480583190918
-0.05939306318759918 -0.3333333134651184 0.751937985420227
-0.057388801127672195 -0.3333333134651184 0.7674418687820435
-0.055461931973695755 -0.3333333134651184 0.8914728164672852
-0.05925864353775978 -0.3333333134651184 0.9069766998291016
-0.06920738518238068 -0.3333333134651184 0.9379844665527344
-0.054272010922431946 -0.25581395626068115 0.05426359176635742
-0.05459795147180557 -0.25581395626068115 0.06976747512817383
-0.05531416833400726 -0.24031007289886475 -0.038759708404541016
-0.0563594326376915 -0.24031007289886475 -0.02325582504272461
-0.05700387805700302 -0.24031007289886475 -0.007751941680908203
-0.057855211198329926 -0.24031007289886475 0.007751941680908203
-0.058972664177417755 -0.24031007289886475 0.02325582504272461
-0.0599663108587265 -0.24031007289886475 0.038759708404541016
-0.06046554446220398 -0.24031007289886475 0.05426359176635742
-0.06031488627195358 -0.24031007289886475 0.06976747512817383
-0.05953720957040787 -0.24031007289886475 0.08527135848999023
-0.05815640091896057 -0.24031007289886475 0.10077524185180664
-0.056014347821474075 -0.24031007289886475 0.11627912521362305
-0.06038231402635574 -0.22480618953704834 -0.08527129888534546
-0.06366957724094391 -0.22480618953704834 -0.06976741552352905
-0.0660276710987091 -0.22480618953704834 -0.05426359176635742
-0.06738519668579102 -0.22480618953704834 -0.038759708404541016
-0.06823989003896713 -0.22480618953704834 -0.02325582504272461
-0.06841056793928146 -0.22480618953704834 -0.007751941680908203
-0.06830623000860214 -0.22480618953704834 0.00775194214656949
-0.06817705184221268 -0.22480618953704834 0.02325582504272461
-0.06814774125814438 -0.22480617463588715 0.038759708404541016
-0.06791280955076218 -0.22480618953704834 0.05426359549164772
-0.06707305461168289 -0.22480618953704834 0.06976747512817383
-0.06539672613143921 -0.22480618953704834 0.08527135848999023
-0.062699094414711 -0.22480618953704834 0.10077524185180664
-0.059856098145246506 -0.22480618953704834 0.11627912521362305
-0.056996941566467285 -0.22480618953704834 0.1317828893661499
-0.061155494302511215 -0.20930230617523193 -0.11627906560897827
-0.06642891466617584 -0.20930230617523193 -0.10077518224716187
-0.06952698528766632 -0.20930229127407074 0.10077524185180664
-0.06482317298650742 -0.20930230617523193 0.11627912521362305
-0.05987362936139107 -0.20930230617523193 0.1317828893661499
-0.055768776684999466 -0.20930230617523193 0.1472867727279663
-0.05477927625179291 -0.19379842281341553 -0.14728683233261108
-0.06444388628005981 -0.19379842281341553 -0.13178294897079468
-0.06416037678718567 -0.19379842281341553 0.1317828893661499
-0.05830267444252968 -0.19379842281341553 0.1472867727279663
-0.0647721216082573 -0.1782945990562439 -0.14728683233261108
-0.06849950551986694 -0.1782945990562439 0.1317828893661499
-0.060887761414051056 -0.1782945990562439 0.1472867727279663
-0.055286988615989685 -0.1782945990562439 0.16279065608978271
-0.06234859302639961 -0.1627907156944275 -0.1627907156944275
-0.0639178603887558 -0.1627907156944275 0.1472867727279663
-0.05739941820502281 -0.1627907156944275 0.16279065608978271
-0.05764524266123772 -0.14728683233261108 -0.1782945990562439
-0.06944261491298676 -0.14728683233261108 -0.1627907156944275
-0.0670848861336708 -0.14728683233261108 0.1472867727279663
-0.05971379205584526 -0.14728683233261108 0.16279065608978271
-0.0628175288438797 -0.13178294897079468 -0.1782945990562439
-0.0623042918741703 -0.13178294897079468 0.16279065608978271
-0.055025871843099594 -0.13178294897079468 0.17829453945159912
-0.058194708079099655 -0.11627906560897827 -0.19379842281341553
-0.06580474972724915 -0.11627906560897827 0.16279065608978271
-0.0578862801194191 -0.11627906560897827 0.17829453945159912
-0.06635750830173492 -0.10077518224716187 -0.19379842281341553
-0.06906542181968689 -0.10077517479658127 0.16279065608978271
-0.060572549700737 -0.10077518224716187 0.17829453945159912
-0.06077829748392105 -0.08527129888534546 -0.20930230617523193
-0.06319808959960938 -0.08527129888534546 0.17829453945159912
-0.05484301224350929 -0.08527129888534546 0.19379842281341553
-0.06592342257499695 -0.06976741552352905 0.17829453945159912
-0.05708599463105202 -0.06976741552352905 0.19379842281341553
-0.06818335503339767 -0.05426358804106712 0.17829453945159912
-0.05877542495727539 -0.05426359176635742 0.19379842281341553
-0.05988582968711853 -0.038759708404541016 0.19379842281341553
-0.06505545228719711 -0.02325582504272461 -0.24031007289886475
-0.060675185173749924 -0.02325582504272461 0.19379842281341553
-0.06023670360445976 -0.007751941680908203 -0.24031007289886475
-0.06084100529551506 -0.007751941680908203 0.19379842281341553
-0.06800124794244766 0.007751941680908203 -0.25581395626068115
-0.05558640882372856 0.007751941680908203 -0.24031007289886475
-0.060610104352235794 0.007751941680908203 0.19379842281341553
-0.0654037594795227 0.02325582690536976 -0.25581395626068115
-0.05917496979236603 0.02325582504272461 0.19379842281341553
-0.06831371784210205 0.038759708404541016 -0.27131783962249756
-0.06326289474964142 0.038759708404541016 -0.25581395626068115
-0.0571543350815773 0.038759708404541016 0.19379842281341553
-0.05829457938671112 0.05426359176635742 -0.9534883499145508
-0.06398564577102661 0.05426359176635742 -0.9379844665527344
-0.06662259995937347 0.05426359176635742 -0.9224806427955627
-0.06828784197568893 0.05426359176635742 -0.9069767594337463
-0.06955771893262863 0.05426359176635742 -0.8914728760719299
-0.06950543075799942 0.05426359176635742 -0.28682172298431396
-0.06668227910995483 0.05426359176635742 -0.27131783962249756
-0.06164021044969559 0.05426359176635742 -0.25581395626068115
-0.05550476908683777 0.05426359176635742 0.19379842281341553
-0.0548686720430851 0.06976747512817383 -0.9224806427955627
-0.05906996130943298 0.06976747512817383 -0.9069766998291016
-0.06161409988999367 0.06976747512817383 -0.8914728760719299
-0.06383570283651352 0.06976747512817383 -0.8759689927101135
-0.06529425829648972 0.06976747512817383 -0.8604651093482971
-0.06669867038726807 0.06976747512817383 -0.8449612259864807
-0.06782054901123047 0.06976747512817383 -0.8294573426246643
-0.06875358521938324 0.06976747512817383 -0.8139535188674927
-0.06933315098285675 0.06976747512817383 -0.7984496355056763
-0.06973177194595337 0.06976747512817383 -0.7829457521438599
-0.0696241483092308 0.06976747512817383 -0.6279069781303406
-0.06917974352836609 0.06976746767759323 -0.6124030947685242
-0.06885948777198792 0.06976747512817383 -0.5968992114067078
-0.06857030838727951 0.06976747512817383 -0.5813953876495361
-0.06823140382766724 0.06976747512817383 -0.5658915042877197
-0.0679582953453064 0.06976747512817383 -0.5503876209259033
-0.06775384396314621 0.06976747512817383 -0.5348837375640869
-0.06788001954555511 0.06976747512817383 -0.5193798542022705
-0.06821078807115555 0.06976746767759323 -0.5038759708404541
-0.06870861351490021 0.06976747512817383 -0.4883720874786377
-0.06933710724115372 0.06976748257875443 -0.4728682041168213
-0.0685068815946579 0.06976748257875443 -0.28682175278663635
-0.06539519131183624 0.06976747512817383 -0.27131783962249756
-0.059845395386219025 0.06976747512817383 -0.25581395626068115
-0.05507752299308777 0.06976747512817383 0.19379842281341553
-0.05752711370587349 0.08527135848999023 -0.9069767594337463
-0.06132115051150322 0.08527135848999023 -0.8914728760719299
-0.06414568424224854 0.08527135848999023 -0.8759690523147583
-0.06600691378116608 0.08527135103940964 -0.8604650497436523
-0.06773752719163895 0.08527135848999023 -0.8449612259864807
-0.06896529346704483 0.08527135848999023 -0.8294573426246643
-0.06956274062395096 0.08527135848999023 -0.5813953876495361
-0.06921682506799698 0.08527135848999023 -0.5658915042877197
-0.06896667927503586 0.08527135848999023 -0.5503876209259033
-0.06879499554634094 0.08527135848999023 -0.5348837375640869
-0.06893429160118103 0.08527135103940964 -0.5193798542022705
-0.06926530599594116 0.08527135848999023 -0.5038759708404541
-0.0696614608168602 0.08527135848999023 -0.4883720874786377
-0.06891533732414246 0.08527135848999023 -0.28682172298431396
-0.06535028666257858 0.08527135848999023 -0.27131783962249756
-0.05847691744565964 0.08527135848999023 -0.25581395626068115
-0.055674873292446136 0.08527135848999023 0.19379842281341553
-0.061291374266147614 0.10077524185180664 -0.9844961166381836
-0.06517884135246277 0.10077523440122604 -0.9689922332763672
-0.06770869344472885 0.10077524185180664 -0.953488290309906
-0.06822815537452698 0.10077524185180664 -0.9379844665527344
-0.06881467998027802 0.10077524185180664 -0.922480583190918
-0.06754881888628006 0.10077524185180664 -0.27131783962249756
-0.05874381214380264 0.10077524185180664 -0.25581395626068115
-0.056471213698387146 0.10077524185180664 0.19379842281341553
-0.06682387739419937 0.11627912521362305 -0.25581395626068115
-0.05638273060321808 0.11627912521362305 0.19379842281341553
-0.05527269095182419 0.1317828893661499 0.19379842281341553
-0.06536513566970825 0.16279065608978271 -0.20930229127407074
-0.06180104613304138 0.19379842281341553 0.17829453945159912
-0.06417976319789886 0.22480618953704834 0.16279065608978271
-0.06791190803050995 0.24031007289886475 -0.19379842281341553
-0.05677420273423195 0.24031007289886475 0.16279065608978271
-0.06321011483669281 0.25581395626068115 -0.19379842281341553
-0.06896742433309555 0.25581395626068115 0.1472867727279663
-0.05966024845838547 0.27131783962249756 -0.19379842281341553
-0.06508126854896545 0.27131783962249756 0.1472867727279663
-0.057181403040885925 0.28682172298431396 -0.19379842281341553
-0.06346562504768372 0.28682172298431396 0.1472867727279663
-0.0563599169254303 0.30232560634613037 -0.19379842281341553
-0.06285816431045532 0.30232560634613037 0.1472867727279663
-0.055815793573856354 0.3178294897079468 -0.19379842281341553
-0.06283389031887054 0.3178294897079468 0.1472867727279663
-0.05468808859586716 0.3333333730697632 -0.19379842281341553
-0.06295120716094971 0.3333333730697632 0.1472867727279663
-0.05439860001206398 0.3488372564315796 -0.19379842281341553
-0.06250831484794617 0.3488372564315796 0.1472867727279663
-0.054877180606126785 0.364341139793396 -0.19379842281341553
-0.06187872961163521 0.364341139793396 0.1472867727279663
-0.05530440807342529 0.37984490394592285 -0.19379842281341553
-0.06066814437508583 0.37984490394592285 0.1472867727279663
-0.05443830415606499 0.39534878730773926 -0.19379842281341553
-0.05923404544591904 0.39534878730773926 0.1472867727279663
-0.056762829422950745 0.41085267066955566 0.1472867727279663
-0.06704680621623993 0.5348837375640869 0.1317828893661499
-0.06509163230657578 0.5503876209259033 -0.20930230617523193
-0.05974051356315613 0.5503876209259033 0.1317828893661499
-0.0668649822473526 0.5813953876495361 0.11627913266420364
-0.059306275099515915 0.5968992710113525 0.11627912521362305
-0.06947682052850723 0.612403154373169 -0.25581395626068115
-0.06826097518205643 0.6279069185256958 -0.27131783962249756
-0.06205377355217934 0.6279069185256958 -0.25581395626068115
-0.06550106406211853 0.6279069185256958 0.10077524185180664
-0.06844794005155563 0.6434108018875122 -0.28682172298431396
-0.06296657025814056 0.6434108018875122 -0.27131783962249756
-0.05481070652604103 0.6434108018875122 -0.25581395626068115
-0.06231561303138733 0.6434108018875122 0.10077524185180664
-0.06966342031955719 0.6589146852493286 -0.30232560634613037
-0.06433071196079254 0.6589146852493286 -0.28682172298431396
-0.05794277414679527 0.6589146852493286 -0.27131783962249756
-0.05976478010416031 0.6589146852493286 0.10077524185180664
-0.06734374165534973 0.674418568611145 -0.30232560634613037
-0.06225227564573288 0.674418568611145 -0.28682172298431396
-0.055185746401548386 0.674418568611145 -0.27131783962249756
-0.055922701954841614 0.674418568611145 0.10077524185180664
-0.06362510472536087 0.6899224519729614 -0.9844960570335388
-0.06779161840677261 0.6899224519729614 -0.30232560634613037
-0.06382361054420471 0.6899224519729614 -0.28682172298431396
-0.059257108718156815 0.6899224519729614 -0.27131783962249756
-0.05736282840371132 0.7054263353347778 -0.9844961166381836
-0.06773282587528229 0.7054263353347778 -0.28682172298431396
-0.06508591026067734 0.7054263353347778 -0.27131783962249756
-0.06252411007881165 0.7054263353347778 -0.25581395626068115
-0.05922422558069229 0.7054263353347778 -0.24031007289886475
-0.069243423640728 0.7209302186965942 -0.25581395626068115
-0.06579208374023438 0.7209302186965942 -0.24031007289886475
-0.058879971504211426 0.7209302186965942 -0.22480618953704834
-0.061732590198516846 0.7209302186965942 0.08527135848999023
-0.059979312121868134 0.7364341020584106 -0.9844961166381836
-0.06940652430057526 0.7364341020584106 -0.9689922332763672
-0.06782226264476776 0.7364341020584106 -0.9534883499145508
-0.06546969711780548 0.7364341020584106 -0.9379844665527344
-0.06447260081768036 0.7364341020584106 -0.9224807024002075
-0.06487738341093063 0.7364341020584106 -0.9069767594337463
-0.06654556840658188 0.7364341020584106 -0.8914728760719299
-0.06940276175737381 0.7364341020584106 -0.8759689927101135
-0.06290663778781891 0.7364341020584106 -0.22480618953704834
-0.0691056028008461 0.7519379258155823 -0.8914728760719299
-0.0691053569316864 0.751937985420227 -0.8759689927101135
-0.06909157335758209 0.751937985420227 -0.22480618953704834
-0.059646304696798325 0.751937985420227 0.06976747512817383
-0.055986449122428894 0.7674418687820435 -0.20930230617523193
-0.06163822114467621 0.7674418687820435 0.05426359176635742
-0.05851512402296066 0.7829457521438599 -0.19379842281341553
-0.05782538652420044 0.7829457521438599 0.038759708404541016
-0.05515037477016449 0.7984496355056763 -0.1627907156944275
-0.05911193788051605 0.7984496355056763 -0.14728683233261108
-0.06087978184223175 0.7984496355056763 -0.13178294897079468
-0.06221868470311165 0.7984496355056763 -0.11627906560897827
-0.06309322267770767 0.7984496355056763 -0.10077518224716187
-0.06372717022895813 0.7984496355056763 -0.08527129888534546
-0.06405278295278549 0.7984496355056763 -0.06976741552352905
-0.0642021894454956 0.7984496355056763 -0.05426359176635742
-0.06434976309537888 0.7984496355056763 -0.038759708404541016
-0.06352372467517853 0.7984496355056763 -0.02325582504272461
-0.06156207621097565 0.7984496355056763 -0.007751941680908203
-0.05573708936572075 0.7984496355056763 0.007751941680908203
-0.039464760571718216 -0.7054263353347778 0.751937985420227
-0.03973504528403282 -0.7054263353347778 0.7674418687820435
-0.039336033165454865 -0.6899224519729614 0.7209302186965942
-0.04060531407594681 -0.6899224519729614 0.7364341020584106
-0.04143292084336281 -0.6899224519729614 0.751937985420227
-0.04296793043613434 -0.6899224519729614 0.7674418687820435
-0.04379585385322571 -0.6899224519729614 0.7829457521438599
-0.039589349180459976 -0.674418568611145 0.7054263353347778
-0.04292147606611252 -0.674418568611145 0.7209302186965942
-0.04353328421711922 -0.674418568611145 0.7364341020584106
-0.043730318546295166 -0.674418568611145 0.751937985420227
-0.045061271637678146 -0.674418568611145 0.7674418687820435
-0.047984566539525986 -0.674418568611145 0.7829457521438599
-0.04661177471280098 -0.674418568611145 0.7984496355056763
-0.04128064215183258 -0.6589146852493286 0.7054263353347778
-0.04584653303027153 -0.6589146852493286 0.7209302186965942
-0.04683445394039154 -0.6589146852493286 0.7364341020584106
-0.04699140414595604 -0.6589146852493286 0.751937985420227
-0.04855062812566757 -0.6589146852493286 0.7674418687820435
-0.05404358729720116 -0.6589146852493286 0.7829457521438599
-0.04252391681075096 -0.6589146852493286 0.8139535188674927
-0.04521162435412407 -0.643410861492157 0.7209302186965942
-0.0481724813580513 -0.6434108018875122 0.7364341020584106
-0.050052810460329056 -0.643410861492157 0.751937985420227
-0.040467455983161926 -0.6279069781303406 0.7209302186965942
-0.045940909534692764 -0.6279069781303406 0.7364341020584106
-0.05218201503157616 -0.6279069185256958 0.751937985420227
-0.04219582676887512 -0.6279069781303406 0.8294574022293091
-0.04380100965499878 -0.6124030947685242 0.7364341020584106
-0.04225535690784454 -0.5968992114067078 0.7364341020584106
-0.040938690304756165 -0.5813953876495361 0.7364341020584106
-0.051440708339214325 -0.5813953876495361 0.751937985420227
-0.03937084600329399 -0.5658915042877197 0.7364341020584106
-0.04776052013039589 -0.5658915042877197 0.751937985420227
-0.040568191558122635 -0.5658915042877197 0.8449612855911255
-0.044171132147312164 -0.5503876209259033 0.751937985420227
-0.04083423689007759 -0.5348837375640869 0.751937985420227
-0.05060882121324539 -0.5348837375640869 0.7674419283866882
-0.0471767783164978 -0.5348837375640869 0.8604651689529419
-0.0458504855632782 -0.5193798542022705 0.7674418687820435
-0.04129686951637268 -0.5193798542022705 0.8604651689529419
-0.042590782046318054 -0.5038759708404541 0.7674418687820435
-0.050180792808532715 -0.5038759708404541 0.7829457521438599
-0.052555568516254425 -0.5038759708404541 0.7984496355056763
-0.05322542041540146 -0.5038759708404541 0.8139535188674927
-0.041745152324438095 -0.5038759708404541 0.8604651689529419
-0.04061814397573471 -0.4883720874786377 0.7674418687820435
-0.04667344689369202 -0.4883720874786377 0.7829457521438599
-0.04787790775299072 -0.4883720874786377 0.7984496355056763
-0.04475311189889908 -0.4883720874786377 0.8139535188674927
-0.04127473011612892 -0.4883720874786377 0.8294574022293091
-0.03998640552163124 -0.4728682041168213 0.7674418687820435
-0.0455629825592041 -0.4728682041168213 0.7829457521438599
-0.046494260430336 -0.4728682041168213 0.7984496355056763
-0.043496694415807724 -0.4728682041168213 0.8139535188674927
-0.04113730415701866 -0.4573643207550049 0.7674418687820435
-0.04599664360284805 -0.4573643207550049 0.7829457521438599
-0.04647798463702202 -0.4573643207550049 0.7984496355056763
-0.04381370544433594 -0.4573643207550049 0.8139535188674927
-0.043379172682762146 -0.4418604373931885 0.7674418687820435
-0.047007374465465546 -0.4418604373931885 0.7829457521438599
-0.046791017055511475 -0.4418604373931885 0.7984496355056763
-0.044041894376277924 -0.4418604373931885 0.8139535188674927
-0.03917049989104271 -0.4418604373931885 0.8294574022293091
-0.04001198336482048 -0.42635661363601685 0.751937985420227
-0.045945897698402405 -0.42635661363601685 0.7674418687820435
-0.04826389253139496 -0.42635664343833923 0.7829457521438599
-0.04720748960971832 -0.42635661363601685 0.7984496355056763
-0.044076092541217804 -0.42635661363601685 0.8139535188674927
-0.04003233462572098 -0.42635661363601685 0.8294574022293091
-0.04307497292757034 -0.41085273027420044 0.751937985420227
-0.04807388037443161 -0.41085273027420044 0.7674418687820435
-0.04965859651565552 -0.41085273027420044 0.7829457521438599
-0.04778438061475754 -0.41085273027420044 0.7984496355056763
-0.04424331337213516 -0.41085273027420044 0.8139535188674927
-0.04020191356539726 -0.41085273027420044 0.8294574022293091
-0.04022500291466713 -0.39534884691238403 0.7364341020584106
-0.04576023295521736 -0.39534884691238403 0.751937985420227
-0.049920953810214996 -0.3953488767147064 0.7674418687820435
-0.0509420745074749 -0.39534884691238403 0.7829457521438599
-0.0482882596552372 -0.39534884691238403 0.7984496355056763
-0.044520966708660126 -0.39534884691238403 0.8139535188674927
-0.04043491184711456 -0.39534884691238403 0.8294574022293091
-0.03904445841908455 -0.3798449635505676 0.6899224519729614
-0.040004707872867584 -0.3798449635505676 0.7054263353347778
-0.04149416461586952 -0.3798449635505676 0.7209302186965942
-0.044329553842544556 -0.3798449635505676 0.7364341020584106
-0.04901118576526642 -0.3798449635505676 0.751937985420227
-0.053436875343322754 -0.3798449635505676 0.7674418687820435
-0.053402114659547806 -0.3798449635505676 0.7829457521438599
-0.04944940656423569 -0.3798449635505676 0.7984496355056763
-0.04566098749637604 -0.3798449635505676 0.8139535188674927
-0.04170576483011246 -0.3798449635505676 0.8294574022293091
-0.039253007620573044 -0.3643410801887512 0.6434108018875122
-0.040886040776968 -0.3643410801887512 0.6589146852493286
-0.04242144525051117 -0.3643410801887512 0.674418568611145
-0.04350470006465912 -0.3643410801887512 0.6899224519729614
-0.04453197866678238 -0.3643410801887512 0.7054263353347778
-0.04602373391389847 -0.3643410801887512 0.7209302186965942
-0.048285312950611115 -0.3643410801887512 0.7364341020584106
-0.054140184074640274 -0.3643410801887512 0.751937985420227
-0.050707973539829254 -0.3643410801887512 0.798449695110321
-0.04673728346824646 -0.3643410801887512 0.8139535188674927
-0.042914122343063354 -0.3643410801887512 0.8294574022293091
-0.04054029658436775 -0.3643410801887512 0.8449612855911255
-0.05394560843706131 -0.3643410801887512 0.922480583190918
-0.038793619722127914 -0.3488371968269348 0.612403154373169
-0.03964640200138092 -0.3488371968269348 0.6279069185256958
-0.0409802682697773 -0.3488371968269348 0.6434108018875122
-0.04240749403834343 -0.3488371968269348 0.6589146852493286
-0.04376935586333275 -0.3488371968269348 0.674418568611145
-0.04513823240995407 -0.3488371968269348 0.6899224519729614
-0.046592969447374344 -0.3488371968269348 0.7054263353347778
-0.04804389923810959 -0.3488371968269348 0.7209302186965942
-0.05206599086523056 -0.3488371968269348 0.7364341020584106
-0.05036509037017822 -0.3488371968269348 0.7984496355056763
-0.04653806611895561 -0.3488371968269348 0.8139535188674927
-0.0434952974319458 -0.3488371968269348 0.8294574022293091
-0.0427238792181015 -0.3488371968269348 0.8449612855911255
-0.04420986771583557 -0.3488371968269348 0.8604651689529419
-0.050167374312877655 -0.3488371670246124 0.8759689331054688
