-0.05426359176635742 -0.11627906560897827 -0.28266623616218567
-0.05426359176635742 -0.11627906560897827 0.14318396151065826
-0.05426359176635742 -0.10077518224716187 -0.9912493228912354
-0.05426359176635742 -0.10077518224716187 -0.9727836847305298
-0.05426359176635742 -0.10077518224716187 -0.29677385091781616
-0.05426359176635742 -0.10077518224716187 0.14523988962173462
-0.05426359176635742 -0.08527129888534546 -0.9914812445640564
-0.05426359176635742 -0.08527129888534546 -0.9443638324737549
-0.05426359176635742 -0.08527129888534546 -0.31622475385665894
-0.05426359176635742 -0.08527129888534546 0.14843103289604187
-0.05426359176635742 -0.06976741552352905 -0.9886965155601501
-0.05426359176635742 -0.06976741552352905 -0.9690729975700378
-0.05426359176635742 -0.06976741552352905 -0.9674026966094971
-0.05426359176635742 -0.06976741552352905 -0.9281026124954224
-0.05426359176635742 -0.06976741552352905 -0.3413751721382141
-0.05426359176635742 -0.06976741552352905 0.15127360820770264
-0.05426359176635742 -0.05426359176635742 -0.3227421045303345
-0.05426359176635742 -0.05426359176635742 0.15369482338428497
-0.05426359176635742 -0.038759708404541016 -0.28688478469848633
-0.05426359176635742 -0.038759708404541016 0.15534791350364685
-0.05426359176635742 -0.02325582504272461 -0.262704074382782
-0.05426359176635742 -0.02325582504272461 0.15618228912353516
-0.05426359176635742 -0.007751941680908203 -0.25772222876548767
-0.05426359176635742 -0.007751941680908203 0.15697237849235535
-0.05426359176635742 0.007751941680908203 -0.25697216391563416
-0.05426359176635742 0.007751941680908203 0.156925767660141
-0.05426359176635742 0.02325582504272461 -0.2566151022911072
-0.05426359176635742 0.02325582504272461 0.15600506961345673
-0.05426359176635742 0.038759708404541016 -0.25676849484443665
-0.05426359176635742 0.038759708404541016 0.1547701358795166
-0.05426359176635742 0.05426359176635742 -0.25708967447280884
-0.05426359176635742 0.05426359176635742 0.15383023023605347
-0.05426359176635742 0.06976747512817383 -0.2573799192905426
-0.05426359176635742 0.06976747512817383 0.15316928923130035
-0.05426359176635742 0.08527135848999023 -0.25769558548927307
-0.05426359549164772 0.08527135848999023 0.15317735075950623
-0.05426359176635742 0.10077524185180664 -0.2581566870212555
-0.05426359176635742 0.10077524185180664 0.15376275777816772
-0.05426359176635742 0.11627912521362305 -0.25858360528945923
-0.05426359176635742 0.11627912521362305 0.15451198816299438
-0.05426359176635742 0.1317828893661499 -0.25867193937301636
-0.05426359176635742 0.1317828893661499 0.15574482083320618
-0.05426359176635742 0.1472867727279663 -0.2585204839706421
-0.05426359176635742 0.1472867727279663 0.15706674754619598
-0.05426359176635742 0.16279065608978271 -0.2582356333732605
-0.05426359176635742 0.16279065608978271 0.1579945832490921
-0.05426359176635742 0.17829453945159912 -0.2578328549861908
-0.05426359176635742 0.17829453945159912 0.15777990221977234
-0.05426359176635742 0.19379842281341553 -0.25713273882865906
-0.05426359176635742 0.19379842281341553 0.15688525140285492
-0.05426359176635742 0.20930230617523193 -0.2563583254814148
-0.05426359176635742 0.20930230617523193 0.15589559078216553
-0.05426359176635742 0.22480618953704834 -0.2559517025947571
-0.05426359176635742 0.22480618953704834 0.154965341091156
-0.05426359176635742 0.24031007289886475 -0.25582945346832275
-0.05426359176635742 0.24031007289886475 0.15418386459350586
-0.05426359176635742 0.25581395626068115 -0.25587016344070435
-0.05426359176635742 0.25581395626068115 0.15368428826332092
-0.05426359176635742 0.27131786942481995 -0.2549564838409424
-0.05426359176635742 0.27131783962249756 0.1540282964706421
-0.05426359176635742 0.28682172298431396 -0.25057923793792725
-0.05426359176635742 0.28682172298431396 0.15529143810272217
-0.05426359176635742 0.30232560634613037 -0.24614855647087097
-0.05426359176635742 0.30232560634613037 0.15777219831943512
-0.05426359176635742 0.3178294897079468 -0.2442132532596588
-0.05426359176635742 0.3178294897079468 0.16236497461795807
-0.05426359176635742 0.3333333730697632 -0.24322611093521118
-0.05426359176635742 0.3333333730697632 0.16503870487213135
-0.05426359176635742 0.3488372564315796 -0.241922527551651
-0.05426359176635742 0.3488372564315796 0.1675531417131424
-0.05426359176635742 0.364341139793396 -0.23714058101177216
-0.05426359176635742 0.364341139793396 0.1694343239068985
-0.05426359176635742 0.37984490394592285 -0.22529442608356476
-0.05426359176635742 0.37984490394592285 -0.22152218222618103
-0.05426359176635742 0.37984490394592285 -0.2000577747821808
-0.05426359176635742 0.37984490394592285 0.17008057236671448
-0.05426359176635742 0.39534878730773926 -0.17919248342514038
-0.05426359176635742 0.39534878730773926 0.1699540615081787
-0.05426359176635742 0.41085267066955566 -0.16997700929641724
-0.05426359176635742 0.41085267066955566 0.16922244429588318
-0.05426359176635742 0.4263565242290497 -0.17657127976417542
-0.05426359176635742 0.42635655403137207 0.16775354743003845
-0.05426359176635742 0.4418604373931885 -0.1949118673801422
-0.05426359176635742 0.44186046719551086 0.16580624878406525
-0.05426359176635742 0.4573643207550049 -0.2183486819267273
-0.05426359176635742 0.4573643207550049 0.16338539123535156
-0.05426359176635742 0.4728682041168213 -0.2425786554813385
-0.05426359176635742 0.4728682041168213 0.15885218977928162
-0.05426359176635742 0.4883720874786377 -0.2641869783401489
-0.05426359176635742 0.4883720576763153 0.1544385552406311
-0.05426359176635742 0.5038759708404541 -0.2872883975505829
-0.05426359176635742 0.5038759708404541 0.14838944375514984
-0.05426359176635742 0.5193798542022705 -0.3053968548774719
-0.05426359176635742 0.5193798542022705 0.13970786333084106
-0.05426359176635742 0.5348837375640869 -0.32130223512649536
-0.05426359176635742 0.5348837375640869 0.1303219050168991
-0.05426359176635742 0.5503876209259033 -0.33506354689598083
-0.05426359176635742 0.5503876209259033 0.12039147317409515
-0.05426358804106712 0.5658915042877197 -0.3438173830509186
-0.05426359176635742 0.5658915042877197 0.10832126438617706
-0.05426359176635742 0.5813953876495361 -0.3505537509918213
-0.05426359176635742 0.5813953876495361 0.09549957513809204
-0.05426359176635742 0.5968992710113525 -0.35796600580215454
-0.05426359176635742 0.5968992710113525 0.08326385170221329
-0.05426359176635742 0.612403154373169 -0.3682413101196289
-0.05426359176635742 0.612403154373169 -0.272514671087265
-0.05426359176635742 0.612403154373169 -0.19697913527488708
-0.05426358804106712 0.6124030947685242 0.07237330079078674
-0.05426359176635742 0.6279069185256958 -0.3737514615058899
-0.05426359176635742 0.6279069185256958 -0.3105316460132599
-0.05426359176635742 0.6279069185256958 -0.13574644923210144
-0.05426359176635742 0.6279069185256958 0.06087946519255638
-0.05426359176635742 0.6434108018875122 -0.09773726761341095
-0.05426359176635742 0.6434108018875122 0.04701114445924759
-0.05426359176635742 0.6589146852493286 -0.9909703135490417
-0.05426359176635742 0.6589146852493286 -0.975581169128418
-0.05426359176635742 0.6589146852493286 -0.051985979080200195
-0.05426359176635742 0.6589146852493286 0.020115530118346214
-0.05426359176635742 0.674418568611145 -0.991578996181488
-0.05426359176635742 0.674418568611145 -0.968994140625
-0.05426359176635742 0.6899224519729614 -0.9904405474662781
-0.05426359176635742 0.6899224519729614 -0.9709979295730591
-0.038759708404541016 -0.643410861492157 0.7841795086860657
-0.038759708404541016 -0.643410861492157 0.816928505897522
-0.038759708404541016 -0.6279069781303406 0.7744686603546143
-0.038759708404541016 -0.6279069781303406 0.820101261138916
-0.038759708404541016 -0.6124030947685242 0.7633973956108093
-0.038759708404541016 -0.6124030947685242 0.8218477964401245
-0.038759708404541016 -0.5968992114067078 0.7511342763900757
-0.038759708404541016 -0.5968992114067078 0.8227676153182983
-0.038759708404541016 -0.5813953876495361 0.7484818696975708
-0.038759708404541016 -0.5813953876495361 0.8230482339859009
-0.038759708404541016 -0.5658915042877197 0.7475704550743103
-0.038759708404541016 -0.5658915042877197 0.8232520222663879
-0.038759708404541016 -0.5503876209259033 0.7481493949890137
-0.038759708404541016 -0.5503876209259033 0.8233869075775146
-0.038759708404541016 -0.5348837375640869 0.7487146854400635
-0.038759708404541016 -0.5348837375640869 0.8231059312820435
-0.038759708404541016 -0.5193798542022705 0.7487183809280396
-0.038759708404541016 -0.5193798542022705 0.8228534460067749
-0.038759708404541016 -0.5038759708404541 0.7474932074546814
-0.038759708404541016 -0.5038759708404541 0.8222790956497192
-0.038759708404541016 -0.4883720874786377 0.7441751956939697
-0.038759708404541016 -0.4883721172809601 0.8213191628456116
-0.038759708404541016 -0.4728682041168213 0.738277792930603
-0.038759708404541016 -0.4728682041168213 0.8208433389663696
-0.038759708404541016 -0.4573643207550049 0.7357562780380249
-0.038759708404541016 -0.4573643207550049 0.819820761680603
-0.038759708404541016 -0.4418604373931885 0.7325353026390076
-0.038759708404541016 -0.4418604373931885 0.8191171884536743
-0.038759708404541016 -0.42635661363601685 0.6973470449447632
-0.038759708404541016 -0.42635661363601685 0.8206247091293335
-0.038759708404541016 -0.41085273027420044 0.6689842939376831
-0.038759708404541016 -0.41085273027420044 0.8242378830909729
-0.038759708404541016 -0.39534884691238403 0.6604064106941223
-0.038759708404541016 -0.39534884691238403 0.8290215730667114
-0.038759708404541016 -0.3798449635505676 0.6686888933181763
-0.038759708404541016 -0.3798449635505676 0.8347405195236206
-0.038759708404541016 -0.3643410801887512 0.6916494965553284
-0.038759708404541016 -0.3643410801887512 0.8493995666503906
-0.038759708404541016 -0.3488371968269348 0.7927239537239075
-0.038759708404541016 -0.3488371968269348 0.8499311804771423
-0.038759708404541016 -0.30232560634613037 0.15267592668533325
-0.038759708404541016 -0.30232560634613037 0.27285125851631165
-0.038759708404541016 -0.28682172298431396 0.04786533862352371
-0.038759708404541016 -0.28682172298431396 0.2842438220977783
-0.038759708404541016 -0.27131783962249756 -0.05412750691175461
-0.038759708404541016 -0.27131783962249756 0.28470858931541443
-0.038759708404541016 -0.25581395626068115 -0.10762568563222885
-0.038759708404541016 -0.25581395626068115 0.2816976010799408
-0.038759708404541016 -0.24031007289886475 -0.13859610259532928
-0.038759708404541016 -0.24031007289886475 0.2789889872074127
-0.038759708404541016 -0.22480618953704834 -0.16233865916728973
-0.038759708404541016 -0.22480617463588715 0.2753388583660126
-0.038759708404541016 -0.20930230617523193 -0.18487225472927094
-0.038759708404541016 -0.20930230617523193 0.2672944664955139
-0.038759708404541016 -0.19379842281341553 -0.20635578036308289
-0.038759708404541016 -0.19379842281341553 0.25495073199272156
-0.038759708404541016 -0.1782945990562439 -0.22564385831356049
-0.038759708404541016 -0.1782945990562439 0.23728367686271667
-0.038759708404541016 -0.1627907156944275 -0.24144084751605988
-0.038759708404541016 -0.1627907156944275 0.21444934606552124
-0.038759708404541016 -0.14728683233261108 -0.2517208456993103
-0.038759708404541016 -0.14728683233261108 0.196884423494339
-0.038759708404541016 -0.13178294897079468 -0.2586618959903717
-0.038759708404541016 -0.13178294897079468 0.18254131078720093
-0.038759708404541016 -0.11627906560897827 -0.2623135447502136
-0.038759708404541016 -0.11627906560897827 0.17117157578468323
-0.038759708404541016 -0.10077518224716187 -0.2672222852706909
-0.038759708404541016 -0.10077518224716187 0.16450397670269012
-0.038759708404541016 -0.08527129888534546 -0.2735229730606079
-0.038759708404541016 -0.08527129888534546 0.16180257499217987
-0.038759708404541016 -0.06976741552352905 -0.2778598368167877
-0.038759708404541016 -0.06976741552352905 0.16136492788791656
-0.038759708404541016 -0.05426359176635742 -0.2770228385925293
-0.038759708404541016 -0.05426359176635742 0.16214843094348907
-0.038759708404541016 -0.038759708404541016 -0.2664366662502289
-0.038759708404541016 -0.038759708404541016 0.16303883492946625
-0.038759708404541016 -0.02325582504272461 -0.25710731744766235
-0.038759708404541016 -0.02325582504272461 0.1634412705898285
-0.038759708404541016 -0.007751941680908203 -0.2555032968521118
-0.038759708404541016 -0.007751941680908203 0.1639081835746765
-0.038759708404541016 0.007751941680908203 -0.2554590106010437
-0.038759708404541016 0.00775194214656949 0.16364683210849762
-0.038759708404541016 0.02325582504272461 -0.2559957206249237
-0.038759708404541016 0.02325582504272461 0.16260744631290436
-0.038759708404541016 0.038759708404541016 -0.25680744647979736
-0.038759708404541016 0.038759708404541016 0.16009728610515594
-0.038759708404541016 0.05426359176635742 -0.25760719180107117
-0.038759708404541016 0.05426359176635742 0.15841399133205414
-0.038759708404541016 0.06976747512817383 -0.25820162892341614
-0.038759708404541016 0.06976747512817383 0.1574167013168335
-0.038759708404541016 0.08527135848999023 -0.25879544019699097
-0.038759708404541016 0.08527135848999023 0.15762370824813843
-0.038759708404541016 0.10077524185180664 -0.2595558166503906
-0.038759708404541016 0.10077524185180664 0.1590346395969391
-0.038759708404541016 0.11627912521362305 -0.2601115107536316
-0.038759708404541016 0.11627912521362305 0.16126295924186707
-0.038759708404541016 0.1317828893661499 -0.260019451379776
-0.038759708404541016 0.1317828893661499 0.16388937830924988
-0.038759708404541016 0.1472867727279663 -0.25955498218536377
-0.038759708404541016 0.1472867727279663 0.16556492447853088
-0.038759708404541016 0.16279065608978271 -0.25909048318862915
-0.038759708404541016 0.16279065608978271 0.1666194349527359
-0.038759708404541016 0.17829453945159912 -0.25863558053970337
-0.038759708404541016 0.17829453945159912 0.1665121465921402
-0.038759708404541016 0.19379842281341553 -0.25791358947753906
-0.038759708404541016 0.19379842281341553 0.16569356620311737
-0.038759708404541016 0.20930230617523193 -0.25707271695137024
-0.038759708404541016 0.20930230617523193 0.16454604268074036
-0.038759708404541016 0.22480618953704834 -0.2566075921058655
-0.038759708404541016 0.22480618953704834 0.16344177722930908
-0.038759708404541016 0.24031007289886475 -0.25654906034469604
-0.038759708404541016 0.24031007289886475 0.16252301633358002
-0.038759708404541016 0.25581395626068115 -0.25677353143692017
-0.038759708404541016 0.25581395626068115 0.16165539622306824
-0.038759708404541016 0.27131783962249756 -0.2567170560359955
-0.038759708404541016 0.27131783962249756 0.16246363520622253
-0.038759708404541016 0.28682172298431396 -0.25593823194503784
-0.038759708404541016 0.28682172298431396 0.16377218067646027
-0.038759708404541016 0.30232560634613037 -0.2510319948196411
-0.038759708404541016 0.30232560634613037 0.16593073308467865
-0.038759708404541016 0.3178294897079468 -0.2484273612499237
-0.038759708404541016 0.3178294897079468 0.16919708251953125
-0.038759708404541016 0.3333333730697632 -0.2468726634979248
-0.038759708404541016 0.3333333730697632 0.17245861887931824
-0.038759708404541016 0.3488372564315796 -0.24470996856689453
-0.038759708404541016 0.3488372564315796 0.1764737367630005
-0.038759708404541016 0.364341139793396 -0.24135036766529083
-0.038759708404541016 0.364341139793396 0.17940665781497955
-0.038759708404541016 0.37984490394592285 -0.22864344716072083
-0.038759708404541016 0.37984487414360046 0.18063661456108093
-0.038759708404541016 0.39534875750541687 -0.19337739050388336
-0.03875970467925072 0.39534878730773926 0.18083719909191132
-0.038759708404541016 0.41085267066955566 -0.18545633554458618
-0.038759708404541016 0.41085267066955566 0.1801227480173111
-0.038759708404541016 0.42635655403137207 -0.18739113211631775
-0.038759708404541016 0.42635655403137207 0.1788587123155594
-0.038759708404541016 0.4418604373931885 -0.19767633080482483
-0.038759708404541016 0.4418604373931885 0.17638562619686127
-0.038759708404541016 0.4573643207550049 -0.21424315869808197
-0.038759708404541016 0.4573643207550049 0.17327657341957092
-0.038759708404541016 0.4728682041168213 -0.23520058393478394
-0.038759708404541016 0.4728682041168213 0.17047244310379028
-0.038759708404541016 0.4883720874786377 -0.2554987072944641
-0.038759708404541016 0.4883720874786377 0.16619575023651123
-0.038759708404541016 0.5038759708404541 -0.272064745426178
-0.038759708404541016 0.5038759708404541 0.1594451516866684
-0.038759708404541016 0.5193798542022705 -0.28454771637916565
-0.038759708404541016 0.5193798542022705 0.15255600214004517
-0.038759708404541016 0.5348837375640869 -0.2915220558643341
-0.038759708404541016 0.5348837375640869 0.14218270778656006
-0.038759708404541016 0.5503876209259033 -0.29339730739593506
-0.03875970467925072 0.5503875613212585 0.1319863647222519
-0.038759708404541016 0.5658915042877197 -0.28682833909988403
-0.038759708404541016 0.5658915042877197 0.12045104801654816
-0.038759708404541016 0.5813953876495361 -0.24784529209136963
-0.038759708404541016 0.5813953876495361 0.10739500820636749
-0.03875970467925072 0.5968992710113525 -0.16022539138793945
-0.038759708404541016 0.5968992710113525 0.09387362003326416
-0.038759708404541016 0.612403154373169 -0.12302268296480179
-0.038759708404541016 0.612403154373169 0.08224055171012878
-0.038759708404541016 0.6279069185256958 -0.10362894088029861
-0.038759708404541016 0.6279069185256958 0.07281244546175003
-0.038759708404541016 0.6434108018875122 -0.07628770172595978
-0.038759708404541016 0.6434108018875122 0.06156250834465027
-0.038759708404541016 0.6589146852493286 -0.03304554149508476
-0.038759708404541016 0.6589146852493286 0.04719751328229904
-0.02325582504272461 -0.7054263353347778 0.7902933359146118
-0.02325582504272461 -0.7054263353347778 0.8224223256111145
-0.02325582504272461 -0.6899224519729614 0.7796445488929749
-0.02325582504272461 -0.6899224519729614 0.8336682319641113
-0.02325582504272461 -0.674418568611145 0.7751485109329224
-0.02325582504272461 -0.674418568611145 0.8369725942611694
-0.02325582504272461 -0.6589146852493286 0.769629180431366
-0.02325582504272461 -0.6589146852493286 0.8371289968490601
-0.02325582504272461 -0.6434109210968018 0.765597403049469
-0.02325582504272461 -0.6434109210968018 0.8357599973678589
-0.02325582504272461 -0.6279069781303406 0.7618104219436646
-0.02325582504272461 -0.6279069781303406 0.8338177800178528
-0.02325582504272461 -0.6124030947685242 0.7518265843391418
-0.02325582504272461 -0.6124030947685242 0.8325852751731873
-0.02325582504272461 -0.5968992114067078 0.7484831809997559
-0.02325582504272461 -0.5968992114067078 0.8315927386283875
-0.02325582504272461 -0.5813953876495361 0.7462054491043091
-0.02325582504272461 -0.5813953876495361 0.8306614756584167
-0.02325582504272461 -0.5658915042877197 0.7437719106674194
-0.02325582504272461 -0.5658915042877197 0.8301729559898376
-0.02325582504272461 -0.5503876209259033 0.7428393363952637
-0.02325582504272461 -0.5503876209259033 0.82999587059021
-0.02325582504272461 -0.5348837375640869 0.7420294880867004
-0.02325582504272461 -0.5348837375640869 0.829685628414154
-0.02325582504272461 -0.5193798542022705 0.7411153316497803
-0.02325582504272461 -0.5193798542022705 0.8289953470230103
-0.02325582504272461 -0.5038759708404541 0.7386955618858337
-0.02325582504272461 -0.5038759708404541 0.8276945352554321
-0.02325582504272461 -0.4883720874786377 0.7356723546981812
-0.02325582504272461 -0.4883720874786377 0.8259329199790955
-0.02325582504272461 -0.4728682041168213 0.7337629199028015
-0.02325582504272461 -0.4728682041168213 0.8246192932128906
-0.02325582504272461 -0.4573643207550049 0.727901816368103
-0.02325582504272461 -0.4573643207550049 0.8237096071243286
-0.02325582504272461 -0.4418604373931885 0.7068391442298889
-0.02325582504272461 -0.4418604373931885 0.8232710957527161
-0.02325582504272461 -0.42635661363601685 0.66559898853302
-0.02325582504272461 -0.42635661363601685 0.8237795829772949
-0.02325582690536976 -0.41085273027420044 0.6003134250640869
-0.02325582504272461 -0.41085273027420044 0.8250552415847778
-0.02325582690536976 -0.39534884691238403 0.5364517569541931
-0.02325582504272461 -0.39534884691238403 0.8261182308197021
-0.02325582504272461 -0.3798449635505676 0.5321919918060303
-0.02325582318007946 -0.3798449635505676 0.8296535611152649
-0.02325582504272461 -0.3643410801887512 0.6674298048019409
-0.02325582504272461 -0.3643410801887512 0.8324160575866699
-0.02325582504272461 -0.3488371968269348 0.7518341541290283
-0.02325582504272461 -0.3488371968269348 0.8247852325439453
-0.02325582504272461 -0.3333333134651184 0.2087906301021576
-0.02325582504272461 -0.3333333134651184 0.36582595109939575
-0.02325582690536976 -0.3178294599056244 0.13318854570388794
-0.02325582504272461 -0.317829430103302 0.3768031597137451
-0.02325582504272461 -0.30232560634613037 0.059539563953876495
-0.02325582504272461 -0.30232560634613037 0.3749290108680725
-0.02325582504272461 -0.28682172298431396 -0.019046034663915634
-0.02325582318007946 -0.28682172298431396 0.36662420630455017
-0.02325582504272461 -0.27131783962249756 -0.08308961242437363
-0.02325582504272461 -0.27131783962249756 0.35285648703575134
-0.02325582504272461 -0.25581395626068115 -0.12495751678943634
-0.02325582504272461 -0.25581395626068115 0.33684608340263367
-0.02325582504272461 -0.24031007289886475 -0.15147745609283447
-0.02325582504272461 -0.24031007289886475 0.3214903175830841
-0.02325582504272461 -0.22480618953704834 -0.17297211289405823
-0.02325582504272461 -0.22480618953704834 0.30809882283210754
-0.02325582504272461 -0.20930230617523193 -0.19545850157737732
-0.02325582504272461 -0.20930230617523193 0.29307252168655396
-0.02325582504272461 -0.19379842281341553 -0.21306338906288147
-0.02325582504272461 -0.19379842281341553 0.2744878828525543
-0.02325582504272461 -0.1782945990562439 -0.2278149574995041
-0.02325582504272461 -0.1782945990562439 0.25452080368995667
-0.02325582690536976 -0.1627907156944275 -0.23951992392539978
-0.02325582504272461 -0.1627907156944275 0.23166221380233765
-0.02325582504272461 -0.14728683233261108 -0.24397912621498108
-0.02325582504272461 -0.14728683233261108 0.21167650818824768
-0.02325582504272461 -0.13178294897079468 -0.24547380208969116
-0.02325582318007946 -0.13178294897079468 0.19640003144741058
-0.02325582504272461 -0.11627906560897827 -0.24607165157794952
-0.02325582504272461 -0.11627906560897827 0.18432050943374634
-0.02325582504272461 -0.10077518224716187 -0.24708330631256104
-0.02325582504272461 -0.10077518224716187 0.17781537771224976
-0.02325582504272461 -0.08527129888534546 -0.2496035099029541
-0.02325582504272461 -0.08527129888534546 0.16932788491249084
-0.02325582504272461 -0.06976741552352905 -0.25376832485198975
-0.02325582504272461 -0.06976741552352905 0.1667218804359436
-0.02325582504272461 -0.05426359176635742 -0.256358802318573
-0.02325582504272461 -0.05426359176635742 0.16636255383491516
-0.02325582504272461 -0.038759708404541016 -0.2519019544124603
-0.02325582504272461 -0.038759708404541016 0.16653695702552795
-0.02325582504272461 -0.02325582504272461 -0.24603009223937988
-0.02325582504272461 -0.02325582504272461 0.16678732633590698
-0.02325582504272461 -0.007751941680908203 -0.2448638677597046
-0.02325582504272461 -0.007751941680908203 0.16739241778850555
-0.02325582504272461 0.007751941680908203 -0.24543926119804382
-0.02325582318007946 0.007751941680908203 0.16724036633968353
-0.02325582504272461 0.02325582504272461 -0.24840831756591797
-0.02325582504272461 0.02325582504272461 0.16636508703231812
-0.02325582504272461 0.038759708404541016 -0.25526541471481323
-0.02325582504272461 0.038759708404541016 0.16521084308624268
-0.02325582504272461 0.05426359176635742 -0.2573879361152649
-0.02325582504272461 0.05426359549164772 0.16432197391986847
-0.02325582504272461 0.06976747512817383 -0.2585875391960144
-0.02325582318007946 0.06976746767759323 0.16381976008415222
-0.02325582504272461 0.08527135848999023 -0.25960442423820496
-0.02325582504272461 0.08527135848999023 0.16428562998771667
-0.02325582504272461 0.10077524185180664 -0.26073870062828064
-0.02325582504272461 0.10077524185180664 0.16562244296073914
-0.02325582504272461 0.11627912521362305 -0.26147136092185974
-0.02325582504272461 0.11627912521362305 0.1672917604446411
-0.02325582504272461 0.1317828893661499 -0.2612757980823517
-0.02325582504272461 0.1317828893661499 0.16955500841140747
-0.02325582504272461 0.1472867727279663 -0.26056182384490967
-0.02325582504272461 0.1472867727279663 0.1714196503162384
-0.02325582504272461 0.16279065608978271 -0.2598225176334381
-0.02325582504272461 0.16279065608978271 0.17277143895626068
-0.02325582504272461 0.17829453945159912 -0.2592030167579651
-0.02325582504272461 0.17829453945159912 0.17298656702041626
-0.02325582504272461 0.19379842281341553 -0.25839313864707947
-0.02325582504272461 0.19379842281341553 0.17229631543159485
-0.02325582504272461 0.20930230617523193 -0.2575400769710541
-0.02325582504272461 0.20930230617523193 0.17124053835868835
-0.02325582504272461 0.22480618953704834 -0.2570582628250122
-0.02325582504272461 0.22480618953704834 0.17009605467319489
-0.02325582504272461 0.24031007289886475 -0.25697800517082214
-0.02325582504272461 0.24031007289886475 0.1692371368408203
-0.02325582504272461 0.25581395626068115 -0.25704526901245117
-0.02325582504272461 0.25581395626068115 0.1687939465045929
-0.02325582504272461 0.27131783962249756 -0.25666579604148865
-0.02325582504272461 0.27131783962249756 0.16922205686569214
-0.02325582504272461 0.28682172298431396 -0.2550075650215149
-0.02325582504272461 0.28682172298431396 0.17066940665245056
-0.02325582504272461 0.30232560634613037 -0.24999938905239105
-0.02325582504272461 0.30232560634613037 0.1732378602027893
-0.02325582504272461 0.3178294897079468 -0.2479458451271057
-0.02325582504272461 0.3178294897079468 0.17833209037780762
-0.02325582504272461 0.3333333730697632 -0.24626681208610535
-0.02325582504272461 0.3333333730697632 0.1814437061548233
-0.02325582504272461 0.3488372564315796 -0.243811696767807
-0.02325582504272461 0.3488372564315796 0.1851368546485901
-0.02325582504272461 0.3643411099910736 -0.23984982073307037
-0.02325582504272461 0.364341139793396 0.18833725154399872
-0.02325582690536976 0.37984490394592285 -0.20763860642910004
-0.02325582504272461 0.37984490394592285 0.19077949225902557
-0.02325582504272461 0.39534878730773926 -0.19688622653484344
-0.02325582504272461 0.39534878730773926 0.19118109345436096
-0.02325582504272461 0.41085267066955566 -0.1921270489692688
-0.02325582504272461 0.41085267066955566 0.18989574909210205
-0.02325582504272461 0.4263565242290497 -0.19301412999629974
-0.02325582504272461 0.42635655403137207 0.18811166286468506
-0.02325582504272461 0.4418604373931885 -0.19785359501838684
-0.02325582504272461 0.4418604373931885 0.18622881174087524
-0.02325582504272461 0.4573643207550049 -0.21021254360675812
-0.02325582504272461 0.4573643207550049 0.18387310206890106
-0.02325582504272461 0.4728682041168213 -0.2257884442806244
-0.02325582504272461 0.4728682041168213 0.18085259199142456
-0.02325582504272461 0.4883720874786377 -0.24063248932361603
-0.02325582504272461 0.4883720874786377 0.1759653389453888
-0.02325582504272461 0.5038759708404541 -0.24679060280323029
-0.02325582504272461 0.5038759708404541 0.17091980576515198
-0.02325582504272461 0.5193798542022705 -0.24679096043109894
-0.02325582504272461 0.5193798542022705 0.16315631568431854
-0.02325582504272461 0.5348837375640869 -0.24044917523860931
-0.02325582504272461 0.5348837375640869 0.15388312935829163
-0.02325582504272461 0.5503876209259033 -0.2261817455291748
-0.02325582504272461 0.5503876209259033 0.14163392782211304
-0.02325582504272461 0.5658915042877197 -0.20247603952884674
-0.02325582504272461 0.5658915042877197 0.1286512166261673
-0.02325582504272461 0.5813953876495361 -0.1613868772983551
-0.02325582504272461 0.5813953876495361 0.11598103493452072
-0.02325582318007946 0.5968992114067078 -0.13141854107379913
-0.02325582504272461 0.5968992710113525 0.10375334322452545
-0.02325582504272461 0.612403154373169 -0.11056064814329147
-0.02325582504272461 0.612403154373169 0.09255492687225342
-0.02325582504272461 0.6279069185256958 -0.09218725562095642
-0.02325582504272461 0.6279069185256958 0.08150061219930649
-0.02325582504272461 0.6434108018875122 -0.06814978271722794
-0.02325582504272461 0.6434108018875122 0.07167172431945801
-0.02325582504272461 0.6589146852493286 -0.035039886832237244
-0.02325582504272461 0.6589146852493286 0.06062684580683708
-0.02325582504272461 0.674418568611145 -0.008952568285167217
-0.02325582504272461 0.674418568611145 0.045051783323287964
-0.02325582504272461 0.7209302186965942 -0.11505741626024246
-0.02325582504272461 0.7209302186965942 -0.04573912173509598
-0.02325582504272461 0.7364341020584106 -0.142822265625
-0.02325582504272461 0.7364341020584106 -0.06926412880420685
-0.02325582504272461 0.751937985420227 -0.17155563831329346
-0.02325582504272461 0.751937985420227 -0.11406626552343369
-0.02325582504272461 0.7674418687820435 -0.3448294997215271
-0.02325582504272461 0.7674418687820435 -0.16830506920814514
-0.02325582504272461 0.7829457521438599 -0.3290724754333496
-0.02325582504272461 0.7829457521438599 -0.2485344409942627
-0.007751941680908203 -0.7674418687820435 0.7908090353012085
-0.007751941680908203 -0.7674418687820435 0.8168750405311584
-0.007751941680908203 -0.751937985420227 0.7828031182289124
-0.007751941680908203 -0.751937985420227 0.8223147988319397
-0.007751941680908203 -0.7364341020584106 0.7805129885673523
-0.007751941215246916 -0.7364341020584106 0.8294612765312195
-0.007751941680908203 -0.7209302186965942 0.77695232629776
-0.007751941680908203 -0.7209302186965942 0.8335504531860352
-0.007751941680908203 -0.7054263353347778 0.771389901638031
-0.007751941680908203 -0.7054263353347778 0.8389154672622681
-0.007751941680908203 -0.6899224519729614 0.7664692401885986
-0.007751941680908203 -0.6899224519729614 0.8437442779541016
-0.007751941680908203 -0.674418568611145 0.7648253440856934
-0.007751941680908203 -0.674418568611145 0.8446579575538635
-0.007751941680908203 -0.6589146852493286 0.763252854347229
-0.007751941680908203 -0.6589146852493286 0.8427289724349976
-0.007751941680908203 -0.643410861492157 0.7606369256973267
-0.007751941680908203 -0.643410861492157 0.8405354022979736
-0.007751941680908203 -0.6279069781303406 0.7538884282112122
-0.007751941680908203 -0.6279069781303406 0.8382440805435181
-0.007751941680908203 -0.6124030947685242 0.7492294311523438
-0.007751941680908203 -0.612403154373169 0.836261510848999
-0.007751941680908203 -0.5968992114067078 0.7469465136528015
-0.007751941680908203 -0.5968992114067078 0.8344231247901917
-0.007751941680908203 -0.5813953876495361 0.7448137998580933
-0.007751941680908203 -0.5813953876495361 0.8328333497047424
-0.007751941680908203 -0.5658915042877197 0.7421684861183167
-0.007751941680908203 -0.5658915042877197 0.8319144248962402
-0.007751941680908203 -0.5503876209259033 0.7395213842391968
-0.007751941680908203 -0.5503876209259033 0.8313763737678528
-0.007751941215246916 -0.5348837375640869 0.7375710010528564
-0.007751941680908203 -0.5348837375640869 0.8307814002037048
-0.007751941680908203 -0.5193798542022705 0.7363970279693604
-0.007751941680908203 -0.5193798542022705 0.8301814794540405
-0.007751941680908203 -0.5038759708404541 0.735965371131897
-0.007751941680908203 -0.5038759708404541 0.8295328617095947
-0.007751941680908203 -0.4883720874786377 0.7350389957427979
-0.007751941680908203 -0.4883720874786377 0.8273841738700867
-0.007751941680908203 -0.4728682041168213 0.732235848903656
-0.007751941680908203 -0.4728682041168213 0.825574517250061
-0.007751941680908203 -0.4573643207550049 0.7181110382080078
-0.007751941680908203 -0.4573643207550049 0.8243421316146851
-0.007751941680908203 -0.4418604373931885 0.6838952302932739
-0.007751941680908203 -0.4418604373931885 0.823851466178894
-0.007751941680908203 -0.42635661363601685 0.59227454662323
-0.007751941680908203 -0.42635661363601685 0.823959469795227
-0.007751941680908203 -0.41085273027420044 0.5232765078544617
-0.007751941680908203 -0.41085273027420044 0.8247403502464294
-0.007751941680908203 -0.39534884691238403 0.47911620140075684
-0.007751941680908203 -0.39534884691238403 0.8249666094779968
-0.007751941680908203 -0.3798449635505676 0.4400092363357544
-0.007751941680908203 -0.3798449635505676 0.8252574801445007
-0.007751941680908203 -0.3643410801887512 0.3913540840148926
-0.007751941680908203 -0.3643410801887512 0.8242557048797607
-0.00775194214656949 -0.3488371968269348 0.28863459825515747
-0.007751941680908203 -0.3488371968269348 0.5267008543014526
-0.007751941680908203 -0.3488371968269348 0.7492833733558655
-0.007751941680908203 -0.3488371968269348 0.816400408744812
-0.007751941680908203 -0.3333333134651184 0.1732199341058731
-0.007751941680908203 -0.3333333134651184 0.4723358452320099
-0.007751941680908203 -0.317829430103302 0.09736866503953934
-0.007751941680908203 -0.317829430103302 0.44724518060684204
-0.007751941680908203 -0.30232560634613037 0.021813303232192993
-0.007751941680908203 -0.30232560634613037 0.4306953549385071
-0.007751941680908203 -0.28682172298431396 -0.045151546597480774
-0.007751941680908203 -0.28682172298431396 0.41374820470809937
-0.007751941680908203 -0.27131783962249756 -0.09923988580703735
-0.007751941680908203 -0.27131783962249756 0.3940635919570923
-0.007751941680908203 -0.25581395626068115 -0.134994775056839
-0.007751941680908203 -0.25581395626068115 0.3704143762588501
-0.007751941680908203 -0.24031007289886475 -0.1577172577381134
-0.007751941680908203 -0.24031007289886475 0.3474557101726532
-0.007751941680908203 -0.22480618953704834 -0.17950524389743805
-0.007751941680908203 -0.22480618953704834 0.32483184337615967
-0.007751941680908203 -0.20930230617523193 -0.19884181022644043
-0.007751941680908203 -0.20930230617523193 0.3041239380836487
-0.007751941680908203 -0.19379842281341553 -0.2151031494140625
-0.007751941680908203 -0.19379842281341553 0.2809223532676697
-0.007751941680908203 -0.1782945990562439 -0.22789599001407623
-0.007751941680908203 -0.1782945990562439 0.259017676115036
-0.007751941215246916 -0.1627907156944275 -0.23511897027492523
-0.007751941680908203 -0.1627907156944275 0.23732121288776398
-0.007751941680908203 -0.14728683233261108 -0.24065761268138885
-0.007751941680908203 -0.14728683233261108 0.21569398045539856
-0.007751941680908203 -0.13178294897079468 -0.2407199889421463
-0.00775194214656949 -0.13178294897079468 0.19987401366233826
-0.007751941680908203 -0.11627906560897827 -0.24040845036506653
-0.007751941680908203 -0.11627906560897827 0.18838422000408173
-0.007751941680908203 -0.10077518224716187 -0.24054937064647675
-0.007751941680908203 -0.10077518224716187 0.18013234436511993
-0.007751941680908203 -0.08527129888534546 -0.24109777808189392
-0.007751941680908203 -0.08527129888534546 0.17159734666347504
-0.007751941680908203 -0.06976741552352905 -0.242714062333107
-0.007751941680908203 -0.06976741552352905 0.16753137111663818
-0.007751941680908203 -0.05426359176635742 -0.24433240294456482
-0.007751941680908203 -0.05426359176635742 0.16662250459194183
-0.007751941680908203 -0.038759708404541016 -0.24355092644691467
-0.007751941215246916 -0.038759708404541016 0.16657142341136932
-0.007751941680908203 -0.02325582504272461 -0.24091258645057678
-0.007751941680908203 -0.02325582504272461 0.16690726578235626
-0.007751941680908203 -0.007751941680908203 -0.23779296875
-0.007751941680908203 -0.007751941680908203 0.16779068112373352
-0.007751941680908203 0.007751941680908203 -0.23825854063034058
-0.007751941680908203 0.007751941680908203 0.16783851385116577
-0.007751941680908203 0.02325582504272461 -0.24206557869911194
-0.007751941680908203 0.02325582504272461 0.16722890734672546
-0.007751941680908203 0.038759708404541016 -0.24741466343402863
-0.00775194214656949 0.038759708404541016 0.16625578701496124
-0.007751941680908203 0.05426359176635742 -0.25592121481895447
-0.007751941680908203 0.05426359176635742 0.16542991995811462
-0.007751941680908203 0.06976747512817383 -0.2577754855155945
-0.007751941680908203 0.06976747512817383 0.16499720513820648
-0.007751941680908203 0.08527135848999023 -0.25906163454055786
-0.007751941680908203 0.08527135848999023 0.16555626690387726
-0.007751941680908203 0.10077524185180664 -0.2602924406528473
-0.007751941680908203 0.10077524185180664 0.1670248806476593
-0.007751941680908203 0.11627912521362305 -0.2610665261745453
-0.007751941680908203 0.11627912521362305 0.16890302300453186
-0.007751941680908203 0.1317828893661499 -0.26092207431793213
-0.007751941680908203 0.1317828893661499 0.17137284576892853
-0.007751941680908203 0.1472867727279663 -0.2602647840976715
-0.007751941680908203 0.1472867727279663 0.1742788553237915
-0.007751941680908203 0.16279065608978271 -0.259443074464798
-0.007751941680908203 0.16279065608978271 0.17732462286949158
-0.007751941680908203 0.17829453945159912 -0.2586672902107239
-0.007751941680908203 0.17829453945159912 0.17825020849704742
-0.007751941680908203 0.19379842281341553 -0.2577822804450989
-0.007751941680908203 0.19379842281341553 0.17706908285617828
-0.007751941680908203 0.20930230617523193 -0.25702106952667236
-0.007751941680908203 0.20930230617523193 0.17533595860004425
-0.007751941680908203 0.22480618953704834 -0.2565860450267792
-0.007751941680908203 0.22480618953704834 0.17388559877872467
-0.007751941680908203 0.24031007289886475 -0.2564027011394501
-0.007751941680908203 0.24031007289886475 0.17309419810771942
-0.007751941680908203 0.25581395626068115 -0.25624319911003113
-0.007751941680908203 0.25581395626068115 0.17283952236175537
-0.007751941680908203 0.27131783962249756 -0.25493669509887695
-0.007751941680908203 0.27131783962249756 0.17351357638835907
-0.007751941680908203 0.28682172298431396 -0.25016283988952637
-0.007751941680908203 0.28682172298431396 0.17592674493789673
-0.007751941680908203 0.30232560634613037 -0.24612829089164734
-0.007751941680908203 0.30232560634613037 0.17947690188884735
-0.007751941680908203 0.3178294897079468 -0.24443325400352478
-0.007751941680908203 0.3178294897079468 0.18290220201015472
-0.007751941680908203 0.3333333730697632 -0.2432127594947815
-0.007751941680908203 0.3333333730697632 0.1869947910308838
-0.007751941680908203 0.3488372564315796 -0.24139906466007233
-0.007751941680908203 0.3488372564315796 0.19301578402519226
-0.007751941680908203 0.364341139793396 -0.23191450536251068
-0.00775194214656949 0.364341139793396 0.19691842794418335
-0.007751941680908203 0.37984490394592285 -0.2066093534231186
-0.007751941680908203 0.37984490394592285 0.19843652844429016
-0.007751941680908203 0.39534878730773926 -0.19861021637916565
-0.007751941680908203 0.39534878730773926 0.1985902488231659
-0.007751941680908203 0.41085267066955566 -0.1943192183971405
-0.007751941680908203 0.41085267066955566 0.19782224297523499
-0.007751941680908203 0.42635655403137207 -0.1942722648382187
-0.007751941680908203 0.42635655403137207 0.19636192917823792
-0.007751941680908203 0.4418604373931885 -0.19789724051952362
-0.007751941680908203 0.44186046719551086 0.19413518905639648
-0.007751941215246916 0.4573643207550049 -0.20881061255931854
-0.007751941680908203 0.4573643207550049 0.19034506380558014
-0.007751941680908203 0.4728682041168213 -0.219716876745224
-0.007751941680908203 0.4728682041168213 0.1872515082359314
-0.007751941680908203 0.4883720874786377 -0.22950831055641174
-0.007751941680908203 0.4883720874786377 0.18348067998886108
-0.007751941680908203 0.5038759708404541 -0.23269754648208618
-0.007751941680908203 0.5038759708404541 0.17768239974975586
-0.007751941680908203 0.5193798542022705 -0.226959228515625
-0.007751941680908203 0.5193798542022705 0.17065447568893433
-0.007751941680908203 0.5348837375640869 -0.21651160717010498
-0.007751941680908203 0.5348837375640869 0.15987950563430786
-0.007751941680908203 0.5503876209259033 -0.20089313387870789
-0.007751941680908203 0.5503876209259033 0.14875733852386475
-0.007751941680908203 0.5658915042877197 -0.17534169554710388
-0.007751941680908203 0.5658915042877197 0.13596132397651672
-0.007751941680908203 0.5813953876495361 -0.14730237424373627
-0.007751941680908203 0.5813953876495361 0.12253817915916443
-0.007751941680908203 0.5968992710113525 -0.1248294860124588
-0.007751941680908203 0.5968992710113525 0.10930746793746948
-0.007751941680908203 0.612403154373169 -0.10586825013160706
-0.007751941680908203 0.612403154373169 0.09718814492225647
-0.007751941680908203 0.6279069185256958 -0.0885881558060646
-0.007751941680908203 0.627906858921051 0.08707239478826523
-0.007751941680908203 0.6434108018875122 -0.06716595590114594
-0.007751941680908203 0.6434108018875122 0.07689958810806274
-0.007751941680908203 0.6589146852493286 -0.042915452271699905
-0.007751941680908203 0.6589146852493286 0.06635182350873947
-0.007751941680908203 0.674418568611145 -0.02792256325483322
-0.007751941215246916 0.674418568611145 0.05452147498726845
-0.007751941680908203 0.6899224519729614 -0.05600087717175484
-0.007751941680908203 0.6899224519729614 0.037254802882671356
-0.007751941680908203 0.7054263353347778 -0.12526962161064148
-0.007751941680908203 0.7054263353347778 0.012737061828374863
-0.007751941680908203 0.7209302186965942 -0.1647200584411621
-0.007751941680908203 0.7209302186965942 -0.01184278354048729
-0.007751941680908203 0.7364341020584106 -0.19033056497573853
-0.007751941680908203 0.7364341020584106 -0.04362732917070389
-0.007751941680908203 0.751937985420227 -0.22320976853370667
-0.007751941680908203 0.751937985420227 -0.08402352780103683
-0.007751941680908203 0.7674418687820435 -0.34104812145233154
-0.007751941680908203 0.7674419283866882 -0.13171930611133575
-0.007751941680908203 0.7829457521438599 -0.33735159039497375
-0.007751941680908203 0.7829457521438599 -0.2028893530368805
0.007751941680908203 -0.7674418687820435 0.7899184823036194
0.007751941680908203 -0.7674418687820435 0.8173168301582336
0.007751941680908203 -0.751937985420227 0.7829161882400513
0.007751941680908203 -0.751937985420227 0.8218097686767578
0.007751941680908203 -0.7364341020584106 0.7811619639396667
0.007751941680908203 -0.7364341020584106 0.8285737633705139
0.007751941680908203 -0.7209302186965942 0.7781231999397278
0.00775194214656949 -0.720930278301239 0.8328819274902344
0.007751941680908203 -0.7054263353347778 0.7729068994522095
0.007751941680908203 -0.7054263353347778 0.8380811214447021
0.007751941680908203 -0.6899224519729614 0.7669185400009155
0.007751941680908203 -0.6899224519729614 0.8430860042572021
0.007751941680908203 -0.674418568611145 0.7651679515838623
0.007751941680908203 -0.674418568611145 0.8444211483001709
0.007751941680908203 -0.6589146852493286 0.7636120319366455
0.007751941680908203 -0.6589146852493286 0.842583954334259
0.007751941680908203 -0.643410861492157 0.7611695528030396
0.007751941680908203 -0.643410861492157 0.8403696417808533
0.007751941680908203 -0.6279069781303406 0.7549192905426025
0.007751941680908203 -0.6279069781303406 0.8380459547042847
0.007751941680908203 -0.6124030351638794 0.7494301795959473
0.00775194214656949 -0.612403154373169 0.8360852003097534
0.007751941680908203 -0.5968992114067078 0.747160017490387
0.007751941215246916 -0.5968992114067078 0.8342876434326172
0.007751941680908203 -0.5813953876495361 0.7451516389846802
0.007751941680908203 -0.5813953876495361 0.8326973915100098
0.007751941680908203 -0.5658915042877197 0.7427084445953369
0.007751941680908203 -0.5658915042877197 0.8317786455154419
0.007751941680908203 -0.5503876209259033 0.7402010560035706
0.007751941680908203 -0.5503876209259033 0.8312327861785889
0.007751941680908203 -0.5348837375640869 0.7383345365524292
0.007751941680908203 -0.5348837375640869 0.8306325674057007
0.00775194214656949 -0.5193798542022705 0.7371816635131836
0.00775194214656949 -0.5193798542022705 0.8300374746322632
0.007751941680908203 -0.5038759708404541 0.7361246943473816
0.007751941680908203 -0.5038759708404541 0.8292970657348633
0.007751941680908203 -0.4883720874786377 0.735139012336731
0.007751941680908203 -0.4883720874786377 0.8271196484565735
0.007751941680908203 -0.4728682041168213 0.7325685620307922
0.007751941680908203 -0.4728682041168213 0.8253573775291443
0.007751941680908203 -0.4573643207550049 0.7194619178771973
0.007751941680908203 -0.4573643207550049 0.8241395950317383
0.007751941680908203 -0.4418604373931885 0.6869733333587646
0.007751941680908203 -0.4418604373931885 0.823590874671936
0.007751941680908203 -0.42635661363601685 0.5940808653831482
0.007751941680908203 -0.42635661363601685 0.8236314058303833
0.007751941680908203 -0.41085273027420044 0.5252740979194641
0.007751941680908203 -0.41085273027420044 0.824321985244751
0.007751941680908203 -0.39534884691238403 0.48105373978614807
0.007751941680908203 -0.39534884691238403 0.824418306350708
0.007751941680908203 -0.3798449635505676 0.4410508871078491
0.007751941680908203 -0.3798449635505676 0.8245959281921387
0.007751941680908203 -0.3643410801887512 0.3920390009880066
0.007751941680908203 -0.3643410801887512 0.823464035987854
0.007751941680908203 -0.3488371968269348 0.29138436913490295
0.007751941680908203 -0.3488371968269348 0.5267769694328308
0.007751941680908203 -0.3488371968269348 0.7502302527427673
0.007751941680908203 -0.3488371968269348 0.8155896663665771
0.007751941680908203 -0.3333333134651184 0.17446202039718628
0.007751941680908203 -0.3333333134651184 0.4727484881877899
0.007751941680908203 -0.317829430103302 0.09829676896333694
0.007751941680908203 -0.317829430103302 0.44706055521965027
0.007751941680908203 -0.30232560634613037 0.021923532709479332
0.007751941680908203 -0.30232560634613037 0.4303588271141052
0.007751941680908203 -0.28682172298431396 -0.04600254446268082
0.007751941680908203 -0.28682172298431396 0.41347599029541016
0.007751941680908203 -0.27131783962249756 -0.10077434778213501
0.007751941680908203 -0.27131783962249756 0.3936917185783386
0.007751941680908203 -0.25581395626068115 -0.13575057685375214
0.00775194214656949 -0.25581395626068115 0.36988067626953125
0.007751941680908203 -0.24031007289886475 -0.15834343433380127
0.007751941680908203 -0.24031007289886475 0.3462499976158142
0.007751941680908203 -0.22480618953704834 -0.17960600554943085
0.007751941680908203 -0.22480618953704834 0.3238155245780945
0.007751941680908203 -0.20930230617523193 -0.19876104593276978
0.007751941680908203 -0.20930230617523193 0.3034909963607788
0.007751941680908203 -0.19379842281341553 -0.2148476243019104
0.007751941680908203 -0.19379842281341553 0.28031596541404724
0.007751941680908203 -0.1782945990562439 -0.2274196594953537
0.007751941680908203 -0.1782945990562439 0.2586999535560608
0.007751941680908203 -0.1627907156944275 -0.23365990817546844
0.007751941680908203 -0.1627907156944275 0.2365208864212036
0.00775194214656949 -0.14728683233261108 -0.23827821016311646
0.00775194214656949 -0.14728683233261108 0.21481426060199738
0.007751941680908203 -0.13178294897079468 -0.23781976103782654
0.007751941680908203 -0.13178294897079468 0.19888073205947876
0.007751941680908203 -0.11627906560897827 -0.23671381175518036
0.007751941680908203 -0.11627906560897827 0.1872301995754242
0.007751941680908203 -0.10077518224716187 -0.23688285052776337
0.007751941680908203 -0.10077518969774246 0.17974019050598145
0.007751941680908203 -0.08527129888534546 -0.23789724707603455
0.007751941680908203 -0.08527129888534546 0.1714346557855606
0.007751941680908203 -0.06976741552352905 -0.24082417786121368
0.007751941680908203 -0.06976741552352905 0.1677042841911316
0.007751941680908203 -0.05426359176635742 -0.24251703917980194
0.007751941215246916 -0.05426358804106712 0.16679972410202026
0.007751941680908203 -0.038759708404541016 -0.24212028086185455
0.007751941680908203 -0.038759708404541016 0.16668735444545746
0.007751941680908203 -0.02325582504272461 -0.23860301077365875
0.00775194214656949 -0.02325582504272461 0.16700300574302673
0.007751941215246916 -0.007751941215246916 -0.23465414345264435
