-0.6124030947685242 -0.007751941680908203 -0.0891731008887291
-0.6124030947685242 0.007751941680908203 -0.13366243243217468
-0.6124030947685242 0.007751941680908203 -0.08943511545658112
-0.6124030947685242 0.02325582504272461 -0.13343429565429688
-0.6124030947685242 0.02325582504272461 -0.09008102118968964
-0.6124030947685242 0.038759708404541016 -0.1334228366613388
-0.6124030947685242 0.038759708404541016 -0.09152603149414062
-0.6124030947685242 0.05426359176635742 -0.13352949917316437
-0.6124030947685242 0.05426359176635742 -0.0928526371717453
-0.6124030947685242 0.06976747512817383 -0.1337217390537262
-0.6124030947685242 0.06976747512817383 -0.0939323753118515
-0.6124030947685242 0.08527135848999023 -0.13376125693321228
-0.6124030947685242 0.08527135848999023 -0.09428735822439194
-0.6124030947685242 0.10077524185180664 -0.13379406929016113
-0.6124030947685242 0.10077524185180664 -0.09413755685091019
-0.6124030351638794 0.11627912521362305 -0.13375280797481537
-0.6124030351638794 0.11627912521362305 -0.09349467605352402
-0.6124030947685242 0.1317828893661499 -0.13357901573181152
-0.6124030947685242 0.1317828893661499 -0.09221244603395462
-0.6124030947685242 0.1472867727279663 -0.1334265023469925
-0.6124030947685242 0.1472867727279663 -0.09070078283548355
-0.6124030947685242 0.16279065608978271 -0.13340158760547638
-0.6124030947685242 0.16279065608978271 -0.08920901268720627
-0.6124030947685242 0.17829453945159912 -0.13321983814239502
-0.6124030947685242 0.17829453945159912 -0.0879441499710083
-0.6124030947685242 0.19379842281341553 -0.13311778008937836
-0.6124030947685242 0.19379842281341553 -0.08777037262916565
-0.6124030947685242 0.20930230617523193 -0.13304100930690765
-0.6124030947685242 0.20930230617523193 -0.08876047283411026
-0.6124030947685242 0.22480618953704834 -0.13297651708126068
-0.6124030947685242 0.22480618953704834 -0.09065813571214676
-0.6124030947685242 0.24031007289886475 -0.1330110877752304
-0.6124030947685242 0.24031007289886475 -0.09243224561214447
-0.6124030947685242 0.25581395626068115 -0.13302884995937347
-0.6124030947685242 0.25581395626068115 -0.0937078595161438
-0.6124030947685242 0.27131783962249756 -0.133132204413414
-0.6124030947685242 0.27131783962249756 -0.09397003054618835
-0.6124030947685242 0.28682172298431396 -0.13312023878097534
-0.6124030947685242 0.28682172298431396 -0.09273325651884079
-0.6124030947685242 0.30232560634613037 -0.13297858834266663
-0.6124030947685242 0.30232560634613037 -0.09047140926122665
-0.6124030947685242 0.3178294897079468 -0.13280922174453735
-0.6124030947685242 0.3178294897079468 -0.08743789047002792
-0.6124030947685242 0.3333333730697632 -0.13264253735542297
-0.6124030947685242 0.33333340287208557 -0.08414532244205475
-0.6124030947685242 0.3488372564315796 -0.13230763375759125
-0.6124030947685242 0.3488372564315796 -0.08113155514001846
-0.6124030947685242 0.364341139793396 -0.13193313777446747
-0.6124030351638794 0.364341139793396 -0.07814998924732208
-0.6124030351638794 0.37984490394592285 -0.13119135797023773
-0.6124030947685242 0.37984490394592285 -0.07607188820838928
-0.6124030947685242 0.39534878730773926 -0.1301414966583252
-0.6124030947685242 0.39534878730773926 -0.07294905930757523
-0.6124030947685242 0.41085267066955566 -0.12897874414920807
-0.6124030947685242 0.41085267066955566 -0.05373196303844452
-0.6124030947685242 0.42635655403137207 -0.1279047429561615
-0.6124030947685242 0.42635655403137207 0.013037439435720444
-0.6124030947685242 0.4418604373931885 -0.12682074308395386
-0.6124030947685242 0.4418604373931885 0.034135542809963226
-0.6124030947685242 0.4573643207550049 -0.12596914172172546
-0.6124030947685242 0.4573643207550049 0.04662672057747841
-0.612403154373169 0.4728682041168213 -0.12544503808021545
-0.612403154373169 0.4728682339191437 0.060661446303129196
-0.6124030947685242 0.4883720874786377 -0.1251225769519806
-0.6124030947685242 0.4883720874786377 0.1028921976685524
-0.6124030351638794 0.5038759708404541 -0.12436939775943756
-0.6124030947685242 0.5038759708404541 0.11419975012540817
-0.6124030947685242 0.5193798542022705 -0.12366621196269989
-0.6124030947685242 0.5193798542022705 0.11701180040836334
-0.6124030947685242 0.5348837375640869 -0.12120883166790009
-0.6124030947685242 0.5348837375640869 -0.10380872339010239
-0.6124030947685242 0.5348837375640869 -0.07693618535995483
-0.6124030947685242 0.5348837375640869 0.11780732125043869
-0.6124030947685242 0.5503876209259033 0.07315754890441895
-0.6124030351638794 0.5503876209259033 0.11760789901018143
-0.5968992114067078 -0.5503876209259033 -0.11941739916801453
-0.5968992114067078 -0.5503876209259033 -0.10838896036148071
-0.5968992710113525 -0.5503876209259033 0.08573374152183533
-0.5968992114067078 -0.5503876209259033 0.11657755821943283
-0.5968992114067078 -0.5348837375640869 -0.12287936359643936
-0.5968992114067078 -0.5348837375640869 0.11764024198055267
-0.5968992114067078 -0.5193798542022705 -0.12398671358823776
-0.5968992114067078 -0.5193798542022705 0.11686955392360687
-0.596899151802063 -0.5038759708404541 -0.12439961731433868
-0.5968992114067078 -0.5038759708404541 0.11350763589143753
-0.5968992114067078 -0.4883720874786377 -0.12477344274520874
-0.5968992114067078 -0.4883720874786377 0.10320191085338593
-0.5968992114067078 -0.4728682041168213 -0.12497839331626892
-0.5968992114067078 -0.4728682041168213 0.07304408401250839
-0.596899151802063 -0.4573643207550049 -0.1255970299243927
-0.5968992114067078 -0.4573643207550049 0.0594634935259819
-0.596899151802063 -0.4418604373931885 -0.1265840232372284
-0.5968992114067078 -0.4418604075908661 0.04430679976940155
-0.5968992114067078 -0.42635661363601685 -0.12760856747627258
-0.5968992114067078 -0.42635661363601685 0.024728382006287575
-0.5968992114067078 -0.41085273027420044 -0.12865763902664185
-0.5968992710113525 -0.41085273027420044 -0.010174724273383617
-0.5968992114067078 -0.39534884691238403 -0.12967394292354584
-0.5968992114067078 -0.39534884691238403 -0.06662498414516449
-0.5968992114067078 -0.3798449635505676 -0.1305970400571823
-0.5968992114067078 -0.3798449635505676 -0.06982944160699844
-0.596899151802063 -0.3643410801887512 -0.1314699500799179
-0.596899151802063 -0.3643410801887512 -0.07155223190784454
-0.5968992114067078 -0.3488371968269348 -0.13211144506931305
-0.5968992114067078 -0.3488371968269348 -0.07386080175638199
-0.5968992114067078 -0.3333333134651184 -0.13262870907783508
-0.5968992114067078 -0.3333333134651184 -0.07659092545509338
-0.5968992114067078 -0.317829430103302 -0.13309752941131592
-0.596899151802063 -0.317829430103302 -0.07879453897476196
-0.5968992114067078 -0.30232560634613037 -0.13351212441921234
-0.5968992114067078 -0.30232560634613037 -0.08030727505683899
-0.5968992114067078 -0.28682172298431396 -0.13377800583839417
-0.5968992114067078 -0.28682172298431396 -0.08142558485269547
-0.5968992114067078 -0.27131783962249756 -0.13375544548034668
-0.5968992114067078 -0.27131783962249756 -0.0828060731291771
-0.5968992114067078 -0.25581395626068115 -0.13357995450496674
-0.5968992114067078 -0.25581395626068115 -0.08403380215167999
-0.5968992114067078 -0.24031007289886475 -0.13369369506835938
-0.5968992114067078 -0.24031007289886475 -0.0845789760351181
-0.5968992710113525 -0.22480618953704834 -0.13403990864753723
-0.5968992114067078 -0.22480620443820953 -0.08475114405155182
-0.5968992114067078 -0.20930230617523193 -0.134036585688591
-0.5968992114067078 -0.20930232107639313 -0.08521309494972229
-0.5968992710113525 -0.19379842281341553 -0.1340329945087433
-0.5968992114067078 -0.19379842281341553 -0.0866781622171402
-0.5968992114067078 -0.1782945990562439 -0.13395895063877106
-0.5968992114067078 -0.1782945990562439 -0.08878286927938461
-0.5968992114067078 -0.1627907156944275 -0.13396158814430237
-0.5968992114067078 -0.1627907156944275 -0.09123952686786652
-0.5968992114067078 -0.14728683233261108 -0.13403744995594025
-0.5968992114067078 -0.14728683233261108 -0.09324967861175537
-0.5968992114067078 -0.13178294897079468 -0.13421252369880676
-0.5968992710113525 -0.13178294897079468 -0.09487990289926529
-0.5968992114067078 -0.11627906560897827 -0.13445386290550232
-0.5968992114067078 -0.11627906560897827 -0.09586983919143677
-0.5968992114067078 -0.10077518224716187 -0.13459065556526184
-0.5968992114067078 -0.10077518224716187 -0.09609644114971161
-0.5968992114067078 -0.08527129888534546 -0.13464774191379547
-0.5968992114067078 -0.08527129888534546 -0.09573685377836227
-0.5968992114067078 -0.06976741552352905 -0.13469403982162476
-0.5968992114067078 -0.06976741552352905 -0.09490897506475449
-0.5968992114067078 -0.05426359176635742 -0.1347273588180542
-0.5968992710113525 -0.05426359176635742 -0.09357358515262604
-0.5968992114067078 -0.038759708404541016 -0.1346147358417511
-0.5968992114067078 -0.038759708404541016 -0.09189806878566742
-0.5968992114067078 -0.02325582504272461 -0.1345837414264679
-0.5968992114067078 -0.02325582504272461 -0.09066247940063477
-0.5968992114067078 -0.007751941680908203 -0.1344394087791443
-0.5968992114067078 -0.007751941680908203 -0.08987484872341156
-0.5968992114067078 0.007751941680908203 -0.13424403965473175
-0.5968992114067078 0.007751941680908203 -0.09014016389846802
-0.5968992114067078 0.02325582504272461 -0.13395613431930542
-0.5968992114067078 0.02325582504272461 -0.0908096432685852
-0.5968992114067078 0.038759708404541016 -0.13391415774822235
-0.5968992114067078 0.038759708404541016 -0.09230279922485352
-0.596899151802063 0.05426359176635742 -0.13400909304618835
-0.5968992114067078 0.05426359176635742 -0.09367683529853821
-0.5968992114067078 0.06976747512817383 -0.1342090517282486
-0.5968992114067078 0.06976747512817383 -0.09477602690458298
-0.596899151802063 0.08527135848999023 -0.13425517082214355
-0.5968992114067078 0.08527135848999023 -0.09520387649536133
-0.5968992114067078 0.10077524185180664 -0.13430137932300568
-0.5968992710113525 0.10077524185180664 -0.09517250210046768
-0.5968992114067078 0.11627912521362305 -0.1342761367559433
-0.5968992114067078 0.11627912521362305 -0.0946708470582962
-0.5968992114067078 0.1317828893661499 -0.13411688804626465
-0.5968992710113525 0.1317828893661499 -0.09361917525529861
-0.5968992710113525 0.1472867727279663 -0.1339760720729828
-0.5968992114067078 0.1472867727279663 -0.09240816533565521
-0.5968992114067078 0.16279065608978271 -0.13396687805652618
-0.5968992114067078 0.16279065608978271 -0.091231569647789
-0.5968992114067078 0.17829453945159912 -0.133796826004982
-0.5968992114067078 0.17829453945159912 -0.09031166136264801
-0.5968992114067078 0.19379842281341553 -0.13369792699813843
-0.5968992114067078 0.19379842281341553 -0.09043119847774506
-0.5968992114067078 0.20930230617523193 -0.1336173564195633
-0.5968992114067078 0.20930230617523193 -0.09166289865970612
-0.5968992114067078 0.22480618953704834 -0.13354787230491638
-0.5968992114067078 0.22480618953704834 -0.09367341548204422
-0.5968992114067078 0.24031007289886475 -0.13357721269130707
-0.5968992114067078 0.24031007289886475 -0.09552029520273209
-0.5968992114067078 0.25581395626068115 -0.13357838988304138
-0.596899151802063 0.25581395626068115 -0.09686090052127838
-0.5968992114067078 0.27131783962249756 -0.13365761935710907
-0.5968992114067078 0.27131783962249756 -0.09739553928375244
-0.5968992114067078 0.28682172298431396 -0.13362416625022888
-0.5968992114067078 0.28682172298431396 -0.09682456403970718
-0.5968992114067078 0.30232560634613037 -0.1334761530160904
-0.596899151802063 0.30232560634613037 -0.09554587304592133
-0.596899151802063 0.3178294897079468 -0.13332243263721466
-0.5968992114067078 0.3178294897079468 -0.09363916516304016
-0.5968992114067078 0.3333333730697632 -0.13318286836147308
-0.5968992114067078 0.3333333730697632 -0.09074853360652924
-0.5968992114067078 0.3488372564315796 -0.1328791379928589
-0.5968992114067078 0.3488372564315796 -0.08632227033376694
-0.5968992114067078 0.364341139793396 -0.13255085051059723
-0.5968992114067078 0.364341139793396 -0.08337908983230591
-0.5968992114067078 0.37984490394592285 -0.1321062445640564
-0.5968992114067078 0.37984490394592285 -0.08172439783811569
-0.5968992114067078 0.39534878730773926 -0.13136431574821472
-0.5968992114067078 0.39534878730773926 -0.0811820775270462
-0.5968992114067078 0.41085267066955566 -0.13029201328754425
-0.5968992710113525 0.41085267066955566 -0.08079387992620468
-0.5968992114067078 0.42635655403137207 -0.12935425341129303
-0.5968992114067078 0.42635655403137207 -0.07706980407238007
-0.5968992114067078 0.4418604373931885 -0.12839262187480927
-0.5968992114067078 0.4418604373931885 -0.05548004060983658
-0.5968992114067078 0.4573643207550049 -0.1274697184562683
-0.5968992114067078 0.4573643207550049 0.013707900419831276
-0.5968992114067078 0.4728682041168213 -0.12645700573921204
-0.5968992114067078 0.4728682041168213 0.03627803176641464
-0.596899151802063 0.4883720874786377 -0.1257137656211853
-0.5968992114067078 0.4883720874786377 0.051955245435237885
-0.5968992114067078 0.5038759708404541 -0.1252421736717224
-0.5968992114067078 0.5038759708404541 0.0719931423664093
-0.5968992114067078 0.5193798542022705 -0.12441031634807587
-0.5968992114067078 0.5193798542022705 0.11188757419586182
-0.596899151802063 0.5348837375640869 -0.12430465966463089
-0.5968992114067078 0.5348836779594421 0.1165960356593132
-0.5968992114067078 0.5503876209259033 -0.12316398322582245
-0.596899151802063 0.5503876209259033 0.11750293523073196
-0.5968992114067078 0.5658915042877197 -0.11961149424314499
-0.5968992114067078 0.5658915042877197 -0.10885752737522125
-0.5968992114067078 0.5658915042877197 0.0266723670065403
-0.5968992114067078 0.5658915042877197 0.11794217675924301
-0.5968992710113525 0.5813953876495361 0.09080353379249573
-0.5968992114067078 0.5813953876495361 0.1167050451040268
-0.5813953876495361 -0.5658915042877197 -0.12153294682502747
-0.5813953876495361 -0.5658915042877197 0.11713340878486633
-0.5813953876495361 -0.5503876209259033 -0.12381225824356079
-0.5813953876495361 -0.5503876209259033 0.11746662110090256
-0.5813953876495361 -0.5348837375640869 -0.12390822172164917
-0.5813953876495361 -0.5348837375640869 0.1164814755320549
-0.5813953876495361 -0.5193798542022705 -0.12470071017742157
-0.5813953876495361 -0.5193798542022705 0.1105133593082428
-0.5813953876495361 -0.5038759708404541 -0.12494058907032013
-0.5813953876495361 -0.5038759708404541 0.0815102756023407
-0.5813953876495361 -0.4883720874786377 -0.12543633580207825
-0.5813953876495361 -0.4883720874786377 0.06312347948551178
-0.5813953876495361 -0.4728682041168213 -0.12615585327148438
-0.5813953876495361 -0.4728682041168213 0.05265282839536667
-0.5813953876495361 -0.4573643207550049 -0.12707853317260742
-0.5813953876495361 -0.4573643207550049 0.034003112465143204
-0.5813953876495361 -0.4418604373931885 -0.12812526524066925
-0.5813953876495361 -0.44186046719551086 0.009098272770643234
-0.5813953876495361 -0.42635658383369446 -0.1290934681892395
-0.5813953876495361 -0.42635661363601685 -0.06998378038406372
-0.5813953876495361 -0.41085273027420044 -0.13008198142051697
-0.5813953876495361 -0.41085273027420044 -0.07103002071380615
-0.5813953876495361 -0.39534881711006165 -0.13107502460479736
-0.5813953876495361 -0.39534884691238403 -0.0704328715801239
-0.5813953876495361 -0.3798449635505676 -0.1318875104188919
-0.5813953876495361 -0.3798449635505676 -0.07138539850711823
-0.5813953876495361 -0.3643410801887512 -0.13234904408454895
-0.5813953876495361 -0.3643410801887512 -0.07358148694038391
-0.5813953876495361 -0.3488371968269348 -0.13281074166297913
-0.5813953876495361 -0.3488371968269348 -0.07650720328092575
-0.5813953876495361 -0.3333333134651184 -0.1332770138978958
-0.5813953876495361 -0.3333333134651184 -0.07941833138465881
-0.5813953876495361 -0.317829430103302 -0.1337013989686966
-0.5813953876495361 -0.317829430103302 -0.08150064945220947
-0.5813953876495361 -0.30232560634613037 -0.1340702623128891
-0.5813953876495361 -0.30232560634613037 -0.0828065574169159
-0.5813953876495361 -0.28682172298431396 -0.13429538905620575
-0.5813953876495361 -0.28682172298431396 -0.08373626321554184
-0.5813953876495361 -0.27131783962249756 -0.13420753180980682
-0.5813953876495361 -0.27131783962249756 -0.08494280278682709
-0.5813953876495361 -0.25581395626068115 -0.134016752243042
-0.5813953876495361 -0.25581395626068115 -0.08624157309532166
-0.5813953876495361 -0.24031007289886475 -0.1341422200202942
-0.5813953876495361 -0.24031007289886475 -0.08657852560281754
-0.5813953876495361 -0.22480618953704834 -0.1345156729221344
-0.5813953876495361 -0.22480618953704834 -0.08644520491361618
-0.5813953876495361 -0.20930230617523193 -0.1345137059688568
-0.5813953876495361 -0.20930230617523193 -0.08682791888713837
-0.5813953876495361 -0.19379842281341553 -0.13447344303131104
-0.5813953876495361 -0.19379842281341553 -0.08800261467695236
-0.5813953876495361 -0.1782945990562439 -0.13437366485595703
-0.5813953876495361 -0.1782945990562439 -0.08976009488105774
-0.5813953876495361 -0.1627907156944275 -0.13434991240501404
-0.5813953876495361 -0.1627907156944275 -0.09191130101680756
-0.5813953876495361 -0.14728683233261108 -0.13441729545593262
-0.5813953876495361 -0.14728683233261108 -0.093732088804245
-0.5813953876495361 -0.13178294897079468 -0.13457393646240234
-0.5813953876495361 -0.13178294897079468 -0.09524528682231903
-0.5813953876495361 -0.11627906560897827 -0.13477395474910736
-0.5813953876495361 -0.11627905815839767 -0.09619801491498947
-0.5813953876495361 -0.10077518224716187 -0.13487717509269714
-0.5813953876495361 -0.10077518224716187 -0.09644478559494019
-0.5813953876495361 -0.08527129888534546 -0.13492140173912048
-0.5813953876495361 -0.08527129888534546 -0.09612123668193817
-0.5813953876495361 -0.06976741552352905 -0.13497954607009888
-0.5813953876495361 -0.06976741552352905 -0.09532928466796875
-0.5813953876495361 -0.05426359176635742 -0.13503490388393402
-0.5813953876495361 -0.05426359176635742 -0.09402412921190262
-0.5813953876495361 -0.038759708404541016 -0.134953111410141
-0.5813953876495361 -0.038759708404541016 -0.09238116443157196
-0.5813953876495361 -0.02325582504272461 -0.13491837680339813
-0.5813953876495361 -0.02325582504272461 -0.09111175686120987
-0.5813953876495361 -0.007751941680908203 -0.13474076986312866
-0.5813953876495361 -0.007751941680908203 -0.09029364585876465
-0.5813953876495361 0.007751941680908203 -0.13451248407363892
-0.5813953876495361 0.007751941680908203 -0.09055900573730469
-0.5813953876495361 0.02325582504272461 -0.13416710495948792
-0.5813953876495361 0.02325582504272461 -0.09128125756978989
-0.5813953876495361 0.038759708404541016 -0.13410702347755432
-0.5813953876495361 0.038759708404541016 -0.09281294047832489
-0.5813953876495361 0.05426359176635742 -0.13418719172477722
-0.5813953876495361 0.05426359176635742 -0.09423980116844177
-0.5813953876495361 0.06976747512817383 -0.13439492881298065
-0.5813953876495361 0.06976747512817383 -0.09538392722606659
-0.5813953876495361 0.08527135848999023 -0.13444925844669342
-0.5813953876495361 0.08527135848999023 -0.09589741379022598
-0.5813953876495361 0.10077524185180664 -0.13450473546981812
-0.5813953876495361 0.10077524185180664 -0.09597721695899963
-0.5813953876495361 0.11627912521362305 -0.13450269401073456
-0.5813953876495361 0.11627912521362305 -0.09558407217264175
-0.5813953876495361 0.1317828893661499 -0.13438646495342255
-0.5813953876495361 0.1317828893661499 -0.09470438212156296
-0.5813953876495361 0.1472867727279663 -0.13428296148777008
-0.5813953876495361 0.1472867727279663 -0.09370356053113937
-0.5813953876495361 0.16279065608978271 -0.1342792958021164
-0.5813953876495361 0.16279065608978271 -0.09275674819946289
-0.5813953876495361 0.17829453945159912 -0.1341242790222168
-0.5813953876495361 0.17829453945159912 -0.09210726618766785
-0.5813953876495361 0.19379842281341553 -0.13403376936912537
-0.5813953876495361 0.19379842281341553 -0.09249269962310791
-0.5813953876495361 0.20930230617523193 -0.13397175073623657
-0.5813953876495361 0.20930230617523193 -0.09392813593149185
-0.5813953876495361 0.22480618953704834 -0.13392290472984314
-0.5813953876495361 0.22480618953704834 -0.09596134722232819
-0.5813953876495361 0.24031007289886475 -0.13397714495658875
-0.5813953876495361 0.24031007289886475 -0.09778933972120285
-0.5813953876495361 0.25581395626068115 -0.13399100303649902
-0.5813953876495361 0.25581395626068115 -0.09913714975118637
-0.5813953876495361 0.27131783962249756 -0.134046733379364
-0.5813953876495361 0.27131783962249756 -0.09987606108188629
-0.5813953876495361 0.28682172298431396 -0.13399307429790497
-0.5813953280448914 0.28682172298431396 -0.09973391145467758
-0.5813953876495361 0.30232560634613037 -0.13384294509887695
-0.5813953876495361 0.30232560634613037 -0.09905728697776794
-0.5813953876495361 0.3178294897079468 -0.13371312618255615
-0.5813953876495361 0.3178294897079468 -0.09786783903837204
-0.5813953876495361 0.3333333730697632 -0.13360999524593353
-0.5813953876495361 0.3333333730697632 -0.09599767625331879
-0.5813953876495361 0.3488372564315796 -0.13334712386131287
-0.5813953876495361 0.3488372564315796 -0.09299859404563904
-0.5813953876495361 0.364341139793396 -0.13305500149726868
-0.5813953876495361 0.364341139793396 -0.08969616889953613
-0.5813953876495361 0.37984490394592285 -0.13264328241348267
-0.5813953876495361 0.37984490394592285 -0.08688097447156906
-0.5813953876495361 0.39534878730773926 -0.13212738931179047
-0.5813953280448914 0.39534875750541687 -0.0850009098649025
-0.5813953876495361 0.41085267066955566 -0.13140398263931274
-0.5813953876495361 0.41085267066955566 -0.0847897082567215
-0.5813953876495361 0.4263565242290497 -0.1306162327528
-0.5813953876495361 0.42635655403137207 -0.08455107361078262
-0.5813953876495361 0.44186046719551086 -0.12982864677906036
-0.5813953876495361 0.4418604075908661 -0.08230380713939667
-0.5813953876495361 0.4573642909526825 -0.12904851138591766
-0.5813953876495361 0.4573643207550049 -0.07269365340471268
-0.5813953876495361 0.4728681743144989 -0.12804442644119263
-0.5813953876495361 0.4728682041168213 -0.015957660973072052
-0.5813953876495361 0.4883720874786377 -0.12700200080871582
-0.5813953876495361 0.4883720874786377 0.0221258495002985
-0.5813953876495361 0.5038759708404541 -0.12598289549350739
-0.5813953876495361 0.5038759708404541 0.04263768717646599
-0.5813953876495361 0.5193798542022705 -0.1251685619354248
-0.5813953876495361 0.5193798542022705 0.0619121789932251
-0.5813953876495361 0.5348837375640869 -0.1245238184928894
-0.5813953876495361 0.5348837375640869 0.10828053951263428
-0.5813953876495361 0.5503876209259033 -0.12395434081554413
-0.5813953876495361 0.5503876209259033 0.1162252351641655
-0.5813953876495361 0.5658915042877197 -0.12417766451835632
-0.5813953876495361 0.5658915042877197 0.1172475814819336
-0.5813953876495361 0.5813953876495361 -0.12256686389446259
-0.5813953876495361 0.5813953876495361 0.11781734973192215
-0.5813953876495361 0.5968992710113525 0.07768730819225311
-0.5813953876495361 0.5968992710113525 0.11717996746301651
-0.5658915042877197 -0.5968992114067078 0.09656991064548492
-0.5658915042877197 -0.5968992114067078 0.10871193557977676
-0.5658915042877197 -0.5813953876495361 -0.1227719858288765
-0.5658915042877197 -0.5813953876495361 0.11766965687274933
-0.5658915042877197 -0.5658915042877197 -0.12397582828998566
-0.5658915042877197 -0.5658915042877197 0.11718481779098511
-0.5658915042877197 -0.5503876209259033 -0.12447085231542587
-0.5658915042877197 -0.5503876209259033 0.11565697938203812
-0.5658915042877197 -0.5348837375640869 -0.12485292553901672
-0.5658915042877197 -0.5348837375640869 0.10786135494709015
-0.5658915042877197 -0.5193798542022705 -0.12520596385002136
-0.5658915042877197 -0.5193798542022705 0.07302406430244446
-0.5658915042877197 -0.5038759708404541 -0.1258591115474701
-0.5658915042877197 -0.5038759708404541 0.05894651263952255
-0.5658915042877197 -0.4883720874786377 -0.12676149606704712
-0.5658915042877197 -0.4883720874786377 0.04603142291307449
-0.5658915042877197 -0.4728682041168213 -0.12761163711547852
-0.5658915042877197 -0.4728682339191437 0.027908865362405777
-0.5658915042877197 -0.4573643207550049 -0.1284799873828888
-0.5658915042877197 -0.4573643207550049 -0.06416057795286179
-0.5658915042877197 -0.4573643207550049 -0.03404078260064125
-0.5658915042877197 -0.4573643207550049 -0.0043154992163181305
-0.5658915042877197 -0.4418604373931885 -0.1294177770614624
-0.5658915042877197 -0.4418604373931885 -0.07371105253696442
-0.5658915042877197 -0.42635664343833923 -0.1302817165851593
-0.5658915042877197 -0.42635661363601685 -0.07289128005504608
-0.5658915042877197 -0.41085270047187805 -0.13124030828475952
-0.5658915042877197 -0.41085273027420044 -0.0708964616060257
-0.5658915042877197 -0.39534884691238403 -0.13204067945480347
-0.5658915042877197 -0.39534884691238403 -0.06974800676107407
-0.5658915042877197 -0.3798449635505676 -0.13255460560321808
-0.5658915042877197 -0.3798449635505676 -0.07122854143381119
-0.5658915042877197 -0.3643410801887512 -0.13297510147094727
-0.5658915042877197 -0.3643410801887512 -0.07401935756206512
-0.5658915042877197 -0.3488371968269348 -0.13336807489395142
-0.5658915042877197 -0.3488371968269348 -0.07722935825586319
-0.5658915042877197 -0.3333333134651184 -0.13377925753593445
-0.5658915042877197 -0.3333333134651184 -0.08012818545103073
-0.5658915042877197 -0.317829430103302 -0.13416805863380432
-0.5658915042877197 -0.317829430103302 -0.08209162950515747
-0.5658915042877197 -0.30232560634613037 -0.1345202624797821
-0.5658915042877197 -0.30232560634613037 -0.08323897421360016
-0.5658915042877197 -0.28682172298431396 -0.1347213089466095
-0.5658915042877197 -0.28682172298431396 -0.08404738456010818
-0.5658915042877197 -0.27131783962249756 -0.1345965415239334
-0.5658915042877197 -0.27131783962249756 -0.08508159220218658
-0.5658915042877197 -0.25581395626068115 -0.1343693733215332
-0.5658915042877197 -0.25581395626068115 -0.08620332926511765
-0.5658915042877197 -0.24031007289886475 -0.13448919355869293
-0.5658915042877197 -0.24031007289886475 -0.08632158488035202
-0.5658915042877197 -0.22480618953704834 -0.13488052785396576
-0.5658915042877197 -0.22480618953704834 -0.08596111088991165
-0.5658915042877197 -0.20930230617523193 -0.134865403175354
-0.5658915042877197 -0.20930230617523193 -0.08614116907119751
-0.5658915042877197 -0.19379842281341553 -0.1347975879907608
-0.5658915042877197 -0.19379842281341553 -0.08711709082126617
-0.5658915042877197 -0.1782945990562439 -0.13466650247573853
-0.5658915042877197 -0.1782945990562439 -0.0887068510055542
-0.5658915042877197 -0.1627907156944275 -0.1346164345741272
-0.5658915042877197 -0.1627907156944275 -0.09074203670024872
-0.5658915042877197 -0.14728683233261108 -0.13464567065238953
-0.5658915042877197 -0.14728683233261108 -0.09252256900072098
-0.5658915042877197 -0.13178294897079468 -0.1347818374633789
-0.5658915042877197 -0.13178294897079468 -0.09405025839805603
-0.5658915042877197 -0.11627906560897827 -0.13498176634311676
-0.5658915042877197 -0.11627906560897827 -0.09505283832550049
-0.5658915042877197 -0.10077518224716187 -0.1350799798965454
-0.5658915042877197 -0.10077518224716187 -0.09531550109386444
-0.5658915042877197 -0.08527129888534546 -0.13512299954891205
-0.5658915042877197 -0.08527129888534546 -0.09498551487922668
-0.5658915042877197 -0.06976741552352905 -0.135187029838562
-0.5658915042877197 -0.06976741552352905 -0.09417486935853958
-0.5658915042877197 -0.05426359176635742 -0.13525712490081787
-0.5658915042877197 -0.05426359176635742 -0.09282232820987701
-0.5658915042877197 -0.038759708404541016 -0.13517005741596222
-0.5658915042877197 -0.038759708404541016 -0.091099813580513
-0.5658915042877197 -0.02325582504272461 -0.1351548582315445
-0.5658915042877197 -0.02325582504272461 -0.0897812619805336
-0.5658915042877197 -0.007751941680908203 -0.13497979938983917
-0.5658915042877197 -0.007751941680908203 -0.0889139398932457
-0.5658915042877197 0.007751941680908203 -0.1347370743751526
-0.5658915042877197 0.007751941680908203 -0.08917368948459625
-0.5658915042877197 0.02325582504272461 -0.13436347246170044
-0.5658915042877197 0.02325582504272461 -0.08992408215999603
-0.5658915042877197 0.038759708404541016 -0.13424918055534363
-0.5658915042877197 0.038759708404541016 -0.09152741730213165
-0.5658915042877197 0.05426359176635742 -0.13430428504943848
-0.5658915042877197 0.05426359176635742 -0.09308266639709473
-0.5658915042877197 0.06976747512817383 -0.13450369238853455
-0.5658915042877197 0.06976747512817383 -0.09433432668447495
-0.5658915042877197 0.08527135848999023 -0.13456733524799347
-0.5658915042877197 0.08527135848999023 -0.09492337703704834
-0.5658915042877197 0.10077524185180664 -0.13463933765888214
-0.5658915042877197 0.10077524185180664 -0.09505928307771683
-0.5658915042877197 0.11627912521362305 -0.13466055691242218
-0.5658915042877197 0.11627912521362305 -0.09469908475875854
-0.5658915042877197 0.1317828893661499 -0.1345539093017578
-0.5658915042877197 0.1317828893661499 -0.09383462369441986
-0.5658915042877197 0.1472867727279663 -0.13445523381233215
-0.5658915042877197 0.1472867727279663 -0.09289374947547913
-0.5658915042877197 0.16279065608978271 -0.13447365164756775
-0.5658915042877197 0.16279065608978271 -0.09203491359949112
-0.5658915042877197 0.17829453945159912 -0.13432271778583527
-0.5658915042877197 0.17829453945159912 -0.09150667488574982
-0.5658915042877197 0.19379842281341553 -0.1342555582523346
-0.5658915042877197 0.19379842281341553 -0.09205251932144165
-0.5658915042877197 0.20930230617523193 -0.13422401249408722
-0.5658915042877197 0.20930230617523193 -0.09365866333246231
-0.5658915042877197 0.22480618953704834 -0.13420464098453522
-0.5658915042877197 0.22480618953704834 -0.09579821676015854
-0.5658915042877197 0.24031007289886475 -0.13428053259849548
-0.5658915042877197 0.24031007289886475 -0.09772112220525742
-0.5658915042877197 0.25581395626068115 -0.13431401550769806
-0.5658915042877197 0.25581395626068115 -0.09918171912431717
-0.5658915042877197 0.27131783962249756 -0.13440069556236267
-0.5658915042877197 0.27131780982017517 -0.10003334283828735
-0.5658915042877197 0.28682172298431396 -0.1343548744916916
-0.5658915042877197 0.28682172298431396 -0.10003630816936493
-0.5658915042877197 0.30232560634613037 -0.1342048943042755
-0.5658915042877197 0.30232560634613037 -0.09955038875341415
-0.5658915042877197 0.3178294897079468 -0.13408567011356354
-0.5658915042877197 0.3178294897079468 -0.09861894696950912
-0.5658915042877197 0.3333333730697632 -0.13399861752986908
-0.5658915042877197 0.3333333730697632 -0.09708337485790253
-0.5658915042877197 0.3488372564315796 -0.13374246656894684
-0.5658915042877197 0.3488372564315796 -0.09459826350212097
-0.5658915042877197 0.364341139793396 -0.13347704708576202
-0.5658915042877197 0.364341139793396 -0.09192382544279099
-0.5658915042877197 0.37984490394592285 -0.133111834526062
-0.5658915042877197 0.37984490394592285 -0.08978171646595001
-0.5658915042877197 0.39534878730773926 -0.13264064490795135
-0.5658915042877197 0.39534878730773926 -0.08802928030490875
-0.5658915042877197 0.41085267066955566 -0.1321420818567276
-0.5658915042877197 0.41085267066955566 -0.08717046678066254
-0.5658915042877197 0.42635655403137207 -0.1317434161901474
-0.5658915042877197 0.42635655403137207 -0.08688005805015564
-0.565891444683075 0.4418604373931885 -0.1311044842004776
-0.5658915042877197 0.4418604373931885 -0.08584574609994888
-0.5658915042877197 0.4573643207550049 -0.13047471642494202
-0.5658915042877197 0.4573643207550049 -0.08309031277894974
-0.5658915042877197 0.4728682041168213 -0.1295875906944275
-0.5658915042877197 0.4728682041168213 -0.07520753890275955
-0.5658915042877197 0.4883720874786377 -0.12859755754470825
-0.5658915042877197 0.4883720874786377 -0.05680437013506889
-0.5658915042877197 0.5038759708404541 -0.12741807103157043
-0.5658915042877197 0.5038759708404541 0.009201956912875175
-0.5658915042877197 0.5193798542022705 -0.12611417472362518
-0.565891444683075 0.5193798542022705 0.038863345980644226
-0.5658915042877197 0.5348837375640869 -0.12512578070163727
-0.5658915042877197 0.5348837375640869 0.057718247175216675
-0.5658915042877197 0.5503876209259033 -0.12462656199932098
-0.5658915042877197 0.5503876209259033 0.1045510321855545
-0.5658915042877197 0.5658915042877197 -0.12405934929847717
-0.5658915042877197 0.5658915042877197 0.11516425013542175
-0.5658915042877197 0.5813953876495361 -0.12406213581562042
-0.5658915042877197 0.5813953876495361 0.11701096594333649
-0.5658915042877197 0.5968992710113525 -0.12354809045791626
-0.565891444683075 0.5968992710113525 0.1176832914352417
-0.5658915042877197 0.612403154373169 -0.11879566311836243
-0.5658915042877197 0.612403154373169 -0.10871803760528564
-0.5658915042877197 0.612403154373169 0.03809322416782379
-0.5658915042877197 0.612403154373169 0.11743494868278503
-0.5503876209259033 -0.6124030947685242 -0.11950063705444336
-0.5503876209259033 -0.6124030947685242 -0.1060994416475296
-0.5503876209259033 -0.612403154373169 0.08742590248584747
-0.5503876209259033 -0.6124030947685242 0.11633988469839096
-0.5503876209259033 -0.5968992114067078 -0.12354899942874908
-0.5503876209259033 -0.5968992114067078 0.11763867735862732
-0.5503876209259033 -0.5813953876495361 -0.12407048046588898
-0.5503876209259033 -0.5813953876495361 0.11693979799747467
-0.5503876209259033 -0.5658915042877197 -0.12483043968677521
-0.5503876209259033 -0.5658915042877197 0.1145939975976944
-0.5503876209259033 -0.5503876209259033 -0.12508456408977509
-0.5503876209259033 -0.5503876209259033 0.10610009729862213
-0.5503876209259033 -0.5348837375640869 -0.1255660206079483
-0.5503876209259033 -0.5348837375640869 0.06811127066612244
-0.5503876209259033 -0.5193798542022705 -0.12633627653121948
-0.5503876209259033 -0.5193798542022705 0.0541035458445549
-0.5503876209259033 -0.5038759708404541 -0.1272691786289215
-0.5503876209259033 -0.5038759708404541 0.03755524381995201
-0.5503876209259033 -0.4883720874786377 -0.1282215118408203
-0.5503876209259033 -0.4883720874786377 0.014113159850239754
-0.5503876209259033 -0.4728682041168213 -0.12894012033939362
-0.5503876209259033 -0.4728682041168213 -0.07159358263015747
-0.5503876209259033 -0.4573643207550049 -0.12967407703399658
-0.5503876209259033 -0.4573643207550049 -0.0752577856183052
-0.5503876209259033 -0.4418604373931885 -0.13050633668899536
-0.5503876209259033 -0.4418604373931885 -0.07434578239917755
-0.5503876209259033 -0.42635661363601685 -0.1312861293554306
-0.5503876209259033 -0.42635661363601685 -0.07190901786088943
-0.5503876209259033 -0.41085273027420044 -0.13205400109291077
-0.5503876209259033 -0.41085273027420044 -0.06925922632217407
-0.5503876209259033 -0.39534884691238403 -0.13262677192687988
-0.5503876209259033 -0.39534884691238403 -0.06870928406715393
-0.5503876209259033 -0.3798449635505676 -0.1331430971622467
-0.5503876209259033 -0.3798449635505676 -0.07004249840974808
-0.5503876209259033 -0.3643410801887512 -0.13353565335273743
-0.5503876209259033 -0.3643410801887512 -0.07331070303916931
-0.5503876209259033 -0.3488371968269348 -0.13386309146881104
-0.5503876209259033 -0.3488371968269348 -0.07688874006271362
-0.5503876209259033 -0.3333333134651184 -0.13421455025672913
-0.5503876209259033 -0.3333333134651184 -0.07998690009117126
-0.5503876209259033 -0.317829430103302 -0.13456310331821442
-0.5503876209259033 -0.317829430103302 -0.08201316744089127
-0.5503876209259033 -0.30232560634613037 -0.13489826023578644
-0.5503876209259033 -0.302325576543808 -0.0831211507320404
-0.5503876209259033 -0.28682172298431396 -0.1350768655538559
-0.5503876209259033 -0.28682172298431396 -0.08386624604463577
-0.5503876209259033 -0.27131783962249756 -0.13494406640529633
-0.5503876209259033 -0.27131783962249756 -0.08481922745704651
-0.5503876209259033 -0.25581395626068115 -0.1346944123506546
-0.5503876209259033 -0.25581395626068115 -0.08574061095714569
-0.5503876209259033 -0.24031007289886475 -0.13480974733829498
-0.5503876209259033 -0.24031007289886475 -0.08574449270963669
-0.5503876209259033 -0.22480618953704834 -0.13520614802837372
-0.5503876209259033 -0.22480618953704834 -0.08524423837661743
-0.5503876209259033 -0.20930230617523193 -0.13517844676971436
-0.5503876209259033 -0.20930230617523193 -0.0852893739938736
-0.5503876209259033 -0.19379842281341553 -0.1351040005683899
-0.5503876209259033 -0.19379842281341553 -0.0861462950706482
-0.5503876209259033 -0.1782945990562439 -0.1349559873342514
-0.5503876209259033 -0.1782945990562439 -0.0876104012131691
-0.5503876209259033 -0.1627907156944275 -0.13489240407943726
-0.5503876209259033 -0.1627907156944275 -0.08957187086343765
-0.5503876209259033 -0.14728683233261108 -0.13488361239433289
-0.5503876209259033 -0.14728683233261108 -0.09133876115083694
-0.5503876209259033 -0.13178294897079468 -0.13499251008033752
-0.5503876209259033 -0.13178294897079468 -0.09288370609283447
-0.5503876209259033 -0.11627906560897827 -0.1351868212223053
-0.5503876209259033 -0.11627906560897827 -0.09391611814498901
-0.5503876209259033 -0.10077518224716187 -0.13528351485729218
-0.5503876209259033 -0.10077518224716187 -0.09416893869638443
-0.5503876209259033 -0.08527129888534546 -0.13533446192741394
-0.5503876209259033 -0.08527129888534546 -0.09380390495061874
-0.5503876209259033 -0.06976741552352905 -0.13540871441364288
-0.5503876209259033 -0.06976741552352905 -0.09293118119239807
-0.5503876209259033 -0.05426359176635742 -0.13550029695034027
-0.5503876209259033 -0.05426359176635742 -0.09148617088794708
-0.5503876209259033 -0.038759708404541016 -0.13541513681411743
-0.5503876209259033 -0.038759708404541016 -0.0896509662270546
-0.5503876209259033 -0.02325582504272461 -0.1354365050792694
-0.5503876209259033 -0.02325582504272461 -0.0882955864071846
-0.5503876209259033 -0.007751941680908203 -0.13529562950134277
-0.5503876209259033 -0.007751941680908203 -0.08734172582626343
-0.5503876209259033 0.007751941680908203 -0.13508228957653046
-0.5503876209259033 0.007751941680908203 -0.08759073913097382
-0.5503876209259033 0.02325582504272461 -0.13474220037460327
-0.5503876209259033 0.02325582504272461 -0.08837093412876129
-0.5503876209259033 0.038759708404541016 -0.13459934294223785
-0.5503876209259033 0.038759708404541016 -0.09002118557691574
-0.5503876209259033 0.05426359176635742 -0.13463778793811798
-0.5503876209259033 0.05426359176635742 -0.09168144315481186
-0.5503876209259033 0.06976747512817383 -0.134817972779274
-0.5503876209259033 0.06976747512817383 -0.0930677205324173
-0.5503876209259033 0.08527135848999023 -0.13487529754638672
-0.5503876209259033 0.08527135848999023 -0.09374675154685974
-0.5503876209259033 0.10077524185180664 -0.1349456012248993
-0.5503876209259033 0.10077524185180664 -0.0939314067363739
-0.5503876209259033 0.11627912521362305 -0.13498172163963318
-0.5503876209259033 0.11627912521362305 -0.09362070262432098
-0.5503876209259033 0.1317828893661499 -0.13487032055854797
-0.5503876209259033 0.1317828893661499 -0.09277549386024475
-0.5503876209259033 0.1472867727279663 -0.13475766777992249
-0.5503876209259033 0.1472867727279663 -0.09188669174909592
-0.5503876209259033 0.16279065608978271 -0.13478554785251617
-0.5503876209259033 0.16279065608978271 -0.09109768271446228
-0.5503876209259033 0.17829453945159912 -0.13462115824222565
-0.5503876209259033 0.17829453945159912 -0.09068315476179123
-0.5503876209259033 0.19379842281341553 -0.13456867635250092
-0.5503876209259033 0.19379842281341553 -0.09138351678848267
-0.5503876209259033 0.20930230617523193 -0.13454842567443848
-0.5503876209259033 0.20930230617523193 -0.0931428074836731
-0.5503876209259033 0.22480618953704834 -0.1345352977514267
-0.5503876209259033 0.22480618953704834 -0.09538179636001587
-0.5503876209259033 0.24031007289886475 -0.13460025191307068
-0.5503876209259033 0.24031007289886475 -0.09740348160266876
-0.5503876209259033 0.25581395626068115 -0.13462048768997192
-0.5503876209259033 0.25581395626068115 -0.09898919612169266
-0.5503876209259033 0.27131783962249756 -0.13472077250480652
-0.5503876209259033 0.27131783962249756 -0.09995154291391373
-0.5503876209259033 0.28682172298431396 -0.1346667855978012
-0.5503876209259033 0.28682172298431396 -0.10006669908761978
-0.5503876209259033 0.30232560634613037 -0.13450628519058228
-0.5503876209259033 0.30232560634613037 -0.09973516315221786
-0.5503876209259033 0.3178294897079468 -0.13437539339065552
-0.5503876209259033 0.3178294897079468 -0.09902564436197281
-0.5503876209259033 0.3333333730697632 -0.13427311182022095
-0.5503876209259033 0.3333333730697632 -0.0977814719080925
-0.5503876209259033 0.3488372564315796 -0.1339964121580124
-0.5503876209259033 0.3488372564315796 -0.09569893777370453
-0.5503876209259033 0.364341139793396 -0.1337476223707199
-0.5503876209259033 0.364341139793396 -0.09345127642154694
-0.5503876209259033 0.37984490394592285 -0.13344091176986694
-0.5503876209259033 0.37984490394592285 -0.09166231751441956
-0.5503876209259033 0.39534878730773926 -0.13303527235984802
-0.5503876209259033 0.39534878730773926 -0.090316541492939
-0.5503876209259033 0.41085267066955566 -0.13262571394443512
-0.5503876209259033 0.41085267066955566 -0.08959972858428955
-0.5503876209259033 0.42635655403137207 -0.13229414820671082
-0.5503876209259033 0.42635655403137207 -0.08947207033634186
-0.5503876209259033 0.4418604373931885 -0.13200020790100098
-0.5503876209259033 0.4418604373931885 -0.08901741355657578
-0.5503875613212585 0.4573643207550049 -0.13167086243629456
-0.5503876209259033 0.4573643207550049 -0.08665376156568527
-0.5503876209259033 0.4728682041168213 -0.13088952004909515
-0.5503876209259033 0.4728682041168213 -0.08343656361103058
-0.5503876209259033 0.4883720874786377 -0.1300438940525055
-0.5503876209259033 0.4883720874786377 -0.07893282920122147
-0.5503876209259033 0.5038759708404541 -0.12898346781730652
-0.5503876209259033 0.5038759708404541 -0.06973475962877274
-0.5503876209259033 0.5193798542022705 -0.12767019867897034
-0.5503876209259033 0.5193798542022705 -0.005438230466097593
-0.5503876209259033 0.5348837375640869 -0.126419335603714
-0.5503876209259033 0.5348837375640869 0.0348161943256855
-0.5503876209259033 0.5503876209259033 -0.12550321221351624
-0.5503876209259033 0.5503876209259033 0.05618077889084816
-0.5503876209259033 0.5658915042877197 -0.12484504282474518
-0.5503876209259033 0.5658915042877197 0.10500276833772659
-0.5503876209259033 0.5813953876495361 -0.12438265979290009
-0.5503876209259033 0.5813953876495361 0.11458412557840347
-0.5503876209259033 0.5968992710113525 -0.12379702925682068
-0.5503876209259033 0.5968992710113525 0.11681479960680008
-0.5503876209259033 0.612403154373169 -0.12390149384737015
-0.5503876209259033 0.612403154373169 0.11754654347896576
-0.5503876209259033 0.6279069185256958 -0.12017330527305603
-0.5503876209259033 0.6279069185256958 -0.1039397120475769
-0.5503876209259033 0.6279069185256958 -0.07301339507102966
-0.5503876209259033 0.6279069185256958 0.11746367812156677
-0.5348837375640869 -0.6279069781303406 -0.12136717885732651
-0.5348837375640869 -0.6279069781303406 -0.017443401739001274
-0.5348837375640869 -0.6279069781303406 0.059424132108688354
-0.5348837375640869 -0.6279069781303406 0.11661365628242493
-0.5348837375640869 -0.6124030947685242 -0.124025858938694
-0.5348837375640869 -0.612403154373169 0.11747639626264572
-0.5348837375640869 -0.5968992114067078 -0.12416252493858337
-0.5348837375640869 -0.5968992114067078 0.11675166338682175
-0.5348837375640869 -0.5813953876495361 -0.12480034679174423
-0.5348837375640869 -0.5813953876495361 0.11427852511405945
-0.5348837375640869 -0.5658915042877197 -0.12518766522407532
-0.5348837375640869 -0.5658915042877197 0.10527757555246353
-0.5348837375640869 -0.5503876209259033 -0.12587477266788483
-0.5348837375640869 -0.5503876209259033 0.06438131630420685
-0.5348837375640869 -0.5348837375640869 -0.12677201628684998
-0.5348837375640869 -0.5348837375640869 0.04770686477422714
-0.5348837375640869 -0.5193798542022705 -0.1277576982975006
-0.5348837375640869 -0.5193798542022705 0.02449425309896469
-0.5348837375640869 -0.5038759708404541 -0.12867574393749237
-0.5348837375640869 -0.5038759708404541 -0.06125831604003906
-0.5348837375640869 -0.4883720874786377 -0.12948185205459595
-0.5348837375640869 -0.4883720874786377 -0.07434195280075073
-0.5348837375640869 -0.4728682041168213 -0.13003535568714142
-0.5348837375640869 -0.4728682041168213 -0.07538323849439621
-0.5348837375640869 -0.4573643207550049 -0.1306469887495041
-0.5348837375640869 -0.4573643207550049 -0.07437048852443695
-0.5348837375640869 -0.4418604373931885 -0.13140319287776947
-0.5348837375640869 -0.4418604373931885 -0.07205197960138321
-0.5348837375640869 -0.42635661363601685 -0.1319945752620697
-0.5348837375640869 -0.42635661363601685 -0.06909158080816269
-0.5348837375640869 -0.41085273027420044 -0.13254788517951965
-0.5348837375640869 -0.41085273027420044 -0.06731191277503967
-0.5348837375640869 -0.39534884691238403 -0.13310487568378448
-0.5348837375640869 -0.39534884691238403 -0.0672684907913208
-0.5348837375640869 -0.3798449635505676 -0.13361582159996033
-0.5348837971687317 -0.3798449635505676 -0.0689171776175499
-0.5348837375640869 -0.3643410801887512 -0.1339786946773529
-0.5348837375640869 -0.3643410801887512 -0.07225295156240463
-0.5348837375640869 -0.3488371968269348 -0.1342417597770691
-0.5348837375640869 -0.3488371968269348 -0.07634495198726654
-0.5348837375640869 -0.3333333134651184 -0.1345348060131073
-0.5348837375640869 -0.3333333134651184 -0.07974513620138168
-0.5348837375640869 -0.317829430103302 -0.1348373293876648
-0.5348837375640869 -0.317829430103302 -0.08187436312437057
-0.5348837375640869 -0.30232560634613037 -0.13515137135982513
-0.5348837375640869 -0.30232560634613037 -0.08295208215713501
-0.5348837375640869 -0.28682172298431396 -0.135306715965271
-0.5348837375640869 -0.28682172298431396 -0.08358225226402283
-0.5348837375640869 -0.27131783962249756 -0.1351616531610489
-0.5348837375640869 -0.27131783962249756 -0.08443377912044525
-0.5348837375640869 -0.25581395626068115 -0.1349027007818222
-0.5348837375640869 -0.25581395626068115 -0.08514759689569473
-0.5348837375640869 -0.24031007289886475 -0.13501591980457306
-0.5348837375640869 -0.24031007289886475 -0.08503039181232452
-0.5348837375640869 -0.22480618953704834 -0.1354101002216339
-0.5348837375640869 -0.22480620443820953 -0.0845087468624115
-0.5348837375640869 -0.20930230617523193 -0.1353636384010315
-0.5348837375640869 -0.20930230617523193 -0.08446443825960159
-0.5348837375640869 -0.19379842281341553 -0.13527578115463257
-0.5348837375640869 -0.19379843771457672 -0.085025355219841
-0.5348837375640869 -0.1782945990562439 -0.13512524962425232
-0.5348837375640869 -0.1782945990562439 -0.08628570288419724
-0.5348837375640869 -0.1627907156944275 -0.13503658771514893
-0.5348837375640869 -0.1627907156944275 -0.08813699334859848
-0.5348837375640869 -0.14728683233261108 -0.13499779999256134
-0.5348837375640869 -0.14728683233261108 -0.08985087275505066
-0.5348837375640869 -0.13178294897079468 -0.13508546352386475
-0.5348837375640869 -0.13178294897079468 -0.0914275199174881
-0.5348837375640869 -0.11627906560897827 -0.13526496291160583
-0.5348837375640869 -0.11627906560897827 -0.09250925481319427
-0.5348837375640869 -0.10077518224716187 -0.13535456359386444
-0.5348837375640869 -0.10077518224716187 -0.09273973852396011
-0.5348837375640869 -0.08527129888534546 -0.1354140192270279
-0.5348837375640869 -0.08527129888534546 -0.09231273829936981
-0.5348837375640869 -0.06976741552352905 -0.13550251722335815
-0.5348837375640869 -0.06976741552352905 -0.09133021533489227
-0.5348837375640869 -0.05426359176635742 -0.1356254667043686
-0.5348837375640869 -0.05426359176635742 -0.08975065499544144
-0.5348837375640869 -0.038759708404541016 -0.13557082414627075
-0.5348837375640869 -0.038759708404541016 -0.0877646654844284
-0.5348837375640869 -0.02325582504272461 -0.13561367988586426
-0.5348837375640869 -0.02325582504272461 -0.08632685989141464
-0.5348837375640869 -0.007751941680908203 -0.13550855219364166
