0.05426359176635742 -0.7674418687820435 -0.09048578888177872
0.05426359176635742 -0.7674418687820435 -0.06551764160394669
0.05426359176635742 -0.7674418687820435 0.07251404225826263
0.05426359176635742 -0.7674418687820435 0.08997754752635956
0.05426359176635742 -0.751937985420227 -0.09222784638404846
0.05426359176635742 -0.751937985420227 0.0947866439819336
0.05426359176635742 -0.7364341020584106 -0.09276364743709564
0.05426359176635742 -0.7364341020584106 0.09243027865886688
0.05426359176635742 -0.7209302186965942 -0.09312991052865982
0.05426359176635742 -0.7209302186965942 0.09277527034282684
0.05426359176635742 -0.7054263353347778 -0.09346570074558258
0.05426359176635742 -0.7054263353347778 0.0928540825843811
0.05426359176635742 -0.6899224519729614 -0.09392772614955902
0.05426359176635742 -0.6899224519729614 0.09191378951072693
0.05426359176635742 -0.674418568611145 -0.09418323636054993
0.05426358804106712 -0.674418568611145 0.08889978379011154
0.05426359176635742 -0.6589146852493286 -0.09450773149728775
0.05426359176635742 -0.6589146852493286 0.07811081409454346
0.05426359176635742 -0.643410861492157 -0.09466855227947235
0.05426359176635742 -0.643410861492157 0.07114877551794052
0.05426359176635742 -0.6279069781303406 -0.09479255974292755
0.05426359176635742 -0.6279069781303406 0.06453578174114227
0.05426359549164772 -0.6124030947685242 -0.09487389028072357
0.05426359176635742 -0.6124030947685242 0.06448905915021896
0.05426359176635742 -0.5968992114067078 -0.09499390423297882
0.05426359176635742 -0.5968992114067078 0.06681863218545914
0.05426359176635742 -0.5813953876495361 -0.09506888687610626
0.05426359176635742 -0.5813953876495361 0.06666197627782822
0.05426359176635742 -0.5658915042877197 -0.09503824263811111
0.05426359176635742 -0.5658915042877197 0.06495671719312668
0.05426359176635742 -0.5503876209259033 -0.09504830092191696
0.05426359176635742 -0.5503876209259033 0.06295863538980484
0.05426358804106712 -0.5348837375640869 -0.09499199688434601
0.05426359176635742 -0.5348837375640869 0.0611092671751976
0.05426359176635742 -0.5193798542022705 -0.09500901401042938
0.05426359176635742 -0.5193798542022705 0.06003735214471817
0.05426359176635742 -0.5038759708404541 -0.09499521553516388
0.05426359176635742 -0.5038759708404541 0.05969446897506714
0.05426359176635742 -0.4883721172809601 -0.09506256878376007
0.05426359549164772 -0.4883720874786377 0.06000225245952606
0.05426359176635742 -0.4728682041168213 -0.09508368372917175
0.05426358804106712 -0.4728682041168213 0.060117993503808975
0.05426359176635742 -0.4573643207550049 -0.09510905295610428
0.05426359549164772 -0.4573643207550049 0.060440532863140106
0.05426359176635742 -0.4418604373931885 -0.09522295743227005
0.05426359176635742 -0.4418604373931885 0.060986511409282684
0.05426359176635742 -0.42635661363601685 -0.09527750313282013
0.05426359176635742 -0.42635661363601685 0.061445996165275574
0.05426359176635742 -0.4108527600765228 -0.09531798958778381
0.05426359176635742 -0.41085273027420044 0.06213930994272232
0.05426358804106712 -0.39534884691238403 -0.09529848396778107
0.05426359176635742 -0.39534884691238403 0.06258957087993622
0.05426359176635742 -0.3798449635505676 -0.09526951611042023
0.05426359176635742 -0.3798449635505676 0.0630364790558815
0.05426359176635742 -0.3643410801887512 -0.09527278691530228
0.05426359176635742 -0.3643410801887512 0.06353979557752609
0.05426359176635742 -0.3488371968269348 -0.09538620710372925
0.05426359176635742 -0.3488371968269348 0.06397401541471481
0.05426359176635742 -0.3333333134651184 -0.09563018381595612
0.05426359176635742 -0.3333333134651184 0.06437744945287704
0.05426359176635742 -0.317829430103302 -0.09576399624347687
0.05426359176635742 -0.317829430103302 0.0638744980096817
0.05426359176635742 -0.30232560634613037 -0.095913827419281
0.05426359176635742 -0.30232560634613037 0.06275942921638489
0.05426359176635742 -0.28682172298431396 -0.09593736380338669
0.05426359176635742 -0.28682172298431396 0.061765655875205994
0.05426359549164772 -0.27131783962249756 -0.09594916552305222
0.05426359176635742 -0.27131783962249756 0.061085715889930725
0.05426358804106712 -0.25581395626068115 -0.09595662355422974
0.05426359176635742 -0.25581395626068115 0.060573749244213104
0.05426359176635742 -0.24031007289886475 -0.09604983031749725
0.05426359176635742 -0.24031007289886475 0.060095109045505524
0.05426359176635742 -0.22480618953704834 -0.09617895632982254
0.05426359176635742 -0.22480617463588715 0.05989222228527069
0.05426358804106712 -0.20930229127407074 -0.09621463716030121
0.05426359176635742 -0.20930230617523193 0.05979851260781288
0.05426359176635742 -0.19379842281341553 -0.0963645651936531
0.05426359176635742 -0.19379842281341553 0.05992639437317848
0.05426359176635742 -0.1782945990562439 -0.09639495611190796
0.05426359176635742 -0.1782945990562439 0.05994550138711929
0.05426359176635742 -0.1627907156944275 -0.09647854417562485
0.05426359549164772 -0.1627907156944275 0.059955548495054245
0.05426359176635742 -0.14728683233261108 -0.09647946059703827
0.05426359176635742 -0.14728683233261108 0.05999640375375748
0.05426359176635742 -0.13178294897079468 -0.09658265113830566
0.05426359176635742 -0.13178294897079468 0.06008153781294823
0.05426359176635742 -0.11627906560897827 -0.09674544632434845
0.05426359176635742 -0.11627906560897827 0.060298290103673935
0.05426359176635742 -0.10077518224716187 -0.09685970097780228
0.05426359176635742 -0.10077518224716187 0.06061742454767227
0.05426359176635742 -0.08527129888534546 -0.09696515649557114
0.05426359176635742 -0.08527129888534546 0.06081690266728401
0.05426359176635742 -0.06976741552352905 -0.096993088722229
0.05426359176635742 -0.06976741552352905 0.060892749577760696
0.05426359176635742 -0.05426359176635742 -0.09699465334415436
0.05426359176635742 -0.05426359176635742 0.06097332388162613
0.05426359176635742 -0.038759708404541016 -0.09681639075279236
0.05426359176635742 -0.038759708404541016 0.061192095279693604
0.05426359176635742 -0.02325582504272461 -0.09671273082494736
0.05426359176635742 -0.02325582504272461 0.06184472143650055
0.05426359176635742 -0.007751941680908203 -0.09662921726703644
0.05426359176635742 -0.007751941680908203 0.06260169297456741
0.05426358804106712 0.007751941215246916 -0.09651422500610352
0.05426359176635742 0.007751941680908203 0.06319240480661392
0.05426359176635742 0.02325582504272461 -0.0964149758219719
0.05426359176635742 0.02325582504272461 0.06386139243841171
0.05426359176635742 0.038759708404541016 -0.09642261266708374
0.05426359176635742 0.038759708404541016 0.0642726793885231
0.05426359176635742 0.05426359176635742 -0.09656843543052673
0.05426359176635742 0.05426359176635742 0.0649835616350174
0.05426359176635742 0.06976747512817383 -0.09667038917541504
0.05426359176635742 0.06976747512817383 0.0656534731388092
0.05426359176635742 0.08527135848999023 -0.09670355170965195
0.05426359176635742 0.08527135848999023 0.06564929336309433
0.05426359176635742 0.10077524185180664 -0.09672859311103821
0.05426359176635742 0.10077524185180664 0.06535085290670395
0.05426359176635742 0.11627912521362305 -0.09667070209980011
0.05426359176635742 0.11627912521362305 0.06534497439861298
0.05426359176635742 0.1317828893661499 -0.09661631286144257
0.05426359176635742 0.1317828893661499 0.06551623344421387
0.05426359176635742 0.1472867727279663 -0.09647151082754135
0.05426359176635742 0.1472867727279663 0.06552508473396301
0.05426359176635742 0.16279065608978271 -0.0964018702507019
0.05426359176635742 0.16279065608978271 0.06558588147163391
0.05426359176635742 0.17829453945159912 -0.09624242782592773
0.05426359176635742 0.17829453945159912 0.06543337553739548
0.05426359176635742 0.19379842281341553 -0.09617045521736145
0.05426359176635742 0.19379842281341553 0.06501758098602295
0.05426359176635742 0.20930230617523193 -0.09611720591783524
0.05426359176635742 0.20930230617523193 0.06351400911808014
0.05426359176635742 0.22480618953704834 -0.09607308357954025
0.05426359176635742 0.22480618953704834 0.06236117333173752
0.05426359176635742 0.24031007289886475 -0.09602822363376617
0.05426359176635742 0.24031007289886475 0.06204220652580261
0.05426358804106712 0.25581395626068115 -0.09598085284233093
0.05426359176635742 0.25581395626068115 0.06170074641704559
0.05426359176635742 0.27131783962249756 -0.09607084840536118
0.05426359176635742 0.27131783962249756 0.06171693280339241
0.05426359176635742 0.28682172298431396 -0.09604503214359283
0.05426359176635742 0.28682172298431396 0.061908695846796036
0.05426359176635742 0.30232560634613037 -0.09598653018474579
0.05426359176635742 0.30232560634613037 0.062121085822582245
0.05426359176635742 0.3178294897079468 -0.09589335322380066
0.05426359176635742 0.3178294897079468 0.06198202073574066
0.05426359176635742 0.3333333730697632 -0.09576359391212463
0.05426359176635742 0.3333333730697632 0.06170649081468582
0.05426359176635742 0.3488372564315796 -0.09545391798019409
0.05426359176635742 0.3488372564315796 0.06161818280816078
0.05426358804106712 0.364341139793396 -0.0951349213719368
0.05426359176635742 0.364341139793396 0.06159840524196625
0.05426358804106712 0.37984490394592285 -0.0949222669005394
0.05426359176635742 0.37984490394592285 0.06173401698470116
0.05426359176635742 0.39534878730773926 -0.09467403590679169
0.05426359176635742 0.39534878730773926 0.061938490718603134
0.05426359176635742 0.41085267066955566 -0.09450694918632507
0.05426359176635742 0.41085267066955566 0.06228126585483551
0.05426359176635742 0.42635655403137207 -0.09442560374736786
0.05426359176635742 0.42635655403137207 0.06233706325292587
0.05426359176635742 0.4418604373931885 -0.09442027658224106
0.05426359176635742 0.4418604373931885 0.06256155669689178
0.05426359549164772 0.4573643207550049 -0.09436288475990295
0.05426359176635742 0.4573643207550049 0.06297295540571213
0.05426359176635742 0.4728682041168213 -0.09429334104061127
0.05426359176635742 0.4728682041168213 0.06283791363239288
0.05426359176635742 0.4883720874786377 -0.09428258240222931
0.05426359176635742 0.4883720874786377 0.06254008412361145
0.05426359176635742 0.5038759708404541 -0.0941585972905159
0.05426359176635742 0.5038759708404541 0.06213894486427307
0.05426359176635742 0.5193798542022705 -0.09402282536029816
0.05426359176635742 0.5193798542022705 0.061591461300849915
0.05426359176635742 0.5348837375640869 -0.09378273785114288
0.05426359176635742 0.5348837375640869 0.06097163259983063
0.05426359176635742 0.5503876209259033 -0.0935089960694313
0.05426359176635742 0.5503876209259033 0.0606718510389328
0.05426359176635742 0.5658915042877197 -0.0932474136352539
0.05426359176635742 0.5658915042877197 0.060641467571258545
0.05426359176635742 0.5813953876495361 -0.09299789369106293
0.05426359176635742 0.5813953876495361 0.06056664139032364
0.05426359176635742 0.5968992710113525 -0.09277823567390442
0.05426359176635742 0.5968992710113525 0.060600243508815765
0.05426359176635742 0.612403154373169 -0.09229850769042969
0.05426359176635742 0.612403154373169 0.06038765609264374
0.05426359176635742 0.6279069185256958 -0.09191375225782394
0.05426359176635742 0.6279069185256958 0.05916723236441612
0.05426359176635742 0.6434108018875122 -0.09181922674179077
0.05426359176635742 0.6434108018875122 0.05840068310499191
0.05426359176635742 0.6589146852493286 -0.09202389419078827
0.05426359176635742 0.6589146852493286 0.05867587774991989
0.05426359176635742 0.674418568611145 -0.09223391860723495
0.05426359176635742 0.674418568611145 0.05959352105855942
0.05426359176635742 0.6899224519729614 -0.09231174737215042
0.05426359176635742 0.6899224519729614 0.06034320220351219
0.05426359176635742 0.7054263353347778 -0.09234995394945145
0.05426359176635742 0.7054263353347778 0.06107352674007416
0.05426359176635742 0.7209302186965942 -0.09229220449924469
0.05426359176635742 0.7209302186965942 0.0614723265171051
0.05426359176635742 0.7364341020584106 -0.09229522943496704
0.05426359176635742 0.7364341020584106 0.06178825721144676
0.05426359176635742 0.751937985420227 -0.09227975457906723
0.05426359176635742 0.751937985420227 0.06256328523159027
0.05426359176635742 0.7674418687820435 -0.09237001836299896
0.05426359176635742 0.7674418687820435 0.06757739931344986
0.05426359176635742 0.7829457521438599 -0.09231878072023392
0.05426359549164772 0.7829457521438599 0.07141733914613724
0.05426359176635742 0.7984496355056763 -0.09227762371301651
0.05426359176635742 0.798449695110321 0.07389011979103088
0.05426359176635742 0.8139535188674927 -0.09223133325576782
0.05426359176635742 0.8139535188674927 0.07679250836372375
0.05426359176635742 0.8294574022293091 -0.09216352552175522
0.05426359176635742 0.8294574022293091 0.08251155912876129
0.05426359176635742 0.8449612855911255 -0.09192586690187454
0.05426359176635742 0.8449612855911255 0.08973619341850281
0.05426359176635742 0.8604651689529419 -0.09159944951534271
0.05426359176635742 0.8604651689529419 0.09298517554998398
0.05426359176635742 0.8759689331054688 -0.0916307121515274
0.05426359176635742 0.8759689331054688 0.09424463659524918
0.05426359176635742 0.8914728164672852 -0.09266658127307892
0.05426359176635742 0.8914728164672852 0.0984376072883606
0.05426359176635742 0.9069766998291016 -0.08710146695375443
0.05426359176635742 0.9069766998291016 -0.08222664147615433
0.05426359176635742 0.9069766998291016 0.07846784591674805
0.05426359176635742 0.9069766998291016 0.09141106903553009
0.06976747512817383 -0.7674418687820435 -0.08982392400503159
0.06976747512817383 -0.7674418687820435 -0.07534798234701157
0.06976747512817383 -0.7674418687820435 0.08101378381252289
0.06976747512817383 -0.7674418687820435 0.0876719281077385
0.06976747512817383 -0.751937985420227 -0.09230434894561768
0.06976747512817383 -0.751937985420227 0.09517906606197357
0.06976747512817383 -0.7364341020584106 -0.09276199340820312
0.06976747512817383 -0.7364341020584106 0.09264735132455826
0.06976747512817383 -0.7209302186965942 -0.09306341409683228
0.06976747512817383 -0.7209302186965942 0.09268570691347122
0.06976747512817383 -0.7054263353347778 -0.09335781633853912
0.06976747512817383 -0.7054263353347778 0.09279707819223404
0.06976747512817383 -0.6899224519729614 -0.09378255903720856
0.06976747512817383 -0.6899224519729614 0.09224282205104828
0.06976747512817383 -0.674418568611145 -0.09404554218053818
0.06976747512817383 -0.674418568611145 0.08983120322227478
0.06976747512817383 -0.6589146852493286 -0.09434731304645538
0.06976747512817383 -0.6589146852493286 0.08092881739139557
0.06976747512817383 -0.643410861492157 -0.09454367309808731
0.06976747512817383 -0.643410861492157 0.07202596962451935
0.06976747512817383 -0.6279069185256958 -0.09470310062170029
0.06976747512817383 -0.6279070377349854 0.06662052869796753
0.06976747512817383 -0.6124030947685242 -0.09476768225431442
0.06976747512817383 -0.6124030947685242 0.06578437983989716
0.06976747512817383 -0.5968992114067078 -0.09489357471466064
0.06976747512817383 -0.5968992114067078 0.0681716799736023
0.06976747512817383 -0.5813953876495361 -0.09496569633483887
0.06976747512817383 -0.5813953876495361 0.06774090975522995
0.06976747512817383 -0.5658915042877197 -0.09494253247976303
0.06976747512817383 -0.5658915042877197 0.06565413624048233
0.06976747512817383 -0.5503876209259033 -0.09496442973613739
0.06976747512817383 -0.5503876209259033 0.06342010200023651
0.06976747512817383 -0.5348837375640869 -0.09491272270679474
0.06976747512817383 -0.5348837375640869 0.06143009662628174
0.06976747512817383 -0.5193798542022705 -0.09493225812911987
0.06976747512817383 -0.5193798542022705 0.060273438692092896
0.06976747512817383 -0.5038759708404541 -0.09492945671081543
0.06976747512817383 -0.5038759708404541 0.05989248678088188
0.06976747512817383 -0.4883720874786377 -0.09501384943723679
0.06976747512817383 -0.4883720874786377 0.06018690764904022
0.06976747512817383 -0.4728682041168213 -0.0950527936220169
0.06976747512817383 -0.4728682041168213 0.06025886535644531
0.06976747512817383 -0.4573643207550049 -0.09508399665355682
0.06976747512817383 -0.4573643207550049 0.06050536036491394
0.06976747512817383 -0.4418604373931885 -0.09518535435199738
0.06976747512817383 -0.4418604373931885 0.06097029149532318
0.06976747512817383 -0.42635661363601685 -0.09520655125379562
0.06976747512817383 -0.42635661363601685 0.06135399639606476
0.06976747512817383 -0.41085273027420044 -0.09521962702274323
0.06976747512817383 -0.41085273027420044 0.06208781525492668
0.06976747512817383 -0.39534884691238403 -0.09519237279891968
0.06976747512817383 -0.39534884691238403 0.06266514211893082
0.06976747512817383 -0.3798449635505676 -0.09518677741289139
0.06976747512817383 -0.3798449635505676 0.06323407590389252
0.06976747512817383 -0.3643410801887512 -0.09520518779754639
0.06976747512817383 -0.3643410801887512 0.06368743628263474
0.06976747512817383 -0.3488371968269348 -0.09532462805509567
0.06976747512817383 -0.3488371968269348 0.06402447074651718
0.06976747512817383 -0.3333333134651184 -0.09557446092367172
0.06976747512817383 -0.3333333134651184 0.06438115984201431
0.06976747512817383 -0.317829430103302 -0.0957208201289177
0.06976747512817383 -0.317829430103302 0.06384298205375671
0.06976747512817383 -0.30232560634613037 -0.09588898718357086
0.06976747512817383 -0.30232560634613037 0.06269149482250214
0.06976747512817383 -0.28682172298431396 -0.09591753780841827
0.06976747512817383 -0.28682172298431396 0.06171787157654762
0.06976747512817383 -0.27131783962249756 -0.09592293202877045
0.06976747512817383 -0.27131783962249756 0.06114035099744797
0.06976747512817383 -0.25581395626068115 -0.09592106193304062
0.06976747512817383 -0.25581395626068115 0.060652006417512894
0.06976747512817383 -0.24031007289886475 -0.09600480645895004
0.06976747512817383 -0.24031007289886475 0.060104209929704666
0.06976747512817383 -0.22480618953704834 -0.0961354672908783
0.06976747512817383 -0.22480618953704834 0.05983225256204605
0.06976747512817383 -0.20930230617523193 -0.0961819663643837
0.06976747512817383 -0.20930230617523193 0.05970191955566406
0.06976747512817383 -0.19379842281341553 -0.09634361416101456
0.06976747512817383 -0.19379842281341553 0.0598294734954834
0.06976747512817383 -0.1782945990562439 -0.09637720882892609
0.06976747512817383 -0.1782945990562439 0.05983186513185501
0.06976747512817383 -0.1627907156944275 -0.09646041691303253
0.06976747512817383 -0.1627907156944275 0.059813838452100754
0.06976747512817383 -0.14728683233261108 -0.09645205736160278
0.06976747512817383 -0.14728683233261108 0.05985018610954285
0.06976747512817383 -0.13178294897079468 -0.09655295312404633
0.06976747512817383 -0.13178294897079468 0.0599353164434433
0.06976747512817383 -0.11627906560897827 -0.09672748297452927
0.06976747512817383 -0.11627906560897827 0.06013887748122215
0.06976747512817383 -0.10077518224716187 -0.09685088694095612
0.06976747512817383 -0.10077518224716187 0.060461848974227905
0.06976747512817383 -0.08527129888534546 -0.09695666283369064
0.06976747512817383 -0.08527129888534546 0.06072097271680832
0.06976747512817383 -0.06976741552352905 -0.09697450697422028
0.06976747512817383 -0.06976741552352905 0.06083834543824196
0.06976747512817383 -0.05426359176635742 -0.09696003049612045
0.06976747512817383 -0.05426359176635742 0.06092582643032074
0.06976747512817383 -0.038759708404541016 -0.09676270931959152
0.06976747512817383 -0.038759708404541016 0.061072949320077896
0.06976747512817383 -0.02325582504272461 -0.09665822982788086
0.06976747512817383 -0.02325582504272461 0.061654552817344666
0.06976747512817383 -0.007751941680908203 -0.09658533334732056
0.06976747512817383 -0.007751941680908203 0.06234877184033394
0.06976747512817383 0.007751941680908203 -0.09647567570209503
0.06976747512817383 0.007751941680908203 0.06292860209941864
0.06976747512817383 0.02325582504272461 -0.09637728333473206
0.06976747512817383 0.02325582504272461 0.06357314437627792
0.06976747512817383 0.038759708404541016 -0.09638814628124237
0.06976747512817383 0.038759708404541016 0.06395231932401657
0.06976747512817383 0.05426359176635742 -0.09653300046920776
0.06976747512817383 0.05426359176635742 0.0646248534321785
0.06976747512817383 0.06976747512817383 -0.09662877023220062
0.06976747512817383 0.06976747512817383 0.06530752032995224
0.06976747512817383 0.08527135848999023 -0.09667178988456726
0.06976747512817383 0.08527135848999023 0.06545814126729965
0.06976747512817383 0.10077524185180664 -0.09671395272016525
0.06976747512817383 0.10077524185180664 0.06526188552379608
0.06976747512817383 0.11627912521362305 -0.0966564193367958
0.06976747512817383 0.11627912521362305 0.06513916701078415
0.06976747512817383 0.1317828893661499 -0.09659643471240997
0.06976747512817383 0.1317828893661499 0.06512074172496796
0.06976747512817383 0.1472867727279663 -0.09643813967704773
0.06976747512817383 0.1472867727279663 0.06508518755435944
0.06976747512817383 0.16279065608978271 -0.09635819494724274
0.06976747512817383 0.16279065608978271 0.06520718336105347
0.06976747512817383 0.17829455435276031 -0.09618993103504181
0.06976747512817383 0.17829453945159912 0.06518018245697021
0.06976747512817383 0.19379842281341553 -0.09610410034656525
0.06976747512817383 0.19379842281341553 0.06493709981441498
0.06976747512817383 0.20930232107639313 -0.0960378497838974
0.06976747512817383 0.20930230617523193 0.06355150789022446
0.06976747512817383 0.22480618953704834 -0.09597960114479065
0.06976747512817383 0.22480618953704834 0.06246089190244675
0.06976747512817383 0.24031007289886475 -0.09591273963451385
0.06976747512817383 0.24031007289886475 0.06214725971221924
0.06976747512817383 0.25581395626068115 -0.09585131704807281
0.06976747512817383 0.25581395626068115 0.06176029145717621
0.06976747512817383 0.27131783962249756 -0.09595472365617752
0.06976747512817383 0.27131783962249756 0.061819128692150116
0.06976747512817383 0.28682172298431396 -0.09594708681106567
0.06976747512817383 0.28682172298431396 0.06208863854408264
0.06976747512817383 0.30232560634613037 -0.09589729458093643
0.06976747512817383 0.30232560634613037 0.062352586537599564
0.06976747512817383 0.3178294897079468 -0.09580329060554504
0.06976747512817383 0.3178294897079468 0.062225427478551865
0.06976747512817383 0.3333333730697632 -0.09566333144903183
0.06976747512817383 0.3333333730697632 0.06197511404752731
0.06976747512817383 0.3488372564315796 -0.09533941000699997
0.06976747512817383 0.3488372564315796 0.06189911812543869
0.06976747512817383 0.364341139793396 -0.09501209855079651
0.06976747512817383 0.364341139793396 0.06189946457743645
0.06976747512817383 0.37984490394592285 -0.09480109810829163
0.06976747512817383 0.37984490394592285 0.06206711009144783
0.06976747512817383 0.39534878730773926 -0.09455321729183197
0.06976747512817383 0.39534878730773926 0.062337476760149
0.06976747512817383 0.41085267066955566 -0.094384104013443
0.06976747512817383 0.41085267066955566 0.06271825730800629
0.06976747512817383 0.42635655403137207 -0.09430450946092606
0.06976747512817383 0.42635655403137207 0.06274134665727615
0.06976747512817383 0.4418604373931885 -0.09429694712162018
0.06976747512817383 0.4418604373931885 0.06291864812374115
0.06976747512817383 0.4573643207550049 -0.09424405544996262
0.06976747512817383 0.4573643207550049 0.06334865093231201
0.06976747512817383 0.4728682041168213 -0.09419848024845123
0.06976747512817383 0.4728682041168213 0.06335261464118958
0.06976747512817383 0.4883720874786377 -0.09421157091856003
0.06976747512817383 0.4883720874786377 0.06314647197723389
0.06976747512817383 0.5038759708404541 -0.09409262239933014
0.06976747512817383 0.5038759708404541 0.06269123405218124
0.06976747512817383 0.5193798542022705 -0.09394960105419159
0.06976747512817383 0.5193798542022705 0.0620952770113945
0.06976747512817383 0.5348837375640869 -0.0936957448720932
0.06976747512817383 0.5348837375640869 0.06149137020111084
0.06976747512817383 0.5503876209259033 -0.09341776371002197
0.06976747512817383 0.5503876209259033 0.06121930480003357
0.06976747512817383 0.5658915042877197 -0.09316074103116989
0.06976747512817383 0.5658915042877197 0.061180319637060165
0.06976747512817383 0.5813953876495361 -0.09289861470460892
0.06976747512817383 0.5813953876495361 0.06111787259578705
0.06976747512817383 0.5968992710113525 -0.09262220561504364
0.06976747512817383 0.5968992710113525 0.06139402091503143
0.06976747512817383 0.612403154373169 -0.0920485407114029
0.06976747512817383 0.612403154373169 0.06105348467826843
0.06976747512817383 0.6279069185256958 -0.09164176136255264
0.06976747512817383 0.6279069185256958 0.059629082679748535
0.06976747512817383 0.6434108018875122 -0.09156844019889832
0.06976747512817383 0.6434108018875122 0.05891946703195572
0.06976747512817383 0.6589146852493286 -0.09181514382362366
0.06976747512817383 0.6589146852493286 0.05933669954538345
0.06976747512817383 0.674418568611145 -0.09211410582065582
0.06976747512817383 0.674418568611145 0.06050349771976471
0.06976747512817383 0.6899224519729614 -0.09223721921443939
0.06976747512817383 0.6899224519729614 0.06126416474580765
0.06976747512817383 0.7054263353347778 -0.09227257966995239
0.06976747512817383 0.7054263353347778 0.0620361790060997
0.06976747512817383 0.7209302186965942 -0.0922054797410965
0.06976747512817383 0.7209302186965942 0.06251946836709976
0.06976747512817383 0.7364341020584106 -0.09220215678215027
0.06976747512817383 0.7364341020584106 0.06287742406129837
0.06976747512817383 0.751937985420227 -0.09218819439411163
0.06976747512817383 0.751937985420227 0.06379517167806625
0.06976747512817383 0.7674418687820435 -0.0922723263502121
0.06976747512817383 0.7674418687820435 0.06987018883228302
0.06976747512817383 0.7829457521438599 -0.09219188988208771
0.06976747512817383 0.7829457521438599 0.0716983750462532
0.06976747512817383 0.7984496355056763 -0.0921269953250885
0.06976747512817383 0.7984496355056763 0.07442284375429153
0.06976747512817383 0.8139535188674927 -0.09209322929382324
0.06976747512817383 0.8139535188674927 0.07874556630849838
0.06976747512817383 0.8294574022293091 -0.09204821288585663
0.06976747512817383 0.8294574022293091 0.08615197241306305
0.06976747512817383 0.8449612855911255 -0.09181275218725204
0.06976747512817383 0.8449612855911255 0.09085412323474884
0.06976747512817383 0.8604651689529419 -0.09148354083299637
0.06976747512817383 0.8604651689529419 0.09309342503547668
0.06976747512817383 0.8759689331054688 -0.09163981676101685
0.06976747512817383 0.8759689331054688 0.09497194737195969
0.06976747512817383 0.8914728164672852 -0.0924585685133934
0.06976747512817383 0.8914728164672852 0.09834586828947067
0.08527135848999023 -0.7674418687820435 -0.08803306519985199
0.08527135848999023 -0.7674418687820435 -0.08089834451675415
0.08527135848999023 -0.751937985420227 -0.09266485273838043
0.08527135848999023 -0.751937985420227 0.09546785056591034
0.08527135848999023 -0.7364341020584106 -0.09286849945783615
0.08527135848999023 -0.7364341020584106 0.09289170801639557
0.08527135848999023 -0.7209302186965942 -0.09311610460281372
0.08527135848999023 -0.7209302186965942 0.0925092101097107
0.08527135848999023 -0.7054263353347778 -0.0933273583650589
0.08527135848999023 -0.7054263353347778 0.09254969656467438
0.08527135848999023 -0.6899224519729614 -0.09364375472068787
0.08527135848999023 -0.6899224519729614 0.0922444611787796
0.08527135848999023 -0.674418568611145 -0.09388545900583267
0.08527135848999023 -0.674418568611145 0.09036286920309067
0.08527135848999023 -0.6589146852493286 -0.09416167438030243
0.08527135848999023 -0.6589146852493286 0.08392391353845596
0.08527135848999023 -0.643410861492157 -0.09440217167139053
0.08527135848999023 -0.643410861492157 0.07285124063491821
0.08527135848999023 -0.6279069781303406 -0.0946124792098999
0.08527135848999023 -0.6279069781303406 0.06898374855518341
0.08527135848999023 -0.6124030351638794 -0.09468016028404236
0.08527135848999023 -0.6124030947685242 0.0669766515493393
0.08527135848999023 -0.5968992114067078 -0.09480071067810059
0.08527135848999023 -0.5968992114067078 0.06897509843111038
0.08527135848999023 -0.5813953876495361 -0.09486402571201324
0.08527135848999023 -0.5813953876495361 0.0682099238038063
0.08527135848999023 -0.5658915042877197 -0.09485441446304321
0.08527135848999023 -0.5658915042877197 0.06585608422756195
0.08527135848999023 -0.5503876209259033 -0.09488135576248169
0.08527135848999023 -0.5503876209259033 0.06343869119882584
0.08527135848999023 -0.5348837375640869 -0.09484897553920746
0.08527135848999023 -0.5348837375640869 0.06149328500032425
0.08527135848999023 -0.5193798542022705 -0.09487888216972351
0.08527135848999023 -0.5193798542022705 0.060377541929483414
0.08527135848999023 -0.5038759708404541 -0.09487263858318329
0.08527135848999023 -0.5038759708404541 0.05998752638697624
0.08527135848999023 -0.4883720874786377 -0.09495045244693756
0.08527135848999023 -0.4883720874786377 0.06022536754608154
0.08527135848999023 -0.4728682041168213 -0.09500620514154434
0.08527135848999023 -0.4728681743144989 0.060287363827228546
0.08527135848999023 -0.4573643207550049 -0.09504960477352142
0.08527135848999023 -0.4573643207550049 0.060491569340229034
0.08527135848999023 -0.4418604373931885 -0.09514139592647552
0.08527135848999023 -0.4418604373931885 0.06088919937610626
0.08527135848999023 -0.42635661363601685 -0.09515483677387238
0.08527135848999023 -0.42635661363601685 0.06125738471746445
0.08527135848999023 -0.41085273027420044 -0.09513740986585617
0.08527135848999023 -0.41085273027420044 0.061873674392700195
0.08527135848999023 -0.39534884691238403 -0.09510720521211624
0.08527135848999023 -0.39534884691238403 0.06250535696744919
0.08527135848999023 -0.3798449635505676 -0.09510768949985504
0.08527135848999023 -0.3798449635505676 0.063118577003479
0.08527135848999023 -0.3643410801887512 -0.09514603763818741
0.08527135848999023 -0.3643410801887512 0.06353099644184113
0.08527135848999023 -0.3488371968269348 -0.09528905898332596
0.08527135848999023 -0.3488371968269348 0.06383391469717026
0.08527135848999023 -0.3333333134651184 -0.09554101526737213
0.08527135848999023 -0.3333333134651184 0.06419438868761063
0.08527135848999023 -0.317829430103302 -0.09568779170513153
0.08527135848999023 -0.317829430103302 0.06366860121488571
0.08527135848999023 -0.30232560634613037 -0.09585882723331451
0.08527135848999023 -0.30232560634613037 0.06251928955316544
0.08527135848999023 -0.28682172298431396 -0.09590347856283188
0.08527135848999023 -0.28682172298431396 0.06161151081323624
0.08527135848999023 -0.27131783962249756 -0.09590587019920349
0.08527135848999023 -0.27131783962249756 0.06109706312417984
0.08527135848999023 -0.25581395626068115 -0.09592083096504211
0.08527135848999023 -0.25581395626068115 0.0606468990445137
0.08527135848999023 -0.24031007289886475 -0.09600767493247986
0.08527135848999023 -0.24031007289886475 0.0600537471473217
0.08527135848999023 -0.22480618953704834 -0.09612607955932617
0.08527135848999023 -0.22480618953704834 0.05970767140388489
0.08527135848999023 -0.20930230617523193 -0.09616269171237946
0.08527135848999023 -0.20930230617523193 0.05951394885778427
0.08527135848999023 -0.19379842281341553 -0.09631236642599106
0.08527135848999023 -0.19379842281341553 0.05958133563399315
0.08527135848999023 -0.1782945990562439 -0.09634979814291
0.08527135848999023 -0.1782945990562439 0.059597425162792206
0.08527135848999023 -0.1627907156944275 -0.09644205123186111
0.08527135848999023 -0.1627907156944275 0.05961303785443306
0.08527135848999023 -0.14728683233261108 -0.09646832942962646
0.08527135848999023 -0.14728683233261108 0.05966651067137718
0.08527135848999023 -0.13178294897079468 -0.09658686816692352
0.08527135848999023 -0.13178294897079468 0.0597643218934536
0.08527135848999023 -0.11627906560897827 -0.09674236923456192
0.08527135848999023 -0.11627906560897827 0.05995301529765129
0.08527135848999023 -0.10077518224716187 -0.09684664011001587
0.08527135848999023 -0.10077518224716187 0.06024235859513283
0.08527135848999023 -0.08527129888534546 -0.09694703668355942
0.08527135848999023 -0.08527129888534546 0.06046184152364731
0.08527135848999023 -0.06976741552352905 -0.09697248786687851
0.08527135848999023 -0.06976741552352905 0.060597170144319534
0.08527135848999023 -0.05426359176635742 -0.09696502238512039
0.08527135848999023 -0.05426359176635742 0.06068756431341171
0.08527135848999023 -0.038759708404541016 -0.09678760170936584
0.08527135848999023 -0.038759708404541016 0.06079991161823273
0.08527135848999023 -0.02325582504272461 -0.09667246043682098
0.08527135848999023 -0.02325582504272461 0.061258137226104736
0.08527135848999023 -0.007751941680908203 -0.09658525884151459
0.08527135848999023 -0.007751941680908203 0.06182863563299179
0.08527135848999023 0.007751941680908203 -0.09647322446107864
0.08527135848999023 0.007751941680908203 0.06234884262084961
0.08527135848999023 0.02325582504272461 -0.09637697041034698
0.08527135848999023 0.02325582504272461 0.0629306510090828
0.08527135848999023 0.038759708404541016 -0.09641062468290329
0.08527135848999023 0.038759708404541016 0.06332582235336304
0.08527135848999023 0.05426359176635742 -0.09655226767063141
0.08527135848999023 0.05426359176635742 0.06396444886922836
0.08527135848999023 0.06976747512817383 -0.09663374722003937
0.08527135848999023 0.06976747512817383 0.06464095413684845
0.08527135848999023 0.08527135848999023 -0.09667067229747772
0.08527135848999023 0.08527135848999023 0.06488831341266632
0.08527135848999023 0.10077524930238724 -0.096720390021801
0.08527135848999023 0.10077524185180664 0.06481372565031052
0.08527135848999023 0.11627912521362305 -0.09666171669960022
0.08527135848999023 0.11627912521362305 0.0646493211388588
0.08527135848999023 0.1317828893661499 -0.0966058224439621
0.08527135848999023 0.1317828893661499 0.06462515890598297
0.08527135848999023 0.1472867727279663 -0.0964520275592804
0.08527135848999023 0.1472867727279663 0.06463567912578583
0.08527135848999023 0.16279065608978271 -0.09634660184383392
0.08527135848999023 0.16279065608978271 0.06474263221025467
0.08527135848999023 0.17829453945159912 -0.09616372734308243
0.08527135848999023 0.17829453945159912 0.06474360078573227
0.08527135848999023 0.19379842281341553 -0.09605410695075989
0.08527135848999023 0.19379842281341553 0.06449208408594131
0.08527135848999023 0.20930230617523193 -0.09597838670015335
0.08527135848999023 0.20930230617523193 0.06327291578054428
0.08527135848999023 0.22480618953704834 -0.09592325985431671
0.08527135848999023 0.22480618953704834 0.062401749193668365
0.08527135848999023 0.24031007289886475 -0.0958852767944336
0.08527135848999023 0.24031007289886475 0.06210780888795853
0.08527135848999023 0.25581395626068115 -0.09584426134824753
0.08527135848999023 0.25581395626068115 0.06179386377334595
0.08527135848999023 0.27131783962249756 -0.09592284262180328
0.08527135848999023 0.27131783962249756 0.061871469020843506
0.08527135848999023 0.28682172298431396 -0.09588882327079773
0.08527135848999023 0.28682172298431396 0.06213858723640442
0.08527135848999023 0.30232560634613037 -0.09583328664302826
0.08527135848999023 0.30232560634613037 0.06236150115728378
0.08527135848999023 0.3178294897079468 -0.09574317187070847
0.08527135848999023 0.3178294897079468 0.062217481434345245
0.08527135848999023 0.3333333730697632 -0.09560201317071915
0.08527135848999023 0.3333333730697632 0.061987392604351044
0.08527135848999023 0.3488372564315796 -0.09527532011270523
0.08527135848999023 0.3488372564315796 0.06194061040878296
0.08527135848999023 0.364341139793396 -0.09493419528007507
0.08527135848999023 0.364341139793396 0.06196798384189606
0.08527135848999023 0.37984490394592285 -0.09470929205417633
0.08527135848999023 0.37984490394592285 0.062157995998859406
0.08527135848999023 0.39534878730773926 -0.09445995092391968
0.08527135848999023 0.39534878730773926 0.06249050796031952
0.08527135848999023 0.41085267066955566 -0.09428989887237549
0.08527135848999023 0.41085267066955566 0.06291194260120392
0.08527135848999023 0.42635655403137207 -0.09422172605991364
0.08527135848999023 0.42635655403137207 0.06298583000898361
0.08527135848999023 0.44186046719551086 -0.09421344846487045
0.08527135848999023 0.4418604373931885 0.06316902488470078
0.08527135848999023 0.4573643207550049 -0.09415265917778015
0.08527135848999023 0.4573643207550049 0.06358397006988525
0.08527135848999023 0.4728682041168213 -0.0941225066781044
0.08527135848999023 0.4728682041168213 0.06362046301364899
0.08527135848999023 0.4883720874786377 -0.09415207803249359
0.08527135848999023 0.4883720874786377 0.06340019404888153
0.08527135848999023 0.5038759708404541 -0.09404551982879639
0.08527135848999023 0.5038759708404541 0.06290071457624435
0.08527135848999023 0.5193798542022705 -0.09390434622764587
0.08527135848999023 0.5193798542022705 0.06231085956096649
0.08527135848999023 0.5348837375640869 -0.09365099668502808
0.08527135848999023 0.5348837375640869 0.06175639480352402
0.08527135848999023 0.5503876209259033 -0.0933624804019928
0.08527135848999023 0.5503876209259033 0.06150468438863754
0.08527135848999023 0.5658915042877197 -0.09310950338840485
0.08527135848999023 0.5658915042877197 0.061524294316768646
0.08527135848999023 0.5813953876495361 -0.09286133944988251
0.08527135848999023 0.5813953876495361 0.061515286564826965
0.08527135848999023 0.5968992710113525 -0.09263347834348679
0.08527135848999023 0.5968992710113525 0.06173739582300186
0.08527135848999023 0.612403154373169 -0.09214042127132416
0.08527135848999023 0.612403154373169 0.0616302452981472
0.08527135848999023 0.6279069185256958 -0.09175200760364532
0.08527135848999023 0.6279069185256958 0.0605400949716568
0.08527135848999023 0.6434108018875122 -0.09167047590017319
0.08527135848999023 0.6434108018875122 0.059907782822847366
0.08527135848999023 0.6589146852493286 -0.09190697968006134
0.08527135848999023 0.6589146852493286 0.06036657467484474
0.08527135848999023 0.674418568611145 -0.09215889126062393
0.08527135848999023 0.674418568611145 0.061465054750442505
0.08527135848999023 0.6899224519729614 -0.09224990010261536
0.08527135848999023 0.6899224519729614 0.0622427761554718
0.08527135848999023 0.7054263353347778 -0.09227675199508667
0.08527135848999023 0.7054263353347778 0.06306561082601547
0.08527135848999023 0.7209302186965942 -0.0922025516629219
0.08527135848999023 0.7209302186965942 0.06358164548873901
0.08527135848999023 0.7364341020584106 -0.09219209849834442
0.08527135848999023 0.7364341020584106 0.06393231451511383
0.08527135848999023 0.751937985420227 -0.09216225147247314
0.08527135848999023 0.751937985420227 0.06480713933706284
0.08527135848999023 0.7674418687820435 -0.09221205860376358
0.08527135848999023 0.7674418687820435 0.0700598955154419
0.08527135848999023 0.7829457521438599 -0.09208694845438004
0.08527136594057083 0.7829458117485046 0.07188673317432404
0.08527135848999023 0.7984496355056763 -0.09202200174331665
0.08527135848999023 0.7984496355056763 0.07493944466114044
0.08527135848999023 0.8139535188674927 -0.0920303612947464
0.08527135848999023 0.8139535188674927 0.0815775915980339
0.08527135848999023 0.8294574022293091 -0.09201660752296448
0.08527135848999023 0.8294574022293091 0.08775658905506134
0.08527135848999023 0.8449612855911255 -0.09176694601774216
0.08527135848999023 0.8449612855911255 0.09185169637203217
0.08527135848999023 0.8604651689529419 -0.091485396027565
0.08527135848999023 0.8604651689529419 0.09331570565700531
0.08527135848999023 0.8759689331054688 -0.09183153510093689
0.08527135848999023 0.8759689331054688 0.09627973288297653
0.08527135848999023 0.8914728164672852 -0.09191598743200302
0.08527135848999023 0.8914728164672852 0.0986037626862526
0.10077524185180664 -0.751937985420227 -0.09295089542865753
0.10077524185180664 -0.751937985420227 0.09554508328437805
0.10077524185180664 -0.7364341020584106 -0.09294449537992477
0.10077524185180664 -0.7364341020584106 0.09335409849882126
0.10077524185180664 -0.7209302186965942 -0.09321533888578415
0.10077524185180664 -0.7209302186965942 0.09232283383607864
0.10077524185180664 -0.7054263353347778 -0.09336495399475098
0.10077524185180664 -0.7054263353347778 0.09216109663248062
0.10077524185180664 -0.6899224519729614 -0.09353984892368317
0.10077524185180664 -0.6899224519729614 0.09206712245941162
0.10077524185180664 -0.674418568611145 -0.09372824430465698
0.10077524185180664 -0.674418568611145 0.0908079445362091
0.10077524185180664 -0.6589146852493286 -0.09399639070034027
0.10077524185180664 -0.6589146852493286 0.0859403982758522
0.10077524185180664 -0.643410861492157 -0.09425928443670273
0.10077524185180664 -0.643410861492157 0.07359936833381653
0.10077524185180664 -0.6279069781303406 -0.09450231492519379
0.10077524185180664 -0.6279069781303406 0.07007036358118057
0.10077524185180664 -0.6124030947685242 -0.09457778930664062
0.10077524185180664 -0.612403154373169 0.06828861683607101
0.10077524185180664 -0.5968992114067078 -0.09470424056053162
0.10077524185180664 -0.5968992114067078 0.0697997584939003
0.10077524185180664 -0.5813953876495361 -0.09478588402271271
0.10077524185180664 -0.5813953876495361 0.0687863826751709
0.10077524185180664 -0.5658915042877197 -0.09480664134025574
0.10077524185180664 -0.5658915042877197 0.06605171412229538
0.10077524185180664 -0.5503876209259033 -0.0948449969291687
0.10077524185180664 -0.5503876209259033 0.0634770542383194
0.10077524185180664 -0.5348837375640869 -0.09480704367160797
0.10077524185180664 -0.5348837375640869 0.06149641051888466
0.10077524185180664 -0.5193798542022705 -0.09483398497104645
0.10077524185180664 -0.5193798542022705 0.060394126921892166
0.10077524185180664 -0.5038759708404541 -0.09482714533805847
0.10077524185180664 -0.5038759708404541 0.060023389756679535
0.10077524185180664 -0.4883720874786377 -0.09491477906703949
0.10077524185180664 -0.4883720874786377 0.06026487052440643
0.10077524185180664 -0.4728682041168213 -0.09498360753059387
0.10077524185180664 -0.4728682041168213 0.06030505895614624
0.10077524185180664 -0.4573642909526825 -0.09502963721752167
0.10077524185180664 -0.4573643207550049 0.060429647564888
0.10077524185180664 -0.4418604373931885 -0.09510884433984756
0.10077524185180664 -0.4418604373931885 0.06071700155735016
0.10077524185180664 -0.42635661363601685 -0.0951010212302208
0.10077524185180664 -0.42635661363601685 0.06094546243548393
0.10077524930238724 -0.4108527600765228 -0.09507215023040771
0.10077524185180664 -0.41085273027420044 0.06143247336149216
0.10077524185180664 -0.39534884691238403 -0.09505033493041992
0.10077524185180664 -0.39534884691238403 0.06200838088989258
0.10077524185180664 -0.3798449635505676 -0.09507572650909424
0.10077524185180664 -0.3798449635505676 0.06264372169971466
0.10077524185180664 -0.3643410801887512 -0.09512960910797119
0.10077524185180664 -0.3643410801887512 0.06304201483726501
0.10077524185180664 -0.3488371968269348 -0.09526161104440689
0.10077524185180664 -0.3488371968269348 0.06331415474414825
0.10077523440122604 -0.3333333134651184 -0.0954955518245697
0.10077524185180664 -0.3333333134651184 0.06369958817958832
0.10077524185180664 -0.317829430103302 -0.09564102441072464
0.10077524185180664 -0.317829430103302 0.06323599815368652
0.10077524185180664 -0.30232560634613037 -0.09582532942295074
0.10077524185180664 -0.30232560634613037 0.062153514474630356
0.10077524185180664 -0.28682172298431396 -0.09588652849197388
0.10077524185180664 -0.28682172298431396 0.06134109944105148
0.10077524185180664 -0.27131783962249756 -0.09589681029319763
0.10077524185180664 -0.27131783962249756 0.06091907247900963
0.10077524185180664 -0.25581395626068115 -0.0959090068936348
0.10077524185180664 -0.25581395626068115 0.060456566512584686
0.10077524185180664 -0.24031007289886475 -0.09598630666732788
0.10077524185180664 -0.24031007289886475 0.05979176610708237
0.10077524185180664 -0.22480618953704834 -0.09609504044055939
0.10077524185180664 -0.22480618953704834 0.059387288987636566
0.10077524185180664 -0.20930230617523193 -0.09612710773944855
0.10077524185180664 -0.20930230617523193 0.059153541922569275
0.10077524185180664 -0.19379842281341553 -0.09627480804920197
0.10077524185180664 -0.19379842281341553 0.059189796447753906
0.10077524185180664 -0.1782945990562439 -0.09631548821926117
0.10077524185180664 -0.1782945990562439 0.05920606851577759
0.10077523440122604 -0.1627907156944275 -0.09641879796981812
0.10077524185180664 -0.1627907156944275 0.059272561222314835
0.10077524185180664 -0.14728683233261108 -0.09646285325288773
0.10077524185180664 -0.14728683233261108 0.059337396174669266
0.10077523440122604 -0.13178294897079468 -0.09659495949745178
0.10077524185180664 -0.13178294897079468 0.05943523719906807
0.10077524185180664 -0.11627906560897827 -0.09675167500972748
0.10077524185180664 -0.11627906560897827 0.059631526470184326
0.10077524185180664 -0.10077518224716187 -0.09685282409191132
0.10077524185180664 -0.10077518224716187 0.05988246947526932
0.10077524185180664 -0.08527129888534546 -0.09695440530776978
0.10077524185180664 -0.08527129888534546 0.06005600094795227
0.10077524185180664 -0.06976741552352905 -0.09697839617729187
0.10077524185180664 -0.06976741552352905 0.060190215706825256
0.10077524185180664 -0.05426359176635742 -0.0969623327255249
0.10077524185180664 -0.05426359176635742 0.06026414781808853
0.10077524185180664 -0.038759708404541016 -0.09677613526582718
0.10077524185180664 -0.038759708404541016 0.06029123067855835
0.10077524185180664 -0.02325582504272461 -0.09665868431329727
0.10077524185180664 -0.02325582504272461 0.06064458563923836
0.10077524185180664 -0.007751941215246916 -0.09658074378967285
0.10077524185180664 -0.007751941680908203 0.06113817170262337
0.10077524185180664 0.007751941680908203 -0.09648123383522034
0.10077524185180664 0.007751941680908203 0.06162140518426895
0.10077524185180664 0.02325582504272461 -0.09639935940504074
0.10077524185180664 0.02325582504272461 0.06216830015182495
0.10077524185180664 0.038759708404541016 -0.0964420735836029
0.10077524185180664 0.038759708404541016 0.06254490464925766
0.10077523440122604 0.05426359176635742 -0.09657466411590576
0.10077524185180664 0.05426359176635742 0.06314951926469803
0.10077524185180664 0.06976747512817383 -0.09663267433643341
0.10077524185180664 0.06976747512817383 0.06378984451293945
0.10077524185180664 0.08527135848999023 -0.0966712012887001
0.10077524185180664 0.08527135848999023 0.06410257518291473
0.10077524930238724 0.10077524930238724 -0.09673472493886948
0.10077524185180664 0.10077524185180664 0.06416415423154831
0.10077524185180664 0.11627912521362305 -0.09668006002902985
0.10077524185180664 0.11627912521362305 0.06409177929162979
0.10077524185180664 0.1317828893661499 -0.09661824256181717
0.10077524185180664 0.1317828893661499 0.06407905369997025
0.10077523440122604 0.1472867727279663 -0.0964522585272789
0.10077524185180664 0.1472867727279663 0.0641113668680191
0.10077524930238724 0.16279065608978271 -0.09633246809244156
0.10077524185180664 0.16279065608978271 0.06419886648654938
0.10077524185180664 0.17829453945159912 -0.09614158421754837
0.10077524185180664 0.17829453945159912 0.0641450583934784
0.10077524185180664 0.19379842281341553 -0.09602866321802139
0.10077524185180664 0.19379842281341553 0.06378587335348129
0.10077524185180664 0.20930230617523193 -0.09594927728176117
0.10077524185180664 0.20930230617523193 0.06273508071899414
0.10077524185180664 0.22480618953704834 -0.09589792788028717
0.10077524185180664 0.22480618953704834 0.06214141845703125
0.10077524185180664 0.24031007289886475 -0.09588181227445602
0.10077524185180664 0.24031007289886475 0.06187526881694794
0.10077524185180664 0.25581395626068115 -0.09585726261138916
0.10077524185180664 0.25581395626068115 0.06164580211043358
0.10077524185180664 0.27131783962249756 -0.09592536091804504
0.10077524185180664 0.27131783962249756 0.06177305430173874
0.10077524185180664 0.28682172298431396 -0.09587442874908447
0.10077524185180664 0.28682172298431396 0.06202676147222519
0.10077524185180664 0.30232560634613037 -0.09581554681062698
0.10077524185180664 0.30232560634613037 0.06219514086842537
0.10077524185180664 0.3178294897079468 -0.09573052823543549
