-0.7758798003196716 0.20930230617523193 0.05426359176635742
-0.7770183086395264 0.20930232107639313 0.06976747512817383
-0.7775899171829224 0.20930230617523193 0.08527135848999023
-0.7778226137161255 0.20930230617523193 0.10077524185180664
-0.7777159214019775 0.20930230617523193 0.11627912521362305
-0.7792725563049316 0.20930230617523193 0.1317828893661499
-0.7794224619865417 0.20930230617523193 0.1472867727279663
-0.7706349492073059 0.22480618953704834 0.05426359176635742
-0.7720628380775452 0.22480618953704834 0.06976747512817383
-0.7727985382080078 0.22480618953704834 0.08527135848999023
-0.7730559706687927 0.22480618953704834 0.10077524185180664
-0.7728860974311829 0.22480618953704834 0.11627912521362305
-0.7752049565315247 0.22480618953704834 0.1317828893661499
-0.7758094072341919 0.22480618953704834 0.1472867727279663
-0.7694153785705566 0.24031007289886475 0.1317828893661499
-0.7697054743766785 0.24031007289886475 0.1472867727279663
-0.7782829999923706 0.37984490394592285 0.16279065608978271
-0.7808837294578552 0.39534878730773926 0.16279065608978271
-0.7822847366333008 0.41085270047187805 -0.11627906560897827
-0.7826511263847351 0.41085267066955566 -0.10077518224716187
-0.7828677892684937 0.4108526408672333 -0.08527129888534546
-0.7829435467720032 0.41085267066955566 -0.06976741552352905
-0.7827051281929016 0.41085267066955566 -0.05426359176635742
-0.7815556526184082 0.41085267066955566 0.02325582504272461
-0.7801480293273926 0.41085267066955566 0.038759708404541016
-0.779654860496521 0.41085267066955566 0.05426359176635742
-0.7797840237617493 0.41085267066955566 0.06976747512817383
-0.780439019203186 0.41085267066955566 0.08527135848999023
-0.7812196612358093 0.41085267066955566 0.10077524185180664
-0.7815977931022644 0.41085267066955566 0.11627912521362305
-0.7691905498504639 0.41085267066955566 0.16279065608978271
-0.7783336043357849 0.42635655403137207 -0.14728683233261108
-0.7740082740783691 0.42635655403137207 -0.13178294897079468
-0.7731083631515503 0.42635655403137207 -0.11627906560897827
-0.7733318209648132 0.42635655403137207 -0.10077518224716187
-0.7737101316452026 0.42635655403137207 -0.08527129888534546
-0.7739472389221191 0.42635655403137207 -0.06976741552352905
-0.7740304470062256 0.42635655403137207 -0.05426359176635742
-0.7744899392127991 0.42635655403137207 -0.038759708404541016
-0.7747837901115417 0.42635655403137207 -0.02325582504272461
-0.7744917869567871 0.42635655403137207 -0.007751941680908203
-0.7739174365997314 0.42635655403137207 0.007751941680908203
-0.7726477384567261 0.42635655403137207 0.02325582504272461
-0.771512508392334 0.42635655403137207 0.038759708404541016
-0.7708357572555542 0.42635655403137207 0.05426359176635742
-0.7705170512199402 0.42635655403137207 0.06976747512817383
-0.7711243033409119 0.42635655403137207 0.08527135848999023
-0.7719300389289856 0.42635655403137207 0.10077524185180664
-0.772311806678772 0.42635655403137207 0.11627912521362305
-0.7728104591369629 0.42635655403137207 0.1317828893661499
-0.7751018404960632 0.42635655403137207 0.1472867727279663
-0.7703351974487305 0.4418604373931885 -0.14728683233261108
-0.7681472897529602 0.4418604373931885 0.1472867727279663
-0.7548414468765259 -0.4418604373931885 -0.14728683233261108
-0.754476010799408 -0.4418604373931885 0.1472867727279663
-0.7651523947715759 -0.42635658383369446 -0.14728683233261108
-0.7615396976470947 -0.42635661363601685 -0.13178294897079468
-0.7614561319351196 -0.42635661363601685 -0.11627906560897827
-0.7620618343353271 -0.42635661363601685 -0.10077518224716187
-0.7621412873268127 -0.42635661363601685 -0.08527129888534546
-0.7623494267463684 -0.42635661363601685 -0.06976741552352905
-0.7625466585159302 -0.42635661363601685 -0.05426359176635742
-0.7628434896469116 -0.42635661363601685 -0.038759708404541016
-0.7623001933097839 -0.42635661363601685 -0.02325582504272461
-0.7616835236549377 -0.42635661363601685 -0.007751941680908203
-0.7614991664886475 -0.42635661363601685 0.007751941680908203
-0.7608214616775513 -0.42635661363601685 0.02325582504272461
-0.7603776454925537 -0.42635661363601685 0.038759708404541016
-0.7599829435348511 -0.42635661363601685 0.05426359176635742
-0.7601978778839111 -0.42635661363601685 0.06976747512817383
-0.7607725858688354 -0.42635661363601685 0.08527135848999023
-0.7610636949539185 -0.42635661363601685 0.10077524185180664
-0.7611597776412964 -0.42635661363601685 0.11627913266420364
-0.7614493370056152 -0.42635661363601685 0.1317828893661499
-0.7648158073425293 -0.42635661363601685 0.1472867727279663
-0.7543202042579651 -0.42635661363601685 0.16279065608978271
-0.7634034752845764 -0.41085273027420044 0.16279065608978271
-0.7632192969322205 -0.39534884691238403 0.16279065608978271
-0.7561383247375488 -0.28682172298431396 0.038759708404541016
-0.7599937915802002 -0.28682172298431396 0.05426359176635742
-0.7594763040542603 -0.28682172298431396 0.06976747512817383
-0.7582722902297974 -0.28682172298431396 0.08527135848999023
-0.7570539712905884 -0.28682172298431396 0.10077524185180664
-0.7549985647201538 -0.28682172298431396 0.11627912521362305
-0.7562117576599121 -0.28682172298431396 0.1317828893661499
-0.7559404373168945 -0.28682172298431396 0.1472867727279663
-0.7545176148414612 -0.27131783962249756 0.02325582504272461
-0.7653919458389282 -0.27131783962249756 0.038759708404541016
-0.7669535875320435 -0.27131783962249756 0.06976747512817383
-0.766185462474823 -0.27131783962249756 0.08527135848999023
-0.7651373147964478 -0.27131783962249756 0.10077524185180664
-0.7633582949638367 -0.27131783962249756 0.11627913266420364
-0.7636424899101257 -0.27131783962249756 0.1317828893661499
-0.7629916667938232 -0.27131783962249756 0.1472867727279663
-0.7622015476226807 -0.25581395626068115 0.02325582504272461
-0.7671127915382385 -0.24031007289886475 0.02325582318007946
-0.7553125619888306 -0.1627907156944275 0.007751941680908203
-0.7522895932197571 -0.11627906560897827 -0.05426359176635742
-0.7536965012550354 -0.11627906560897827 -0.038759708404541016
-0.7527552843093872 -0.10077518224716187 -0.038759708404541016
-0.7588833570480347 0.19379842281341553 0.02325582504272461
-0.7522591352462769 0.20930230617523193 0.02325582504272461
-0.7656650543212891 0.22480618953704834 0.038759708404541016
-0.7614267468452454 0.24031007289886475 0.038759708404541016
-0.7656634449958801 0.24031007289886475 0.05426359176635742
-0.7665391564369202 0.24031007289886475 0.06976747512817383
-0.7669988870620728 0.24031005799770355 0.08527135848999023
-0.7671352028846741 0.24031007289886475 0.10077524185180664
-0.7669534087181091 0.24031007289886475 0.11627913266420364
-0.7598540782928467 0.25581395626068115 0.05426359176635742
-0.7621369361877441 0.25581395626068115 0.06976747512817383
-0.7630432844161987 0.25581395626068115 0.08527135848999023
-0.7630741000175476 0.25581395626068115 0.10077524185180664
-0.7622829675674438 0.25581395626068115 0.11627912521362305
-0.7640780806541443 0.25581395626068115 0.1317828893661499
-0.7640562057495117 0.25581395626068115 0.1472867727279663
-0.7549105286598206 0.27131783962249756 0.06976747512817383
-0.7566803097724915 0.27131783962249756 0.08527135848999023
-0.7571449279785156 0.27131783962249756 0.10077524185180664
-0.7561460733413696 0.27131783962249756 0.11627912521362305
-0.7587603330612183 0.27131783962249756 0.1317828893661499
-0.759304404258728 0.27131783962249756 0.1472867727279663
-0.7638227939605713 0.41085267066955566 0.16279065608978271
-0.7662337422370911 0.4418604373931885 -0.13178294897079468
-0.7654114961624146 0.4418604373931885 -0.11627906560897827
-0.7658206820487976 0.4418604075908661 -0.10077518224716187
-0.7661095261573792 0.4418604373931885 -0.08527129888534546
-0.766272246837616 0.4418604373931885 -0.06976741552352905
-0.7661928534507751 0.4418604075908661 -0.05426358804106712
-0.7666108012199402 0.4418604075908661 -0.038759708404541016
-0.7672227621078491 0.4418604373931885 -0.02325582318007946
-0.7670614123344421 0.4418604075908661 -0.007751941215246916
-0.7663611173629761 0.4418604373931885 0.007751941680908203
-0.7647007703781128 0.4418604373931885 0.02325582504272461
-0.7633703947067261 0.4418604373931885 0.038759708404541016
-0.7627822160720825 0.4418604373931885 0.05426359176635742
-0.7626961469650269 0.4418604373931885 0.06976747512817383
-0.7634850740432739 0.4418604373931885 0.08527135848999023
-0.764344334602356 0.4418604373931885 0.10077524185180664
-0.7646173238754272 0.4418604075908661 0.11627912521362305
-0.7652558088302612 0.4418604373931885 0.1317828893661499
-0.7525572180747986 0.4418604373931885 0.16279065608978271
-0.760309636592865 0.4573643207550049 -0.14728683233261108
-0.756696343421936 0.4573643207550049 -0.13178294897079468
-0.7556828856468201 0.4573643207550049 -0.11627906560897827
-0.7558769583702087 0.4573643207550049 -0.10077518224716187
-0.7564099431037903 0.4573643207550049 -0.08527129888534546
-0.7566959261894226 0.4573643207550049 -0.06976741552352905
-0.756857693195343 0.4573643207550049 -0.05426359176635742
-0.7573026418685913 0.4573643207550049 -0.038759708404541016
-0.7575974464416504 0.4573643207550049 -0.02325582504272461
-0.7572669982910156 0.4573643207550049 -0.007751941680908203
-0.7566757798194885 0.4573643207550049 0.007751941680908203
-0.7557656168937683 0.4573643207550049 0.02325582504272461
-0.7550387382507324 0.4573643207550049 0.038759708404541016
-0.7544364929199219 0.4573643207550049 0.05426359176635742
-0.753972589969635 0.4573643207550049 0.06976747512817383
-0.7543997764587402 0.4573643207550049 0.08527135848999023
-0.7550462484359741 0.4573643207550049 0.10077524185180664
-0.7553365230560303 0.4573643207550049 0.11627912521362305
-0.7556614875793457 0.4573643207550049 0.1317828893661499
-0.7574138641357422 0.4573643207550049 0.1472867727279663
-0.7534291744232178 0.4728682041168213 -0.14728683233261108
-0.743401288986206 -0.4573643207550049 -0.14728683233261108
-0.7407881021499634 -0.4573643207550049 -0.13178294897079468
-0.7399317026138306 -0.4573643207550049 -0.11627906560897827
-0.740204393863678 -0.4573643207550049 -0.10077518224716187
-0.7401850819587708 -0.4573643207550049 -0.08527129888534546
-0.7403577566146851 -0.4573643207550049 -0.06976741552352905
-0.7406731247901917 -0.4573643207550049 -0.05426359176635742
-0.7405415773391724 -0.4573643207550049 -0.038759708404541016
-0.7402264475822449 -0.4573643207550049 -0.02325582504272461
-0.7399601936340332 -0.4573643207550049 -0.007751941680908203
-0.7397242784500122 -0.4573643207550049 0.007751941680908203
-0.7394585609436035 -0.4573643207550049 0.02325582504272461
-0.7393141388893127 -0.4573643207550049 0.038759708404541016
-0.7387927174568176 -0.4573643207550049 0.05426359176635742
-0.7385973930358887 -0.4573643207550049 0.06976747512817383
-0.7388753890991211 -0.4573643207550049 0.08527135848999023
-0.739014744758606 -0.4573643207550049 0.10077524185180664
-0.7391354441642761 -0.4573643207550049 0.11627912521362305
-0.7402099370956421 -0.4573643207550049 0.1317828893661499
-0.7431499361991882 -0.4573643207550049 0.1472867727279663
-0.7367205023765564 -0.4573643207550049 0.16279065608978271
-0.7516976594924927 -0.4418604373931885 -0.13178294897079468
-0.7506694793701172 -0.44186046719551086 -0.11627906560897827
-0.7512196898460388 -0.4418604373931885 -0.10077518224716187
-0.7512611150741577 -0.4418604373931885 -0.08527130633592606
-0.7513778209686279 -0.4418604373931885 -0.06976741552352905
-0.7514721751213074 -0.4418604373931885 -0.05426359176635742
-0.7515431642532349 -0.44186046719551086 -0.038759712129831314
-0.7514688968658447 -0.4418604373931885 -0.02325582504272461
-0.7511067986488342 -0.44186046719551086 -0.007751941680908203
-0.7509406208992004 -0.4418604373931885 0.007751941680908203
-0.750454843044281 -0.4418604373931885 0.02325582504272461
-0.7501951456069946 -0.4418604373931885 0.038759708404541016
-0.7497327923774719 -0.4418604373931885 0.05426359176635742
-0.7498732805252075 -0.4418604373931885 0.06976747512817383
-0.750270426273346 -0.4418604373931885 0.08527135848999023
-0.7504212856292725 -0.4418604373931885 0.10077523440122604
-0.7504715919494629 -0.44186046719551086 0.11627913266420364
-0.7517706155776978 -0.4418604373931885 0.1317828893661499
-0.7405498623847961 -0.4418604373931885 0.16279065608978271
-0.7468687891960144 -0.42635661363601685 0.16279065608978271
-0.7367171049118042 -0.317829430103302 0.1317828893661499
-0.7374385595321655 -0.317829430103302 0.1472867727279663
-0.7418197393417358 -0.30232560634613037 0.038759708404541016
-0.7476040124893188 -0.30232560634613037 0.05426359176635742
-0.7480526566505432 -0.30232560634613037 0.06976747512817383
-0.7477715015411377 -0.30232560634613037 0.08527135848999023
-0.747494101524353 -0.30232560634613037 0.10077524185180664
-0.7461228370666504 -0.30232560634613037 0.11627912521362305
-0.7474210262298584 -0.30232560634613037 0.1317828893661499
-0.7475243210792542 -0.30232560634613037 0.1472867727279663
-0.7387851476669312 -0.28682172298431396 0.02325582504272461
-0.7487001419067383 -0.1627907156944275 0.00775194214656949
-0.7515116930007935 -0.11627906560897827 -0.05426359176635742
-0.7506853938102722 -0.11627906560897827 -0.038759708404541016
-0.7513958215713501 -0.10077518969774246 -0.038759708404541016
-0.7396823167800903 -0.08527129888534546 0.007751941680908203
-0.7496824860572815 -0.06976741552352905 0.007751941680908203
-0.751457154750824 0.25581395626068115 0.038759708404541016
-0.7383049130439758 0.27131783962249756 0.038759708404541016
-0.7513103485107422 0.27131786942481995 0.05426359176635742
-0.7452035546302795 0.28682172298431396 0.05426359176635742
-0.7476025223731995 0.28682172298431396 0.06976747512817383
-0.7486547231674194 0.28682172298431396 0.08527135848999023
-0.7491300702095032 0.28682172298431396 0.10077524185180664
-0.7484351396560669 0.28682172298431396 0.11627912521362305
-0.7508427500724792 0.2868216931819916 0.1317828893661499
-0.7512266635894775 0.28682172298431396 0.1472867727279663
-0.7376440763473511 0.30232560634613037 0.08527135848999023
-0.7398388981819153 0.30232560634613037 0.10077524185180664
-0.739608883857727 0.30232560634613037 0.11627912521362305
-0.7437765598297119 0.30232560634613037 0.1317828893661499
-0.7449507713317871 0.30232560634613037 0.1472867727279663
-0.7364851832389832 0.3178294897079468 0.1472867727279663
-0.7503248453140259 0.4418604373931885 0.16279065608978271
-0.7378717064857483 0.4573643207550049 0.16279065608978271
-0.7491523623466492 0.4728682041168213 -0.13178294897079468
-0.7487109303474426 0.4728682041168213 -0.11627906560897827
-0.7491703629493713 0.4728682041168213 -0.10077518224716187
-0.7496705651283264 0.4728681743144989 -0.08527129888534546
-0.7498310208320618 0.4728682041168213 -0.06976741552352905
-0.7498169541358948 0.4728682041168213 -0.05426359176635742
-0.7501758337020874 0.4728682041168213 -0.038759708404541016
-0.7506443858146667 0.4728682339191437 -0.02325582504272461
-0.7503859996795654 0.4728682041168213 -0.007751941680908203
-0.7497230768203735 0.4728682041168213 0.007751941680908203
-0.7482728958129883 0.4728682041168213 0.02325582504272461
-0.7471233606338501 0.4728682339191437 0.038759708404541016
-0.7463895082473755 0.4728682041168213 0.05426359176635742
-0.7460105419158936 0.4728682041168213 0.06976747512817383
-0.7468676567077637 0.4728682339191437 0.08527135848999023
-0.747675359249115 0.4728682041168213 0.10077524185180664
-0.747849702835083 0.4728682041168213 0.11627913266420364
-0.7478170990943909 0.4728682041168213 0.1317828893661499
-0.7503268122673035 0.4728682041168213 0.1472867727279663
-0.7371261119842529 0.4728682041168213 0.16279065608978271
-0.7426629662513733 0.4883720874786377 -0.14728683233261108
-0.7397469282150269 0.4883720874786377 -0.13178294897079468
-0.7389107942581177 0.4883720874786377 -0.11627906560897827
-0.7391172051429749 0.4883720874786377 -0.10077518224716187
-0.739632785320282 0.4883720874786377 -0.08527129888534546
-0.739844799041748 0.4883720874786377 -0.06976741552352905
-0.7399711608886719 0.4883720874786377 -0.05426359176635742
-0.7403008937835693 0.4883720874786377 -0.038759708404541016
-0.7405760884284973 0.4883720874786377 -0.02325582504272461
-0.7402781844139099 0.4883720874786377 -0.007751941680908203
-0.7399107217788696 0.4883720874786377 0.007751941680908203
-0.7394124269485474 0.4883720874786377 0.02325582504272461
-0.7389976382255554 0.4883720874786377 0.038759708404541016
-0.7384762167930603 0.4883720874786377 0.05426359176635742
-0.7379894852638245 0.4883720874786377 0.06976747512817383
-0.7383034825325012 0.4883720874786377 0.08527135848999023
-0.7387001514434814 0.4883720874786377 0.10077524185180664
-0.7388035655021667 0.4883720874786377 0.11627912521362305
-0.7390182614326477 0.4883720874786377 0.1317828893661499
-0.7405174374580383 0.4883720874786377 0.1472867727279663
-0.7245017886161804 -0.4883720874786377 -0.14728683233261108
-0.7212557792663574 -0.4883720874786377 -0.13178294897079468
-0.7209685444831848 -0.4883720874786377 0.1317828893661499
-0.7234821319580078 -0.4883720874786377 0.1472867727279663
-0.7360666990280151 -0.4728682041168213 -0.14728683233261108
-0.7316729426383972 -0.4728682041168213 -0.13178294897079468
-0.7311980724334717 -0.4728682339191437 -0.11627906560897827
-0.7315673828125 -0.4728682041168213 -0.10077518969774246
-0.7313929796218872 -0.4728682041168213 -0.08527129888534546
-0.7311846613883972 -0.4728682041168213 -0.06976741552352905
-0.7313010692596436 -0.4728682041168213 -0.05426359176635742
-0.731356143951416 -0.4728682041168213 -0.038759708404541016
-0.731394350528717 -0.4728682041168213 -0.02325582318007946
-0.7311789989471436 -0.4728682041168213 -0.007751941680908203
-0.73087477684021 -0.4728682041168213 0.007751941680908203
-0.7306296229362488 -0.4728682041168213 0.02325582504272461
-0.7305005788803101 -0.4728682041168213 0.038759708404541016
-0.7296482920646667 -0.4728682041168213 0.05426359176635742
-0.7293028831481934 -0.4728682041168213 0.06976747512817383
-0.7297685146331787 -0.4728682041168213 0.08527135848999023
-0.7297765016555786 -0.4728682041168213 0.10077524185180664
-0.729945182800293 -0.4728682041168213 0.11627912521362305
-0.7307034134864807 -0.4728682041168213 0.1317828893661499
-0.734221339225769 -0.4728682041168213 0.1472867727279663
-0.7236161231994629 -0.4728682041168213 0.16279065608978271
-0.7322006225585938 -0.4573643207550049 0.16279065608978271
-0.7322037220001221 -0.4418604373931885 0.16279065608978271
-0.7228602170944214 -0.3333333134651184 0.10077524185180664
-0.7242157459259033 -0.3333333134651184 0.11627912521362305
-0.7282168865203857 -0.3333333134651184 0.1317828893661499
-0.7297954559326172 -0.3333333134651184 0.1472867727279663
-0.7309387922286987 -0.317829430103302 0.05426359176635742
-0.7332414984703064 -0.317829430103302 0.06976747512817383
-0.7341286540031433 -0.317829430103302 0.08527135848999023
-0.7351027131080627 -0.3178294003009796 0.10077524185180664
-0.7348126769065857 -0.317829430103302 0.11627912521362305
-0.7351548075675964 -0.14728683233261108 0.007751941680908203
-0.7283671498298645 -0.13178294897079468 0.007751941680908203
-0.7257322669029236 -0.11627906560897827 0.007751941680908203
-0.7312172651290894 -0.10077518224716187 0.00775194214656949
-0.7210332155227661 0.19379842281341553 0.02325582504272461
-0.7352498769760132 0.20930230617523193 0.02325582504272461
-0.7286403179168701 0.28682172298431396 0.038759708404541016
-0.733768105506897 0.30232560634613037 0.05426359549164772
-0.7357555627822876 0.30232560634613037 0.06976747512817383
-0.7236488461494446 0.3178294897079468 0.06976747512817383
-0.7283324003219604 0.3178294897079468 0.08527135848999023
-0.7315762042999268 0.3178294897079468 0.10077524185180664
-0.7322103381156921 0.3178294897079468 0.11627912521362305
-0.7357152104377747 0.3178294897079468 0.1317828893661499
-0.7230032682418823 0.3333333730697632 0.11627912521362305
-0.7286447286605835 0.3333333730697632 0.1317828893661499
-0.7304753065109253 0.3333333730697632 0.1472867727279663
-0.7358807921409607 0.4573643207550049 0.16279065608978271
-0.7338793277740479 0.4728682041168213 0.16279065608978271
-0.7242816090583801 0.4883720874786377 0.16279065608978271
-0.7341625094413757 0.5038759708404541 -0.14728683233261108
-0.7307783365249634 0.5038759708404541 -0.13178294897079468
-0.7308750152587891 0.5038759708404541 -0.11627906560897827
-0.7314215898513794 0.5038759708404541 -0.10077518224716187
-0.7320992946624756 0.5038759708404541 -0.08527129888534546
-0.7322666645050049 0.5038759708404541 -0.06976741552352905
-0.7323915362358093 0.5038759708404541 -0.05426359176635742
-0.7327489852905273 0.5038759708404541 -0.038759708404541016
-0.7330031394958496 0.5038759708404541 -0.02325582504272461
-0.7326852679252625 0.5038759708404541 -0.007751941680908203
-0.7322132587432861 0.5038759708404541 0.007751941680908203
-0.7312211990356445 0.5038759708404541 0.02325582504272461
-0.7302216291427612 0.5038759708404541 0.038759708404541016
-0.7294972538948059 0.5038759708404541 0.05426359176635742
-0.7290078401565552 0.5038759708404541 0.06976747512817383
-0.7297707796096802 0.5038759708404541 0.08527135848999023
-0.7302519083023071 0.5038759708404541 0.10077524185180664
-0.730198860168457 0.5038759708404541 0.11627912521362305
-0.7296769618988037 0.5038759708404541 0.1317828893661499
-0.7310057878494263 0.5038759708404541 0.1472867727279663
-0.7211466431617737 0.5038759708404541 0.16279065608978271
-0.7237763404846191 0.5193798542022705 -0.14728683233261108
-0.7212598919868469 0.5193798542022705 -0.08527129888534546
-0.7212274074554443 0.5193798542022705 -0.06976741552352905
-0.7212557196617126 0.5193798542022705 -0.05426359176635742
-0.7216824293136597 0.5193798542022705 -0.038759708404541016
-0.722064733505249 0.5193798542022705 -0.02325582504272461
-0.7218935489654541 0.5193798542022705 -0.007751941680908203
-0.7217007279396057 0.5193798542022705 0.007751941680908203
-0.7214837670326233 0.5193798542022705 0.02325582504272461
-0.7211838960647583 0.5193798542022705 0.038759708404541016
-0.7220955491065979 0.5193798542022705 0.1472867727279663
-0.71379554271698 -0.5038759708404541 -0.14728683233261108
-0.7099919319152832 -0.5038759708404541 -0.13178294897079468
-0.7087442874908447 -0.5038759708404541 -0.11627906560897827
-0.7088422179222107 -0.5038759708404541 -0.10077518224716187
-0.7086553573608398 -0.5038759708404541 -0.08527129888534546
-0.7084430456161499 -0.5038759708404541 -0.06976741552352905
-0.7086256146430969 -0.5038759708404541 -0.05426359176635742
-0.7087010741233826 -0.5038759708404541 -0.038759708404541016
-0.7089394330978394 -0.5038759708404541 -0.02325582504272461
-0.7089956998825073 -0.5038759708404541 -0.007751941680908203
-0.7086719870567322 -0.5038759708404541 0.007751941680908203
-0.7085391283035278 -0.5038759708404541 0.02325582504272461
-0.7085122466087341 -0.5038759708404541 0.038759708404541016
-0.7076267004013062 -0.5038759708404541 0.05426359176635742
-0.7070391178131104 -0.5038759708404541 0.06976747512817383
-0.7072393894195557 -0.5038759708404541 0.08527135848999023
-0.707248866558075 -0.5038759708404541 0.10077524185180664
-0.7073333263397217 -0.5038759708404541 0.11627912521362305
-0.7085486054420471 -0.5038759708404541 0.1317828893661499
-0.7117608189582825 -0.5038759708404541 0.1472867727279663
-0.7199671864509583 -0.4883720874786377 -0.11627906560897827
-0.7201400995254517 -0.4883720874786377 -0.10077518224716187
-0.7200487852096558 -0.4883720874786377 -0.08527129888534546
-0.7198774218559265 -0.4883720874786377 -0.06976741552352905
-0.7199364900588989 -0.4883720874786377 -0.05426359176635742
-0.720005989074707 -0.4883720874786377 -0.038759712129831314
-0.720348060131073 -0.4883720874786377 -0.02325582504272461
-0.7204276919364929 -0.4883720874786377 -0.007751941680908203
-0.7201639413833618 -0.4883720874786377 0.007751941680908203
-0.7200714945793152 -0.4883720576763153 0.02325582318007946
-0.7198750972747803 -0.4883720874786377 0.038759708404541016
-0.7188771367073059 -0.4883720874786377 0.05426359176635742
-0.7184970378875732 -0.4883720874786377 0.06976747512817383
-0.7189269661903381 -0.4883720874786377 0.08527135103940964
-0.7190651893615723 -0.4883721172809601 0.10077524185180664
-0.7192366123199463 -0.4883720874786377 0.11627912521362305
-0.7102881669998169 -0.4883720874786377 0.16279065608978271
-0.7140433192253113 -0.4728682041168213 0.16279065608978271
-0.7066980600357056 -0.3643410801887512 0.1472867727279663
-0.7088830471038818 -0.3488371968269348 0.10077524185180664
-0.7122194170951843 -0.3488371968269348 0.11627912521362305
-0.7167723774909973 -0.3488371968269348 0.1317828893661499
-0.7183782458305359 -0.3488371968269348 0.1472867727279663
-0.7055855393409729 -0.3333333134651184 0.05426359176635742
-0.7153656482696533 -0.3333333134651184 0.06976747512817383
-0.7191545963287354 -0.3333333134651184 0.08527135848999023
-0.7155823111534119 -0.317829430103302 0.038759708404541016
-0.7089318037033081 -0.28682172298431396 0.02325582504272461
-0.7129074335098267 0.30232560634613037 0.038759708404541016
-0.7173812389373779 0.3178294897079468 0.05426359176635742
-0.7054370641708374 0.3333333730697632 0.06976747512817383
-0.7145279049873352 0.3333333730697632 0.08527135848999023
-0.7202849388122559 0.3333333730697632 0.10077524185180664
-0.7073659300804138 0.3488372564315796 0.10077524185180664
-0.7121560573577881 0.3488372564315796 0.11627912521362305
-0.717646062374115 0.3488372266292572 0.1317828893661499
-0.7192450165748596 0.3488372564315796 0.1472867727279663
-0.705695390701294 0.364341139793396 0.1317828893661499
-0.7089443206787109 0.364341139793396 0.1472867727279663
-0.7174928784370422 0.4883721172809601 0.16279065608978271
-0.7187954187393188 0.5038759708404541 0.16279065608978271
-0.7206684947013855 0.5193798542022705 -0.13178294897079468
-0.7203272581100464 0.5193798542022705 -0.11627906560897827
-0.7208824753761292 0.5193799138069153 -0.10077518224716187
-0.720398485660553 0.5193798542022705 0.05426359176635742
-0.7195677757263184 0.5193798542022705 0.06976747512817383
-0.7200510501861572 0.5193798542022705 0.08527135103940964
-0.7204094529151917 0.5193798542022705 0.10077524185180664
-0.7203205227851868 0.5193798542022705 0.11627912521362305
-0.7203511595726013 0.5193798542022705 0.1317828893661499
-0.7081043124198914 0.5193798542022705 0.16279065608978271
-0.7119821310043335 0.5348837375640869 -0.14728683233261108
-0.70947265625 0.5348837375640869 -0.13178294897079468
-0.7088216543197632 0.5348837375640869 -0.11627906560897827
-0.7090629935264587 0.5348837375640869 -0.10077518224716187
-0.7096847295761108 0.5348837375640869 -0.08527129888534546
-0.7098829746246338 0.5348837375640869 -0.06976741552352905
-0.7101941108703613 0.5348837375640869 -0.05426359176635742
-0.7107068300247192 0.5348837375640869 -0.038759708404541016
-0.7111868262290955 0.5348837375640869 -0.02325582504272461
-0.7110929489135742 0.5348837375640869 -0.007751941680908203
-0.7106875777244568 0.5348837375640869 0.007751941680908203
-0.7100392580032349 0.5348837375640869 0.02325582504272461
-0.7094138860702515 0.5348837375640869 0.038759708404541016
-0.7088273167610168 0.5348837375640869 0.05426359176635742
-0.7082932591438293 0.5348837375640869 0.06976747512817383
-0.7087164521217346 0.5348837375640869 0.08527135848999023
-0.7090833783149719 0.5348837375640869 0.10077524185180664
-0.7091382145881653 0.5348837375640869 0.11627912521362305
-0.7091473937034607 0.5348837375640869 0.1317828893661499
-0.7104583382606506 0.5348837375640869 0.1472867727279663
-0.6917343139648438 -0.5348837375640869 -0.14728683233261108
-0.690135657787323 -0.5348837375640869 0.1472867727279663
-0.7045637369155884 -0.5193798542022705 -0.14728683233261108
-0.6993666887283325 -0.5193798542022705 -0.13178294897079468
-0.6981873512268066 -0.5193798542022705 -0.11627906560897827
-0.6984033584594727 -0.5193798542022705 -0.10077518224716187
-0.6981905102729797 -0.5193798542022705 -0.08527129888534546
-0.6983755826950073 -0.5193798542022705 -0.06976741552352905
-0.6988732218742371 -0.5193798542022705 -0.05426359176635742
-0.6990585327148438 -0.5193798542022705 -0.038759708404541016
-0.6993088722229004 -0.5193798542022705 -0.02325582504272461
-0.6990939378738403 -0.5193798542022705 -0.007751941680908203
-0.6983230113983154 -0.5193798542022705 0.007751941680908203
-0.6976081132888794 -0.5193798542022705 0.02325582504272461
-0.6973960399627686 -0.5193798542022705 0.038759708404541016
-0.6963640451431274 -0.5193798542022705 0.05426359176635742
-0.695715069770813 -0.5193798542022705 0.06976747512817383
-0.696075439453125 -0.5193798542022705 0.08527135848999023
-0.6959577798843384 -0.5193798542022705 0.10077524185180664
-0.696220338344574 -0.5193798542022705 0.11627912521362305
-0.6972483396530151 -0.5193798542022705 0.1317828893661499
-0.7010648250579834 -0.5193798542022705 0.1472867727279663
-0.690149188041687 -0.5193798542022705 0.16279065608978271
-0.6901394724845886 -0.5038759708404541 0.16279065608978271
-0.6993271112442017 -0.4883720874786377 0.16279065608978271
-0.6925264000892639 -0.3798449635505676 0.1317828893661499
-0.6965185403823853 -0.3798449635505676 0.1472867727279663
-0.6954891681671143 -0.3643410801887512 0.10077524185180664
-0.6994249224662781 -0.3643410801887512 0.11627913266420364
-0.7040863037109375 -0.3643410801887512 0.1317828893661499
-0.6953471899032593 -0.3488371968269348 0.06976747512817383
-0.7024930715560913 -0.3488371968269348 0.08527135848999023
-0.6925991177558899 -0.27131783962249756 0.02325582504272461
-0.6917035579681396 0.17829453945159912 0.02325582504272461
-0.6963824033737183 0.3333333730697632 0.05426359176635742
-0.6997112035751343 0.3488372564315796 0.08527135848999023
-0.6958308219909668 0.364341139793396 0.10077524185180664
-0.7007293105125427 0.364341139793396 0.11627912521362305
-0.691342830657959 0.37984490394592285 0.11627912521362305
-0.6979147791862488 0.37984490394592285 0.1317828893661499
-0.7006382942199707 0.37984490394592285 0.1472867727279663
-0.690846860408783 0.39534878730773926 0.1317828893661499
-0.6950525641441345 0.39534878730773926 0.1472867727279663
-0.6995829939842224 0.5193798542022705 0.16279065608978271
-0.693745493888855 0.5348837375640869 0.16279065608978271
-0.7018020153045654 0.5503876209259033 -0.14728683233261108
-0.6987409591674805 0.5503876209259033 -0.13178294897079468
-0.6984819173812866 0.5503876209259033 -0.11627906560897827
-0.6986685991287231 0.5503876209259033 -0.10077518224716187
-0.6992335319519043 0.5503876209259033 -0.08527129888534546
-0.6995750665664673 0.5503876209259033 -0.06976741552352905
-0.6998571157455444 0.5503876209259033 -0.05426359176635742
-0.7003704309463501 0.5503876209259033 -0.038759708404541016
-0.700918436050415 0.5503876209259033 -0.02325582504272461
-0.7008287906646729 0.5503876209259033 -0.007751941680908203
-0.700334906578064 0.5503876209259033 0.007751941680908203
-0.6994434595108032 0.5503876209259033 0.02325582504272461
-0.6986975073814392 0.5503876209259033 0.038759708404541016
-0.6981991529464722 0.5503876209259033 0.05426359176635742
-0.6975935101509094 0.5503876209259033 0.06976747512817383
-0.6982437372207642 0.5503876209259033 0.08527135848999023
-0.6986802220344543 0.5503876209259033 0.10077524185180664
-0.6987531185150146 0.5503876209259033 0.11627912521362305
-0.698341965675354 0.5503876209259033 0.1317828893661499
-0.6998230218887329 0.5503876209259033 0.1472867727279663
-0.6913164854049683 0.5658915042877197 -0.14728683233261108
-0.690008819103241 0.5658915042877197 0.1472867727279663
-0.6781809329986572 -0.5503876209259033 -0.14728683233261108
-0.6748428344726562 -0.5503876209259033 -0.13178294897079468
-0.6744722127914429 -0.5503876209259033 -0.06976741552352905
-0.6747053861618042 -0.5503876209259033 -0.05426359176635742
-0.6748538613319397 -0.5503876209259033 -0.038759708404541016
-0.6752569079399109 -0.5503876209259033 -0.02325582504272461
-0.6750542521476746 -0.5503876209259033 -0.007751941680908203
-0.6745995879173279 -0.5503876209259033 0.007751941680908203
-0.676691472530365 -0.5503876209259033 0.1472867727279663
-0.6874042749404907 -0.5348837375640869 -0.13178294897079468
-0.6862314343452454 -0.5348837375640869 -0.11627906560897827
-0.6864671111106873 -0.5348837375640869 -0.10077518224716187
-0.6863588690757751 -0.5348837375640869 -0.08527129888534546
-0.686801552772522 -0.5348837375640869 -0.06976741552352905
-0.6872019171714783 -0.5348837375640869 -0.05426359176635742
-0.6872918009757996 -0.5348837375640869 -0.038759708404541016
-0.6876879334449768 -0.5348837375640869 -0.02325582504272461
-0.6873387098312378 -0.5348837375640869 -0.007751941680908203
-0.6861264705657959 -0.5348837375640869 0.007751941680908203
-0.6848138570785522 -0.5348837375640869 0.02325582504272461
-0.6844606995582581 -0.5348837375640869 0.038759708404541016
-0.6837822794914246 -0.5348837375640869 0.05426359176635742
-0.6838253736495972 -0.5348837375640869 0.06976747512817383
-0.6845888495445251 -0.5348837375640869 0.08527135848999023
-0.6847701072692871 -0.5348837375640869 0.10077524930238724
-0.6848409175872803 -0.5348837375640869 0.11627912521362305
-0.6856911778450012 -0.5348837375640869 0.1317828893661499
-0.6752616763114929 -0.5348837375640869 0.16279065608978271
-0.6885133385658264 -0.5193798542022705 0.16279065608978271
-0.6899095177650452 -0.5038759112358093 0.16279065608978271
-0.6749027371406555 -0.39534884691238403 0.11627912521362305
-0.6814485788345337 -0.39534884691238403 0.1317828893661499
-0.6846426725387573 -0.39534884691238403 0.1472867727279663
-0.6759394407272339 -0.3798449635505676 0.08527135848999023
-0.6837024688720703 -0.3798449635505676 0.10077524185180664
-0.6871833205223083 -0.3798449635505676 0.11627911776304245
-0.6811720132827759 -0.3643410801887512 0.06976747512817383
-0.687984824180603 -0.3643410801887512 0.08527135848999023
-0.6834775805473328 -0.3488371968269348 0.05426359176635742
-0.6819920539855957 -0.3333333134651184 0.038759708404541016
-0.6755588054656982 -0.25581395626068115 0.02325582504272461
-0.6868813037872314 0.3178294897079468 0.038759708404541016
-0.6802318692207336 0.3488372564315796 0.05426359176635742
-0.6898503303527832 0.3488372564315796 0.06976747512817383
-0.6783413887023926 0.364341139793396 0.06976747512817383
-0.6867908239364624 0.364341139793396 0.08527135848999023
-0.6752591729164124 0.37984490394592285 0.08527135848999023
-0.6859763860702515 0.37984490394592285 0.10077524930238724
-0.6780544519424438 0.39534878730773926 0.10077524185180664
-0.6850296854972839 0.39534881711006165 0.11627912521362305
-0.6782804131507874 0.41085267066955566 0.11627912521362305
-0.6848005056381226 0.41085267066955566 0.1317828893661499
-0.6876721978187561 0.41085267066955566 0.1472867727279663
-0.6782626509666443 0.42635655403137207 0.1317828893661499
-0.6823168992996216 0.42635655403137207 0.1472867727279663
-0.6879362463951111 0.5348837375640869 0.16279064118862152
-0.6873911619186401 0.5658915042877197 -0.13178294897079468
-0.6867011189460754 0.5658915042877197 -0.11627906560897827
-0.6868559122085571 0.5658915042877197 -0.10077518224716187
-0.6873422861099243 0.5658915042877197 -0.08527129888534546
-0.6875295042991638 0.5658915042877197 -0.06976741552352905
-0.6875993013381958 0.5658915042877197 -0.05426359549164772
-0.6880373358726501 0.5658915042877197 -0.038759708404541016
-0.688843846321106 0.5658915638923645 -0.02325582690536976
-0.6888367533683777 0.5658915638923645 -0.00775194214656949
-0.6883701086044312 0.5658915042877197 0.007751941680908203
-0.6875838041305542 0.5658915042877197 0.02325582504272461
-0.6869975924491882 0.5658915042877197 0.038759708404541016
-0.6864956617355347 0.5658915042877197 0.05426359176635742
-0.685901939868927 0.5658915042877197 0.06976747512817383
-0.6864874362945557 0.5658915042877197 0.08527135848999023
-0.6870019435882568 0.5658915042877197 0.10077524185180664
-0.6871364712715149 0.5658915042877197 0.11627912521362305
-0.6872097253799438 0.5658915042877197 0.1317828893661499
-0.6751461029052734 0.5658915042877197 0.16279065608978271
-0.678486704826355 0.5813953876495361 -0.14728683233261108
-0.6752792596817017 0.5813953876495361 -0.13178294897079468
-0.6745277047157288 0.5813953876495361 -0.11627906560897827
-0.6747537851333618 0.5813953876495361 -0.10077518224716187
-0.6751002073287964 0.5813953876495361 -0.08527129888534546
-0.6752023696899414 0.5813953876495361 -0.06976741552352905
-0.6750803589820862 0.5813953876495361 -0.05426359176635742
-0.6751757860183716 0.5813953876495361 -0.038759708404541016
-0.6758933067321777 0.5813953876495361 -0.02325582504272461
-0.6761380434036255 0.5813953876495361 -0.007751941680908203
-0.6758832931518555 0.5813953876495361 0.007751941680908203
-0.6755120754241943 0.5813953876495361 0.02325582504272461
-0.6752786040306091 0.5813953876495361 0.038759708404541016
-0.6749676465988159 0.5813953876495361 0.05426359176635742
-0.6744517683982849 0.5813953876495361 0.06976747512817383
-0.6746564507484436 0.5813953876495361 0.08527135848999023
-0.6747238039970398 0.5813953876495361 0.10077524185180664
-0.6747183799743652 0.5813953876495361 0.11627912521362305
-0.6750336289405823 0.5813953876495361 0.1317828893661499
-0.6769492626190186 0.5813953876495361 0.1472867727279663
-0.6652325391769409 -0.5658915042877197 -0.14728683233261108
-0.6616283059120178 -0.5658915042877197 -0.13178294897079468
-0.6604892611503601 -0.5658915042877197 -0.11627906560897827
-0.6607885360717773 -0.5658915042877197 -0.10077518224716187
-0.660857617855072 -0.5658915042877197 -0.08527129888534546
-0.6614701747894287 -0.5658915042877197 -0.06976741552352905
-0.6620512008666992 -0.5658915042877197 -0.05426359176635742
-0.6622511744499207 -0.5658915042877197 -0.038759708404541016
-0.6625584363937378 -0.5658915042877197 -0.02325582504272461
-0.6618671417236328 -0.5658915042877197 -0.007751941680908203
-0.661027193069458 -0.5658915042877197 0.007751941680908203
-0.6605870127677917 -0.5658915042877197 0.02325582504272461
-0.6604122519493103 -0.5658915042877197 0.038759708404541016
-0.6597946882247925 -0.5658915042877197 0.05426359176635742
-0.6595177054405212 -0.5658915042877197 0.06976747512817383
-0.6596925854682922 -0.5658915042877197 0.08527135848999023
-0.6595333218574524 -0.5658915042877197 0.10077524185180664
-0.6592594385147095 -0.5658915042877197 0.11627912521362305
-0.6601409316062927 -0.5658915042877197 0.1317828893661499
-0.6630687117576599 -0.5658915042877197 0.1472867727279663
-0.6736744046211243 -0.5503876209259033 -0.11627906560897827
-0.6741140484809875 -0.5503876209259033 -0.10077518224716187
-0.674144446849823 -0.5503876209259033 -0.08527129888534546
-0.6738736629486084 -0.5503876209259033 0.02325582504272461
-0.6734825372695923 -0.5503876209259033 0.038759708404541016
-0.6723333597183228 -0.5503876209259033 0.05426359176635742
-0.6721205115318298 -0.5503876209259033 0.06976747512817383
-0.6726573705673218 -0.5503876209259033 0.08527135848999023
-0.6727592349052429 -0.5503876209259033 0.10077524185180664
-0.6725838780403137 -0.5503876209259033 0.11627911776304245
-0.6737710237503052 -0.5503876209259033 0.1317828893661499
-0.6616888046264648 -0.5503876209259033 0.16279065608978271
-0.6717358827590942 -0.5348837375640869 0.16279065608978271
-0.6598811149597168 -0.42635661363601685 0.1317828893661499
-0.6635076999664307 -0.42635661363601685 0.1472867727279663
-0.6599422693252563 -0.41085273027420044 0.10077524185180664
-0.665520966053009 -0.41085273027420044 0.11627912521362305
-0.670657217502594 -0.41085273027420044 0.1317828893661499
-0.672886848449707 -0.41085273027420044 0.14728675782680511
-0.6645559668540955 -0.39534884691238403 0.08527135848999023
-0.6711509823799133 -0.39534884691238403 0.10077524185180664
-0.6696717143058777 -0.3798449635505676 0.06976747512817383
-0.6680316925048828 -0.3643410801887512 0.05426359176635742
-0.662255048751831 -0.3488371968269348 0.038759708404541016
-0.6655865907669067 0.16279065608978271 0.02325582504272461
-0.6686291098594666 0.3333333730697632 0.038759708404541016
-0.6668699383735657 0.364341139793396 0.05426359176635742
-0.6662148237228394 0.37984490394592285 0.06976747512817383
-0.6667062640190125 0.39534878730773926 0.08527135848999023
-0.6589740514755249 0.41085267066955566 0.08527135848999023
-0.6712765693664551 0.41085267066955566 0.10077524185180664
-0.6659752130508423 0.42635655403137207 0.10077524185180664
-0.6719298958778381 0.42635655403137207 0.11627912521362305
-0.6653704047203064 0.4418604373931885 0.11627912521362305
-0.6710063815116882 0.4418604373931885 0.1317828893661499
-0.673681914806366 0.4418604373931885 0.1472867876291275
-0.6630483865737915 0.4573643207550049 0.1317828893661499
-0.6676273345947266 0.4573643207550049 0.1472867727279663
-0.6717063784599304 0.5658915042877197 0.16279065608978271
-0.6614319086074829 0.5813953876495361 0.16279065608978271
-0.6675124168395996 0.5968992710113525 -0.14728683233261108
-0.664040207862854 0.5968992710113525 -0.13178294897079468
-0.662739098072052 0.5968992710113525 -0.11627906560897827
-0.662761926651001 0.5968992710113525 -0.10077518224716187
-0.6637192964553833 0.5968992710113525 -0.08527129888534546
-0.6640096306800842 0.5968992710113525 -0.06976741552352905
-0.6639188528060913 0.5968992710113525 -0.05426359176635742
-0.663700520992279 0.5968992710113525 -0.038759708404541016
-0.6644777059555054 0.5968992710113525 -0.02325582504272461
-0.6648298501968384 0.5968992710113525 -0.007751941680908203
-0.6642513275146484 0.5968992710113525 0.007751941680908203
-0.6631307005882263 0.5968992710113525 0.02325582504272461
-0.6626135110855103 0.5968992710113525 0.038759708404541016
-0.662306547164917 0.5968992710113525 0.05426359176635742
-0.6617900729179382 0.5968992710113525 0.06976747512817383
-0.6622962355613708 0.5968992710113525 0.08527135848999023
-0.6627718806266785 0.5968992710113525 0.10077524185180664
-0.6627583503723145 0.5968992710113525 0.11627912521362305
-0.6628500819206238 0.5968992710113525 0.1317828893661499
-0.6646229028701782 0.5968992710113525 0.1472867727279663
-0.6520193815231323 -0.5813953876495361 -0.14728683233261108
-0.647826075553894 -0.5813953876495361 -0.13178294897079468
-0.6465292572975159 -0.5813953876495361 -0.11627906560897827
-0.6469324827194214 -0.5813953876495361 -0.10077518224716187
-0.6472588181495667 -0.5813953876495361 -0.08527129888534546
-0.6481561660766602 -0.5813953876495361 -0.06976741552352905
-0.648837149143219 -0.5813953876495361 -0.05426359176635742
-0.648979663848877 -0.5813953876495361 -0.038759708404541016
-0.6493948698043823 -0.5813953876495361 -0.02325582504272461
-0.6485779285430908 -0.5813953876495361 -0.007751941680908203
-0.6472815275192261 -0.5813953876495361 0.007751941680908203
-0.6465955972671509 -0.5813953876495361 0.02325582504272461
-0.6462988257408142 -0.5813953876495361 0.038759708404541016
-0.6454819440841675 -0.5813953876495361 0.05426359176635742
-0.6451197266578674 -0.5813953876495361 0.06976747512817383
-0.6452903747558594 -0.5813953876495361 0.08527135848999023
-0.6450643539428711 -0.5813953876495361 0.10077524185180664
-0.6447829008102417 -0.5813953876495361 0.11627912521362305
-0.6457695960998535 -0.5813953876495361 0.1317828893661499
-0.6488955020904541 -0.5813953876495361 0.1472867727279663
-0.6486726999282837 -0.5658915042877197 0.16279065608978271
-0.653590977191925 -0.5503876209259033 0.16279065608978271
-0.6438042521476746 -0.4418604373931885 0.11627912521362305
-0.6503117084503174 -0.4418604373931885 0.1317828893661499
-0.6530392169952393 -0.44186046719551086 0.1472867727279663
-0.6510502099990845 -0.42635661363601685 0.10077524185180664
-0.6551320552825928 -0.42635661363601685 0.11627912521362305
-0.6478980779647827 -0.41085273027420044 0.06976747512817383
-0.6537351608276367 -0.41085273027420044 0.08527135848999023
-0.6491358280181885 -0.39534884691238403 0.05426359176635742
-0.6581180691719055 -0.39534884691238403 0.06976747512817383
-0.656406581401825 -0.3798449635505676 0.05426359176635742
-0.6477981209754944 -0.3643410801887512 0.038759708404541016
-0.6479776501655579 0.1472867727279663 0.02325582504272461
-0.6554114818572998 0.3488372564315796 0.038759708404541016
-0.6463810205459595 0.364341139793396 0.038759708404541016
-0.6545529365539551 0.37984487414360046 0.05426358804106712
-0.6456782817840576 0.39534878730773926 0.05426359176635742
-0.6563000679016113 0.39534878730773926 0.06976747512817383
-0.6516258120536804 0.41085267066955566 0.06976747512817383
-0.6483047604560852 0.42635655403137207 0.06976747512817383
-0.6562390923500061 0.4263565242290497 0.08527135103940964
-0.6523116827011108 0.4418604373931885 0.08527135848999023
-0.6588860154151917 0.4418604373931885 0.10077524185180664
-0.6442214250564575 0.4573643207550049 0.08527135848999023
-0.652474045753479 0.4573643207550049 0.10077524185180664
-0.6566311717033386 0.4573643207550049 0.11627912521362305
-0.6468316316604614 0.4728682041168213 0.11627912521362305
-0.6536107659339905 0.4728682041168213 0.1317828893661499
-0.6571998596191406 0.4728681743144989 0.1472867727279663
-0.6473270058631897 0.4883720874786377 0.1472867727279663
-0.6539918184280396 0.5813953876495361 0.16279065608978271
-0.6486678719520569 0.5968992710113525 0.16279065608978271
-0.6574282646179199 0.612403154373169 -0.14728683233261108
-0.6526927947998047 0.612403154373169 -0.13178294897079468
-0.6512938141822815 0.612403154373169 -0.11627906560897827
-0.6513354182243347 0.612403154373169 -0.10077518224716187
-0.6524132490158081 0.612403154373169 -0.08527129888534546
-0.6526073217391968 0.612403154373169 -0.06976741552352905
-0.6524695158004761 0.612403154373169 -0.05426359176635742
-0.6523289680480957 0.612403154373169 -0.038759708404541016
-0.6530817151069641 0.612403154373169 -0.02325582504272461
-0.653445839881897 0.612403154373169 -0.007751941680908203
-0.652815580368042 0.612403154373169 0.007751941680908203
-0.6513633728027344 0.612403154373169 0.02325582504272461
-0.6506268978118896 0.612403154373169 0.038759708404541016
-0.6504174470901489 0.612403154373169 0.05426359176635742
-0.6498450040817261 0.612403154373169 0.06976747512817383
-0.650709867477417 0.612403154373169 0.08527135848999023
-0.6512792110443115 0.612403154373169 0.10077524185180664
-0.6511386632919312 0.612403154373169 0.11627912521362305
-0.6510374546051025 0.612403154373169 0.1317828893661499
-0.6527877449989319 0.612403154373169 0.1472867727279663
-0.6450262069702148 0.6279069185256958 -0.14728683233261108
-0.6373030543327332 -0.5968992114067078 -0.14728683233261108
-0.6326074004173279 -0.5968992114067078 -0.13178294897079468
-0.6310023665428162 -0.5968992114067078 -0.11627906560897827
-0.6315888166427612 -0.5968992114067078 -0.10077518224716187
-0.6322327852249146 -0.5968992114067078 -0.08527129888534546
-0.6330249309539795 -0.5968992114067078 -0.06976741552352905
-0.6336293816566467 -0.5968992114067078 -0.05426359176635742
-0.6337416768074036 -0.5968992114067078 -0.038759708404541016
-0.6343297958374023 -0.5968992114067078 -0.02325582504272461
-0.6337413787841797 -0.5968992114067078 -0.007751941680908203
-0.6324150562286377 -0.5968992114067078 0.007751941680908203
-0.6316244602203369 -0.5968992114067078 0.02325582504272461
-0.6312519907951355 -0.5968992114067078 0.038759708404541016
-0.6303204894065857 -0.5968992114067078 0.05426359176635742
-0.6298995018005371 -0.5968992114067078 0.06976747512817383
-0.6300696134567261 -0.5968992114067078 0.08527135848999023
-0.6297135949134827 -0.5968992710113525 0.10077524185180664
-0.6293622255325317 -0.5968992114067078 0.11627912521362305
-0.6304974555969238 -0.5968992114067078 0.1317828893661499
-0.6338460445404053 -0.5968992114067078 0.1472867727279663
-0.6348376274108887 -0.5813953876495361 0.16279065608978271
-0.637431263923645 -0.5658915042877197 0.16279065608978271
-0.6281862854957581 -0.4573643207550049 0.10077524185180664
-0.6333949565887451 -0.4573643207550049 0.11627912521362305
-0.6387443542480469 -0.4573643207550049 0.1317828893661499
-0.6408534646034241 -0.45736435055732727 0.1472867727279663
-0.6318928599357605 -0.4418604373931885 0.08527135848999023
