0.35550427436828613 -0.8294573426246643 0.038759708404541016
0.3551843762397766 -0.8294573426246643 0.05426359176635742
0.35502123832702637 -0.8294574022293091 0.06976747512817383
0.35510796308517456 -0.8294572830200195 0.08527135848999023
0.35311633348464966 -0.8294574022293091 0.10077524185180664
0.3543210029602051 -0.8294573426246643 0.11627912521362305
0.3631817400455475 -0.8294573426246643 0.1317828893661499
0.3507184088230133 -0.7054263353347778 0.1472867727279663
0.3504790961742401 -0.6899224519729614 0.11627913266420364
0.3627961575984955 -0.6589146852493286 -0.1627907156944275
0.3613670766353607 0.1472867727279663 0.038759708404541016
0.3540079593658447 0.5968992710113525 -0.1627907156944275
0.35756006836891174 0.7209302186965942 0.11627912521362305
0.36027705669403076 0.7209302186965942 0.1317828893661499
0.3607993721961975 0.7209302186965942 0.1472867727279663
0.35537028312683105 0.8294574022293091 -0.1627907156944275
0.3507259786128998 0.8449612259864807 0.1472867727279663
0.3664793372154236 -0.8294574022293091 0.1472867727279663
0.36850327253341675 -0.8139535784721375 -0.1627907156944275
0.37623196840286255 -0.7984496355056763 -0.1627907156944275
0.3721953332424164 -0.674418568611145 0.10077524185180664
0.36628031730651855 -0.007751941680908203 0.03875970467925072
0.36796724796295166 0.007751941680908203 0.038759708404541016
0.36712998151779175 0.02325582504272461 0.038759708404541016
0.36710330843925476 0.038759708404541016 0.038759708404541016
0.36974969506263733 0.05426359176635742 0.038759708404541016
0.3646577000617981 0.06976747512817383 0.038759708404541016
0.37684565782546997 0.5348837375640869 0.02325582504272461
0.378292977809906 0.5503876209259033 0.02325582504272461
0.37218785285949707 0.8139535188674927 -0.1627907156944275
0.3732651174068451 0.8294574022293091 -0.13178294897079468
0.3707433342933655 0.8294574022293091 -0.11627906560897827
0.3704931139945984 0.8294574022293091 -0.10077518224716187
0.37042245268821716 0.8294574022293091 -0.08527129888534546
0.37085455656051636 0.8294574022293091 -0.06976741552352905
0.37158411741256714 0.8294574022293091 -0.05426359176635742
0.372193843126297 0.8294574022293091 -0.038759708404541016
0.37270915508270264 0.8294574022293091 -0.02325582504272461
0.37301725149154663 0.8294574022293091 -0.007751941680908203
0.37285885214805603 0.8294574022293091 0.007751941680908203
0.37273865938186646 0.8294574022293091 0.02325582504272461
0.3723483085632324 0.8294574022293091 0.038759708404541016
0.37184464931488037 0.8294574022293091 0.05426359176635742
0.37175798416137695 0.8294574022293091 0.06976747512817383
0.37145519256591797 0.8294574022293091 0.08527135848999023
0.3680621087551117 0.8294574022293091 0.10077524185180664
0.37230128049850464 0.8294574022293091 0.11627912521362305
0.39121365547180176 -0.8139535188674927 -0.14728683233261108
0.38373836874961853 -0.8139535188674927 -0.13178294897079468
0.38265475630760193 -0.8139535188674927 -0.11627906560897827
0.38324907422065735 -0.8139535188674927 -0.10077518224716187
0.3835699260234833 -0.8139535188674927 -0.08527129888534546
0.38446998596191406 -0.8139535188674927 -0.06976741552352905
0.385314404964447 -0.8139535188674927 -0.05426359176635742
0.38617968559265137 -0.8139535188674927 -0.038759708404541016
0.3869261145591736 -0.8139535188674927 -0.02325582504272461
0.3875528573989868 -0.8139535188674927 -0.007751941680908203
0.38799750804901123 -0.8139535188674927 0.007751941680908203
0.38822633028030396 -0.8139535188674927 0.02325582504272461
0.38847193121910095 -0.8139535188674927 0.038759708404541016
0.38828518986701965 -0.8139535188674927 0.05426359176635742
0.38832253217697144 -0.8139535188674927 0.06976747512817383
0.38865211606025696 -0.8139535188674927 0.08527135848999023
0.3865354359149933 -0.8139535188674927 0.10077524185180664
0.3880544602870941 -0.8139535188674927 0.11627912521362305
0.3819965720176697 -0.6899224519729614 0.1317828893661499
0.3950461745262146 -0.6899224519729614 0.1472867727279663
0.3825806975364685 -0.643410861492157 -0.1627907156944275
0.3910926282405853 -0.6124030947685242 0.06976747512817383
0.38027021288871765 -0.1627907156944275 0.038759708404541016
0.3823593258857727 0.5348837375640869 0.02325582690536976
0.3808390498161316 0.5503876209259033 0.02325582504272461
0.38830339908599854 0.5813953876495361 -0.1627907156944275
0.39152753353118896 0.612403154373169 0.038759708404541016
0.3805331587791443 0.6279069185256958 0.038759708404541016
0.38285398483276367 0.7054263353347778 0.08527135848999023
0.39295393228530884 0.7054263353347778 0.10077524185180664
0.3948364555835724 0.7054263353347778 0.1317828893661499
0.39463767409324646 0.7054263353347778 0.1472867727279663
0.39185142517089844 0.8139535188674927 -0.1627907156944275
0.3823617994785309 0.8294574022293091 -0.14728683233261108
0.38486579060554504 0.8294574022293091 0.1317828893661499
0.38916128873825073 0.8294574022293091 0.1472867727279663
0.3975284993648529 -0.8139535188674927 0.1317828893661499
0.4011807143688202 -0.8139535188674927 0.1472867727279663
0.40150147676467896 -0.7984496355056763 -0.1627907156944275
0.40397346019744873 -0.5968992114067078 0.06976747512817383
0.4102832078933716 -0.5813953876495361 0.06976747512817383
0.40728631615638733 -0.5193798542022705 0.05426359176635742
0.39766573905944824 -0.14728683233261108 0.038759708404541016
0.40766483545303345 0.02325582504272461 0.038759708404541016
0.40423285961151123 0.038759708404541016 0.038759708404541016
0.40489742159843445 0.05426359176635742 0.038759708404541016
0.40448230504989624 0.5968992710113525 0.038759708404541016
0.40580540895462036 0.674418568611145 0.05426359176635742
0.4005739092826843 0.7054263353347778 0.11627912521362305
0.40756335854530334 0.7984496355056763 -0.1627907156944275
0.41030630469322205 0.8139535188674927 -0.13178294897079468
0.40804487466812134 0.8139535188674927 -0.11627906560897827
0.40806734561920166 0.8139535188674927 -0.10077518224716187
0.4080587327480316 0.8139535188674927 -0.08527129888534546
0.40876102447509766 0.8139535188674927 -0.06976741552352905
0.4097311496734619 0.8139535188674927 -0.05426359176635742
0.41055527329444885 0.8139535188674927 -0.038759708404541016
0.4103333353996277 0.8139535188674927 0.05426359176635742
0.4103434681892395 0.8139535188674927 0.06976747512817383
0.40986013412475586 0.8139535188674927 0.08527135848999023
0.4070296883583069 0.8139535188674927 0.10077524185180664
0.420040488243103 -0.7984496355056763 -0.13178294897079468
0.4188203811645508 -0.7984496355056763 -0.11627906560897827
0.4194287061691284 -0.7984496355056763 -0.10077518224716187
0.4197848439216614 -0.7984496355056763 -0.08527129888534546
0.4202476143836975 -0.7984496355056763 -0.06976741552352905
0.4207592010498047 -0.7984496355056763 -0.05426359176635742
0.42122018337249756 -0.7984496355056763 -0.038759708404541016
0.42177844047546387 -0.7984496355056763 -0.02325582504272461
0.4221101701259613 -0.7984496355056763 -0.007751941680908203
0.42235878109931946 -0.7984496355056763 0.007751941680908203
0.4225354790687561 -0.7984496355056763 0.02325582504272461
0.4226788282394409 -0.7984496355056763 0.038759708404541016
0.4227127134799957 -0.7984496355056763 0.05426359176635742
0.4229724109172821 -0.7984496355056763 0.06976747512817383
0.42385923862457275 -0.7984496355056763 0.08527135848999023
0.42328229546546936 -0.7984496355056763 0.10077524185180664
0.42512431740760803 -0.7984496355056763 0.11627912521362305
0.4111785590648651 -0.7829458117485046 -0.1627907156944275
0.41388967633247375 -0.674418568611145 0.11627912521362305
0.418489933013916 -0.674418568611145 0.1317828893661499
0.4240141212940216 -0.6589146852493286 0.10077524185180664
0.410961776971817 -0.6434108018875122 0.08527135848999023
0.4187111556529999 -0.6279069781303406 -0.1627907156944275
0.4152153730392456 -0.5658915042877197 0.06976747512817383
0.4228968322277069 -0.5503876209259033 0.06976747512817383
0.4241219758987427 -0.3333333134651184 0.038759708404541016
0.41311123967170715 -0.317829430103302 0.038759708404541016
0.4142206907272339 -0.30232560634613037 0.038759708404541016
0.41997215151786804 0.05426359176635742 0.038759708404541016
0.4132751524448395 0.27131783962249756 0.038759712129831314
0.4203892946243286 0.5813953876495361 0.038759708404541016
0.4257080852985382 0.6589146852493286 0.05426359176635742
0.4112779498100281 0.6899223923683167 0.06976747512817383
0.4165019392967224 0.8139535188674927 -0.14728683233261108
0.41124340891838074 0.8139534592628479 -0.02325582504272461
0.41177061200141907 0.8139535188674927 -0.00775194214656949
0.4114392101764679 0.8139535188674927 0.007751941680908203
0.41128063201904297 0.8139535188674927 0.02325582504272461
0.41100144386291504 0.8139535784721375 0.038759708404541016
0.41148197650909424 0.8139535188674927 0.11627912521362305
0.4239708483219147 0.8139535188674927 0.1317828893661499
0.4270733594894409 -0.7984496355056763 -0.14728683233261108
0.43134409189224243 -0.7984495759010315 0.1317828893661499
0.43422043323516846 -0.7984496355056763 0.1472867727279663
0.43083053827285767 -0.7829457521438599 -0.1627907156944275
0.43764132261276245 -0.7674418687820435 -0.1627907156944275
0.4291341304779053 -0.674418568611145 0.1472867727279663
0.4368005394935608 -0.6279069781303406 0.08527135848999023
0.43937981128692627 -0.6124030947685242 -0.1627907156944275
0.4413490295410156 -0.5348837375640869 0.06976747512817383
0.43123406171798706 -0.5038759708404541 0.05426359176635742
0.43200311064720154 -0.28682172298431396 0.038759708404541016
0.4312021732330322 -0.14728683233261108 0.038759708404541016
0.4350026249885559 0.02325582504272461 0.038759708404541016
0.42916497588157654 0.038759708404541016 0.038759708404541016
0.4408644735813141 0.41085267066955566 0.038759708404541016
0.43138766288757324 0.42635655403137207 0.038759708404541016
0.43420517444610596 0.4418604373931885 0.038759708404541016
0.43893855810165405 0.4573643207550049 0.038759708404541016
0.4384806156158447 0.4728682041168213 0.038759708404541016
0.4322843551635742 0.4883720874786377 0.038759708404541016
0.4334277808666229 0.5038759708404541 0.038759708404541016
0.4413202702999115 0.5658915042877197 -0.1627907156944275
0.43314945697784424 0.5658915042877197 0.038759708404541016
0.43616747856140137 0.6434108018875122 0.05426359176635742
0.4407476782798767 0.674418568611145 0.06976747512817383
0.431884765625 0.6899224519729614 0.08527135848999023
0.43788155913352966 0.6899224519729614 0.10077524185180664
0.43832722306251526 0.6899224519729614 0.11627912521362305
0.42648205161094666 0.6899224519729614 0.1317828744649887
0.4273596405982971 0.6899224519729614 0.1472867727279663
0.43653208017349243 0.7829457521438599 -0.1627907156944275
0.4270358681678772 0.7984495759010315 -0.1627907156944275
0.43828627467155457 0.7984496355056763 -0.13178294897079468
0.4369657039642334 0.7984496355056763 -0.11627906560897827
0.4371330440044403 0.7984496355056763 -0.10077518224716187
0.4371635317802429 0.7984496355056763 -0.08527129888534546
0.437691330909729 0.7984496355056763 -0.06976741552352905
0.43828240036964417 0.7984496355056763 -0.05426359176635742
0.43876394629478455 0.7984496355056763 -0.038759708404541016
0.43930143117904663 0.7984496355056763 -0.02325582504272461
0.43980157375335693 0.7984496355056763 -0.007751941680908203
0.43971318006515503 0.7984496355056763 0.007751941680908203
0.4394562840461731 0.7984496355056763 0.02325582504272461
0.43908846378326416 0.7984496355056763 0.038759708404541016
0.4386294484138489 0.7984496355056763 0.05426359176635742
0.4385616183280945 0.7984496355056763 0.06976747512817383
0.43868526816368103 0.7984496355056763 0.08527135848999023
0.4369983673095703 0.7984496355056763 0.10077524185180664
0.44080856442451477 0.7984496355056763 0.11627912521362305
0.42683884501457214 0.8139535784721375 0.1472867727279663
0.4539337158203125 -0.7829457521438599 -0.14728683233261108
0.4486406445503235 -0.7829457521438599 -0.13178294897079468
0.44777780771255493 -0.7829457521438599 -0.11627906560897827
0.44850459694862366 -0.7829457521438599 -0.10077518224716187
0.44898852705955505 -0.7829457521438599 -0.08527129888534546
0.44942060112953186 -0.7829457521438599 -0.06976741552352905
0.4498699903488159 -0.7829457521438599 -0.05426359176635742
0.4501320421695709 -0.7829457521438599 -0.038759708404541016
0.4506392478942871 -0.7829457521438599 -0.02325582504272461
0.4509095251560211 -0.7829457521438599 -0.007751941680908203
0.4510859251022339 -0.7829457521438599 0.007751941680908203
0.45126357674598694 -0.7829457521438599 0.02325582504272461
0.45133477449417114 -0.7829457521438599 0.038759708404541016
0.45142823457717896 -0.7829457521438599 0.05426359176635742
0.4517049193382263 -0.7829457521438599 0.06976747512817383
0.45266854763031006 -0.7829457521438599 0.08527135848999023
0.4523407220840454 -0.7829457521438599 0.10077524185180664
0.45499441027641296 -0.7829457521438599 0.11627912521362305
0.45647600293159485 -0.7674418687820435 -0.1627907156944275
0.4469985365867615 -0.6589146852493286 0.11627912521362305
0.449142724275589 -0.6589146852493286 0.1317828893661499
0.4529612362384796 -0.643410861492157 0.10077524185180664
0.4521558880805969 -0.6124030947685242 0.08527135848999023
0.44408291578292847 -0.3488371968269348 0.038759708404541016
0.4524482488632202 -0.27131783962249756 0.038759708404541016
0.4523453712463379 -0.1627907156944275 0.038759708404541016
0.4539000689983368 -0.007751941680908203 0.038759708404541016
0.45532938838005066 0.27131783962249756 0.038759708404541016
0.4475788474082947 0.5193798542022705 0.038759708404541016
0.4551220238208771 0.5348837375640869 0.038759708404541016
0.44789671897888184 0.5503876209259033 0.038759708404541016
0.4551745355129242 0.5968992710113525 0.05426359176635742
0.44765985012054443 0.612403154373169 0.05426359176635742
0.4420025944709778 0.6279069185256958 0.05426359549164772
0.4540821611881256 0.6589146852493286 0.06976747512817383
0.45431286096572876 0.674418568611145 0.08527135848999023
0.45218706130981445 0.674418568611145 0.1317828893661499
0.453924298286438 0.674418568611145 0.1472867727279663
0.44821590185165405 0.7829457521438599 -0.1627907156944275
0.443329393863678 0.798449695110321 -0.14728683233261108
0.4498332142829895 0.7984496355056763 0.1317828893661499
0.45211055874824524 0.7984496355056763 0.1472867727279663
0.4595222771167755 -0.7829457521438599 0.1317828893661499
0.46211570501327515 -0.7829457521438599 0.1472867727279663
0.47286343574523926 -0.7674418687820435 -0.13178294897079468
0.47103768587112427 -0.7674418687820435 -0.11627906560897827
0.47140634059906006 -0.7674418687820435 -0.10077518224716187
0.4718988537788391 -0.7674418687820435 -0.08527129888534546
0.4724375009536743 -0.7674418687820435 -0.06976741552352905
0.4652009606361389 -0.751937985420227 -0.1627907156944275
0.4580850899219513 -0.6589146852493286 0.1472867727279663
0.4709595739841461 -0.643410861492157 0.11627912521362305
0.470909059047699 -0.6279069781303406 0.10077524185180664
0.4644951820373535 -0.5968992114067078 -0.1627907156944275
0.46397751569747925 -0.5968992114067078 0.08527135848999023
0.4576752781867981 -0.4883720874786377 0.05426359176635742
0.4655938446521759 -0.3798449635505676 0.038759708404541016
0.45901280641555786 -0.36434105038642883 0.03875970467925072
0.47064393758773804 -0.25581395626068115 0.038759708404541016
0.4594419300556183 -0.007751941680908203 0.038759712129831314
0.46718451380729675 0.16279065608978271 0.038759708404541016
0.4676879644393921 0.25581395626068115 0.038759708404541016
0.47229328751564026 0.5503876209259033 -0.1627907156944275
0.46837812662124634 0.5813953876495361 0.05426359176635742
0.47264233231544495 0.612403154373169 0.06976747512817383
0.4677469730377197 0.6279069185256958 0.06976747512817383
0.46251070499420166 0.6434108018875122 0.06976747512817383
0.4696113169193268 0.6589146852493286 0.08527135848999023
0.46019431948661804 0.674418568611145 0.10077524185180664
0.4608672559261322 0.674418568611145 0.11627912521362305
0.46505990624427795 0.7829457521438599 -0.14728683233261108
0.4601795971393585 0.7829457521438599 -0.13178294897079468
0.4590729773044586 0.7829457521438599 -0.11627905815839767
0.4593123197555542 0.7829457521438599 -0.10077518224716187
0.4594002962112427 0.7829457521438599 -0.08527129888534546
0.4600290358066559 0.7829457521438599 -0.06976741552352905
0.46088695526123047 0.7829457521438599 -0.05426359176635742
0.46158844232559204 0.7829457521438599 -0.038759708404541016
0.4623229503631592 0.7829457521438599 -0.02325582504272461
0.4629591703414917 0.7829457521438599 -0.007751941680908203
0.46267369389533997 0.7829457521438599 0.007751941680908203
0.4621087908744812 0.7829458117485046 0.02325582504272461
0.4616847038269043 0.7829457521438599 0.038759708404541016
0.46122312545776367 0.7829457521438599 0.05426359176635742
0.46127933263778687 0.7829457521438599 0.06976747512817383
0.4618479609489441 0.7829457521438599 0.08527135848999023
0.4603860676288605 0.7829457521438599 0.10077524185180664
0.46618586778640747 0.7829457521438599 0.11627912521362305
0.4776989817619324 -0.7674418687820435 -0.14728683233261108
0.47317516803741455 -0.7674418687820435 -0.05426359176635742
0.4735398590564728 -0.7674418091773987 -0.038759708404541016
0.4743705689907074 -0.7674418687820435 -0.02325582504272461
0.4747849702835083 -0.7674418687820435 -0.007751941680908203
0.4748673737049103 -0.7674418687820435 0.007751941680908203
0.4749956727027893 -0.7674418687820435 0.02325582504272461
0.4751550555229187 -0.7674418687820435 0.038759708404541016
0.4754123091697693 -0.7674418687820435 0.05426359176635742
0.47590604424476624 -0.7674418687820435 0.06976747512817383
0.4770553708076477 -0.7674419283866882 0.08527135848999023
0.47651082277297974 -0.7674418091773987 0.10077524185180664
0.47936946153640747 -0.7674418687820435 0.11627912521362305
0.4845729470252991 -0.7674418687820435 0.1317828893661499
0.47856295108795166 -0.751937985420227 -0.1627907156944275
0.4873819053173065 -0.7364341020584106 -0.1627907156944275
0.47326385974884033 -0.6434108018875122 0.1317828744649887
0.4814108610153198 -0.643410861492157 0.1472867727279663
0.48743510246276855 -0.6279069781303406 0.11627912521362305
0.48387593030929565 -0.6124030947685242 0.10077524185180664
0.4778658151626587 -0.5813953876495361 -0.1627907156944275
0.4742279648780823 -0.5813953876495361 0.08527135848999023
0.4849326014518738 -0.5658915042877197 -0.1627907156944275
0.4814906120300293 -0.5658915042877197 0.08527135848999023
0.4883621335029602 -0.5503876209259033 0.08527135848999023
0.47572171688079834 -0.5193798542022705 0.06976747512817383
0.48399606347084045 -0.39534884691238403 0.038759708404541016
0.4852732717990875 -0.1782945990562439 0.038759708404541016
0.4853564202785492 0.17829453945159912 0.038759708404541016
0.4775388240814209 0.24031007289886475 0.038759708404541016
0.48373353481292725 0.5658915042877197 0.05426359176635742
0.4820168614387512 0.5968992710113525 0.06976747512817383
0.4863203167915344 0.6279069185256958 0.08527135848999023
0.48033949732780457 0.6434108018875122 0.08527135848999023
0.4778807759284973 0.6589146852493286 0.10077524185180664
0.48079192638397217 0.6589146852493286 0.11627912521362305
0.4729008078575134 0.6589147448539734 0.1317828893661499
0.4766753911972046 0.6589146852493286 0.1472867727279663
0.4883516728878021 0.751937985420227 -0.1627907156944275
0.4860707223415375 0.7674418687820435 -0.13178294897079468
0.4846106767654419 0.7674418687820435 -0.11627906560897827
0.48474395275115967 0.7674418687820435 -0.10077518224716187
0.4848414361476898 0.7674418687820435 -0.08527129888534546
0.4854855537414551 0.7674418687820435 -0.06976741552352905
0.48640376329421997 0.7674418687820435 -0.05426359176635742
0.48712655901908875 0.7674418687820435 -0.038759708404541016
0.4879174828529358 0.7674418687820435 -0.02325582504272461
0.48804718255996704 0.7674418687820435 0.007751941680908203
0.487332284450531 0.7674418687820435 0.02325582504272461
0.4866798520088196 0.7674418687820435 0.038759708404541016
0.4858512580394745 0.7674418687820435 0.05426359176635742
0.48552781343460083 0.7674418687820435 0.06976747512817383
0.48603248596191406 0.7674418687820435 0.08527135848999023
0.48404932022094727 0.7674418687820435 0.10077524185180664
0.47637617588043213 0.7829457521438599 0.1317828893661499
0.4788287878036499 0.7829457521438599 0.1472867727279663
0.48843473196029663 -0.7674418687820435 0.1472867727279663
0.5005422830581665 -0.751937985420227 -0.14728683233261108
0.49519068002700806 -0.751937985420227 -0.13178294897079468
0.4941813051700592 -0.751937985420227 -0.11627906560897827
0.494533896446228 -0.751937985420227 -0.10077518224716187
0.4949585199356079 -0.751937985420227 -0.08527129888534546
0.49537742137908936 -0.751937985420227 -0.06976741552352905
0.4959563612937927 -0.751937985420227 -0.05426359176635742
0.49630552530288696 -0.751937985420227 -0.038759708404541016
0.49710702896118164 -0.751937985420227 -0.02325582504272461
0.4975135326385498 -0.751937985420227 -0.007751941680908203
0.49763768911361694 -0.751937985420227 0.007751941680908203
0.49775975942611694 -0.751937985420227 0.02325582504272461
0.49790698289871216 -0.751937985420227 0.038759708404541016
0.498088002204895 -0.751937985420227 0.05426359176635742
0.49832797050476074 -0.751937985420227 0.06976747512817383
0.49949026107788086 -0.751937985420227 0.08527135848999023
0.49798092246055603 -0.751937985420227 0.10077524185180664
0.5011242032051086 -0.751937985420227 0.11627912521362305
0.4929439425468445 -0.7364341020584106 -0.1627907156944275
0.49366873502731323 -0.6279069781303406 0.1317828893661499
0.49982404708862305 -0.6279069781303406 0.1472867727279663
0.5009851455688477 -0.6124030947685242 0.11627912521362305
0.49639543890953064 -0.5968992114067078 0.10077524185180664
0.4933728873729706 -0.5503876209259033 -0.1627907156944275
0.49749282002449036 -0.4728682041168213 0.05426359176635742
0.49168631434440613 -0.1782945990562439 0.038759708404541016
0.4976927936077118 0.39534878730773926 0.038759708404541016
0.49373817443847656 0.5348837375640869 -0.1627907156944275
0.5018140077590942 0.5503876209259033 0.05426359176635742
0.49699655175209045 0.5813953876495361 0.06976747512817383
0.5025452375411987 0.5968992710113525 0.08527135848999023
0.49331924319267273 0.612403154373169 0.08527135848999023
0.4986625909805298 0.6279069185256958 0.10077524185180664
0.4888850748538971 0.6434108018875122 0.10077524185180664
0.4961193799972534 0.6434108018875122 0.11627912521362305
0.49241772294044495 0.6434108018875122 0.1317828893661499
0.49583321809768677 0.6434108018875122 0.1472867727279663
0.4884815216064453 0.7519380450248718 -0.1627907156944275
0.49214309453964233 0.7674418091773987 -0.14728683233261108
0.48842695355415344 0.7674418687820435 -0.007751941215246916
0.49091169238090515 0.7674418687820435 0.11627912521362305
0.5081384181976318 -0.751937985420227 0.1317828893661499
0.5099762678146362 -0.751937985420227 0.1472867727279663
0.5172100067138672 -0.7364341020584106 -0.13178294897079468
0.5154890418052673 -0.7364341020584106 -0.11627906560897827
0.515654444694519 -0.7364341020584106 -0.10077518224716187
0.5160455107688904 -0.7364341020584106 -0.08527129888534546
0.5165095329284668 -0.7364341020584106 -0.06976741552352905
0.5172885060310364 -0.7364341020584106 -0.05426359176635742
0.5177896022796631 -0.7364341020584106 -0.038759708404541016
0.5188038945198059 -0.7364341020584106 -0.02325582504272461
0.5193372964859009 -0.7364341020584106 -0.007751941680908203
0.5183802843093872 -0.7364341020584106 0.10077524185180664
0.5126949548721313 -0.7209302186965942 -0.1627907156944275
0.5097159743309021 -0.6124030947685242 0.1317828893661499
0.5155056715011597 -0.6124030947685242 0.1472867727279663
0.5146006345748901 -0.5968992114067078 0.11627912521362305
0.5086043477058411 -0.5813953876495361 0.10077524185180664
0.5052921175956726 -0.5348837375640869 -0.1627907156944275
0.5060499906539917 -0.5348837375640869 0.08527135848999023
0.5173089504241943 -0.5038759708404541 0.06976747512817383
0.504511833190918 -0.39534884691238403 0.038759708404541016
0.5122431516647339 -0.25581395626068115 0.038759708404541016
0.5114731788635254 -0.007751941680908203 0.038759708404541016
0.5073152780532837 0.24031007289886475 0.038759708404541016
0.5152523517608643 0.5658915042877197 0.06976747512817383
0.518201470375061 0.5813953876495361 0.08527135848999023
0.5170103907585144 0.5968992710113525 0.10077524185180664
0.5055553317070007 0.612403154373169 0.10077524185180664
0.5172115564346313 0.612403154373169 0.11627912521362305
0.5067158937454224 0.6279069185256958 0.11627912521362305
0.5077205896377563 0.6279069185256958 0.1317828893661499
0.5118767619132996 0.6279069185256958 0.1472867727279663
0.518892765045166 0.7364341020584106 -0.1627907156944275
0.5163655877113342 0.751937985420227 -0.13178294897079468
0.5148035883903503 0.751937985420227 -0.11627906560897827
0.5149146914482117 0.751937985420227 -0.10077518224716187
0.5148675441741943 0.751937985420227 -0.08527129888534546
0.5152676105499268 0.751937985420227 -0.06976741552352905
0.5159890055656433 0.751937985420227 -0.05426359176635742
0.516660749912262 0.751937985420227 -0.038759708404541016
0.5175975561141968 0.751937985420227 -0.02325582504272461
0.5182467699050903 0.751937985420227 -0.007751941680908203
0.5181161761283875 0.751937985420227 0.007751941680908203
0.5175976157188416 0.751937985420227 0.02325582504272461
0.516798734664917 0.751937985420227 0.038759708404541016
0.5148528218269348 0.751937985420227 0.05426359176635742
0.5126326680183411 0.751937985420227 0.06976747512817383
0.5117882490158081 0.751937985420227 0.08527135848999023
0.508826494216919 0.7519380450248718 0.10077524930238724
0.5162639617919922 0.751937985420227 0.11627912521362305
0.5062561631202698 0.7674418687820435 0.1317828893661499
0.5083445310592651 0.7674418687820435 0.1472867727279663
0.5225507020950317 -0.7364341020584106 -0.14728683233261108
0.5195081233978271 -0.7364341020584106 0.007751941680908203
0.5196750164031982 -0.7364341020584106 0.02325582318007946
0.5199481248855591 -0.7364341616630554 0.038759712129831314
0.5201749205589294 -0.7364341020584106 0.05426359176635742
0.5203721523284912 -0.7364341020584106 0.06976748257875443
0.5209996104240417 -0.7364341616630554 0.08527135848999023
0.520549476146698 -0.7364341020584106 0.11627912521362305
0.5303022265434265 -0.7364341020584106 0.1317828893661499
0.5326579809188843 -0.7364341020584106 0.1472867727279663
0.5236896872520447 -0.7209302186965942 -0.1627907156944275
0.5312139391899109 -0.7054263353347778 -0.1627907156944275
0.5256680250167847 -0.5968992114067078 0.1317828893661499
0.5320403575897217 -0.5968992114067078 0.1472867727279663
0.5299596786499023 -0.5813953876495361 0.11627912521362305
0.5201574563980103 -0.5658915042877197 0.10077524930238724
0.5343481302261353 -0.5503876209259033 0.10077524185180664
0.5206788778305054 -0.5193798542022705 -0.1627907156944275
0.5342019200325012 -0.5193798542022705 0.08527135848999023
0.5344507694244385 -0.5038759708404541 -0.1627907156944275
0.5321376323699951 -0.4573643207550049 0.05426359176635742
0.5239951014518738 -0.3798449635505676 0.038759708404541016
0.5229164958000183 -0.1627907156944275 0.038759708404541016
0.5321800708770752 -0.038759708404541016 0.038759708404541016
0.5234509706497192 -0.02325582504272461 0.038759708404541016
0.5210781097412109 0.007751941680908203 0.038759708404541016
0.5291749238967896 0.02325582504272461 0.038759708404541016
0.5276540517807007 0.17829453945159912 0.038759708404541016
0.5214500427246094 0.25581395626068115 0.038759708404541016
0.5323344469070435 0.37984490394592285 0.038759708404541016
0.5237377882003784 0.5193798542022705 -0.1627907156944275
0.5262625813484192 0.5348837375640869 0.05426359176635742
0.5326001644134521 0.5813953876495361 0.10077524185180664
0.5300179719924927 0.5968992710113525 0.11627912521362305
0.533107340335846 0.5968992710113525 0.1317828893661499
0.5200791954994202 0.612403154373169 0.1317828744649887
0.525547444820404 0.612403154373169 0.1472867727279663
0.5200618505477905 0.7364341020584106 -0.1627907156944275
0.5323188304901123 0.7364341020584106 0.10077524185180664
0.5216531753540039 0.7519379258155823 -0.14728683233261108
0.5335506200790405 0.751937985420227 0.1317828893661499
0.5426959991455078 -0.7209302186965942 -0.14728683233261108
0.5379705429077148 -0.7209302186965942 -0.13178294897079468
0.5368658900260925 -0.7209302186965942 -0.11627907305955887
0.5370736718177795 -0.7209302186965942 -0.10077518224716187
0.5375081300735474 -0.7209302186965942 -0.08527129888534546
0.5379766821861267 -0.7209302186965942 -0.06976741552352905
0.5386267900466919 -0.7209301590919495 -0.05426359176635742
0.5389648079872131 -0.7209302186965942 -0.038759708404541016
0.5398587584495544 -0.7209302186965942 -0.02325582504272461
0.5403876900672913 -0.7209302186965942 -0.007751941680908203
0.5406967997550964 -0.7209302186965942 0.007751941680908203
0.5409679412841797 -0.7209302186965942 0.02325582504272461
0.5412898659706116 -0.7209302186965942 0.038759708404541016
0.5414847731590271 -0.7209302186965942 0.05426359176635742
0.541599452495575 -0.7209302186965942 0.06976747512817383
0.5423136949539185 -0.7209302186965942 0.08527135848999023
0.5397112369537354 -0.7209302186965942 0.10077524185180664
0.5418477654457092 -0.7209302186965942 0.11627912521362305
0.5445188283920288 -0.7054263353347778 -0.1627907156944275
0.54351806640625 -0.5813953876495361 0.1317828893661499
0.5499507784843445 -0.5813953876495361 0.1472867727279663
0.5477176904678345 -0.5658915042877197 0.11627912521362305
0.5367949604988098 -0.3643410801887512 0.038759708404541016
0.5500615835189819 -0.28682172298431396 0.038759708404541016
0.5358051657676697 -0.27131783962249756 0.038759708404541016
0.5383215546607971 -0.14728683233261108 0.038759708404541016
0.5449345707893372 -0.13178294897079468 0.038759708404541016
0.5432962775230408 -0.11627906560897827 0.038759708404541016
0.5399300456047058 -0.10077518224716187 0.038759708404541016
0.5420631170272827 -0.08527129888534546 0.038759708404541016
0.5463195443153381 -0.06976741552352905 0.038759708404541016
0.5402133464813232 -0.05426359176635742 0.038759708404541016
0.5367822647094727 0.038759708404541016 0.038759708404541016
0.5440061092376709 0.05426359176635742 0.038759708404541016
0.5412445664405823 0.5038759708404541 -0.1627907156944275
0.5473459959030151 0.5193798542022705 0.05426359176635742
0.5372827649116516 0.5503876209259033 0.06976747512817383
0.5363743901252747 0.565891444683075 0.08527135103940964
0.5497352480888367 0.5658915042877197 0.10077524185180664
0.5456717610359192 0.5813953876495361 0.11627912521362305
0.5482430458068848 0.5813953876495361 0.1317828893661499
0.5376667380332947 0.5968992710113525 0.1472867727279663
0.5429428219795227 0.7364341020584106 -0.14728683233261108
0.5390494465827942 0.7364341020584106 -0.13178294897079468
0.5382291078567505 0.7364341020584106 -0.11627906560897827
0.5385802388191223 0.7364341020584106 -0.10077518224716187
0.5388249158859253 0.7364341020584106 -0.08527129888534546
0.5393999218940735 0.7364341020584106 -0.06976741552352905
0.5400644540786743 0.7364341020584106 -0.05426359176635742
0.5405999422073364 0.7364341020584106 -0.038759708404541016
0.5412711501121521 0.7364341020584106 -0.02325582504272461
0.5415127277374268 0.7364341020584106 -0.007751941680908203
0.5409627556800842 0.7364341020584106 0.007751941680908203
0.5401162505149841 0.7364341020584106 0.02325582504272461
0.5393137335777283 0.7364341020584106 0.038759708404541016
0.5379238128662109 0.7364341020584106 0.05426359176635742
0.5369412899017334 0.7364341020584106 0.06976747512817383
0.536514163017273 0.7364341020584106 0.08527135848999023
0.5397186875343323 0.7364341020584106 0.11627912521362305
0.5354833602905273 0.7519379258155823 0.1472867727279663
0.551514208316803 -0.7209302186965942 0.1317828893661499
0.5527253746986389 -0.7209302186965942 0.1472867727279663
0.563674807548523 -0.7054263353347778 -0.14728683233261108
0.558180570602417 -0.7054263353347778 -0.13178294897079468
0.557255744934082 -0.7054263353347778 -0.11627906560897827
0.5574116706848145 -0.7054263353347778 -0.10077518224716187
0.5577437877655029 -0.7054263353347778 -0.08527129888534546
0.5580604672431946 -0.7054263353347778 -0.06976741552352905
0.5586619973182678 -0.7054263353347778 -0.05426359176635742
0.559060275554657 -0.7054263353347778 -0.038759708404541016
0.5600242018699646 -0.7054263353347778 -0.02325582504272461
0.5605551600456238 -0.7054263353347778 -0.007751941680908203
0.5608388185501099 -0.7054263353347778 0.007751941680908203
0.5611261129379272 -0.7054263353347778 0.02325582504272461
0.5615267753601074 -0.7054263353347778 0.038759708404541016
0.561748743057251 -0.7054263353347778 0.05426359176635742
0.5618448257446289 -0.7054263353347778 0.06976747512817383
0.5624610781669617 -0.7054263353347778 0.08527135848999023
0.5595168471336365 -0.7054263353347778 0.10077524185180664
0.5620478391647339 -0.7054263353347778 0.11627912521362305
0.5548892021179199 -0.6899224519729614 -0.1627907156944275
0.5626615881919861 -0.5658915042877197 0.1317828893661499
0.5658805966377258 -0.5503876209259033 0.11627912521362305
0.5563588738441467 -0.5348837375640869 0.10077524185180664
0.5533955097198486 -0.4883720874786377 -0.1627907156944275
0.5578217506408691 -0.4883720874786377 0.06976747512817383
0.5538411140441895 -0.4418604373931885 0.05426359176635742
0.5645542740821838 -0.42635661363601685 0.05426359176635742
0.5510086417198181 -0.3488371670246124 0.038759708404541016
0.5583516359329224 -0.3333333134651184 0.038759708404541016
0.5604650378227234 -0.317829430103302 0.038759708404541016
0.5592647790908813 -0.30232560634613037 0.038759708404541016
0.5557031631469727 -0.06976741552352905 0.038759708404541016
0.5591284036636353 -0.05426359176635742 0.038759708404541016
0.5518516302108765 0.364341139793396 0.038759708404541016
0.5651372075080872 0.4883720874786377 -0.1627907156944275
0.5601194500923157 0.5348837375640869 0.06976747512817383
0.5587384700775146 0.5503876209259033 0.08527135848999023
0.5634354948997498 0.5658915042877197 0.11627912521362305
0.5657495856285095 0.5658915042877197 0.1317828893661499
0.5522324442863464 0.5813953876495361 0.1472867727279663
0.5610588192939758 0.7209302186965942 -0.13178294897079468
0.5604459047317505 0.7209302186965942 -0.11627906560897827
0.5610578060150146 0.7209302186965942 -0.10077518224716187
0.5615941882133484 0.7209302186965942 -0.08527129888534546
0.5623597502708435 0.7209302186965942 -0.06976741552352905
0.563005805015564 0.7209302186965942 -0.05426359176635742
0.563476026058197 0.7209302186965942 -0.038759708404541016
0.5639647245407104 0.7209302186965942 -0.02325582504272461
0.5639333724975586 0.7209302186965942 -0.007751941680908203
0.5632181167602539 0.7209302186965942 0.007751941680908203
0.5622977018356323 0.7209302186965942 0.02325582504272461
0.5616671442985535 0.7209302186965942 0.038759708404541016
0.5606957674026489 0.7209302186965942 0.05426359176635742
0.5601674914360046 0.7209302186965942 0.06976747512817383
0.5596889853477478 0.7209302186965942 0.08527135848999023
0.5560099482536316 0.7209302186965942 0.10077524185180664
0.5607056617736816 0.7209302186965942 0.11627912521362305
0.5543656349182129 0.7364340424537659 0.1317828893661499
0.5556882619857788 0.7364341020584106 0.1472867727279663
0.5698422193527222 -0.7054263353347778 0.1317828893661499
0.5712624788284302 -0.7054263353347778 0.1472867727279663
0.5665082335472107 -0.6899224519729614 -0.1627907156944275
0.5796419978141785 -0.6899224519729614 -0.13178294897079468
0.5783047676086426 -0.6899224519729614 -0.11627906560897827
0.5784650444984436 -0.6899224519729614 -0.10077518224716187
0.5788384079933167 -0.6899224519729614 -0.08527129888534546
0.5792428851127625 -0.6899224519729614 -0.06976741552352905
0.5799436569213867 -0.6899224519729614 -0.05426359176635742
0.5803312063217163 -0.6899224519729614 -0.038759708404541016
0.5812461972236633 -0.6899224519729614 -0.02325582504272461
0.5805345177650452 -0.6899224519729614 0.10077524185180664
0.5731874704360962 -0.674418568611145 -0.1627907156944275
0.5706586241722107 -0.5658915042877197 0.1472867727279663
0.5799661874771118 -0.5503876209259033 0.1317828893661499
0.5792579054832458 -0.5193798542022705 0.10077524185180664
0.5712933540344238 -0.5038759708404541 0.08527135848999023
0.569403350353241 -0.4728682041168213 -0.1627907156944275
0.5771913528442383 -0.4728682041168213 0.06976747512817383
0.5760918855667114 -0.4573643207550049 -0.1627907156944275
0.5688924789428711 -0.41085273027420044 0.05426359176635742
0.5739097595214844 -0.39534884691238403 0.05426359176635742
0.5778191685676575 -0.3798449635505676 0.05426359176635742
0.5781876444816589 -0.06976741552352905 0.038759708404541016
0.5756618976593018 -0.05426359176635742 0.038759708404541016
0.5724666118621826 0.06976747512817383 0.038759708404541016
0.5698784589767456 0.27131783962249756 0.038759708404541016
0.5803582668304443 0.28682172298431396 0.038759708404541016
0.5744871497154236 0.3488372564315796 0.038759708404541016
0.5747664570808411 0.4728682041168213 -0.1627907156944275
0.5694685578346252 0.5038759708404541 0.05426359176635742
0.5799853205680847 0.5193798542022705 0.06976747512817383
0.5799205899238586 0.5348837375640869 0.08527135848999023
0.5727313756942749 0.5503876209259033 0.10077524185180664
0.5705663561820984 0.5658915042877197 0.1472867727279663
0.580367386341095 0.6899224519729614 -0.1627907156944275
0.5797994136810303 0.7054263353347778 0.10077524185180664
0.5660527348518372 0.7209302186965942 -0.14728683233261108
0.575364351272583 0.7209302186965942 0.1317828893661499
0.5773990154266357 0.7209302186965942 0.1472867727279663
0.5844472050666809 -0.6899224519729614 -0.14728683233261108
0.5817146897315979 -0.6899224519729614 -0.007751941215246916
0.5820715427398682 -0.6899224519729614 0.007751941680908203
0.5824445486068726 -0.6899224519729614 0.02325582504272461
0.58292555809021 -0.6899224519729614 0.038759708404541016
0.5831406712532043 -0.6899224519729614 0.05426359176635742
0.5831353664398193 -0.6899224519729614 0.06976747512817383
0.583538293838501 -0.6899224519729614 0.08527135848999023
0.5828859210014343 -0.6899224519729614 0.11627912521362305
0.5906087160110474 -0.6899224519729614 0.1317828893661499
0.5929825901985168 -0.6899224519729614 0.1472867727279663
0.5878168940544128 -0.674418568611145 -0.1627907156944275
0.5894153714179993 -0.6589146852493286 -0.1627907156944275
0.5878938436508179 -0.5503876209259033 0.1472867727279663
0.5842975378036499 -0.5348837375640869 0.11627912521362305
0.5954877734184265 -0.5348837375640869 0.1317828893661499
0.5963561534881592 -0.5038759708404541 0.10077524185180664
0.5909552574157715 -0.4883720874786377 0.08527135848999023
0.5890771150588989 -0.4573643207550049 0.06976747512817383
0.5862533450126648 -0.4418604373931885 -0.1627907156944275
0.5828471183776855 -0.3643410801887512 0.05426359176635742
0.5896209478378296 -0.3488371968269348 0.05426359176635742
0.5944345593452454 -0.3333333134651184 0.05426359176635742
0.5853116512298584 0.08527135848999023 0.038759708404541016
0.5910096168518066 0.10077524185180664 0.038759708404541016
0.5937867760658264 0.11627912521362305 0.038759708404541016
0.592113733291626 0.1317828893661499 0.038759708404541016
0.5870027542114258 0.1472867727279663 0.038759708404541016
0.5814332962036133 0.16279065608978271 0.038759708404541016
0.5839196443557739 0.30232560634613037 0.038759708404541016
0.585213303565979 0.3178294897079468 0.038759708404541016
0.5843281745910645 0.3333333730697632 0.038759708404541016
0.5905057191848755 0.4573643207550049 -0.1627907156944275
0.5968611836433411 0.4728682041168213 0.05426359176635742
0.5851634740829468 0.4883720874786377 0.05426358804106712
0.5959322452545166 0.5038759708404541 0.06976747512817383
0.5923700332641602 0.5348837375640869 0.10077524185180664
0.5819690227508545 0.5503876209259033 0.11627912521362305
0.5864791870117188 0.5503876209259033 0.1317828893661499
0.5902560949325562 0.5503876209259033 0.1472867727279663
0.5963380336761475 0.674418568611145 -0.1627907156944275
0.5836318135261536 0.6899224519729614 -0.1627907156944275
0.5860200524330139 0.7054263353347778 -0.14728683233261108
0.5818315744400024 0.7054263353347778 -0.13178294897079468
0.5814240574836731 0.7054263353347778 -0.11627905815839767
0.5820052623748779 0.7054263353347778 -0.10077518224716187
0.5825468301773071 0.7054263353347778 -0.08527129888534546
0.58339524269104 0.7054263353347778 -0.06976741552352905
0.5839936137199402 0.7054263353347778 -0.05426359176635742
0.5845205783843994 0.7054263353347778 -0.038759708404541016
0.5851467847824097 0.7054263353347778 -0.02325582690536976
0.5852982401847839 0.7054263353347778 -0.007751941680908203
0.5847919583320618 0.7054263353347778 0.007751941680908203
0.584265947341919 0.7054263949394226 0.02325582504272461
0.5842490792274475 0.7054263353347778 0.038759708404541016
0.5839296579360962 0.7054263353347778 0.05426359176635742
0.5839283466339111 0.7054263353347778 0.06976747512817383
0.5837063789367676 0.7054263353347778 0.08527135848999023
0.5851491093635559 0.7054263353347778 0.11627913266420364
0.6049563884735107 -0.674418568611145 -0.14728683233261108
0.6003689169883728 -0.674418568611145 -0.13178294897079468
0.5996231436729431 -0.674418568611145 -0.11627905815839767
0.5999193787574768 -0.674418568611145 -0.10077518224716187
0.6003467440605164 -0.674418568611145 -0.08527129888534546
0.6007603406906128 -0.6744186282157898 -0.06976741552352905
0.6013416051864624 -0.674418568611145 -0.05426359176635742
0.6015934944152832 -0.674418568611145 -0.038759708404541016
0.6023768186569214 -0.674418568611145 -0.02325582504272461
0.6028699278831482 -0.674418568611145 -0.007751941680908203
0.6032904386520386 -0.674418568611145 0.007751941680908203
0.6036925315856934 -0.674418568611145 0.02325582504272461
0.6040725708007812 -0.674418568611145 0.038759708404541016
0.604259729385376 -0.674418568611145 0.05426359176635742
0.6041982173919678 -0.674418568611145 0.06976747512817383
0.6048659682273865 -0.674418568611145 0.08527135848999023
0.6023564338684082 -0.674418568611145 0.10077524185180664
0.6058039665222168 -0.674418568611145 0.11627912521362305
0.6047877073287964 -0.643410861492157 -0.1627907156944275
0.6033869981765747 -0.5348837375640869 0.1472867727279663
0.6001514196395874 -0.5193798542022705 0.11627912521362305
0.6102340221405029 -0.5193798542022705 0.1317828893661499
0.6103734970092773 -0.4883720874786377 0.10077524185180664
0.603508710861206 -0.4728681743144989 0.08527135848999023
0.5972041487693787 -0.4418604373931885 0.06976747512817383
0.5997991561889648 -0.42635661363601685 -0.1627907156944275
0.6025634407997131 -0.42635661363601685 0.06976747512817383
0.6050012111663818 -0.41085273027420044 0.06976747512817383
0.6080062389373779 -0.39534884691238403 0.06976747512817383
0.6105628609657288 -0.3798449635505676 0.06976747512817383
0.5971919894218445 -0.317829430103302 0.05426359176635742
0.5994938015937805 -0.30232560634613037 0.05426359176635742
0.5999183058738708 -0.28682172298431396 0.05426359176635742
0.601036012172699 -0.27131783962249756 0.05426359176635742
0.6035950779914856 -0.25581395626068115 0.05426359176635742
0.6069636344909668 -0.24031007289886475 0.05426359176635742
0.6099793910980225 -0.22480618953704834 0.05426359176635742
0.6113547682762146 0.364341139793396 0.05426359176635742
0.6007447242736816 0.37984490394592285 0.05426359176635742
0.6044152975082397 0.39534878730773926 0.05426359176635742
0.6054769158363342 0.4418604373931885 -0.1627907156944275
0.6075196266174316 0.4573643207550049 0.05426359176635742
0.6117356419563293 0.4883720874786377 0.06976747512817383
0.5986328125 0.5193798542022705 0.08527135848999023
0.6105440258979797 0.5193798542022705 0.10077524185180664
0.6011234521865845 0.5348837375640869 0.11627912521362305
0.6053743362426758 0.5348837375640869 0.1317828893661499
0.6087415218353271 0.5348837375640869 0.1472867727279663
0.6109939217567444 0.6589146852493286 -0.1627907156944275
0.5998681783676147 0.674418568611145 -0.1627907156944275
0.606214165687561 0.6899224519729614 -0.14728683233261108
0.6022766828536987 0.6899224519729614 -0.13178294897079468
0.6019563674926758 0.6899224519729614 -0.11627906560897827
0.6025874614715576 0.6899224519729614 -0.10077518224716187
0.6031603813171387 0.6899224519729614 -0.08527129888534546
0.6040269136428833 0.6899224519729614 -0.06976741552352905
0.6046040058135986 0.6899224519729614 -0.05426359176635742
0.6052068471908569 0.6899224519729614 -0.038759708404541016
0.6059585809707642 0.6899224519729614 -0.02325582504272461
0.6063023805618286 0.6899224519729614 -0.007751941680908203
0.606100857257843 0.6899224519729614 0.007751941680908203
0.6059349775314331 0.6899224519729614 0.02325582504272461
0.6062155365943909 0.6899224519729614 0.038759708404541016
0.6062188148498535 0.6899224519729614 0.05426359176635742
0.6063070297241211 0.6899224519729614 0.06976747512817383
0.6059912443161011 0.6899224519729614 0.08527135848999023
0.6024192571640015 0.6899224519729614 0.10077524185180664
0.6073623299598694 0.6899224519729614 0.11627912521362305
0.5978622436523438 0.7054262757301331 0.1317828893661499
0.5997446775436401 0.7054263353347778 0.1472867727279663
0.6130911111831665 -0.674418568611145 0.1317828893661499
0.6147595643997192 -0.674418568611145 0.1472867727279663
0.6127519011497498 -0.6589146852493286 -0.1627907156944275
0.6258727312088013 -0.6589146852493286 -0.14728683233261108
0.619908332824707 -0.6589146852493286 -0.13178294897079468
0.619152307510376 -0.6589146852493286 -0.11627906560897827
0.6194263696670532 -0.6589146852493286 -0.10077518224716187
0.6197894811630249 -0.6589146852493286 -0.08527129888534546
0.6200988292694092 -0.6589146852493286 -0.06976741552352905
0.6206557154655457 -0.6589146852493286 -0.05426359176635742
0.620977520942688 -0.6589146852493286 -0.038759708404541016
0.6218388080596924 -0.6589146852493286 -0.02325582504272461
0.6223078370094299 -0.6589146852493286 -0.007751941680908203
0.6226673126220703 -0.6589146852493286 0.007751941680908203
0.6231035590171814 -0.6589146852493286 0.02325582504272461
0.6236103773117065 -0.6589146852493286 0.038759708404541016
0.6239982843399048 -0.6589146852493286 0.05426359176635742
0.6240439414978027 -0.6589146852493286 0.06976747512817383
0.6247974038124084 -0.6589146852493286 0.08527135848999023
0.6225748658180237 -0.6589146852493286 0.10077524185180664
0.6267796754837036 -0.6589146852493286 0.11627912521362305
0.6199148893356323 -0.6279069781303406 -0.1627907156944275
0.6176139116287231 -0.5193798542022705 0.1472867727279663
0.6133283972740173 -0.5038759708404541 0.11627912521362305
0.6234325170516968 -0.5038759708404541 0.1317828893661499
0.6279048919677734 -0.5038759708404541 0.1472867727279663
0.6253676414489746 -0.4883720874786377 0.11627912521362305
0.6222179532051086 -0.4728682041168213 0.10077524185180664
0.6129714250564575 -0.4573643207550049 0.08527135848999023
0.6232427358627319 -0.4418604373931885 0.08527135848999023
0.6188692450523376 -0.41085273027420044 -0.1627907156944275
0.6148596405982971 -0.3643410801887512 0.06976747512817383
0.6209360957145691 -0.3488371968269348 0.06976747512817383
0.6270652413368225 -0.3333333134651184 0.06976747512817383
0.6136836409568787 -0.20930230617523193 0.05426359176635742
0.6202161908149719 -0.19379842281341553 0.05426359176635742
0.6230577230453491 0.20930230617523193 0.05426359176635742
0.6196334362030029 0.22480618953704834 0.05426359176635742
0.6189870238304138 0.24031007289886475 0.05426359176635742
0.6204431056976318 0.25581395626068115 0.05426359176635742
0.6235011219978333 0.27131783962249756 0.05426359176635742
0.6263445019721985 0.28682172298431396 0.05426359176635742
0.6259263157844543 0.3488372564315796 0.05426359176635742
0.6190183162689209 0.41085267066955566 0.05426359176635742
0.620383083820343 0.42635655403137207 -0.1627907156944275
