-0.08527129888534546 -0.038759708404541016 -0.8819736242294312
-0.08527129143476486 -0.038759708404541016 -0.7488783597946167
-0.08527129888534546 -0.038759708404541016 0.6178501844406128
-0.08527129888534546 -0.038759708404541016 0.7100883722305298
-0.08527129888534546 -0.02325582504272461 -0.8896501064300537
-0.08527129888534546 -0.02325582504272461 -0.7650954723358154
-0.08527129888534546 -0.02325582504272461 0.6151562333106995
-0.08527129143476486 -0.02325582504272461 0.7221010327339172
-0.08527129888534546 -0.007751941680908203 -0.8979045748710632
-0.08527129888534546 -0.007751941680908203 -0.7748947143554688
-0.08527129888534546 -0.007751941680908203 0.6112933158874512
-0.08527129888534546 -0.007751941680908203 0.7376247048377991
-0.08527129888534546 0.007751941680908203 -0.9029837846755981
-0.08527129888534546 0.007751941680908203 -0.7855326533317566
-0.08527129888534546 0.007751941680908203 0.6073962450027466
-0.08527129888534546 0.007751941680908203 0.7599097490310669
-0.08527129888534546 0.007751941680908203 0.7878190875053406
-0.08527129888534546 0.007751941680908203 0.8006411790847778
-0.08527129888534546 0.02325582504272461 -0.9044883847236633
-0.08527129888534546 0.02325582504272461 -0.7868401408195496
-0.08527129888534546 0.02325582504272461 0.6005159020423889
-0.08527129888534546 0.02325582504272461 0.717933714389801
-0.08527129888534546 0.02325582504272461 0.7836263179779053
-0.08527129888534546 0.02325582504272461 0.8289110660552979
-0.08527129888534546 0.038759708404541016 -0.9016644358634949
-0.08527129888534546 0.038759708404541016 -0.7811286449432373
-0.08527129888534546 0.038759708404541016 0.5927330851554871
-0.08527129888534546 0.038759708404541016 0.7063936591148376
-0.08527129888534546 0.038759708404541016 0.7954489588737488
-0.08527129888534546 0.038759708404541016 0.830674946308136
-0.08527129888534546 0.05426359176635742 -0.8955703377723694
-0.08527129888534546 0.05426359176635742 -0.7718474864959717
-0.08527129888534546 0.05426358804106712 0.5845100283622742
-0.08527129888534546 0.05426359176635742 0.696751594543457
-0.08527129888534546 0.05426359176635742 0.810268223285675
-0.08527129888534546 0.05426359176635742 0.8160601258277893
-0.08527129888534546 0.06976747512817383 -0.8827863335609436
-0.08527129888534546 0.06976747512817383 -0.7543501257896423
-0.08527129888534546 0.06976747512817383 0.5759015083312988
-0.08527129888534546 0.06976747512817383 0.6885550618171692
-0.08527129888534546 0.08527135848999023 -0.8685790300369263
-0.08527129888534546 0.08527135848999023 -0.7317335605621338
-0.08527129888534546 0.08527135848999023 0.5644514560699463
-0.08527129888534546 0.08527135848999023 0.6742591261863708
-0.08527129888534546 0.10077524185180664 -0.8503797054290771
-0.08527129888534546 0.10077524185180664 -0.6909282803535461
-0.08527129888534546 0.10077524185180664 0.5534914135932922
-0.08527129888534546 0.10077524185180664 0.6621211171150208
-0.08527129888534546 0.11627912521362305 -0.823493480682373
-0.08527129888534546 0.11627912521362305 -0.5580422878265381
-0.08527129888534546 0.11627912521362305 0.542352557182312
-0.08527129888534546 0.11627912521362305 0.6559066772460938
-0.08527129888534546 0.1317828893661499 -0.7856379747390747
-0.08527129888534546 0.1317828893661499 -0.523116946220398
-0.08527129888534546 0.1317828893661499 0.527496337890625
-0.08527129888534546 0.1317828893661499 0.651130735874176
-0.08527129888534546 0.1472867727279663 -0.7451441287994385
-0.08527129888534546 0.1472867727279663 -0.4803672432899475
-0.08527129888534546 0.1472867727279663 0.5088367462158203
-0.08527129888534546 0.1472867727279663 0.6468784809112549
-0.08527129888534546 0.16279065608978271 -0.6940745711326599
-0.08527129888534546 0.16279065608978271 -0.38887742161750793
-0.08527129888534546 0.16279065608978271 -0.054058320820331573
-0.08527129888534546 0.16279065608978271 0.20454780757427216
-0.08527129888534546 0.16279065608978271 0.2277309000492096
-0.08527129888534546 0.16279065608978271 0.36019957065582275
-0.08527129888534546 0.16279065608978271 0.47975635528564453
-0.08527129888534546 0.16279065608978271 0.6426318883895874
-0.08527129888534546 0.17829453945159912 -0.6042981147766113
-0.08527129888534546 0.17829453945159912 0.6301111578941345
-0.08527129888534546 0.19379842281341553 -0.4573517143726349
-0.08527129888534546 0.19379842281341553 0.6065981984138489
-0.08527129888534546 0.20930230617523193 -0.30034857988357544
-0.08527129888534546 0.20930230617523193 0.5624732971191406
-0.06976741552352905 -0.22480618953704834 -0.182578444480896
-0.06976741552352905 -0.22480618953704834 0.5441880226135254
-0.06976741552352905 -0.20930230617523193 -0.4052073061466217
-0.06976741552352905 -0.20930230617523193 0.5839810967445374
-0.06976741552352905 -0.19379842281341553 -0.5702736973762512
-0.06976741552352905 -0.19379842281341553 0.12526659667491913
-0.06976741552352905 -0.19379842281341553 0.26807504892349243
-0.06976741552352905 -0.19379842281341553 0.6126350164413452
-0.06976741552352905 -0.1782945990562439 -0.6531874537467957
-0.06976741552352905 -0.1782945990562439 -0.13318052887916565
-0.06976741552352905 -0.1782945990562439 -0.07865726947784424
-0.06976741552352905 -0.1782945990562439 0.013711566105484962
-0.06976741552352905 -0.1782945990562439 0.3130309283733368
-0.06976741552352905 -0.1782945990562439 0.45503246784210205
-0.06976741552352905 -0.1782945990562439 0.5122991800308228
-0.06976741552352905 -0.1782945990562439 0.6328593492507935
-0.06976741552352905 -0.1627907156944275 -0.7089095711708069
-0.06976741552352905 -0.1627907156944275 -0.3250308632850647
-0.06976741552352905 -0.1627907156944275 0.3410150408744812
-0.06976741552352905 -0.1627907156944275 0.37717366218566895
-0.06976741552352905 -0.1627907156944275 0.54838627576828
-0.06976741552352905 -0.1627907156944275 0.6457353830337524
-0.06976741552352905 -0.14728683233261108 -0.7549756169319153
-0.06976741552352905 -0.14728683233261108 -0.5247910022735596
-0.06976741552352905 -0.14728683233261108 0.5655544996261597
-0.06976741552352905 -0.14728683233261108 0.6512197256088257
-0.06976741552352905 -0.13178294897079468 -0.7915602326393127
-0.06976741552352905 -0.13178294897079468 -0.5776425004005432
-0.06976741552352905 -0.13178294897079468 0.5835542678833008
-0.06976741552352905 -0.13178294897079468 0.6602964401245117
-0.06976741552352905 -0.11627906560897827 -0.8200564980506897
-0.06976741552352905 -0.11627906560897827 -0.6084805727005005
-0.06976741552352905 -0.11627906560897827 0.600190281867981
-0.06976741552352905 -0.11627906560897827 0.6677557229995728
-0.06976741552352905 -0.10077518969774246 -0.8444216847419739
-0.06976741552352905 -0.10077518224716187 -0.6572849154472351
-0.06976741552352905 -0.10077518224716187 0.6103968620300293
-0.06976741552352905 -0.10077518224716187 0.6798498034477234
-0.06976741552352905 -0.08527129888534546 -0.8625271320343018
-0.06976741552352905 -0.08527129888534546 -0.6867296099662781
-0.06976741552352905 -0.08527129888534546 0.6163806319236755
-0.06976741552352905 -0.08527129888534546 0.6909315586090088
-0.06976741552352905 -0.06976741552352905 -0.8770740032196045
-0.06976741552352905 -0.06976741552352905 -0.7194182276725769
-0.06976741552352905 -0.06976741552352905 0.62108314037323
-0.06976741552352905 -0.06976741552352905 0.6988639831542969
-0.06976741552352905 -0.05426359176635742 -0.888199508190155
-0.06976741552352905 -0.05426359176635742 -0.7446895837783813
-0.06976741552352905 -0.05426359176635742 0.6252691745758057
-0.06976741552352905 -0.05426359176635742 0.7093765735626221
-0.06976741552352905 -0.038759708404541016 -0.8987054824829102
-0.06976741552352905 -0.038759708404541016 -0.7680740356445312
-0.06976741552352905 -0.038759708404541016 0.6258493661880493
-0.06976741552352905 -0.038759708404541016 0.7216370701789856
-0.06976741552352905 -0.02325582504272461 -0.907822847366333
-0.06976741552352905 -0.02325582504272461 -0.7815163731575012
-0.06976741552352905 -0.02325582504272461 0.6246688365936279
-0.06976741552352905 -0.02325582504272461 0.728085994720459
-0.06976741552352905 -0.007751941215246916 -0.9158719778060913
-0.06976741552352905 -0.007751941680908203 -0.7896779775619507
-0.06976741552352905 -0.007751941680908203 0.6206058263778687
-0.06976741552352905 -0.007751941680908203 0.7407647967338562
-0.06976741552352905 0.00775194214656949 -0.9200350046157837
-0.06976741552352905 0.007751941680908203 -0.8018492460250854
-0.06976741552352905 0.007751941680908203 0.6140984892845154
-0.06976741552352905 0.007751941680908203 0.7560380697250366
-0.06976741552352905 0.007751941680908203 0.7877069711685181
-0.06976742297410965 0.007751941680908203 0.7994754910469055
-0.06976741552352905 0.02325582504272461 -0.9210845828056335
-0.06976741552352905 0.02325582504272461 -0.809192419052124
-0.06976741552352905 0.02325582504272461 0.6070227026939392
-0.06976741552352905 0.02325582504272461 0.7273527383804321
-0.06976741552352905 0.02325582504272461 0.7859706282615662
-0.06976741552352905 0.02325582504272461 0.8199690580368042
-0.06976741552352905 0.038759708404541016 -0.9182971715927124
-0.06976741552352905 0.038759708404541016 -0.8075958490371704
-0.06976741552352905 0.038759708404541016 0.5990692377090454
-0.06976741552352905 0.038759708404541016 0.7188670635223389
-0.06976741552352905 0.038759708404541016 0.7940957546234131
-0.06976741552352905 0.038759708404541016 0.8203855752944946
-0.06976741552352905 0.05426359176635742 -0.911754846572876
-0.06976741552352905 0.05426359176635742 -0.8022130727767944
-0.06976741552352905 0.05426359176635742 0.5912497043609619
-0.06976741552352905 0.05426359176635742 0.711257815361023
-0.06976741552352905 0.06976747512817383 -0.8995365500450134
-0.06976741552352905 0.06976747512817383 -0.7862093448638916
-0.06976741552352905 0.06976747512817383 0.5835795998573303
-0.06976741552352905 0.06976747512817383 0.7055857181549072
-0.06976741552352905 0.08527135848999023 -0.8851559162139893
-0.06976741552352905 0.08527135848999023 -0.759218692779541
-0.06976741552352905 0.08527135848999023 0.5736239552497864
-0.06976741552352905 0.08527135848999023 0.6938982009887695
-0.06976741552352905 0.10077524185180664 -0.8674865365028381
-0.06976741552352905 0.10077524185180664 -0.7254627346992493
-0.06976741552352905 0.10077524185180664 0.5626312494277954
-0.06976741552352905 0.10077524185180664 0.6801463961601257
-0.06976741552352905 0.11627912521362305 -0.8437420129776001
-0.06976741552352905 0.11627912521362305 -0.6620113253593445
-0.06976741552352905 0.11627912521362305 0.5517743825912476
-0.06976741552352905 0.11627912521362305 0.6680548191070557
-0.06976741552352905 0.1317828893661499 -0.8077237606048584
-0.06976741552352905 0.1317828893661499 -0.5615015029907227
-0.06976741552352905 0.1317828893661499 0.5365198254585266
-0.06976741552352905 0.1317828893661499 0.6616555452346802
-0.06976741552352905 0.1472867727279663 -0.7676286697387695
-0.06976741552352905 0.1472867727279663 -0.5272744297981262
-0.06976741552352905 0.1472867727279663 0.5190587043762207
-0.06976741552352905 0.1472867727279663 0.659212589263916
-0.06976741552352905 0.16279065608978271 -0.7225441932678223
-0.06976741552352905 0.16279065608978271 -0.46746206283569336
-0.06976741552352905 0.16279065608978271 -0.019820837303996086
-0.06976741552352905 0.16279065608978271 0.02894609421491623
-0.06976741552352905 0.16279065608978271 0.05242478847503662
-0.06976741552352905 0.16279065608978271 0.05564609169960022
-0.06976741552352905 0.16279065608978271 0.3064524233341217
-0.06976741552352905 0.16279065608978271 0.33871889114379883
-0.06976741552352905 0.16279065608978271 0.4941965639591217
-0.06976741552352905 0.16279065608978271 0.6548452377319336
-0.06976741552352905 0.17829453945159912 -0.6554005146026611
-0.06976741552352905 0.17829453945159912 -0.3270624279975891
-0.06976741552352905 0.17829453945159912 -0.07667465507984161
-0.06976741552352905 0.17829453945159912 0.4007595181465149
-0.06976741552352905 0.17829453945159912 0.4364166259765625
-0.06976741552352905 0.17829453945159912 0.6447322368621826
-0.06976741552352905 0.19379842281341553 -0.5227630138397217
-0.06976741552352905 0.19379842281341553 0.6220506429672241
-0.06976741552352905 0.20930230617523193 -0.3534230887889862
-0.06976741552352905 0.20930230617523193 0.5869183540344238
-0.06976741552352905 0.22480618953704834 0.09415437281131744
-0.06976741552352905 0.22480618953704834 0.48842379450798035
-0.05426359176635742 -0.22480618953704834 -0.29425936937332153
-0.05426359176635742 -0.22480618953704834 0.5600908398628235
-0.05426359176635742 -0.20930230617523193 -0.4700673520565033
-0.05426359176635742 -0.20930230617523193 0.595131516456604
-0.05426359176635742 -0.19379842281341553 -0.6013584136962891
-0.05426359176635742 -0.19379842281341553 -0.10450287908315659
-0.05426359176635742 -0.19379842281341553 -0.08167718350887299
-0.05426359176635742 -0.19379842281341553 0.06556989252567291
-0.05426359176635742 -0.19379842281341553 0.3156522512435913
-0.05426359176635742 -0.19379842281341553 0.6193355321884155
-0.05426359176635742 -0.1782945990562439 -0.6701623201370239
-0.05426359176635742 -0.1782945990562439 -0.27977269887924194
-0.05426359176635742 -0.1782945990562439 -0.24042169749736786
-0.05426359176635742 -0.1782945990562439 -0.17702259123325348
-0.05426359176635742 -0.1782945990562439 -0.04603409767150879
-0.05426359176635742 -0.1782945990562439 -0.014979185536503792
-0.05426359176635742 -0.1782945990562439 0.33751243352890015
-0.05426359176635742 -0.1782945990562439 0.43953579664230347
-0.05426358804106712 -0.1782945990562439 0.5247504711151123
-0.05426359176635742 -0.1782945990562439 0.6411949992179871
-0.05426359176635742 -0.1627907156944275 -0.7223809957504272
-0.05426359176635742 -0.1627907156944275 -0.5005778670310974
-0.05426358804106712 -0.1627907156944275 0.5536336302757263
-0.05426359176635742 -0.1627907156944275 0.6521902084350586
-0.05426359176635742 -0.14728683233261108 -0.7675063610076904
-0.05426359176635742 -0.14728683233261108 -0.5733605623245239
-0.05426359176635742 -0.14728683233261108 0.5718096494674683
-0.05426359176635742 -0.14728683233261108 0.6614187955856323
-0.05426359176635742 -0.13178294897079468 -0.803040623664856
-0.05426359176635742 -0.13178294897079468 -0.6023104190826416
-0.05426359176635742 -0.13178294897079468 0.5906891822814941
-0.05426359176635742 -0.13178294897079468 0.6680572032928467
-0.05426359176635742 -0.11627906560897827 -0.8324527740478516
-0.05426359176635742 -0.11627906560897827 -0.6335330605506897
-0.05426359176635742 -0.11627906560897827 0.605339765548706
-0.05426359176635742 -0.11627905815839767 0.6796582937240601
-0.05426359176635742 -0.10077518224716187 -0.8534373044967651
-0.05426359176635742 -0.10077518224716187 -0.6717198491096497
-0.05426359176635742 -0.10077518224716187 0.613999605178833
-0.05426359549164772 -0.10077518224716187 0.690974235534668
-0.05426359176635742 -0.08527129888534546 -0.8712940216064453
-0.05426359176635742 -0.08527129888534546 -0.6959128975868225
-0.05426359176635742 -0.08527129888534546 0.6192840337753296
-0.05426359176635742 -0.08527129888534546 0.6989461183547974
-0.05426359176635742 -0.06976741552352905 -0.8870421648025513
-0.05426359176635742 -0.06976741552352905 -0.7231733798980713
-0.05426359176635742 -0.06976741552352905 0.624508261680603
-0.05426359176635742 -0.06976741552352905 0.708642840385437
-0.05426359176635742 -0.05426359176635742 -0.90082186460495
-0.05426359176635742 -0.05426359176635742 -0.7463104128837585
-0.05426359176635742 -0.05426359176635742 0.630365252494812
-0.05426359176635742 -0.05426359176635742 0.7209057807922363
-0.05426359176635742 -0.038759708404541016 -0.9136884212493896
-0.05426359176635742 -0.038759708404541016 -0.7711088061332703
-0.05426359176635742 -0.038759708404541016 0.6328610181808472
-0.05426359176635742 -0.038759708404541016 0.7290581464767456
-0.05426359176635742 -0.02325582504272461 -0.9221940040588379
-0.05426359176635742 -0.02325582504272461 -0.786214292049408
-0.05426359176635742 -0.02325582504272461 0.6334357857704163
-0.05426359176635742 -0.02325582504272461 0.7375168800354004
-0.05426359176635742 -0.007751941680908203 -0.9304083585739136
-0.05426359176635742 -0.007751941680908203 -0.7946218848228455
-0.05426358804106712 -0.007751941680908203 0.6290966272354126
-0.05426359176635742 -0.007751941680908203 0.7447146773338318
-0.05426358804106712 0.007751941680908203 -0.9340648055076599
-0.05426359549164772 0.007751941680908203 -0.8086521029472351
-0.05426359176635742 0.007751941680908203 0.6217791438102722
-0.05426359176635742 0.007751941680908203 0.749352753162384
-0.05426359176635742 0.02325582504272461 -0.9347275495529175
-0.05426359176635742 0.02325582504272461 -0.8237788081169128
-0.05426359176635742 0.02325582318007946 0.6129127144813538
-0.05426359176635742 0.02325582504272461 0.7390514612197876
-0.05426359176635742 0.02325582504272461 0.7900941371917725
-0.05426359176635742 0.02325582504272461 0.8058508634567261
-0.05426359176635742 0.038759708404541016 -0.9319413304328918
-0.05426358804106712 0.038759708404541016 -0.8246761560440063
-0.05426359176635742 0.038759708404541016 0.6044316291809082
-0.05426359176635742 0.038759708404541016 0.7329682111740112
-0.05426359176635742 0.038759708404541016 0.7955313920974731
-0.05426359176635742 0.038759708404541016 0.8047895431518555
-0.05426359176635742 0.05426359176635742 -0.9239927530288696
-0.05426359176635742 0.05426359176635742 -0.8216092586517334
-0.05426359176635742 0.05426359176635742 0.5959820747375488
-0.05426359176635742 0.05426359176635742 0.7296726703643799
-0.05426359176635742 0.06976747512817383 -0.9137696027755737
-0.05426359176635742 0.06976747512817383 -0.8176038861274719
-0.05426359176635742 0.06976747512817383 0.5875441431999207
-0.05426358804106712 0.06976747512817383 0.7245048880577087
-0.05426359176635742 0.08527135848999023 -0.8996027112007141
-0.05426359176635742 0.08527135848999023 -0.7937431931495667
-0.05426359176635742 0.08527135848999023 0.5773261785507202
-0.05426359176635742 0.08527135848999023 0.7147215604782104
-0.05426359176635742 0.10077524185180664 -0.8823833465576172
-0.05426359176635742 0.10077524185180664 -0.7447411417961121
-0.05426359176635742 0.10077524185180664 0.5675430297851562
-0.05426359176635742 0.10077524185180664 0.702987015247345
-0.05426359176635742 0.11627912521362305 -0.860222578048706
-0.05426359176635742 0.11627912521362305 -0.6957834362983704
-0.05426359176635742 0.11627912521362305 0.5602058172225952
-0.05426359176635742 0.11627912521362305 0.6896681785583496
-0.05426359176635742 0.1317828893661499 -0.8278824687004089
-0.05426359176635742 0.1317828893661499 -0.5933771133422852
-0.05426359176635742 0.1317828893661499 0.5467154383659363
-0.05426359176635742 0.1317828893661499 0.6748805642127991
-0.05426359176635742 0.1472867727279663 -0.7865334749221802
-0.05426359176635742 0.1472867727279663 -0.5574721097946167
-0.05426359176635742 0.1472867727279663 0.5276424884796143
-0.05426359176635742 0.1472867727279663 0.6684554815292358
-0.05426359176635742 0.16279065608978271 -0.7443779706954956
-0.05426359176635742 0.16279065608978271 -0.5119378566741943
-0.05426359176635742 0.16279065608978271 0.5014712810516357
-0.05426359176635742 0.16279065608978271 0.6642823815345764
-0.05426359176635742 0.17829453945159912 -0.6875633597373962
-0.05426359176635742 0.17829453945159912 -0.3685966730117798
-0.05426359176635742 0.17829453945159912 -0.055033229291439056
-0.05426359176635742 0.17829453945159912 0.15589693188667297
-0.05426359176635742 0.17829453945159912 0.29129430651664734
-0.05426359176635742 0.17829453945159912 0.3832642436027527
-0.05426359176635742 0.17829453945159912 0.4587514102458954
-0.05426359176635742 0.17829453945159912 0.6576308608055115
-0.05426359176635742 0.19379842281341553 -0.5783621072769165
-0.05426359176635742 0.19379842281341553 0.6352173089981079
-0.05426359176635742 0.20930230617523193 -0.4022294282913208
-0.05426359549164772 0.20930230617523193 0.603141188621521
-0.05426359176635742 0.22480618953704834 -0.07260803133249283
-0.05426359176635742 0.22480618953704834 0.5439528226852417
-0.038759708404541016 -0.24031005799770355 0.19751548767089844
-0.038759708404541016 -0.24031007289886475 0.5134272575378418
-0.038759708404541016 -0.22480618953704834 -0.3323068916797638
-0.038759708404541016 -0.22480618953704834 0.5703513622283936
-0.038759708404541016 -0.20930230617523193 -0.5119701027870178
-0.038759708404541016 -0.20930230617523193 0.09414372593164444
-0.038759708404541016 -0.20930230617523193 0.14465852081775665
-0.038759708404541016 -0.20930230617523193 0.1565379798412323
-0.038759708404541016 -0.20930230617523193 0.30440694093704224
-0.038759708404541016 -0.20930230617523193 0.6007488369941711
-0.038759708404541016 -0.19379842281341553 -0.6241470575332642
-0.038759708404541016 -0.19379842281341553 -0.13819795846939087
-0.038759708404541016 -0.19379842281341553 -0.03776392713189125
-0.038759708404541016 -0.19379842281341553 -0.009813835844397545
-0.038759708404541016 -0.19379842281341553 0.33695554733276367
-0.038759708404541016 -0.19379842281341553 0.6226959228515625
-0.038759708404541016 -0.1782945990562439 -0.684958279132843
-0.038759708404541016 -0.1782945990562439 -0.4579070806503296
-0.038759708404541016 -0.1782945990562439 -0.41631221771240234
-0.038759708404541016 -0.1782945990562439 -0.3653145134449005
-0.038759708404541016 -0.1782945990562439 0.3975190818309784
-0.038759708404541016 -0.1782945990562439 0.4311216473579407
-0.038759708404541016 -0.1782945990562439 0.5295130014419556
-0.038759708404541016 -0.1782945990562439 0.650848388671875
-0.038759708404541016 -0.1782945990562439 0.6650916337966919
-0.038759708404541016 -0.1782945990562439 0.6792324185371399
-0.038759708404541016 -0.1627907007932663 -0.7347044944763184
-0.038759708404541016 -0.1627907156944275 -0.5626705288887024
-0.038759708404541016 -0.1627907156944275 0.5563581585884094
-0.038759708404541016 -0.1627907156944275 0.6806716918945312
-0.038759708404541016 -0.14728683233261108 -0.7790940403938293
-0.038759708404541016 -0.14728683233261108 -0.5993660688400269
-0.038759708404541016 -0.14728683233261108 0.5753713846206665
-0.038759708404541016 -0.14728683233261108 0.6819621920585632
-0.038759708404541016 -0.13178294897079468 -0.8161368370056152
-0.038759708404541016 -0.13178294897079468 -0.621397852897644
-0.038759708404541016 -0.13178294897079468 0.5942230224609375
-0.038759708404541016 -0.13178294897079468 0.6886047720909119
-0.038759708404541016 -0.11627906560897827 -0.8437570929527283
-0.038759708404541016 -0.11627906560897827 -0.6588807106018066
-0.038759708404541016 -0.11627906560897827 0.6071937680244446
-0.038759708404541016 -0.11627906560897827 0.6943597793579102
-0.038759708404541016 -0.10077518224716187 -0.8645166158676147
-0.038759708404541016 -0.10077518224716187 -0.6869786381721497
-0.038759708404541016 -0.10077518224716187 0.6155513525009155
-0.038759708404541016 -0.10077518224716187 0.7025757431983948
-0.038759708404541016 -0.08527129888534546 -0.881770133972168
-0.038759708404541016 -0.08527129888534546 -0.7051584720611572
-0.038759708404541016 -0.08527129888534546 0.6220694780349731
-0.038759708404541016 -0.08527129888534546 0.7103105783462524
-0.038759708404541016 -0.06976741552352905 -0.8986910581588745
-0.038759708404541016 -0.06976741552352905 -0.7252565622329712
-0.038759708404541016 -0.06976741552352905 0.6298332810401917
-0.038759708404541016 -0.06976741552352905 0.721133291721344
-0.038759708404541016 -0.05426359176635742 -0.9143466949462891
-0.038759708404541016 -0.05426358804106712 -0.7464776039123535
-0.038759708404541016 -0.05426359176635742 0.6373450756072998
-0.038759708404541016 -0.05426359176635742 0.7327747941017151
-0.038759708404541016 -0.038759708404541016 -0.9257550835609436
-0.038759708404541016 -0.038759708404541016 -0.7738029956817627
-0.038759708404541016 -0.038759708404541016 0.6408897638320923
-0.038759708404541016 -0.038759708404541016 0.7433324456214905
-0.038759708404541016 -0.02325582504272461 -0.9347805976867676
-0.038759708404541016 -0.02325582504272461 -0.791955292224884
-0.038759708404541016 -0.02325582504272461 0.6424401998519897
-0.038759708404541016 -0.02325582504272461 0.748828113079071
-0.038759708404541016 -0.007751941680908203 -0.9409878253936768
-0.038759708404541016 -0.007751941680908203 -0.8022021055221558
-0.038759708404541016 -0.007751941680908203 0.6402552127838135
-0.038759708404541016 -0.007751941680908203 0.752968430519104
-0.038759708404541016 0.007751941680908203 -0.9454836845397949
-0.038759708404541016 0.007751941215246916 -0.8222422003746033
-0.038759708404541016 0.00775194214656949 0.6328164935112
-0.038759708404541016 0.007751941680908203 0.7501271963119507
-0.038759708404541016 0.02325582504272461 -0.9463920593261719
-0.038759708404541016 0.02325582504272461 -0.8404020071029663
-0.038759708404541016 0.02325582504272461 0.6226468682289124
-0.038759708404541016 0.02325582504272461 0.7460755109786987
-0.038759708404541016 0.038759708404541016 -0.9426858425140381
-0.038759708404541016 0.038759708404541016 -0.8396084308624268
-0.038759708404541016 0.038759708404541016 0.6124246716499329
-0.038759708404541016 0.038759708404541016 0.7467743158340454
-0.038759708404541016 0.05426359176635742 -0.9360268712043762
-0.038759708404541016 0.05426359176635742 -0.8381515145301819
-0.038759708404541016 0.05426359176635742 0.603506326675415
-0.038759708404541016 0.05426359176635742 0.7513002753257751
-0.038759708404541016 0.06976747512817383 -0.9265231490135193
-0.038759708404541016 0.06976747512817383 -0.8358044624328613
-0.038759708404541016 0.06976747512817383 0.5949879884719849
-0.038759708404541016 0.06976747512817383 0.7570749521255493
-0.038759708404541016 0.08527135848999023 -0.9134764671325684
-0.038759708404541016 0.08527135848999023 -0.8247756958007812
-0.038759708404541016 0.08527135848999023 0.5839961171150208
-0.038759708404541016 0.08527135848999023 0.767813503742218
-0.038759708404541016 0.10077524185180664 -0.896277904510498
-0.038759708404541016 0.10077524185180664 -0.7758102416992188
-0.038759708404541016 0.10077524185180664 0.5756493210792542
-0.038759708404541016 0.10077524185180664 0.7633668780326843
-0.038759708404541016 0.11627912521362305 -0.8732522130012512
-0.038759708404541016 0.11627912521362305 -0.7230059504508972
-0.038759708404541016 0.11627912521362305 0.5703445672988892
-0.038759708404541016 0.11627912521362305 0.7570203542709351
-0.038759708404541016 0.1317828893661499 -0.8446579575538635
-0.03875970467925072 0.1317828893661499 -0.6404602527618408
-0.038759708404541016 0.1317828893661499 0.5608258247375488
-0.038759712129831314 0.1317828893661499 0.7539629936218262
-0.038759708404541016 0.1472867727279663 -0.8051902055740356
-0.038759708404541016 0.1472867727279663 -0.5872332453727722
-0.038759708404541016 0.1472867727279663 0.5450213551521301
-0.038759708404541016 0.1472867727279663 0.6862449645996094
-0.038759708404541016 0.1472867727279663 0.6961327791213989
-0.038759708404541016 0.1472867727279663 0.7503740191459656
-0.038759708404541016 0.16279065608978271 -0.7615250945091248
-0.038759708404541016 0.16279065608978271 -0.5485182404518127
-0.038759708404541016 0.16279065608978271 0.5152915716171265
-0.038759708404541016 0.16279065608978271 0.6754029989242554
-0.038759708404541016 0.16279065608978271 0.711469292640686
-0.038759708404541016 0.16279065608978271 0.7416739463806152
-0.038759708404541016 0.17829453945159912 -0.7104007005691528
-0.038759708404541016 0.17829453945159912 -0.41963469982147217
-0.038759708404541016 0.17829453945159912 -0.004179032519459724
-0.038759708404541016 0.17829453945159912 0.037033408880233765
-0.038759708404541016 0.17829453945159912 0.47335365414619446
-0.038759708404541016 0.17829453945159912 0.663981556892395
-0.038759708404541016 0.17829453945159912 0.7199500203132629
-0.038759708404541016 0.17829452455043793 0.7365776896476746
-0.038759708404541016 0.19379842281341553 -0.624610960483551
-0.038759708404541016 0.19379842281341553 -0.3049583435058594
-0.038759708404541016 0.19379842281341553 -0.0910487174987793
-0.038759708404541016 0.19379842281341553 0.20064222812652588
-0.038759708404541016 0.19379842281341553 0.2734663486480713
-0.038759708404541016 0.19379842281341553 0.646811842918396
-0.038759708404541016 0.20930230617523193 -0.4558016061782837
-0.038759708404541016 0.20930230617523193 0.6162766814231873
-0.038759708404541016 0.22480618953704834 -0.22634157538414001
-0.038759708404541016 0.22480618953704834 0.5727159380912781
-0.02325582504272461 -0.24031007289886475 0.14132247865200043
-0.02325582504272461 -0.24031007289886475 0.5290939807891846
-0.02325582504272461 -0.22480618953704834 -0.3528716564178467
-0.02325582504272461 -0.22480618953704834 0.5760765671730042
-0.02325582504272461 -0.20930230617523193 -0.5369887948036194
-0.02325582504272461 -0.20930230617523193 -0.09011334180831909
-0.02325582504272461 -0.20930230617523193 -0.06551103293895721
-0.02325582504272461 -0.20930230617523193 0.07201175391674042
-0.02325582504272461 -0.20930230617523193 0.3195722997188568
-0.02325582504272461 -0.20930230617523193 0.6022989153862
-0.02325582504272461 -0.19379842281341553 -0.639596700668335
-0.02325582504272461 -0.19379842281341553 -0.30861079692840576
-0.02325582504272461 -0.19379842281341553 -0.21965131163597107
-0.02325582504272461 -0.19379842281341553 -0.16851142048835754
-0.02325582504272461 -0.19379842281341553 0.34858351945877075
-0.02325582504272461 -0.19379842281341553 0.6224895715713501
-0.02325582504272461 -0.19379842281341553 0.6625473499298096
-0.02325582504272461 -0.19379842281341553 0.7013575434684753
-0.02325582504272461 -0.1782945990562439 -0.6954911351203918
-0.02325582504272461 -0.1782945990562439 -0.49526819586753845
-0.02325582504272461 -0.1782945990562439 0.5304693579673767
-0.02325582504272461 -0.1782945990562439 0.7036763429641724
-0.02325582504272461 -0.1627907156944275 -0.7435827255249023
-0.02325582504272461 -0.1627907156944275 -0.5784949660301208
-0.02325582504272461 -0.1627907156944275 0.5547093749046326
-0.02325582504272461 -0.1627907156944275 0.7033994197845459
-0.02325582504272461 -0.14728683233261108 -0.7890137434005737
-0.02325582504272461 -0.14728683233261108 -0.6067013740539551
-0.02325582504272461 -0.14728683233261108 0.5725663900375366
-0.02325582504272461 -0.14728683233261108 0.7023992538452148
-0.02325582504272461 -0.13178294897079468 -0.8269373178482056
-0.02325582318007946 -0.13178294897079468 -0.6268498301506042
-0.02325582504272461 -0.13178294897079468 0.5905212163925171
-0.02325582504272461 -0.13178294897079468 0.7056648135185242
-0.02325582504272461 -0.11627906560897827 -0.8522820472717285
-0.02325582504272461 -0.11627906560897827 -0.664213240146637
-0.02325582504272461 -0.11627906560897827 0.6043732762336731
-0.02325582504272461 -0.11627906560897827 0.707743763923645
-0.02325582504272461 -0.10077518224716187 -0.8722752332687378
-0.02325582504272461 -0.10077518224716187 -0.6921589374542236
-0.02325582504272461 -0.10077518224716187 0.6149905920028687
-0.02325582504272461 -0.10077518224716187 0.7130100131034851
-0.02325582504272461 -0.08527129888534546 -0.8918457627296448
-0.02325582504272461 -0.08527129888534546 -0.7090058922767639
-0.02325582504272461 -0.08527129888534546 0.6253345012664795
-0.02325582690536976 -0.08527129888534546 0.7239032983779907
-0.02325582504272461 -0.06976741552352905 -0.9098713397979736
-0.02325582504272461 -0.06976741552352905 -0.7236341834068298
-0.02325582504272461 -0.06976741552352905 0.6358185410499573
-0.02325582690536976 -0.06976741552352905 0.7375577688217163
-0.02325582504272461 -0.05426359176635742 -0.9251586198806763
-0.02325582504272461 -0.05426359176635742 -0.740552544593811
-0.02325582504272461 -0.05426359176635742 0.6431248188018799
-0.02325582504272461 -0.05426359176635742 0.752059280872345
-0.02325582504272461 -0.038759708404541016 -0.9366034269332886
-0.02325582504272461 -0.038759708404541016 -0.774638295173645
-0.02325582504272461 -0.038759708404541016 0.6474047303199768
-0.02325582504272461 -0.038759708404541016 0.7562789916992188
-0.02325582504272461 -0.02325582504272461 -0.9460287094116211
-0.02325582504272461 -0.02325582504272461 -0.7958810329437256
-0.02325582504272461 -0.02325582504272461 0.6503291726112366
-0.02325582504272461 -0.02325582504272461 0.7570130825042725
-0.02325582504272461 -0.007751941680908203 -0.951055109500885
-0.02325582504272461 -0.007751941680908203 -0.807129979133606
-0.02325582504272461 -0.00775194214656949 0.6503535509109497
-0.02325582504272461 -0.007751941680908203 0.7585427761077881
-0.02325582504272461 0.007751941680908203 -0.9540789127349854
-0.02325582504272461 0.00775194214656949 -0.8291193246841431
-0.02325582504272461 0.007751941680908203 0.6434208750724792
-0.02325582504272461 0.007751941680908203 0.7499499320983887
-0.02325582504272461 0.02325582504272461 -0.9553106427192688
-0.02325582504272461 0.02325582504272461 -0.8455101847648621
-0.02325582504272461 0.02325582504272461 0.6360363960266113
-0.02325582504272461 0.02325582504272461 0.7464500665664673
-0.02325582504272461 0.038759708404541016 -0.9524654746055603
-0.02325582504272461 0.038759708404541016 -0.8458538055419922
-0.02325582504272461 0.038759708404541016 0.6284659504890442
-0.02325582504272461 0.038759708404541016 0.7487545013427734
-0.02325582504272461 0.05426359176635742 -0.948217511177063
-0.02325582504272461 0.05426359176635742 -0.8457698225975037
-0.02325582504272461 0.05426359176635742 0.6192554235458374
-0.02325582504272461 0.05426359176635742 0.752682089805603
-0.02325582504272461 0.06976747512817383 -0.9382421970367432
-0.02325582504272461 0.06976747512817383 -0.8439114689826965
-0.02325582504272461 0.06976747512817383 0.6108161807060242
-0.02325582504272461 0.06976747512817383 0.7559699416160583
-0.02325582504272461 0.08527135848999023 -0.9255867600440979
-0.02325582504272461 0.08527135848999023 -0.8338186740875244
-0.02325582504272461 0.08527135848999023 0.5995082855224609
-0.02325582504272461 0.08527135848999023 0.7649189233779907
-0.02325582504272461 0.10077524185180664 -0.9074357151985168
-0.02325582504272461 0.10077524185180664 -0.8087019324302673
-0.02325582504272461 0.10077524185180664 0.5884777307510376
-0.02325582504272461 0.10077524185180664 0.7654945850372314
-0.02325582504272461 0.11627912521362305 -0.8834635615348816
-0.02325582504272461 0.11627912521362305 -0.7372801303863525
-0.02325582504272461 0.11627912521362305 0.5810244083404541
-0.02325582504272461 0.11627912521362305 0.7600899934768677
-0.02325582318007946 0.1317828893661499 -0.8562811017036438
-0.02325582504272461 0.1317828893661499 -0.6609984636306763
-0.02325582504272461 0.1317828893661499 0.571990966796875
-0.02325582318007946 0.1317828893661499 0.7559731006622314
-0.02325582504272461 0.1472867727279663 -0.8186331987380981
-0.02325582504272461 0.1472867727279663 -0.606419026851654
-0.02325582504272461 0.1472867727279663 0.5590091943740845
-0.02325582504272461 0.1472867727279663 0.7535295486450195
-0.02325582504272461 0.16279065608978271 -0.7741417288780212
-0.02325582504272461 0.16279065608978271 -0.566800057888031
-0.02325582504272461 0.16279065608978271 0.5342332124710083
-0.02325582504272461 0.16279065608978271 0.7485188245773315
-0.02325582504272461 0.17829453945159912 -0.7250255942344666
-0.02325582504272461 0.17829453945159912 -0.48494887351989746
-0.02325582504272461 0.17829453945159912 0.4840443730354309
-0.02325582504272461 0.17829453945159912 0.6695362329483032
-0.02325582504272461 0.17829453945159912 0.6998883485794067
-0.02325582504272461 0.17829453945159912 0.7408739328384399
-0.02325582504272461 0.19379842281341553 -0.6516202092170715
-0.02325582318007946 0.19379842281341553 -0.3309226930141449
-0.02325582504272461 0.19379842281341553 -0.07012972980737686
-0.02325582504272461 0.19379843771457672 0.11974208801984787
-0.02325582504272461 0.19379842281341553 0.29425281286239624
-0.02325582504272461 0.19379842281341553 0.652155876159668
-0.02325582504272461 0.19379842281341553 0.7174160480499268
-0.02325582504272461 0.19379842281341553 0.7271600961685181
-0.02325582504272461 0.20930230617523193 -0.4928995370864868
-0.02325582504272461 0.20930230617523193 0.6253802180290222
-0.02325582504272461 0.22480618953704834 -0.2818891108036041
-0.02325582504272461 0.22480618953704834 0.5858655571937561
-0.02325582504272461 0.24031007289886475 0.40802910923957825
-0.02325582504272461 0.24031007289886475 0.46249309182167053
-0.007751941680908203 -0.24031007289886475 0.11455194652080536
-0.007751941680908203 -0.24031007289886475 0.5325784683227539
-0.007751941680908203 -0.22480618953704834 -0.36820462346076965
-0.007751941680908203 -0.22480618953704834 0.5764784812927246
-0.007751941680908203 -0.20930230617523193 -0.5547835230827332
-0.00775194214656949 -0.20930232107639313 -0.1126021221280098
-0.007751941680908203 -0.20930230617523193 -0.029503215104341507
-0.007751941680908203 -0.20930230617523193 0.05861404538154602
-0.007751941680908203 -0.20930230617523193 0.3240514397621155
-0.007751941215246916 -0.20930230617523193 0.6009814739227295
-0.007751941680908203 -0.19379842281341553 -0.6493499279022217
-0.007751941680908203 -0.19379842281341553 -0.3389115035533905
-0.007751941680908203 -0.19379842281341553 0.3560730814933777
-0.007751941680908203 -0.19379842281341553 0.6196568012237549
-0.007751941680908203 -0.19379842281341553 0.6649565100669861
-0.007751941680908203 -0.19379842281341553 0.7104498147964478
-0.007751941680908203 -0.1782945990562439 -0.7047268748283386
-0.007751941680908203 -0.1782945990562439 -0.5168564915657043
-0.007751941680908203 -0.1782946139574051 0.5355958342552185
-0.007751941680908203 -0.1782945990562439 0.7110582590103149
-0.007751941680908203 -0.1627907156944275 -0.7525744438171387
-0.007751941680908203 -0.1627907156944275 -0.5896893739700317
-0.007751941680908203 -0.1627907156944275 0.5592904686927795
-0.007751941680908203 -0.1627907156944275 0.7095254063606262
-0.007751941680908203 -0.14728683233261108 -0.7991377115249634
-0.007751941680908203 -0.14728683233261108 -0.6147727966308594
-0.007751941680908203 -0.14728683233261108 0.5759815573692322
-0.007751941680908203 -0.14728683233261108 0.7087700366973877
-0.007751941680908203 -0.13178294897079468 -0.8349713683128357
-0.007751941680908203 -0.13178294897079468 -0.6401990652084351
-0.007751941680908203 -0.13178294897079468 0.5916139483451843
-0.007751941215246916 -0.13178294897079468 0.7098140120506287
-0.007751941680908203 -0.11627906560897827 -0.8612891435623169
-0.007751941680908203 -0.11627906560897827 -0.6808303594589233
-0.007751941680908203 -0.11627906560897827 0.6038804054260254
-0.007751941680908203 -0.11627906560897827 0.716560423374176
-0.007751941680908203 -0.10077518224716187 -0.88141268491745
-0.007751941680908203 -0.10077518224716187 -0.7076155543327332
-0.007751941680908203 -0.10077518224716187 0.614880383014679
-0.007751941680908203 -0.10077518224716187 0.724616527557373
-0.007751941680908203 -0.08527129888534546 -0.8999119997024536
-0.007751941680908203 -0.08527129888534546 -0.7248719334602356
-0.007751941680908203 -0.08527129888534546 0.6274043321609497
-0.007751941680908203 -0.08527129888534546 0.7397335767745972
-0.007751941680908203 -0.06976741552352905 -0.9189831614494324
-0.007751941680908203 -0.06976741552352905 -0.7370838522911072
-0.007751941680908203 -0.06976741552352905 0.6374911665916443
-0.007751941215246916 -0.06976741552352905 0.7543796896934509
-0.007751941680908203 -0.05426359176635742 -0.9351793527603149
-0.00775194214656949 -0.05426359176635742 -0.7518517374992371
-0.007751941680908203 -0.05426359176635742 0.6429246664047241
-0.007751941680908203 -0.05426359176635742 0.7593768835067749
-0.007751941680908203 -0.038759708404541016 -0.9476590156555176
-0.007751941680908203 -0.038759708404541016 -0.7847845554351807
-0.007751941680908203 -0.038759708404541016 0.6459304094314575
-0.007751941680908203 -0.038759708404541016 0.761818528175354
-0.007751941680908203 -0.02325582504272461 -0.953970193862915
-0.007751941680908203 -0.02325582504272461 -0.809600293636322
-0.007751941680908203 -0.02325582504272461 0.6494846343994141
-0.007751941680908203 -0.02325582504272461 0.7616102695465088
-0.007751941680908203 -0.007751941680908203 -0.9610857963562012
-0.007751941680908203 -0.007751941680908203 -0.828698456287384
-0.007751941680908203 -0.007751941680908203 0.6520165205001831
-0.007751941680908203 -0.007751941680908203 0.7590533494949341
-0.007751941680908203 0.007751941680908203 -0.9646074175834656
-0.007751941680908203 0.007751941680908203 -0.8543518781661987
-0.007751941680908203 0.007751941680908203 0.649238109588623
-0.007751941680908203 0.007751941680908203 0.7495879530906677
-0.007751941680908203 0.02325582504272461 -0.9653035998344421
-0.007751941680908203 0.02325582504272461 -0.8614153861999512
-0.007751941680908203 0.02325582504272461 0.6416444182395935
-0.007751941680908203 0.02325582504272461 0.7454862594604492
-0.007751941680908203 0.038759708404541016 -0.9636595249176025
-0.007751941680908203 0.038759708404541016 -0.8636196851730347
-0.007751941680908203 0.038759708404541016 0.6349931359291077
-0.007751941680908203 0.038759708404541016 0.7450772523880005
-0.007751941680908203 0.05426359176635742 -0.9580328464508057
-0.007751941680908203 0.05426359176635742 -0.8614094257354736
-0.007751941680908203 0.05426358804106712 0.6289588809013367
-0.007751941680908203 0.05426359176635742 0.7467353343963623
-0.007751941215246916 0.06976747512817383 -0.949666440486908
-0.007751941680908203 0.06976747512817383 -0.8570853471755981
-0.007751941680908203 0.06976747512817383 0.6209321022033691
-0.007751941680908203 0.06976747512817383 0.7490102052688599
-0.007751941680908203 0.08527135848999023 -0.9366353750228882
-0.007751941680908203 0.08527135848999023 -0.847682774066925
-0.007751941680908203 0.08527135848999023 0.612740159034729
-0.007751941680908203 0.08527135848999023 0.7527934908866882
-0.007751941680908203 0.10077524185180664 -0.9178506135940552
-0.007751941680908203 0.10077524185180664 -0.8259686827659607
-0.007751941680908203 0.10077524185180664 0.6036220788955688
-0.007751941680908203 0.10077524185180664 0.7556920051574707
-0.007751941680908203 0.11627912521362305 -0.8942543268203735
-0.007751941215246916 0.11627912521362305 -0.7643686532974243
-0.007751941680908203 0.11627912521362305 0.5950319766998291
-0.007751941680908203 0.11627912521362305 0.7553593516349792
-0.007751941680908203 0.1317828893661499 -0.8646364808082581
-0.007751941680908203 0.1317828893661499 -0.7105002403259277
-0.007751941680908203 0.1317828893661499 0.5791915059089661
-0.007751941680908203 0.1317828893661499 0.7536536455154419
-0.007751941680908203 0.1472867727279663 -0.82970130443573
-0.007751941215246916 0.1472867727279663 -0.6426498889923096
-0.007751941680908203 0.1472867727279663 0.5662054419517517
-0.007751941680908203 0.1472867727279663 0.7509860992431641
-0.007751941680908203 0.16279065608978271 -0.784545361995697
-0.00775194214656949 0.16279065608978271 -0.5926899909973145
-0.007751941680908203 0.16279065608978271 0.5496050119400024
-0.007751941680908203 0.16279065608978271 0.7439168095588684
-0.007751941680908203 0.17829453945159912 -0.7364255785942078
-0.007751941680908203 0.17829453945159912 -0.5184088945388794
-0.007751941680908203 0.17829453945159912 0.501548707485199
-0.007751941680908203 0.17829453945159912 0.6711372137069702
-0.007751941680908203 0.17829453945159912 0.7028795480728149
-0.007751941680908203 0.17829453945159912 0.7395780086517334
-0.007751941680908203 0.19379842281341553 -0.6684615015983582
-0.007751941680908203 0.19379842281341553 -0.3616373538970947
-0.007751941680908203 0.19379842281341553 -0.027115222066640854
-0.007751941680908203 0.19379842281341553 0.047537367790937424
-0.007751941680908203 0.19379842281341553 0.31251978874206543
-0.007751941680908203 0.19379842281341553 0.4108256697654724
-0.007751941680908203 0.19379842281341553 0.452099084854126
-0.007751941680908203 0.19379842281341553 0.6550358533859253
-0.007751941680908203 0.19379842281341553 0.7176125645637512
-0.007751941680908203 0.19379842281341553 0.7288858890533447
-0.007751941215246916 0.20930230617523193 -0.5170716643333435
-0.007751941680908203 0.20930230617523193 0.6295334696769714
-0.007751941680908203 0.22480618953704834 -0.3044513165950775
-0.007751941680908203 0.22480618953704834 0.5945799350738525
-0.007751941680908203 0.24031007289886475 0.33949586749076843
-0.007751941680908203 0.24031007289886475 0.49599653482437134
0.00775194214656949 -0.24031007289886475 0.1207244023680687
0.007751941680908203 -0.24031007289886475 0.5300825834274292
0.007751941680908203 -0.22480618953704834 -0.3719681203365326
0.007751941680908203 -0.22480618953704834 0.5746387839317322
0.007751941680908203 -0.20930230617523193 -0.5588573813438416
0.007751941680908203 -0.20930230617523193 -0.11416999995708466
0.007751941680908203 -0.20930230617523193 -0.026193708181381226
0.007751941680908203 -0.20930230617523193 0.057361993938684464
0.007751941680908203 -0.20930230617523193 0.3192959725856781
0.007751941680908203 -0.20930230617523193 0.5994139313697815
0.007751941680908203 -0.19379842281341553 -0.6511975526809692
0.007751941680908203 -0.19379842281341553 -0.337738037109375
0.007751941680908203 -0.19379842281341553 0.3514934182167053
0.007751941680908203 -0.19379842281341553 0.6175614595413208
0.007751941680908203 -0.19379842281341553 0.6722434759140015
0.007751941680908203 -0.19379842281341553 0.7097712755203247
0.007751941680908203 -0.1782945990562439 -0.7054349780082703
0.007751941680908203 -0.1782945990562439 -0.5143952965736389
0.007751941680908203 -0.1782946139574051 0.5367984771728516
0.007751941680908203 -0.1782945990562439 0.6402431726455688
0.007751941680908203 -0.1782945990562439 0.6489688158035278
0.007751941680908203 -0.1782945841550827 0.7095680236816406
0.007751941680908203 -0.1627907156944275 -0.7527938485145569
0.007751941680908203 -0.1627907156944275 -0.584265947341919
0.007751941680908203 -0.1627907156944275 0.560373842716217
0.007751941680908203 -0.1627907156944275 0.7088727355003357
0.007751941680908203 -0.14728683233261108 -0.7998695373535156
0.007751941680908203 -0.14728683233261108 -0.6104137897491455
0.007751941680908203 -0.14728683233261108 0.5754672884941101
0.007751941680908203 -0.14728683233261108 0.7090628743171692
0.007751941680908203 -0.13178294897079468 -0.8357983827590942
0.007751941680908203 -0.13178294897079468 -0.6369524002075195
0.007751941680908203 -0.13178294897079468 0.5890076756477356
0.007751941680908203 -0.13178294897079468 0.7123982310295105
0.007751941680908203 -0.11627906560897827 -0.8638176918029785
0.007751941680908203 -0.11627906560897827 -0.6812045574188232
0.00775194214656949 -0.11627906560897827 0.6002245545387268
0.007751941680908203 -0.11627906560897827 0.7220113277435303
0.007751941680908203 -0.10077518224716187 -0.8840202689170837
0.007751941680908203 -0.10077518224716187 -0.7095520496368408
0.007751941680908203 -0.10077518224716187 0.6104419231414795
0.007751941680908203 -0.10077518224716187 0.7301193475723267
0.007751941680908203 -0.08527129888534546 -0.9058828949928284
0.007751941680908203 -0.08527129888534546 -0.7282070517539978
0.007751941680908203 -0.08527129888534546 0.6228573322296143
0.007751941680908203 -0.08527129888534546 0.7568751573562622
0.007751941680908203 -0.06976741552352905 -0.9265289306640625
0.007751941680908203 -0.06976741552352905 -0.7416841983795166
0.007751941680908203 -0.06976741552352905 0.632935643196106
0.007751941680908203 -0.06976741552352905 0.7636033296585083
0.007751941680908203 -0.05426359176635742 -0.9421353340148926
0.007751941680908203 -0.05426359176635742 -0.7588222622871399
0.007751941680908203 -0.05426359176635742 0.6374655365943909
0.007751941680908203 -0.05426359176635742 0.7673771977424622
0.00775194214656949 -0.038759708404541016 -0.9523874521255493
0.007751941680908203 -0.038759708404541016 -0.7900419235229492
0.007751941680908203 -0.038759708404541016 0.6393168568611145
