-0.06680788844823837 -0.13178294897079468 0.16279065608978271
-0.06137179583311081 -0.13178294897079468 0.17829453945159912
-0.05873528867959976 -0.13178294897079468 0.19379842281341553
-0.055335577577352524 -0.13178294897079468 0.20930230617523193
-0.06911440938711166 -0.13178294897079468 0.5813953876495361
-0.05693727359175682 -0.11627906560897827 -0.7209302186965942
-0.06859562546014786 -0.11627906560897827 -0.7054263949394226
-0.0615663155913353 -0.11627906560897827 -0.4883720874786377
-0.06924504786729813 -0.11627906560897827 -0.4728682041168213
-0.054422490298748016 -0.11627906560897827 0.25581395626068115
-0.05498821660876274 -0.11627906560897827 0.27131783962249756
-0.06828446686267853 -0.11627906560897827 0.28682172298431396
-0.05902910232543945 -0.11627906560897827 0.3488372564315796
-0.06557197868824005 -0.11627906560897827 0.4418604373931885
-0.06435567140579224 -0.10077518224716187 -0.751937985420227
-0.05711697041988373 -0.10077518224716187 -0.5348837375640869
-0.06931114941835403 -0.10077518224716187 -0.5193798542022705
-0.0676657035946846 -0.10077518224716187 0.39534878730773926
-0.06678252667188644 -0.10077518224716187 0.41085267066955566
-0.06550097465515137 -0.08527129888534546 -0.7829457521438599
-0.06063428148627281 -0.08527129888534546 -0.5658915042877197
-0.061839692294597626 -0.06976741552352905 -0.8139535188674927
-0.05749821662902832 -0.06976741552352905 -0.5968992114067078
-0.056365005671978 -0.05426359176635742 -0.8449612259864807
-0.06631007790565491 -0.05426359176635742 -0.8294573426246643
-0.05930522829294205 -0.05426359176635742 -0.6124030947685242
-0.05989150330424309 -0.05426359176635742 0.5968992710113525
-0.05856810510158539 -0.038759708404541016 -0.8604650497436523
-0.0663299560546875 -0.038759708404541016 -0.8449612259864807
-0.06410465389490128 -0.038759708404541016 -0.6279069781303406
-0.05905046686530113 -0.02325582504272461 -0.8759690523147583
-0.06469936668872833 -0.02325582504272461 -0.8604651689529419
-0.06051575392484665 -0.02325582504272461 -0.6589146852493286
-0.06597153097391129 -0.02325582504272461 -0.643410861492157
-0.05784793198108673 -0.007751941680908203 -0.8914728760719299
-0.06269192695617676 -0.007751941680908203 -0.8759690523147583
-0.06956781446933746 -0.007751941680908203 -0.8604651093482971
-0.05607074126601219 -0.007751941680908203 -0.6899224519729614
-0.0608348548412323 -0.007751941680908203 -0.674418568611145
-0.06816326826810837 -0.007751941680908203 -0.6589146852493286
-0.059584252536296844 0.007751941680908203 -0.8914728760719299
-0.06389808654785156 0.007751941680908203 -0.8759689331054688
-0.05469688028097153 0.007751941680908203 -0.7209302186965942
-0.05831270292401314 0.007751941680908203 -0.7054263353347778
-0.06378937512636185 0.00775194214656949 -0.6899224519729614
-0.06745331734418869 0.007751941680908203 -0.674418568611145
-0.054811205714941025 0.007751941680908203 0.612403154373169
-0.06328044086694717 0.007751941680908203 0.6589146852493286
-0.05669497698545456 0.007751941680908203 0.6899224519729614
-0.056828178465366364 0.02325582504272461 -0.8914728760719299
-0.06233540549874306 0.02325582504272461 -0.8759689331054688
-0.05763350427150726 0.02325582504272461 -0.7054263353347778
-0.06327009201049805 0.02325582504272461 -0.6899224519729614
-0.06673940271139145 0.02325582504272461 -0.674418568611145
-0.0642792135477066 0.02325582504272461 0.612403154373169
-0.06684204936027527 0.02325582504272461 0.6279069185256958
-0.058621846139431 0.02325582504272461 0.7054263353347778
-0.05595198646187782 0.038759708404541016 -0.8759689927101135
-0.06241010129451752 0.038759708404541016 -0.8604650497436523
-0.05655718594789505 0.038759708404541016 -0.6899224519729614
-0.06128079444169998 0.038759708404541016 -0.674418568611145
-0.06778430938720703 0.038759708404541016 -0.6589146852493286
-0.06470902264118195 0.038759708404541016 0.4728682041168213
-0.05449971556663513 0.038759708404541016 0.6434108018875122
-0.06773940473794937 0.038759712129831314 0.6589146852493286
-0.05793243646621704 0.038759708404541016 0.7209302186965942
-0.05827963352203369 0.05426359176635742 -0.8449612259864807
-0.06751596182584763 0.05426359176635742 -0.8294573426246643
-0.05458545684814453 0.05426359176635742 -0.674418568611145
-0.06170773506164551 0.05426359176635742 -0.6589146852493286
-0.06659854203462601 0.05426359176635742 -0.643410861492157
-0.06671884655952454 0.05426359176635742 0.42635655403137207
-0.05819304287433624 0.05426359176635742 0.4418604373931885
-0.06555607169866562 0.05426359176635742 0.6899224519729614
-0.05872071534395218 0.06976747512817383 -0.8139535188674927
-0.06890798360109329 0.06976747512817383 -0.7984496355056763
-0.05800908803939819 0.06976747512817383 -0.643410861492157
-0.06437179446220398 0.06976747512817383 -0.6279069781303406
-0.0677260011434555 0.06976747512817383 -0.6124030947685242
-0.06615376472473145 0.06976747512817383 0.41085267066955566
-0.05824935436248779 0.06976747512817383 0.42635655403137207
-0.055569130927324295 0.06976747512817383 0.7054263353347778
-0.06360091269016266 0.06976747512817383 0.7209302186965942
-0.05768676847219467 0.08527135848999023 -0.7829457521438599
-0.06820642203092575 0.08527135848999023 -0.7674418091773987
-0.05464586243033409 0.08527135848999023 -0.6124030947685242
-0.0592174306511879 0.08527135848999023 -0.5968992114067078
-0.06457050889730453 0.08527135848999023 -0.5813953876495361
-0.06481391191482544 0.08527135848999023 0.25581395626068115
-0.0661800354719162 0.08527135848999023 0.37984490394592285
-0.060909248888492584 0.08527135848999023 0.39534878730773926
-0.056279245764017105 0.08527135848999023 0.41085267066955566
-0.054680418223142624 0.08527135848999023 0.751937985420227
-0.057098835706710815 0.08527135848999023 0.7674418687820435
-0.05676332488656044 0.08527135848999023 0.7829457521438599
-0.06099842116236687 0.10077524185180664 -0.7364341020584106
-0.06877906620502472 0.10077524185180664 -0.7209302186965942
-0.055920157581567764 0.10077524185180664 -0.5658915042877197
-0.062678262591362 0.10077524185180664 -0.5503876209259033
-0.06802643835544586 0.10077524930238724 -0.5348837375640869
-0.06520656496286392 0.10077524185180664 0.20930230617523193
-0.0553065724670887 0.10077524185180664 0.22480618953704834
-0.06369713693857193 0.10077524185180664 0.3488372564315796
-0.05761377140879631 0.10077524185180664 0.364341139793396
-0.06082256883382797 0.10077524185180664 0.5813953876495361
-0.05791988596320152 0.11627912521362305 -0.6899224519729614
-0.06748609244823456 0.11627912521362305 -0.674418568611145
-0.05680519714951515 0.11627912521362305 -0.5193798542022705
-0.06147151067852974 0.11627912521362305 -0.5038759708404541
-0.06612320244312286 0.11627912521362305 -0.4883720874786377
-0.06919954717159271 0.11627912521362305 -0.19379842281341553
-0.06543099880218506 0.11627913266420364 -0.1782945990562439
-0.06697830557823181 0.11627912521362305 -0.1627907156944275
-0.0651005208492279 0.11627912521362305 -0.14728683233261108
-0.06657891720533371 0.11627912521362305 -0.13178294897079468
-0.06869393587112427 0.11627912521362305 -0.007751941680908203
-0.0690029114484787 0.11627912521362305 0.00775194214656949
-0.05544675141572952 0.11627912521362305 0.19379842281341553
-0.06337573379278183 0.11627912521362305 0.30232560634613037
-0.062217921018600464 0.11627912521362305 0.3178294897079468
-0.06443312019109726 0.1317828893661499 -0.6279069781303406
-0.056525204330682755 0.1317828893661499 -0.4418604373931885
-0.06050712615251541 0.1317828893661499 -0.42635661363601685
-0.06496400386095047 0.1317828893661499 -0.41085273027420044
-0.06819002330303192 0.1317828893661499 -0.39534884691238403
-0.0666341558098793 0.1317828893661499 -0.24031007289886475
-0.05934717506170273 0.1317828893661499 -0.22480618953704834
-0.05884116142988205 0.1317828893661499 -0.10077518224716187
-0.06612485647201538 0.1317828893661499 -0.08527129888534546
-0.06362883001565933 0.1317828893661499 -0.06976741552352905
-0.05883123725652695 0.1317828893661499 -0.05426359176635742
-0.055445872247219086 0.1317828893661499 0.05426359176635742
-0.0589594691991806 0.1317828893661499 0.06976747512817383
-0.06488750129938126 0.1317828893661499 0.08527135848999023
-0.0629216879606247 0.1317828893661499 0.16279065608978271
-0.05553002282977104 0.1317828893661499 0.5658915042877197
-0.06009838730096817 0.1472867727279663 -0.5658915042877197
-0.06618312746286392 0.1472867727279663 -0.5503876209259033
-0.05447268486022949 0.1472867727279663 -0.3333333134651184
-0.05520905554294586 0.1472867727279663 -0.317829430103302
-0.05530574545264244 0.1472867727279663 -0.30232560634613037
-0.055393036454916 0.1472867727279663 0.10077524185180664
-0.05906745046377182 0.1472867727279663 0.11627912521362305
-0.05905360355973244 0.1472867727279663 0.1317828893661499
-0.06111837923526764 0.1472867727279663 0.5503876209259033
-0.05679239705204964 0.16279065608978271 -0.4883720874786377
-0.06565887480974197 0.16279065608978271 -0.4728682041168213
-0.05710039287805557 0.16279065608978271 0.5348837375640869
-0.054840780794620514 0.17829453945159912 -0.41085273027420044
-0.06366239488124847 0.17829453945159912 -0.39534884691238403
-0.06941927224397659 0.17829453945159912 -0.3798449635505676
-0.06016663461923599 0.17829453945159912 0.5038759708404541
-0.06208094209432602 0.19379842281341553 -0.30232560634613037
-0.05472399294376373 0.20930230617523193 -0.1627907156944275
-0.06020941957831383 0.20930230617523193 -0.14728683233261108
-0.06569355726242065 0.20930230617523193 -0.13178294897079468
-0.0672641471028328 0.20930230617523193 0.39534878730773926
-0.05878008157014847 0.20930230617523193 0.41085267066955566
-0.03908408805727959 -0.22480618953704834 -0.02325582504272461
-0.04121864214539528 -0.22480618953704834 -0.007751941680908203
-0.04293996840715408 -0.22480618953704834 0.007751941680908203
-0.04436927288770676 -0.22480618953704834 0.02325582504272461
-0.046806275844573975 -0.22480618953704834 0.038759708404541016
-0.04838429018855095 -0.22480618953704834 0.05426359176635742
-0.050115808844566345 -0.22480618953704834 0.06976747512817383
-0.051327381283044815 -0.22480618953704834 0.08527135848999023
-0.05185459181666374 -0.22480618953704834 0.10077524185180664
-0.05157842859625816 -0.22480618953704834 0.11627912521362305
-0.050438784062862396 -0.22480618953704834 0.1317828893661499
-0.04897793009877205 -0.22480618953704834 0.1472867727279663
-0.04731258749961853 -0.22480618953704834 0.16279065608978271
-0.04522540047764778 -0.22480618953704834 0.17829453945159912
-0.04196663945913315 -0.22480618953704834 0.19379842281341553
-0.04709295183420181 -0.20930230617523193 -0.317829430103302
-0.039386242628097534 -0.19379842281341553 -0.4418604373931885
-0.05060294270515442 -0.19379842281341553 -0.42635661363601685
-0.04155378416180611 -0.1782945990562439 -0.5193798542022705
-0.05335245281457901 -0.1782945990562439 -0.5038759708404541
-0.040892891585826874 -0.1782945990562439 -0.08527129888534546
-0.04367193579673767 -0.1782945990562439 -0.06976741552352905
-0.0465959832072258 -0.1782945990562439 -0.05426359176635742
-0.04722989350557327 -0.1782945990562439 -0.038759708404541016
-0.045403461903333664 -0.1782945990562439 -0.02325582504272461
-0.04398277401924133 -0.1782945990562439 -0.007751941680908203
-0.04296647757291794 -0.1782945990562439 0.007751941680908203
-0.0444122776389122 -0.1782945990562439 0.02325582504272461
-0.048374488949775696 -0.1782945990562439 0.038759708404541016
-0.051800794899463654 -0.1782945990562439 0.05426359176635742
-0.05333077907562256 -0.1782946139574051 0.06976747512817383
-0.05004660412669182 -0.1782946139574051 0.08527135848999023
-0.04904773458838463 -0.1627907156944275 -0.5813953876495361
-0.0432584322988987 -0.1627907156944275 -0.11627906560897827
-0.04989016801118851 -0.1627907156944275 -0.10077518969774246
-0.05412980541586876 -0.1627907156944275 -0.08527129888534546
-0.05305270105600357 -0.1627907156944275 -0.007751941680908203
-0.052483633160591125 -0.1627907156944275 0.007751941680908203
-0.0540776364505291 -0.1627907156944275 0.02325582504272461
-0.04935174062848091 -0.1627907156944275 0.10077524185180664
-0.04923134297132492 -0.1627907156944275 0.5813953876495361
-0.048816218972206116 -0.14728683233261108 -0.643410861492157
-0.04032670333981514 -0.14728683233261108 -0.39534884691238403
-0.0468241423368454 -0.14728683233261108 -0.3798449635505676
-0.05244175344705582 -0.14728683233261108 -0.3643410801887512
-0.049819424748420715 -0.14728683233261108 -0.25581395626068115
-0.045201729983091354 -0.14728683233261108 -0.24031007289886475
-0.04487557336688042 -0.14728683233261108 -0.22480618953704834
-0.046445347368717194 -0.14728683233261108 -0.20930230617523193
-0.049289535731077194 -0.14728683233261108 -0.19379842281341553
-0.05177270248532295 -0.14728683233261108 -0.1782946139574051
-0.05426284298300743 -0.14728683233261108 -0.1627907156944275
-0.05351833999156952 -0.14728683233261108 -0.14728683233261108
-0.049036599695682526 -0.14728683233261108 0.1317828893661499
-0.040425002574920654 -0.14728683233261108 0.1472867727279663
-0.047796547412872314 -0.13178294897079468 -0.6899224519729614
-0.04299657791852951 -0.13178294897079468 -0.4728682041168213
-0.04908551648259163 -0.13178294897079468 -0.4573643207550049
-0.053180307149887085 -0.13178294897079468 0.22480618953704834
-0.0388762466609478 -0.13178294897079468 0.24031007289886475
-0.0506371334195137 -0.13178294897079468 0.4573643207550049
-0.05192311108112335 -0.13178294897079468 0.4728682339191437
-0.04136700928211212 -0.13178294897079468 0.4883720874786377
-0.0431370735168457 -0.11627906560897827 -0.7364341020584106
-0.04620464891195297 -0.11627906560897827 -0.5193798542022705
-0.05379760265350342 -0.11627906560897827 -0.5038759708404541
-0.0491473525762558 -0.11627906560897827 0.364341139793396
-0.0462070032954216 -0.11627906560897827 0.37984490394592285
-0.04520329087972641 -0.11627906560897827 0.39534878730773926
-0.04628416523337364 -0.11627906560897827 0.41085267066955566
-0.05130919814109802 -0.11627906560897827 0.42635655403137207
-0.051879119127988815 -0.11627906560897827 0.5038759708404541
-0.050424233078956604 -0.10077518224716187 -0.7674418687820435
-0.03911811485886574 -0.10077518224716187 -0.5813953876495361
-0.04405257850885391 -0.10077518224716187 -0.5658915042877197
-0.05019662529230118 -0.10077518224716187 -0.5503876209259033
-0.05209493637084961 -0.08527129888534546 -0.7984496355056763
-0.04509909078478813 -0.08527129888534546 -0.5968992114067078
-0.05237258970737457 -0.08527129143476486 -0.5813953876495361
-0.05062468722462654 -0.06976741552352905 -0.8294572830200195
-0.043573133647441864 -0.06976741552352905 -0.6124030947685242
-0.04409512132406235 -0.06976741552352905 0.5968992710113525
-0.0454418808221817 -0.05426359176635742 -0.8604651093482971
-0.044913776218891144 -0.05426359176635742 -0.6279069781303406
-0.042855001986026764 -0.038759708404541016 -0.8914728760719299
-0.05049953609704971 -0.038759708404541016 -0.8759689927101135
-0.04285049065947533 -0.038759708404541016 -0.6589146852493286
-0.050313178449869156 -0.038759708404541016 -0.6434108018875122
-0.04582308232784271 -0.02325582504272461 -0.9069767594337463
-0.05269334837794304 -0.02325582504272461 -0.8914728164672852
-0.04640662670135498 -0.02325582504272461 -0.6899224519729614
-0.051957204937934875 -0.02325582504272461 -0.674418568611145
-0.044707298278808594 -0.007751941680908203 -0.922480583190918
-0.05114815756678581 -0.00775194214656949 -0.9069767594337463
-0.03921064734458923 -0.007751941680908203 -0.751937985420227
-0.043924108147621155 -0.007751941680908203 -0.7364341020584106
-0.04823474586009979 -0.007751941215246916 -0.7209302186965942
-0.05096496269106865 -0.007751941680908203 -0.7054263353347778
-0.0459747314453125 0.007751941680908203 -0.9224806427955627
-0.053133346140384674 0.00775194214656949 -0.9069767594337463
-0.0410396084189415 0.007751941680908203 -0.7674418687820435
-0.045462317764759064 0.007751941680908203 -0.751937985420227
-0.05029786005616188 0.007751941680908203 -0.7364341020584106
-0.04411783069372177 0.007751941680908203 0.6589146852493286
-0.048531629145145416 0.007751941680908203 0.674418568611145
-0.04145381599664688 0.02325582504272461 -0.9224806427955627
-0.04893678426742554 0.02325582504272461 -0.9069768190383911
-0.04100915789604187 0.02325582504272461 -0.751937985420227
-0.04767013341188431 0.02325582504272461 -0.7364341020584106
-0.05344463139772415 0.02325582504272461 -0.7209302186965942
-0.045600198209285736 0.02325582504272461 0.6899224519729614
-0.03943909704685211 0.038759708404541016 -0.9069766998291016
-0.047164857387542725 0.038759708404541016 -0.8914728164672852
-0.04577981308102608 0.038759708404541016 -0.7209302186965942
-0.05078403279185295 0.038759708404541016 -0.7054263949394226
-0.05033496767282486 0.038759708404541016 0.4883720874786377
-0.038813602179288864 0.038759708404541016 0.612403154373169
-0.0427277646958828 0.038759708404541016 0.7054263353347778
-0.03958011791110039 0.05426359176635742 -0.8759689331054688
-0.05027485638856888 0.05426359176635742 -0.8604650497436523
-0.04196663200855255 0.05426359176635742 -0.7054263353347778
-0.04939180240035057 0.05426359176635742 -0.6899224519729614
-0.04900272935628891 0.05426359176635742 0.4573643207550049
-0.03983394429087639 0.05426359176635742 0.4728682041168213
-0.047907304018735886 0.05426359176635742 0.674418568611145
-0.04972589761018753 0.05426359176635742 0.7364341020584106
-0.04850383847951889 0.06976747512817383 -0.8294573426246643
-0.039852891117334366 0.06976747512817383 -0.6899224519729614
-0.04647744446992874 0.06976747512817383 -0.674418568611145
-0.053719546645879745 0.06976747512817383 -0.6589146852493286
-0.04795488715171814 0.06976747512817383 0.4418604373931885
-0.04423783719539642 0.06976747512817383 0.5968992710113525
-0.04380746930837631 0.08527135848999023 -0.7984496355056763
-0.04328877106308937 0.08527135848999023 -0.643410861492157
-0.050532907247543335 0.08527135848999023 -0.6279069781303406
-0.04728516936302185 0.08527135848999023 0.42635655403137207
-0.043695688247680664 0.08527135848999023 0.7364341020584106
-0.05116277188062668 0.08527135848999023 0.7829456925392151
-0.050352610647678375 0.10077524185180664 -0.751937985420227
-0.04293711110949516 0.10077524185180664 -0.5968992114067078
-0.048993803560733795 0.10077524185180664 -0.5813953876495361
-0.044643305242061615 0.10077524185180664 0.24031007289886475
-0.04203999042510986 0.10077524185180664 0.25581395626068115
-0.05306142196059227 0.10077524185180664 0.27131783962249756
-0.05060410127043724 0.10077523440122604 0.37984487414360046
-0.04135153815150261 0.10077524185180664 0.39534878730773926
-0.04757113754749298 0.11627912521362305 -0.7054263353347778
-0.04365503787994385 0.11627912521362305 -0.5503876209259033
-0.049340181052684784 0.11627912521362305 -0.5348837375640869
-0.03939513489603996 0.11627912521362305 0.20930230617523193
-0.05089779570698738 0.11627912521362305 0.28682172298431396
-0.05371536687016487 0.11627911776304245 0.3333333730697632
-0.04727834463119507 0.11627912521362305 0.3488372564315796
-0.04072455316781998 0.11627912521362305 0.364341139793396
-0.040937941521406174 0.1317828893661499 -0.6589146852493286
-0.05347440019249916 0.1317828744649887 -0.6434108018875122
-0.04086688160896301 0.1317828893661499 -0.4883720874786377
-0.04627203196287155 0.1317828893661499 -0.4728682041168213
-0.05130113661289215 0.1317828893661499 -0.4573643207550049
-0.05259700492024422 0.1317828893661499 -0.20930230617523193
-0.04676169157028198 0.1317828893661499 -0.19379842281341553
-0.04026278108358383 0.1317828893661499 -0.1782945990562439
-0.042712125927209854 0.1317828893661499 -0.11627906560897827
-0.05421217903494835 0.1317828893661499 -0.038759708404541016
-0.05098649859428406 0.1317828893661499 -0.02325582504272461
-0.04886554926633835 0.1317828893661499 -0.007751941680908203
-0.048519566655159 0.1317828893661499 0.007751941215246916
-0.050810348242521286 0.1317828893661499 0.02325582690536976
-0.05328427627682686 0.1317828893661499 0.03875970467925072
-0.046231817454099655 0.1317828893661499 0.17829453945159912
-0.04021129384636879 0.1472867727279663 -0.5968992114067078
-0.05107707530260086 0.1472867727279663 -0.5813953876495361
-0.04079989716410637 0.1472867727279663 -0.39534884691238403
-0.04561726748943329 0.1472867727279663 -0.3798449635505676
-0.04995710402727127 0.1472867727279663 -0.3643410801887512
-0.05269446596503258 0.1472867727279663 -0.3488371968269348
-0.05228471755981445 0.1472867727279663 -0.2868216931819916
-0.0476536750793457 0.1472867727279663 -0.27131783962249756
-0.046412259340286255 0.1472867727279663 -0.08527129888534546
-0.04909643530845642 0.1472867727279663 -0.06976741552352905
-0.04785437509417534 0.1472867727279663 -0.05426359176635742
-0.04639678820967674 0.1472867727279663 -0.038759708404541016
-0.04419120401144028 0.1472867727279663 -0.02325582504272461
-0.0422225221991539 0.1472867727279663 -0.007751941680908203
-0.04069341719150543 0.1472867727279663 0.007751941680908203
-0.0409204438328743 0.1472867727279663 0.02325582504272461
-0.04153268039226532 0.1472867727279663 0.038759708404541016
-0.04309209808707237 0.1472867727279663 0.05426359176635742
-0.046482086181640625 0.1472867727279663 0.06976747512817383
-0.051052287220954895 0.1472867727279663 0.08527135848999023
-0.052292484790086746 0.1472867727279663 0.1472867727279663
-0.04006108641624451 0.1472867727279663 0.16279065608978271
-0.046904634684324265 0.16279065608978271 -0.5038759708404541
-0.04252053052186966 0.16279065608978271 0.08527135848999023
-0.046598389744758606 0.16279065608978271 0.10077524185180664
-0.04931186884641647 0.16279065608978271 0.11627912521362305
-0.04778992012143135 0.16279065608978271 0.1317828893661499
-0.03982415050268173 0.16279065608978271 0.1472867727279663
-0.04607948288321495 0.17829453945159912 -0.42635661363601685
-0.03964117914438248 0.19379842281341553 -0.3333333134651184
-0.05090971663594246 0.19379842281341553 -0.317829430103302
-0.05036158114671707 0.19379842281341553 0.4728682041168213
-0.0430532842874527 0.20930230617523193 -0.20930230617523193
-0.0474737249314785 0.20930230617523193 -0.19379842281341553
-0.051207639276981354 0.20930230617523193 -0.1782945990562439
-0.04303371533751488 0.20930230617523193 0.42635655403137207
-0.039150264114141464 0.22480618953704834 0.1317828893661499
-0.040087588131427765 0.22480618953704834 0.1472867727279663
-0.03933039307594299 0.22480618953704834 0.16279065608978271
-0.023764055222272873 -0.22480618953704834 -0.14728683233261108
-0.02659013122320175 -0.22480618953704834 -0.13178294897079468
-0.027628563344478607 -0.22480618953704834 -0.11627906560897827
-0.029975954443216324 -0.22480618953704834 -0.10077518224716187
-0.031830795109272 -0.22480618953704834 -0.08527129888534546
-0.033138785511255264 -0.22480618953704834 -0.06976741552352905
-0.03520895168185234 -0.22480618953704834 -0.05426359176635742
-0.03704940527677536 -0.22480618953704834 -0.038759708404541016
-0.038308385759592056 -0.22480618953704834 0.20930230617523193
-0.03349116072058678 -0.22480618953704834 0.22480618953704834
-0.030461113899946213 -0.22480618953704834 0.24031007289886475
-0.027914859354496002 -0.22480618953704834 0.25581395626068115
-0.025465598329901695 -0.22480618953704834 0.27131783962249756
-0.02365832030773163 -0.22480618953704834 0.28682172298431396
-0.029991909861564636 -0.20930230617523193 -0.3333333134651184
-0.027335181832313538 -0.19379842281341553 0.05426359176635742
-0.03675678372383118 -0.19379842281341553 0.06976747512817383
-0.035066138952970505 -0.19379842281341553 0.08527135848999023
-0.023706039413809776 -0.1782945990562439 -0.5348837375640869
-0.03274240344762802 -0.1782945990562439 -0.10077518224716187
-0.031184470281004906 -0.1782945990562439 0.10077524185180664
-0.03689810633659363 -0.1627907156944275 -0.5968992114067078
-0.02873237617313862 -0.1627907156944275 -0.30232560634613037
-0.0240019578486681 -0.1627907156944275 -0.28682172298431396
-0.03297979012131691 -0.1627907156944275 -0.13178294897079468
-0.033975355327129364 -0.1627907156944275 0.11627912521362305
-0.03303960710763931 -0.14728683233261108 -0.6589146852493286
-0.02993796207010746 -0.14728683233261108 -0.41085273027420044
-0.0343661904335022 -0.14728683233261108 0.16279065608978271
-0.026047274470329285 -0.14728683233261108 0.17829453945159912
-0.02921292930841446 -0.13178294897079468 -0.7054263353347778
-0.03406878188252449 -0.13178294897079468 -0.4883720874786377
-0.03784053772687912 -0.13178294897079468 0.24031007289886475
-0.03453664481639862 -0.13178294897079468 0.4418604373931885
-0.024792933836579323 -0.11627906560897827 -0.5658915042877197
-0.029157346114516258 -0.11627906560897827 -0.5503876209259033
-0.03583335876464844 -0.11627906560897827 -0.5348837375640869
-0.033600177615880966 -0.10077518224716187 -0.7829457521438599
-0.03034849464893341 -0.10077518224716187 -0.5968992114067078
-0.036591459065675735 -0.08527129888534546 -0.8139535188674927
-0.025845179334282875 -0.08527129888534546 -0.612403154373169
-0.030432362109422684 -0.08527129888534546 0.5968992710113525
-0.03660951182246208 -0.06976741552352905 -0.8449612855911255
-0.023360110819339752 -0.05426359176635742 -0.8914728760719299
-0.035240981727838516 -0.05426359176635742 -0.8759690523147583
-0.033482298254966736 -0.038759708404541016 -0.9069766998291016
-0.028174374252557755 -0.02325582504272461 -0.9379844665527344
-0.037880029529333115 -0.02325582690536976 -0.9224806427955627
-0.03120122104883194 -0.02325582504272461 -0.7209302186965942
-0.038600992411375046 -0.02325582504272461 -0.7054263353347778
-0.02628985047340393 -0.007751941680908203 -0.9534883499145508
-0.03602800518274307 -0.007751941680908203 -0.9379845261573792
-0.029575616121292114 -0.007751941680908203 0.612403154373169
-0.027550894767045975 0.007751941680908203 -0.9534883499145508
-0.03772471472620964 0.007751941680908203 -0.9379844665527344
-0.03475930914282799 0.007751941680908203 0.6279069185256958
-0.03110777959227562 0.02325582504272461 -0.9379844665527344
-0.03153179585933685 0.02325582504272461 -0.7674418687820435
-0.034592799842357635 0.02325582504272461 0.5038759708404541
-0.028119634836912155 0.02325582504272461 0.674418568611145
-0.027301568537950516 0.038759708404541016 -0.9224806427955627
-0.037139419466257095 0.038759708404541016 -0.7364341020584106
-0.031394753605127335 0.038759708404541016 0.6279069185256958
-0.02698582597076893 0.05426359176635742 -0.8914728760719299
-0.0342857651412487 0.05426358804106712 -0.7209302186965942
-0.02913947030901909 0.05426359176635742 0.7209302186965942
-0.036022722721099854 0.06976747512817383 -0.8449612259864807
-0.02820523828268051 0.06976747512817383 -0.7054263353347778
-0.03588997572660446 0.06976747512817383 0.4573643207550049
-0.02348344214260578 0.06976747512817383 0.6899224519729614
-0.03637543320655823 0.06976747512817383 0.751937985420227
-0.02491191402077675 0.08527135848999023 -0.8139535188674927
-0.024678457528352737 0.08527135848999023 -0.674418568611145
-0.03820173442363739 0.08527135848999023 -0.6589146852493286
-0.03865930810570717 0.08527135848999023 0.4418604075908661
-0.02608509734272957 0.08527135848999023 0.7674418687820435
-0.03301145136356354 0.10077524185180664 -0.7674418687820435
-0.026374734938144684 0.10077524185180664 -0.6279069781303406
-0.03594585135579109 0.10077524185180664 -0.6124030351638794
-0.03549825772643089 0.10077524185180664 0.41085267066955566
-0.02760763093829155 0.10077524185180664 0.42635655403137207
-0.02951306477189064 0.11627912521362305 -0.7209302186965942
-0.03480039909482002 0.11627912521362305 -0.5658915042877197
-0.0299895778298378 0.11627912521362305 0.37984490394592285
-0.032368436455726624 0.1317828893661499 -0.5038759708404541
-0.027112819254398346 0.1317828893661499 0.3178294897079468
-0.02455745078623295 0.1317828893661499 0.3333333730697632
-0.03365239500999451 0.1472867727279663 -0.41085273027420044
-0.03791730850934982 0.1472867727279663 -0.25581395626068115
-0.027115318924188614 0.1472867727279663 -0.10077518224716187
-0.03342534601688385 0.16279065608978271 -0.5193798542022705
-0.027207624167203903 0.16279065608978271 -0.05426359176635742
-0.030253872275352478 0.16279065608978271 -0.038759708404541016
-0.029139705002307892 0.16279065608978271 -0.02325582504272461
-0.026643719524145126 0.16279065608978271 -0.007751941680908203
-0.023573551326990128 0.16279065608978271 0.02325582504272461
-0.02456892468035221 0.16279065608978271 0.038759708404541016
-0.028017353266477585 0.16279065608978271 0.05426359176635742
-0.0366678386926651 0.16279064118862152 0.06976747512817383
-0.030794791877269745 0.17829453945159912 -0.4418604373931885
-0.02735009416937828 0.17829453945159912 0.10077524185180664
-0.033938217908144 0.17829453945159912 0.11627912521362305
-0.03024599701166153 0.17829453945159912 0.1317828893661499
-0.03660760819911957 0.17829453945159912 0.5193798542022705
-0.023955976590514183 0.20930230617523193 -0.24031007289886475
-0.035825908184051514 0.20930232107639313 -0.22480620443820953
-0.02453218400478363 0.22480618953704834 0.08527135848999023
-0.03128720447421074 0.22480618953704834 0.10077524185180664
-0.03644966706633568 0.22480618953704834 0.11627912521362305
-0.03673499822616577 0.22480620443820953 0.17829453945159912
-0.03285256028175354 0.22480618953704834 0.19379842281341553
-0.027890589088201523 0.22480618953704834 0.20930230617523193
-0.02541971392929554 0.22480618953704834 0.27131783962249756
-0.02811773493885994 0.22480618953704834 0.28682172298431396
-0.028355993330478668 0.22480618953704834 0.30232560634613037
-0.02503872476518154 0.22480618953704834 0.3178294897079468
-0.012402455322444439 -0.22480618953704834 -0.19379842281341553
-0.019018949940800667 -0.22480618953704834 -0.1782945990562439
-0.020900994539260864 -0.22480618953704834 -0.1627907156944275
-0.020021958276629448 -0.22480618953704834 0.30232560634613037
-0.013502232730388641 -0.22480618953704834 0.3178294897079468
-0.00816106703132391 -0.22480618953704834 0.3333333730697632
-0.007910008542239666 -0.22480618953704834 0.5968992710113525
-0.020407659932971 -0.19379842281341553 -0.4573642909526825
-0.00951195228844881 -0.19379842281341553 -0.06976741552352905
-0.008454520255327225 -0.19379842281341553 -0.05426359176635742
-0.009790699928998947 -0.19379842281341553 0.038759708404541016
-0.01089385710656643 -0.19379842281341553 0.10077524185180664
-0.013813309371471405 -0.1782945990562439 -0.11627906560897827
-0.01926136389374733 -0.1782945990562439 0.5813953876495361
-0.021453455090522766 -0.1627907156944275 -0.6124030947685242
-0.017655493691563606 -0.1627907156944275 -0.317829430103302
-0.018530214205384254 -0.1627907156944275 -0.27131783962249756
-0.011826839298009872 -0.1627907156944275 -0.25581395626068115
-0.008885562419891357 -0.1627907156944275 -0.24031007289886475
-0.00984363816678524 -0.1627907156944275 -0.22480618953704834
-0.012411240488290787 -0.1627907156944275 -0.20930230617523193
-0.014845507219433784 -0.1627907156944275 -0.19379842281341553
-0.015056859701871872 -0.1627907156944275 -0.1782945990562439
-0.01616000011563301 -0.1627907156944275 -0.1627907156944275
-0.019815048202872276 -0.1627907156944275 -0.14728683233261108
-0.017430873587727547 -0.1627907156944275 0.1317828893661499
-0.008791078813374043 -0.1627907156944275 0.5968992710113525
-0.013168653473258018 -0.14728683233261108 -0.4418604373931885
-0.020907126367092133 -0.14728683233261108 -0.42635661363601685
-0.008982231840491295 -0.14728683233261108 0.4728682041168213
-0.009749782271683216 -0.14728683233261108 0.5968992710113525
-0.019807282835245132 -0.13178294897079468 -0.5038759708404541
-0.014702240005135536 -0.13178294897079468 0.22480618953704834
-0.01897258684039116 -0.13178294897079468 0.5038759708404541
-0.010775616392493248 -0.13178294897079468 0.5968992710113525
-0.022768061608076096 -0.11627906560897827 -0.751937985420227
-0.014378785155713558 -0.11627906560897827 -0.5968992114067078
-0.02030186727643013 -0.11627906560897827 -0.5813953876495361
-0.012695853598415852 -0.11627906560897827 0.5968992710113525
-0.012874663807451725 -0.10077518224716187 -0.6124030947685242
-0.019234267994761467 -0.10077518224716187 0.5968992710113525
-0.011959091760218143 -0.08527129888534546 -0.8294573426246643
-0.01749241352081299 -0.06976741552352905 -0.8604651689529419
-0.021895207464694977 -0.06976741552352905 -0.6279069781303406
-0.02015739306807518 -0.05426359176635742 -0.6434108018875122
-0.022891120985150337 -0.038759708404541016 -0.9224807024002075
-0.010362545028328896 -0.038759708404541016 -0.6899224519729614
-0.020290622487664223 -0.038759708404541016 -0.674418568611145
-0.015429025515913963 -0.02325582504272461 -0.9534883499145508
-0.00972534716129303 -0.02325582504272461 -0.751937985420227
-0.020925791934132576 -0.02325582504272461 -0.7364341020584106
-0.01620875671505928 -0.007751941680908203 -0.9689922332763672
-0.02243961952626705 -0.007751941680908203 -0.7674418687820435
-0.016908641904592514 0.007751941680908203 -0.9689922332763672
-0.015361620113253593 0.007751941680908203 -0.7829457521438599
-0.018879592418670654 0.02325582504272461 -0.9534883499145508
-0.009963540360331535 0.02325582504272461 -0.7829457521438599
-0.012128220871090889 0.038759708404541016 -0.9379844665527344
-0.011623198166489601 0.038759708404541016 -0.7674418687820435
-0.02252272702753544 0.038759708404541016 -0.751937985420227
-0.01107168197631836 0.038759708404541016 0.6899224519729614
-0.00998727511614561 0.05426359176635742 -0.9069767594337463
-0.021030990406870842 0.05426358804106712 -0.7364341020584106
-0.0221724770963192 0.05426359176635742 0.4883720874786377
-0.02006910741329193 0.06976747512817383 -0.8604651093482971
-0.016899259760975838 0.06976747512817383 -0.7209302186965942
-0.02093035727739334 0.06976747512817383 0.4728682041168213
-0.022963663563132286 0.06976747512817383 0.6899223923683167
-0.01269074808806181 0.08527135848999023 -0.6899224519729614
-0.01861569844186306 0.08527135848999023 0.4573643207550049
-0.008353435434401035 0.10077524185180664 -0.643410861492157
-0.016292965039610863 0.10077524185180664 0.4418604373931885
-0.021299973130226135 0.11627912521362305 -0.5813953876495361
-0.022081594914197922 0.11627912521362305 0.27131783962249756
-0.018636183813214302 0.11627912521362305 0.39534878730773926
-0.015130063518881798 0.11627912521362305 0.41085267066955566
-0.008052617311477661 0.11627912521362305 0.42635655403137207
-0.011743245646357536 0.1317828893661499 -0.674418568611145
-0.020955808460712433 0.1317828893661499 -0.5193798542022705
-0.021445242688059807 0.1317828893661499 -0.1627907156944275
-0.011202684603631496 0.1317828893661499 -0.13178294897079468
-0.012608185410499573 0.1317828893661499 0.19379842281341553
-0.0172832403331995 0.1317828893661499 0.30232560634613037
-0.020046710968017578 0.1317828893661499 0.3488372564315796
-0.010150289162993431 0.1317828893661499 0.364341139793396
-0.017931658774614334 0.1472867727279663 -0.6124030947685242
-0.02226562239229679 0.1472867727279663 -0.42635661363601685
-0.021099576726555824 0.1472867876291275 -0.24031008780002594
-0.01028491836041212 0.1472867727279663 -0.22480618953704834
-0.009889386594295502 0.16279065608978271 -0.08527129888534546
-0.022187070921063423 0.16279065608978271 -0.06976741552352905
-0.0227207038551569 0.16279065608978271 0.00775194214656949
-0.021027544513344765 0.16279065608978271 0.16279065608978271
-0.017130190506577492 0.17829453945159912 0.08527135848999023
-0.01692945510149002 0.17829453945159912 0.1472867727279663
-0.021521056070923805 0.19379842281341553 -0.3488371968269348
-0.013154629617929459 0.19379842281341553 0.4883720874786377
-0.014728771522641182 0.22480618953704834 0.06976747512817383
-0.022988537326455116 0.22480618953704834 0.22480618953704834
-0.020046856254339218 0.22480618953704834 0.24031007289886475
-0.02264481596648693 0.22480618953704834 0.25581395626068115
-0.016488639637827873 0.22480618953704834 0.3333333730697632
-0.005856940522789955 -0.22480618953704834 0.3333333730697632
0.005941563285887241 -0.22480618953704834 0.612403154373169
0.0029092319309711456 -0.20930230617523193 0.5348837375640869
0.0024667794350534678 -0.20930230617523193 0.5968992710113525
0.0030181340407580137 -0.20930230617523193 0.612403154373169
-0.0032593754585832357 -0.19379842281341553 -0.06976741552352905
-0.0069050174206495285 -0.19379842281341553 -0.05426359176635742
-0.006771723739802837 -0.19379842281341553 0.038759708404541016
0.0030738424975425005 -0.19379842281341553 0.05426359176635742
-0.001308436505496502 -0.19379842281341553 0.10077524185180664
-0.0003602011129260063 -0.19379842281341553 0.5968992710113525
8.0508878454566e-05 -0.19379842281341553 0.612403154373169
0.00609903410077095 -0.19379842281341553 0.6279069185256958
-0.007180625572800636 -0.1782945990562439 0.5968992710113525
-0.0009324643760919571 -0.1782945990562439 0.612403154373169
0.005648118443787098 -0.1782945990562439 0.6279069185256958
0.0007127737626433372 -0.1627907156944275 0.612403154373169
0.006037525832653046 -0.1627907156944275 0.6279069185256958
-0.006740297190845013 -0.14728683233261108 0.4728682041168213
0.0037509838584810495 -0.14728683233261108 0.612403154373169
0.007040158845484257 -0.14728683233261108 0.6279069185256958
0.002110377885401249 -0.13178294897079468 0.20930230617523193
-0.0056811049580574036 -0.13178294897079468 0.44186046719551086
0.0063189733773469925 -0.13178294897079468 0.5038759708404541
0.0058866944164037704 -0.13178294897079468 0.612403154373169
0.003857071278616786 -0.11627906560897827 0.22480618953704834
-0.0014808573760092258 -0.11627906560897827 0.24031005799770355
-0.003928401507437229 -0.11627906560897827 0.25581395626068115
-0.0007532949093729258 -0.11627906560897827 0.27131783962249756
0.004134798422455788 -0.11627906560897827 0.28682172298431396
0.007304598577320576 -0.11627906560897827 0.3178294897079468
0.0043129753321409225 -0.11627906560897827 0.3333333730697632
-8.66968184709549e-05 -0.11627906560897827 0.3488372564315796
-0.0011829468421638012 -0.11627906560897827 0.364341139793396
0.004421948455274105 -0.11627906560897827 0.37984490394592285
0.007212651893496513 -0.11627906560897827 0.39534878730773926
0.002779267029836774 -0.11627906560897827 0.41085267066955566
0.0005696553271263838 -0.11627906560897827 0.42635655403137207
0.0074267517775297165 0.02325582504272461 -0.7829457521438599
-0.0020789133850485086 0.02325582504272461 0.6589146852493286
0.0072935037314891815 0.038759708404541016 0.6434108018875122
-0.0010858792811632156 0.05426359176635742 0.674418568611145
0.006888171657919884 0.06976747512817383 0.7054263353347778
-0.00010521267540752888 0.06976747512817383 0.7364341020584106
-0.003261615987867117 0.08527135848999023 0.7364340424537659
-0.005067312158644199 0.08527135848999023 0.751937985420227
-0.005860292352735996 0.10077524930238724 -0.6434109210968018
-0.0014909317251294851 0.11627912521362305 0.42635655403137207
0.006693904288113117 0.16279065608978271 -0.30232560634613037
0.002452102256938815 0.20930230617523193 -0.25581395626068115
0.014693682081997395 -0.22480618953704834 -0.19379842281341553
0.022102858871221542 -0.22480618953704834 -0.1782945990562439
0.022239359095692635 -0.22480618953704834 0.28682172298431396
0.017793338745832443 -0.22480618953704834 0.30232560634613037
0.010890917852520943 -0.22480618953704834 0.3178294897079468
0.008567770943045616 -0.22480618953704834 0.5968992710113525
0.008968072012066841 -0.22480618953704834 0.612403154373169
0.009707508608698845 -0.20930230617523193 0.5968992710113525
0.011501097120344639 -0.19379842281341553 0.06976747512817383
0.014672838151454926 -0.19379842281341553 0.08527135848999023
0.011263001710176468 -0.19379842281341553 0.5658915042877197
0.013973569497466087 -0.19379842281341553 0.5968992710113525
0.012812899425625801 -0.1782945990562439 -0.11627906560897827
0.018760766834020615 -0.1782945990562439 0.5813953876495361
0.018678296357393265 -0.1627907156944275 -0.24031007289886475
0.021191269159317017 -0.1627907156944275 -0.22480618953704834
0.015833191573619843 -0.1627907156944275 0.1317828893661499
0.010874822735786438 -0.14728683233261108 -0.4418604373931885
0.020174644887447357 -0.14728683233261108 -0.42635661363601685
0.016176996752619743 -0.14728683233261108 0.17829453945159912
0.012762591242790222 -0.13178294897079468 -0.5038759708404541
0.013865238055586815 -0.13178294897079468 0.4573643207550049
0.021111002191901207 -0.13178294897079468 0.4728682041168213
0.017646273598074913 -0.13178294897079468 0.4883720874786377
0.011967085301876068 -0.13178294897079468 0.6279069185256958
0.010680943727493286 -0.11627906560897827 -0.5968992114067078
0.014925170689821243 -0.11627906560897827 -0.5813953876495361
0.018554212525486946 -0.11627906560897827 -0.5658915042877197
0.02220211736857891 -0.11627906560897827 -0.5503876209259033
0.007829754613339901 -0.11627906560897827 0.30232560634613037
0.01269559282809496 -0.11627906560897827 0.4418604373931885
0.01950790546834469 -0.11627906560897827 0.5038759708404541
0.008310661651194096 -0.11627906560897827 0.612403154373169
0.02042267471551895 -0.11627906560897827 0.6279069185256958
0.009532333351671696 -0.10077517479658127 -0.6124030351638794
0.017178215086460114 -0.10077518224716187 0.24031007289886475
0.019271742552518845 -0.10077518224716187 0.25581395626068115
0.021294934675097466 -0.10077518224716187 0.3488372564315796
0.0203495342284441 -0.10077518224716187 0.42635655403137207
0.020239131525158882 -0.10077518224716187 0.612403154373169
0.012944843620061874 -0.08527129888534546 -0.8294572830200195
0.020564569160342216 -0.08527129888534546 -0.6124030947685242
0.022268271073698997 -0.08527129888534546 0.6899224519729614
0.02013433538377285 -0.06976741552352905 -0.8604651093482971
0.019352277740836143 -0.06976741552352905 -0.6279069781303406
0.022921524941921234 -0.06976741552352905 0.6434108018875122
0.018579384312033653 -0.06976741552352905 0.6589146852493286
0.01633073389530182 -0.06976741552352905 0.674418568611145
0.020621979609131813 -0.06976741552352905 0.6899224519729614
0.019322184845805168 -0.05426359176635742 -0.643410861492157
0.019904376938939095 -0.05426359176635742 0.6434108018875122
0.008866606280207634 -0.05426359549164772 0.6589146852493286
0.016790177673101425 -0.05426359176635742 0.674418568611145
0.012721478939056396 -0.038759708404541016 -0.6899224519729614
0.019724145531654358 -0.038759708404541016 0.6434108018875122
0.01692875474691391 -0.038759708404541016 0.6589146852493286
0.02123779058456421 -0.038759708404541016 0.674418568611145
0.016343602910637856 -0.02325582504272461 -0.9534883499145508
0.012814721092581749 -0.02325582504272461 -0.7519380450248718
0.021910879760980606 -0.02325582504272461 0.6434108018875122
0.020508714020252228 -0.02325582504272461 0.6589146852493286
0.01686887815594673 -0.007751941680908203 -0.9689922332763672
0.021312400698661804 -0.007751941680908203 0.6589146852493286
0.017410652711987495 0.007751941680908203 -0.9689922332763672
0.020941538736224174 0.007751941680908203 -0.7829457521438599
0.020929325371980667 0.007751941680908203 0.6589146852493286
0.019354287534952164 0.02325582504272461 -0.9534883499145508
0.009757096879184246 0.02325582504272461 0.5038759708404541
0.019632797688245773 0.02325582504272461 0.6434108018875122
0.012571675702929497 0.038759708404541016 -0.9379844665527344
0.011410124599933624 0.038759708404541016 -0.7674418687820435
0.011316386982798576 0.038759708404541016 0.6279069185256958
0.009099076502025127 0.038759708404541016 0.6589146852493286
0.010984214954078197 0.038759708404541016 0.674418568611145
0.010123188607394695 0.05426359176635742 -0.9069766998291016
0.021169334650039673 0.05426359176635742 0.4728682041168213
0.008887390606105328 0.05426359176635742 0.4883720874786377
0.009814638644456863 0.05426359176635742 0.6899224519729614
0.010085749439895153 0.05426359549164772 0.7054263353347778
0.020288461819291115 0.06976747512817383 -0.8604651689529419
0.016618993133306503 0.06976747512817383 -0.7209302186965942
0.021717511117458344 0.06976747512817383 0.4573643207550049
0.010738905519247055 0.06976747512817383 0.4728682041168213
0.009863851591944695 0.06976747512817383 0.7209302186965942
0.010456441901624203 0.08527135103940964 -0.6899223923683167
0.01303942408412695 0.08527135848999023 0.4573643207550049
0.021220069378614426 0.10077524185180664 -0.6279069781303406
0.015619943849742413 0.10077524185180664 0.4418604373931885
0.011931277811527252 0.11627912521362305 -0.5813953876495361
0.02007513865828514 0.11627912521362305 0.39534878730773926
0.015085630118846893 0.11627912521362305 0.41085267066955566
0.008924633264541626 0.1317828893661499 -0.674418568611145
0.010517662391066551 0.1317828893661499 -0.5193798542022705
0.021954165771603584 0.1317828893661499 -0.5038759708404541
0.01703391596674919 0.1317828893661499 0.30232560634613037
0.022104008123278618 0.1317828893661499 0.3333333730697632
0.01872323825955391 0.1317828893661499 0.3488372564315796
0.010317318141460419 0.1317828893661499 0.364341139793396
0.0163582693785429 0.1472867727279663 -0.6124030947685242
0.014284585602581501 0.1472867727279663 -0.42635661363601685
0.008298038505017757 0.16279065608978271 -0.30232560634613037
0.012175098992884159 0.20930230617523193 -0.25581395626068115
0.016469884663820267 0.22480618953704834 0.06976747512817383
0.01756366342306137 0.22480618953704834 0.22480618953704834
0.015295758843421936 0.22480618953704834 0.24031007289886475
0.017569726333022118 0.22480618953704834 0.25581395626068115
0.020797597244381905 0.22480618953704834 0.27131783962249756
0.019651388749480247 0.22480618953704834 0.3178294897079468
0.011823272332549095 0.22480618953704834 0.3333333730697632
0.02676583081483841 -0.22480620443820953 -0.1627907156944275
0.030739493668079376 -0.22480618953704834 -0.14728683233261108
0.03275960683822632 -0.22480618953704834 -0.13178294897079468
0.03250058367848396 -0.22480618953704834 -0.11627906560897827
0.03409401699900627 -0.22480618953704834 -0.10077518224716187
0.03513047844171524 -0.22480618953704834 -0.08527129888534546
0.03550964593887329 -0.22480618953704834 -0.06976741552352905
0.03671081364154816 -0.22480618953704834 -0.05426359176635742
0.03760429471731186 -0.22480618953704834 -0.038759708404541016
0.038298286497592926 -0.22480618953704834 -0.02325582504272461
0.035762690007686615 -0.22480618953704834 0.20930230617523193
0.03232312202453613 -0.22480618953704834 0.22480618953704834
0.030165337026119232 -0.22480618953704834 0.24031007289886475
0.02786872535943985 -0.22480618953704834 0.25581395626068115
0.025079237297177315 -0.22480618953704834 0.27131783962249756
0.03843536972999573 -0.20930230617523193 -0.3333333134651184
0.03841989487409592 -0.20930230617523193 0.5193798542022705
0.02352154068648815 -0.20930232107639313 0.612403154373169
0.025940250605344772 -0.19379842281341553 -0.45736435055732727
0.03713328391313553 -0.19379842281341553 0.5503876209259033
0.02583940699696541 -0.19379842281341553 0.612403154373169
0.02502739056944847 -0.19379842281341553 0.6279069185256958
0.02916451171040535 -0.1782945990562439 -0.5348837375640869
0.03739891201257706 -0.1782945990562439 -0.007751941680908203
0.03223399445414543 -0.1782945990562439 0.007751941680908203
0.03612024337053299 -0.1782945990562439 0.02325582504272461
0.030753135681152344 -0.1782945990562439 0.10077524185180664
0.023277239874005318 -0.1782945990562439 0.5968992710113525
0.029120583087205887 -0.1782945990562439 0.612403154373169
0.027347028255462646 -0.1782945990562439 0.6279069185256958
0.026270918548107147 -0.1627907156944275 -0.6124030947685242
0.0238044410943985 -0.1627907007932663 -0.317829430103302
0.035936158150434494 -0.1627907156944275 -0.30232560634613037
0.036458227783441544 -0.1627907156944275 -0.28682172298431396
0.03260079771280289 -0.1627907156944275 -0.27131783962249756
0.0244828462600708 -0.1627907156944275 -0.25581395626068115
0.024891337379813194 -0.1627907156944275 -0.20930230617523193
