-0.14679576456546783 -0.19379842281341553 0.19379842281341553
-0.1469053477048874 -0.19379842281341553 0.20930230617523193
-0.14674188196659088 -0.19379840791225433 0.22480618953704834
-0.146880105137825 -0.19379842281341553 0.24031007289886475
-0.14717969298362732 -0.19379842281341553 0.25581395626068115
-0.14726459980010986 -0.19379840791225433 0.3178294897079468
-0.14672380685806274 -0.19379842281341553 0.3333333432674408
-0.14646954834461212 -0.19379840791225433 0.3488372564315796
-0.14624567329883575 -0.19379842281341553 0.3643411099910736
-0.14599809050559998 -0.19379842281341553 0.37984490394592285
-0.14549106359481812 -0.19379842281341553 0.39534878730773926
-0.1443154513835907 -0.19379842281341553 0.41085267066955566
-0.1426459550857544 -0.19379840791225433 0.4263565242290497
-0.14048299193382263 -0.19379842281341553 0.4418604373931885
-0.13847248256206512 -0.19379842281341553 0.4573643207550049
-0.13719040155410767 -0.19379842281341553 0.4728682041168213
-0.1355890929698944 -0.19379842281341553 0.4883720874786377
-0.13336211442947388 -0.19379842281341553 0.5038759708404541
-0.13185952603816986 -0.1782945990562439 -0.28682172298431396
-0.13483171164989471 -0.1782945990562439 -0.27131783962249756
-0.1376715898513794 -0.1782945990562439 -0.25581395626068115
-0.14035674929618835 -0.1782945990562439 -0.24031007289886475
-0.142231747508049 -0.1782945990562439 -0.22480618953704834
-0.14398100972175598 -0.1782945990562439 -0.20930230617523193
-0.1455177217721939 -0.1782945841550827 -0.19379842281341553
-0.14699673652648926 -0.1782945990562439 -0.1782945990562439
-0.14175574481487274 -0.1782945990562439 0.5193798542022705
-0.13590513169765472 -0.1782945990562439 0.5348837375640869
-0.13306958973407745 -0.1627907156944275 -0.3643410801887512
-0.13628272712230682 -0.1627907156944275 -0.3488371968269348
-0.13881464302539825 -0.1627907156944275 -0.3333333134651184
-0.1416192352771759 -0.1627907156944275 -0.317829430103302
-0.1443805694580078 -0.1627907156944275 -0.30232560634613037
-0.14637915790081024 -0.1627907156944275 -0.28682172298431396
-0.13844817876815796 -0.1627907156944275 0.5503876209259033
-0.1322108805179596 -0.14728683233261108 -0.4418604373931885
-0.1364676058292389 -0.14728683233261108 -0.42635661363601685
-0.13931676745414734 -0.14728683233261108 -0.41085273027420044
-0.14220455288887024 -0.14728683233261108 -0.39534884691238403
-0.14456665515899658 -0.14728683233261108 -0.3798449635505676
-0.1464189738035202 -0.14728683233261108 -0.3643410801887512
-0.13791823387145996 -0.14728683233261108 0.5658915042877197
-0.13426710665225983 -0.13178294897079468 -0.5038759708404541
-0.13704809546470642 -0.13178294897079468 -0.4883720874786377
-0.13917937874794006 -0.13178294897079468 -0.4728682041168213
-0.14188557863235474 -0.13178294897079468 -0.4573643207550049
-0.14445334672927856 -0.13178294897079468 -0.4418604373931885
-0.146791011095047 -0.13178294897079468 -0.42635658383369446
-0.14724741876125336 -0.13178294897079468 0.5658915042877197
-0.1353294849395752 -0.13178294897079468 0.5813953876495361
-0.13362881541252136 -0.11627906560897827 -0.5658915042877197
-0.1372082531452179 -0.11627906560897827 -0.5503876209259033
-0.13947385549545288 -0.11627906560897827 -0.5348837375640869
-0.1417730152606964 -0.11627906560897827 -0.5193798542022705
-0.14374656975269318 -0.11627906560897827 -0.5038759708404541
-0.14559617638587952 -0.11627906560897827 -0.4883720874786377
-0.13218644261360168 -0.11627906560897827 0.05426359176635742
-0.13482150435447693 -0.11627906560897827 0.06976747512817383
-0.13864722847938538 -0.11627906560897827 0.08527135848999023
-0.13994918763637543 -0.11627906560897827 0.10077524185180664
-0.1414000391960144 -0.11627906560897827 0.11627911776304245
-0.1421380192041397 -0.11627906560897827 0.1317828893661499
-0.1408166140317917 -0.11627906560897827 0.1472867727279663
-0.1378198117017746 -0.11627906560897827 0.16279065608978271
-0.13498960435390472 -0.11627906560897827 0.17829453945159912
-0.13324150443077087 -0.11627906560897827 0.19379842281341553
-0.14016751945018768 -0.11627906560897827 0.5813953876495361
-0.13451188802719116 -0.10077518224716187 -0.5968992114067078
-0.1381334662437439 -0.10077518224716187 -0.5813953876495361
-0.14091700315475464 -0.10077518224716187 -0.5658915042877197
-0.14355842769145966 -0.10077518969774246 -0.5503876209259033
-0.14584973454475403 -0.10077518969774246 -0.5348837375640869
-0.13358528912067413 -0.10077518224716187 -0.007751941680908203
-0.13646037876605988 -0.10077518224716187 0.007751941680908203
-0.1377256065607071 -0.10077518224716187 0.02325582504272461
-0.1383037120103836 -0.10077518224716187 0.038759708404541016
-0.13992786407470703 -0.10077518224716187 0.05426359176635742
-0.14195619523525238 -0.10077518224716187 0.06976747512817383
-0.1452418863773346 -0.10077518224716187 0.08527135848999023
-0.14654448628425598 -0.10077518224716187 0.10077524185180664
-0.14441150426864624 -0.10077518969774246 0.16279065608978271
-0.1416243314743042 -0.10077518224716187 0.17829453945159912
-0.139792799949646 -0.10077518224716187 0.19379842281341553
-0.13693058490753174 -0.10077518224716187 0.20930230617523193
-0.13422301411628723 -0.10077518224716187 0.22480618953704834
-0.14479906857013702 -0.10077518224716187 0.5813953876495361
-0.1333928108215332 -0.10077518224716187 0.5968992710113525
-0.13217970728874207 -0.08527129888534546 -0.643410861492157
-0.13594041764736176 -0.08527129888534546 -0.6279069781303406
-0.1388104110956192 -0.08527129888534546 -0.6124030947685242
-0.1412852704524994 -0.08527129888534546 -0.5968992114067078
-0.14433255791664124 -0.08527129888534546 -0.5813953876495361
-0.13255301117897034 -0.08527129888534546 -0.038759708404541016
-0.1351817548274994 -0.08527129888534546 -0.02325582504272461
-0.1396886110305786 -0.08527129888534546 -0.007751941680908203
-0.14349320530891418 -0.08527129888534546 0.007751941215246916
-0.14499065279960632 -0.08527130633592606 0.02325582504272461
-0.14530780911445618 -0.08527130633592606 0.038759708404541016
-0.14613741636276245 -0.08527129888534546 0.05426359176635742
-0.14648061990737915 -0.08527129888534546 0.17829453945159912
-0.14483033120632172 -0.08527129888534546 0.19379842281341553
-0.1423117071390152 -0.08527129888534546 0.20930230617523193
-0.13978520035743713 -0.08527129888534546 0.22480618953704834
-0.13573232293128967 -0.08527129888534546 0.24031007289886475
-0.13273264467716217 -0.08527129888534546 0.25581395626068115
-0.13369515538215637 -0.08527129888534546 0.27131783962249756
-0.13463012874126434 -0.08527129888534546 0.28682172298431396
-0.13256388902664185 -0.08527129888534546 0.30232560634613037
-0.13769879937171936 -0.08527129888534546 0.5968992710113525
-0.13204604387283325 -0.06976741552352905 -0.674418568611145
-0.1362185776233673 -0.06976741552352905 -0.6589146852493286
-0.13925626873970032 -0.06976741552352905 -0.643410861492157
-0.1415821611881256 -0.06976741552352905 -0.6279069781303406
-0.14450721442699432 -0.06976741552352905 -0.612403154373169
-0.13350248336791992 -0.06976741552352905 -0.28682172298431396
-0.13542042672634125 -0.06976741552352905 -0.27131783962249756
-0.1358392983675003 -0.06976741552352905 -0.25581395626068115
-0.13539475202560425 -0.06976741552352905 -0.24031007289886475
-0.13359472155570984 -0.06976741552352905 -0.22480618953704834
-0.13214324414730072 -0.06976741552352905 -0.20930230617523193
-0.13489234447479248 -0.06976741552352905 -0.13178294897079468
-0.13828778266906738 -0.06976741552352905 -0.11627906560897827
-0.13933934271335602 -0.06976741552352905 -0.10077518224716187
-0.13813185691833496 -0.06976741552352905 -0.08527129888534546
-0.13560505211353302 -0.06976741552352905 -0.06976741552352905
-0.13502152264118195 -0.06976741552352905 -0.05426359176635742
-0.1362512856721878 -0.06976741552352905 -0.038759708404541016
-0.13967883586883545 -0.06976741552352905 -0.02325582504272461
-0.14484171569347382 -0.06976741552352905 -0.007751941680908203
-0.14690938591957092 -0.06976741552352905 0.20930230617523193
-0.1448340117931366 -0.06976741552352905 0.22480618953704834
-0.14096570014953613 -0.06976741552352905 0.24031007289886475
-0.1375913769006729 -0.06976741552352905 0.25581395626068115
-0.13783854246139526 -0.06976741552352905 0.27131783962249756
-0.13884209096431732 -0.06976741552352905 0.28682172298431396
-0.13715530931949615 -0.06976741552352905 0.30232560634613037
-0.13271088898181915 -0.06976741552352905 0.3178294897079468
-0.1419716775417328 -0.06976741552352905 0.5968992710113525
-0.13451892137527466 -0.05426359176635742 -0.6899224519729614
-0.13890105485916138 -0.05426359176635742 -0.674418568611145
-0.14104719460010529 -0.05426359176635742 -0.6589146852493286
-0.14397665858268738 -0.05426359176635742 -0.643410861492157
-0.1470738798379898 -0.05426359176635742 -0.6279069781303406
-0.13236749172210693 -0.05426359176635742 -0.3643410801887512
-0.13457629084587097 -0.05426359176635742 -0.3488371968269348
-0.1359691321849823 -0.05426359176635742 -0.3333333134651184
-0.1369924545288086 -0.05426359176635742 -0.317829430103302
-0.1388804018497467 -0.05426359176635742 -0.30232560634613037
-0.14004629850387573 -0.05426359176635742 -0.28682172298431396
-0.14151215553283691 -0.05426359176635742 -0.27131783962249756
-0.1422058790922165 -0.05426359176635742 -0.25581395626068115
-0.14228513836860657 -0.05426359176635742 -0.24031007289886475
-0.14117766916751862 -0.05426359176635742 -0.22480618953704834
-0.14047552645206451 -0.05426359176635742 -0.20930230617523193
-0.14006772637367249 -0.05426359176635742 -0.19379842281341553
-0.13944393396377563 -0.05426359176635742 -0.1782945990562439
-0.13932175934314728 -0.05426359176635742 -0.1627907156944275
-0.14092198014259338 -0.05426359176635742 -0.14728683233261108
-0.14369994401931763 -0.05426359176635742 -0.13178294897079468
-0.1462944597005844 -0.05426359176635742 -0.11627906560897827
-0.14725613594055176 -0.05426359176635742 -0.10077518224716187
-0.14536866545677185 -0.05426359176635742 -0.08527129888534546
-0.1417556256055832 -0.05426359176635742 -0.06976741552352905
-0.1401989459991455 -0.05426359176635742 -0.05426359176635742
-0.1414104402065277 -0.05426359176635742 -0.038759708404541016
-0.1449870467185974 -0.05426359176635742 -0.02325582504272461
-0.14564818143844604 -0.05426359176635742 0.24031008780002594
-0.14206787943840027 -0.05426359176635742 0.25581395626068115
-0.14172260463237762 -0.05426359176635742 0.27131783962249756
-0.1430424004793167 -0.05426359176635742 0.28682172298431396
-0.14248228073120117 -0.05426359176635742 0.30232560634613037
-0.1387859284877777 -0.05426359176635742 0.3178294897079468
-0.133221834897995 -0.05426359176635742 0.3333333730697632
-0.1377597153186798 -0.05426359176635742 0.612403154373169
-0.13989734649658203 -0.05426359176635742 0.7984496355056763
-0.14358839392662048 -0.05426359176635742 0.8139535188674927
-0.13551780581474304 -0.038759708404541016 -0.7054263353347778
-0.1396160125732422 -0.038759708404541016 -0.6899224519729614
-0.14230038225650787 -0.038759708404541016 -0.674418568611145
-0.1454390585422516 -0.038759708404541016 -0.6589146852493286
-0.13299022614955902 -0.038759708404541016 -0.41085273027420044
-0.1333887279033661 -0.038759708404541016 -0.39534884691238403
-0.13522690534591675 -0.038759708404541016 -0.3798449635505676
-0.1373741328716278 -0.038759708404541016 -0.3643410801887512
-0.1396106481552124 -0.038759708404541016 -0.3488371968269348
-0.1410493552684784 -0.038759708404541016 -0.3333333134651184
-0.14205576479434967 -0.038759708404541016 -0.317829430103302
-0.1437055468559265 -0.038759708404541016 -0.30232560634613037
-0.1447593718767166 -0.038759708404541016 -0.28682172298431396
-0.1462039351463318 -0.038759708404541016 -0.27131783962249756
-0.14687475562095642 -0.038759708404541016 0.25581395626068115
-0.14589762687683105 -0.038759708404541016 0.27131783962249756
-0.14641346037387848 -0.038759708404541016 0.3178294599056244
-0.14098259806632996 -0.038759708404541016 0.3333333730697632
-0.1340392827987671 -0.038759708404541016 0.3488372564315796
-0.14245635271072388 -0.038759708404541016 0.612403154373169
-0.1457822024822235 -0.038759708404541016 0.8139535188674927
-0.13436320424079895 -0.02325582504272461 -0.7209302186965942
-0.13938167691230774 -0.02325582504272461 -0.7054263353347778
-0.1423139125108719 -0.02325582504272461 -0.6899224519729614
-0.14590705931186676 -0.02325582504272461 -0.674418568611145
-0.13278517127037048 -0.02325582504272461 -0.4573643207550049
-0.1345018893480301 -0.02325582504272461 -0.4418604373931885
-0.13585923612117767 -0.02325582504272461 -0.42635661363601685
-0.1370186060667038 -0.02325582504272461 -0.41085273027420044
-0.1374698281288147 -0.02325582504272461 -0.39534884691238403
-0.13929933309555054 -0.02325582504272461 -0.3798449635505676
-0.1415042281150818 -0.02325582504272461 -0.3643410801887512
-0.1438681036233902 -0.02325582504272461 -0.3488371968269348
-0.1456199586391449 -0.02325582318007946 -0.3333333134651184
-0.14691710472106934 -0.02325582690536976 -0.3178294599056244
-0.14469031989574432 -0.02325582504272461 0.348837286233902
-0.13646604120731354 -0.02325582504272461 0.364341139793396
-0.13614708185195923 -0.02325582504272461 0.6279069185256958
-0.13753022253513336 -0.007751941680908203 -0.7209302186965942
-0.14076447486877441 -0.007751941680908203 -0.7054263353347778
-0.14458756148815155 -0.007751941680908203 -0.6899224519729614
-0.13259616494178772 -0.007751941680908203 -0.4728682041168213
-0.13453762233257294 -0.007751941680908203 -0.4573643207550049
-0.13626784086227417 -0.007751941680908203 -0.4418604373931885
-0.13766273856163025 -0.007751941680908203 -0.42635661363601685
-0.1388106346130371 -0.007751941680908203 -0.41085273027420044
-0.13949140906333923 -0.007751941680908203 -0.39534884691238403
-0.1415555477142334 -0.007751941215246916 -0.3798449635505676
-0.1440279334783554 -0.007751941680908203 -0.36434105038642883
-0.1466703712940216 -0.007751941680908203 -0.3488371968269348
-0.14632762968540192 -0.007751941680908203 0.06976747512817383
-0.14446192979812622 -0.00775194214656949 0.3643411695957184
-0.13886593282222748 -0.007751941680908203 0.37984490394592285
-0.138936385512352 -0.007751941680908203 0.6279069185256958
-0.1376013308763504 0.007751941680908203 -0.7209302186965942
-0.14071694016456604 0.007751941680908203 -0.7054263353347778
-0.14464105665683746 0.007751941680908203 -0.6899224519729614
-0.13273091614246368 0.007751941680908203 -0.4728682041168213
-0.13457050919532776 0.007751941680908203 -0.4573643207550049
-0.13627438247203827 0.007751941680908203 -0.4418604373931885
-0.1378432810306549 0.007751941680908203 -0.42635661363601685
-0.13930808007717133 0.007751941680908203 -0.41085273027420044
-0.14055465161800385 0.007751941680908203 -0.39534884691238403
-0.14329379796981812 0.007751941680908203 -0.3798449635505676
-0.14649437367916107 0.007751941215246916 -0.36434105038642883
-0.13985797762870789 0.007751941680908203 0.05426359176635742
-0.1364109367132187 0.007751941680908203 0.06976747512817383
-0.1375536173582077 0.007751941680908203 0.08527135848999023
-0.14301347732543945 0.007751941680908203 0.10077524185180664
-0.14504003524780273 0.007751941680908203 0.364341139793396
-0.1389075368642807 0.007751941680908203 0.37984490394592285
-0.13999725878238678 0.007751941680908203 0.6279069185256958
-0.1337142437696457 0.02325582504272461 -0.7209302186965942
-0.1389590948820114 0.02325582504272461 -0.7054263353347778
-0.14135798811912537 0.02325582504272461 -0.6899224519729614
-0.14512792229652405 0.02325582504272461 -0.674418568611145
-0.1332915872335434 0.02325582504272461 -0.4418604373931885
-0.13507433235645294 0.02325582504272461 -0.42635661363601685
-0.13706961274147034 0.02325582504272461 -0.41085273027420044
-0.13895732164382935 0.02325582504272461 -0.39534884691238403
-0.1425795704126358 0.02325582690536976 -0.37984499335289
-0.14655326306819916 0.02325582504272461 -0.3643410801887512
-0.13363231718540192 0.02325582504272461 0.05426359176635742
-0.1397629678249359 0.02325582504272461 0.11627912521362305
-0.14331482350826263 0.02325582504272461 0.364341139793396
-0.13726556301116943 0.02325582504272461 0.37984490394592285
-0.14020797610282898 0.02325582504272461 0.6279069185256958
-0.13294242322444916 0.038759708404541016 -0.7054263353347778
-0.13735002279281616 0.038759708404541016 -0.6899224519729614
-0.140001118183136 0.038759708404541016 -0.674418568611145
-0.14219249784946442 0.038759708404541016 -0.6589146852493286
-0.14515931904315948 0.038759708404541016 -0.643410861492157
-0.1331397444009781 0.038759708404541016 -0.42635661363601685
-0.13572975993156433 0.038759708404541016 -0.41085273027420044
-0.13819219172000885 0.038759708404541016 -0.39534884691238403
-0.14236241579055786 0.038759708404541016 -0.3798449635505676
-0.14663539826869965 0.038759708404541016 -0.3643410801887512
-0.14086855947971344 0.038759708404541016 0.11627912521362305
-0.14241258800029755 0.038759708404541016 0.364341139793396
-0.13747593760490417 0.038759708404541016 0.37984490394592285
-0.13953088223934174 0.038759708404541016 0.6279069185256958
-0.13379594683647156 0.05426359176635742 -0.674418568611145
-0.13713282346725464 0.05426359176635742 -0.6589146852493286
-0.13914090394973755 0.05426359176635742 -0.643410861492157
-0.1409759223461151 0.05426359176635742 -0.6279069781303406
-0.1436188817024231 0.05426359176635742 -0.6124030947685242
-0.13345378637313843 0.05426359176635742 -0.41085273027420044
-0.13583821058273315 0.05426359176635742 -0.39534884691238403
-0.13966748118400574 0.05426359176635742 -0.3798449635505676
-0.14347884058952332 0.05426359176635742 -0.3643411099910736
-0.14701035618782043 0.05426359176635742 -0.3488371968269348
-0.1464722603559494 0.05426358804106712 -0.06976741552352905
-0.14479327201843262 0.05426359176635742 -0.05426359176635742
-0.1454431265592575 0.05426359176635742 -0.038759708404541016
-0.1444445550441742 0.05426359176635742 0.06976747512817383
-0.13906799256801605 0.05426359176635742 0.08527135848999023
-0.13977161049842834 0.05426359176635742 0.10077524185180664
-0.14491960406303406 0.05426359176635742 0.11627912521362305
-0.14604128897190094 0.05426359176635742 0.25581395626068115
-0.14555063843727112 0.05426359176635742 0.3488372564315796
-0.13956040143966675 0.05426359176635742 0.364341139793396
-0.13488852977752686 0.05426359176635742 0.37984490394592285
-0.13789159059524536 0.05426359176635742 0.6279069185256958
-0.13268330693244934 0.06976747512817383 -0.643410861492157
-0.13559237122535706 0.06976747512817383 -0.6279069781303406
-0.13816025853157043 0.06976747512817383 -0.6124030947685242
-0.14041735231876373 0.06976747512817383 -0.5968992114067078
-0.1433926671743393 0.06976747512817383 -0.5813953876495361
-0.1348608136177063 0.06976747512817383 -0.3798449635505676
-0.13810111582279205 0.06976747512817383 -0.3643410801887512
-0.14121383428573608 0.06976747512817383 -0.3488371968269348
-0.1439637541770935 0.06976747512817383 -0.3333333134651184
-0.14614786207675934 0.06976747512817383 -0.3178294003009796
-0.14670942723751068 0.06976747512817383 -0.14728683233261108
-0.14561398327350616 0.06976747512817383 -0.13178294897079468
-0.1457739621400833 0.06976747512817383 -0.11627906560897827
-0.1465909779071808 0.06976748257875443 -0.10077518969774246
-0.14560651779174805 0.06976747512817383 -0.08527129888534546
-0.1421058624982834 0.06976747512817383 -0.06976741552352905
-0.14034660160541534 0.06976747512817383 -0.05426359176635742
-0.14032071828842163 0.06976747512817383 -0.038759708404541016
-0.14226968586444855 0.06976747512817383 -0.02325582504272461
-0.145544171333313 0.06976747512817383 -0.007751941680908203
-0.1460927128791809 0.06976747512817383 0.08527135848999023
-0.14448681473731995 0.06976747512817383 0.10077524185180664
-0.14583571255207062 0.06976747512817383 0.11627912521362305
-0.1462685763835907 0.06976747512817383 0.22480618953704834
-0.14366646111011505 0.06976747512817383 0.24031005799770355
-0.14316663146018982 0.06976747512817383 0.25581395626068115
-0.1460738182067871 0.06976747512817383 0.27131783962249756
-0.1470424085855484 0.06976747512817383 0.3333333730697632
-0.14208254218101501 0.06976747512817383 0.3488372564315796
-0.13590079545974731 0.06976747512817383 0.364341139793396
-0.13517172634601593 0.06976747512817383 0.6279069185256958
-0.13447703421115875 0.08527135848999023 -0.5968992114067078
-0.13787919282913208 0.08527135848999023 -0.5813953876495361
-0.14045965671539307 0.08527135848999023 -0.5658915042877197
-0.1431339681148529 0.08527135848999023 -0.5503876209259033
-0.14588457345962524 0.08527135848999023 -0.5348837375640869
-0.13441702723503113 0.08527135848999023 -0.3488371968269348
-0.13704027235507965 0.08527135848999023 -0.3333333134651184
-0.1393369883298874 0.08527135848999023 -0.317829430103302
-0.14223256707191467 0.08527135848999023 -0.30232560634613037
-0.1442861407995224 0.08527135848999023 -0.28682172298431396
-0.14675182104110718 0.08527135103940964 -0.27131783962249756
-0.145545095205307 0.08527135848999023 -0.1782945990562439
-0.14302527904510498 0.08527135848999023 -0.1627907156944275
-0.14101102948188782 0.08527135848999023 -0.14728683233261108
-0.14052604138851166 0.08527135848999023 -0.13178294897079468
-0.14136475324630737 0.08527135848999023 -0.11627906560897827
-0.14243580400943756 0.08527135848999023 -0.10077518224716187
-0.14174050092697144 0.08527135848999023 -0.08527129888534546
-0.13896319270133972 0.08527135848999023 -0.06976741552352905
-0.13737687468528748 0.08527135848999023 -0.05426359176635742
-0.13654592633247375 0.08527135848999023 -0.038759708404541016
-0.13754412531852722 0.08527135848999023 -0.02325582504272461
-0.14014235138893127 0.08527135848999023 -0.007751941680908203
-0.14185717701911926 0.08527135848999023 0.007751941680908203
-0.14254677295684814 0.08527135848999023 0.02325582504272461
-0.14369913935661316 0.08527135848999023 0.038759708404541016
-0.1454102247953415 0.08527135848999023 0.05426359176635742
-0.14620298147201538 0.08527135848999023 0.06976747512817383
-0.14643152058124542 0.08527135103940964 0.08527135103940964
-0.14569546282291412 0.08527135848999023 0.10077524185180664
-0.14646539092063904 0.08527135848999023 0.11627912521362305
-0.1467268466949463 0.08527135848999023 0.17829453945159912
-0.1450229436159134 0.08527135848999023 0.19379840791225433
-0.1419132649898529 0.08527135848999023 0.20930230617523193
-0.139121413230896 0.08527135848999023 0.22480618953704834
-0.1374748796224594 0.08527135848999023 0.24031007289886475
-0.13846340775489807 0.08527135848999023 0.25581395626068115
-0.14283648133277893 0.08527135848999023 0.27131783962249756
-0.14695829153060913 0.08527135848999023 0.28682172298431396
-0.14338776469230652 0.08527135848999023 0.3333333730697632
-0.13811174035072327 0.08527135848999023 0.3488372564315796
-0.14388680458068848 0.08527135103940964 0.612403154373169
-0.13184958696365356 0.08527135848999023 0.6279069185256958
-0.13295236229896545 0.10077524185180664 -0.5658915042877197
-0.13630454242229462 0.10077524185180664 -0.5503876209259033
-0.13881751894950867 0.10077524185180664 -0.5348837375640869
-0.14170460402965546 0.10077524185180664 -0.5193798542022705
-0.14457230269908905 0.10077524185180664 -0.5038759708404541
-0.13208241760730743 0.10077524185180664 -0.317829430103302
-0.1346943974494934 0.10077524185180664 -0.30232560634613037
-0.13658533990383148 0.10077524185180664 -0.28682172298431396
-0.13901492953300476 0.10077524185180664 -0.27131783962249756
-0.14075665175914764 0.10077524185180664 -0.25581395626068115
-0.14145410060882568 0.10077524185180664 -0.24031007289886475
-0.1405353546142578 0.10077524185180664 -0.22480618953704834
-0.13937507569789886 0.10077524185180664 -0.20930230617523193
-0.13858777284622192 0.10077524185180664 -0.19379842281341553
-0.13635002076625824 0.10077524185180664 -0.1782945990562439
-0.13429351150989532 0.10077524185180664 -0.1627907156944275
-0.13314829766750336 0.10077524185180664 -0.14728683233261108
-0.13389204442501068 0.10077524185180664 -0.13178294897079468
-0.13578413426876068 0.10077524185180664 -0.11627906560897827
-0.13747882843017578 0.10077524185180664 -0.10077518224716187
-0.13746683299541473 0.10077524185180664 -0.08527129888534546
-0.135390043258667 0.10077524185180664 -0.06976741552352905
-0.13373316824436188 0.10077524185180664 -0.05426359176635742
-0.13349667191505432 0.10077524185180664 -0.007751941680908203
-0.1351931095123291 0.10077524185180664 0.007751941680908203
-0.13607922196388245 0.10077524185180664 0.02325582504272461
-0.1368776559829712 0.10077524185180664 0.038759708404541016
-0.13856381177902222 0.10077524185180664 0.05426359176635742
-0.14059725403785706 0.10077524185180664 0.06976747512817383
-0.14285610616207123 0.10077523440122604 0.08527135848999023
-0.14355114102363586 0.10077524185180664 0.10077524185180664
-0.14456479251384735 0.10077524185180664 0.11627912521362305
-0.14555640518665314 0.10077524185180664 0.1317828893661499
-0.1445341557264328 0.10077524185180664 0.1472867727279663
-0.14161832630634308 0.10077524185180664 0.16279065608978271
-0.13856536149978638 0.10077524185180664 0.17829453945159912
-0.13577207922935486 0.10077524185180664 0.19379842281341553
-0.13751940429210663 0.10077524185180664 0.27131783962249756
-0.1423681378364563 0.10077524185180664 0.28682172298431396
-0.1446792334318161 0.10077524185180664 0.30232560634613037
-0.1432252824306488 0.10077524185180664 0.3178294897079468
-0.13913002610206604 0.10077524185180664 0.3333333730697632
-0.13322953879833221 0.10077524185180664 0.3488372564315796
-0.13948586583137512 0.10077524185180664 0.612403154373169
-0.13239113986492157 0.11627912521362305 -0.5193798542022705
-0.136051207780838 0.11627912521362305 -0.5038759708404541
-0.13898542523384094 0.11627912521362305 -0.4883720874786377
-0.1420014202594757 0.11627912521362305 -0.4728682041168213
-0.14492788910865784 0.11627911776304245 -0.4573643207550049
-0.13202276825904846 0.11627912521362305 -0.24031007289886475
-0.13352465629577637 0.11627912521362305 0.06976747512817383
-0.13645802438259125 0.11627912521362305 0.08527135848999023
-0.13766713440418243 0.11627912521362305 0.10077524185180664
-0.13885827362537384 0.11627912521362305 0.11627912521362305
-0.139332115650177 0.11627912521362305 0.1317828893661499
-0.13735130429267883 0.11627912521362305 0.1472867727279663
-0.13334506750106812 0.11627912521362305 0.16279065608978271
-0.1368054449558258 0.11627912521362305 0.28682172298431396
-0.13977351784706116 0.11627912521362305 0.30232560634613037
-0.1385832130908966 0.11627912521362305 0.3178294897079468
-0.134365975856781 0.11627912521362305 0.3333333730697632
-0.1466611921787262 0.11627912521362305 0.5968992710113525
-0.13505181670188904 0.11627912521362305 0.612403154373169
-0.13538764417171478 0.1317828893661499 -0.4573643207550049
-0.13884107768535614 0.1317828893661499 -0.4418604373931885
-0.14211104810237885 0.1317828893661499 -0.42635664343833923
-0.14489015936851501 0.1317828893661499 -0.41085273027420044
-0.13323400914669037 0.1317828893661499 0.30232560634613037
-0.132457435131073 0.1317828893661499 0.3178294897079468
-0.1418895721435547 0.1317828893661499 0.5968992710113525
-0.1337863653898239 0.1472867727279663 -0.41085273027420044
-0.13745850324630737 0.1472867727279663 -0.39534884691238403
-0.14085505902767181 0.1472867727279663 -0.3798449635505676
-0.143600195646286 0.1472867727279663 -0.3643410801887512
-0.14633357524871826 0.1472867727279663 -0.3488371968269348
-0.1464136689901352 0.1472867727279663 0.5813953876495361
-0.13403883576393127 0.1472867727279663 0.5968992710113525
-0.13404083251953125 0.16279065608978271 -0.3488371968269348
-0.13721516728401184 0.16279065608978271 -0.3333333134651184
-0.14056697487831116 0.16279065608978271 -0.317829430103302
-0.1435423344373703 0.16279065608978271 -0.30232560634613037
-0.14580181241035461 0.16279064118862152 -0.2868216931819916
-0.1457453966140747 0.16279065608978271 0.5658915042877197
-0.13417872786521912 0.16279065608978271 0.5813953876495361
-0.1318242847919464 0.17829453945159912 -0.28682172298431396
-0.1353425532579422 0.17829453945159912 -0.27131783962249756
-0.13858821988105774 0.17829453945159912 -0.25581395626068115
-0.14141985774040222 0.17829453945159912 -0.24031007289886475
-0.14354616403579712 0.17829453945159912 -0.22480618953704834
-0.14538726210594177 0.17829453945159912 -0.20930230617523193
-0.14721310138702393 0.17829452455043793 -0.19379840791225433
-0.14521750807762146 0.17829453945159912 0.5348837375640869
-0.13729430735111237 0.17829453945159912 0.5503876209259033
-0.13415665924549103 0.19379842281341553 -0.1782945990562439
-0.13652250170707703 0.19379842281341553 -0.1627907156944275
-0.13860321044921875 0.19379842281341553 -0.14728683233261108
-0.14058038592338562 0.19379842281341553 -0.13178294897079468
-0.14219559729099274 0.19379842281341553 -0.11627906560897827
-0.14346523582935333 0.19379842281341553 -0.10077518224716187
-0.14431558549404144 0.19379842281341553 -0.08527129888534546
-0.14487266540527344 0.19379842281341553 -0.06976741552352905
-0.14510104060173035 0.19379842281341553 -0.05426359176635742
-0.14539630711078644 0.19379842281341553 -0.038759712129831314
-0.14603644609451294 0.19379842281341553 -0.02325582318007946
-0.14602568745613098 0.19379842281341553 0.4728682041168213
-0.1435939520597458 0.19379842281341553 0.4883720874786377
-0.13765761256217957 0.19379842281341553 0.5038759708404541
-0.14499695599079132 0.19379842281341553 0.922480583190918
-0.13197536766529083 0.20930230617523193 0.007751941680908203
-0.13490475714206696 0.20930230617523193 0.02325582504272461
-0.13704052567481995 0.20930230617523193 0.038759708404541016
-0.1384146809577942 0.20930230617523193 0.05426359176635742
-0.1392594277858734 0.20930230617523193 0.06976747512817383
-0.13997943699359894 0.20930230617523193 0.08527135848999023
-0.14041663706302643 0.20930230617523193 0.10077524185180664
-0.1407090574502945 0.20930230617523193 0.11627912521362305
-0.14082032442092896 0.20930230617523193 0.1317828893661499
-0.14084766805171967 0.20930230617523193 0.1472867727279663
-0.14079424738883972 0.20930230617523193 0.16279065608978271
-0.14071783423423767 0.20930230617523193 0.17829453945159912
-0.14052653312683105 0.20930230617523193 0.19379842281341553
-0.14014939963817596 0.20930230617523193 0.20930230617523193
-0.13974061608314514 0.20930230617523193 0.22480618953704834
-0.13913273811340332 0.20930230617523193 0.24031007289886475
-0.13872259855270386 0.20930230617523193 0.25581395626068115
-0.13836586475372314 0.20930230617523193 0.27131783962249756
-0.13793118298053741 0.20930230617523193 0.28682172298431396
-0.13762104511260986 0.20930230617523193 0.30232560634613037
-0.1373506635427475 0.20930230617523193 0.3178294897079468
-0.13703039288520813 0.20930230617523193 0.3333333730697632
-0.13704530894756317 0.20930230617523193 0.3488372564315796
-0.13694541156291962 0.20930230617523193 0.364341139793396
-0.13665053248405457 0.20930230617523193 0.37984490394592285
-0.13569718599319458 0.20930230617523193 0.39534878730773926
-0.13449718058109283 0.20930230617523193 0.41085267066955566
-0.13232196867465973 0.20930230617523193 0.42635655403137207
-0.11851218342781067 -0.20930230617523193 -0.02325582504272461
-0.12130993604660034 -0.20930230617523193 -0.007751941680908203
-0.12333022803068161 -0.20930230617523193 0.007751941680908203
-0.12459250539541245 -0.20930230617523193 0.02325582504272461
-0.12573376297950745 -0.20930230617523193 0.038759708404541016
-0.1265610307455063 -0.20930230617523193 0.05426359176635742
-0.12737376987934113 -0.20930230617523193 0.06976747512817383
-0.1280122548341751 -0.20930230617523193 0.08527135848999023
-0.1282341182231903 -0.20930230617523193 0.10077524185180664
-0.12831348180770874 -0.20930230617523193 0.11627912521362305
-0.1282249093055725 -0.20930232107639313 0.1317828893661499
-0.12809409201145172 -0.20930230617523193 0.1472867727279663
-0.1279396414756775 -0.20930230617523193 0.16279065608978271
-0.12830379605293274 -0.20930230617523193 0.17829453945159912
-0.12864990532398224 -0.20930230617523193 0.19379842281341553
-0.12841205298900604 -0.20930230617523193 0.20930230617523193
-0.12771816551685333 -0.20930230617523193 0.22480618953704834
-0.12741418182849884 -0.20930230617523193 0.24031007289886475
-0.1274278163909912 -0.20930230617523193 0.25581395626068115
-0.12746204435825348 -0.20930230617523193 0.27131783962249756
-0.1274290382862091 -0.20930230617523193 0.28682172298431396
-0.1264505684375763 -0.20930230617523193 0.30232560634613037
-0.12544575333595276 -0.20930230617523193 0.3178294897079468
-0.12476140260696411 -0.20930230617523193 0.3333333730697632
-0.1247190311551094 -0.20930230617523193 0.3488372564315796
-0.12474057078361511 -0.20930230617523193 0.364341139793396
-0.12469113618135452 -0.20930230617523193 0.37984490394592285
-0.12389842420816422 -0.20930230617523193 0.39534878730773926
-0.12236490845680237 -0.20930230617523193 0.41085267066955566
-0.12047165632247925 -0.20930230617523193 0.42635655403137207
-0.11872895061969757 -0.20930230617523193 0.4418604373931885
-0.11772981286048889 -0.20930230617523193 0.4573643207550049
-0.1172042265534401 -0.20930230617523193 0.4728682041168213
-0.11677952855825424 -0.19379842281341553 -0.25581395626068115
-0.12042665481567383 -0.19379842281341553 -0.24031007289886475
-0.12361790239810944 -0.19379842281341553 -0.22480618953704834
-0.1265033483505249 -0.19379842281341553 -0.20930230617523193
-0.12866173684597015 -0.19379842281341553 -0.19379842281341553
-0.1302211582660675 -0.19379842281341553 -0.1782945990562439
-0.1272432804107666 -0.19379842281341553 0.5193798542022705
-0.12014865130186081 -0.19379842281341553 0.5348837375640869
-0.1203610748052597 -0.1782945990562439 -0.3333333134651184
-0.12499585747718811 -0.1782945990562439 -0.317829430103302
-0.1289326697587967 -0.1782946139574051 -0.30232560634613037
-0.12477219849824905 -0.1782945990562439 0.5503876209259033
-0.11807018518447876 -0.1627907156944275 -0.42635661363601685
-0.1229996383190155 -0.1627907156944275 -0.41085273027420044
-0.1272713840007782 -0.1627907156944275 -0.39534884691238403
-0.13016682863235474 -0.1627907156944275 -0.3798449635505676
-0.1255539506673813 -0.1627907156944275 0.5658915042877197
-0.11658642441034317 -0.14728683233261108 -0.5038759708404541
-0.12059984356164932 -0.14728683233261108 -0.4883720874786377
-0.12530070543289185 -0.14728683233261108 -0.4728682041168213
-0.12900860607624054 -0.14728683233261108 -0.4573643207550049
-0.12396243214607239 -0.14728683233261108 0.5813953876495361
-0.11890192329883575 -0.13178294897079468 -0.5658915042877197
-0.12387320399284363 -0.13178294897079468 -0.5503876209259033
-0.12825551629066467 -0.13178294897079468 -0.5348837375640869
-0.13130809366703033 -0.13178293406963348 -0.5193798542022705
-0.11834600567817688 -0.13178294897079468 0.05426359176635742
-0.1224299892783165 -0.13178294897079468 0.06976747512817383
-0.12750403583049774 -0.13178294897079468 0.08527135848999023
-0.12897534668445587 -0.13178294897079468 0.10077524185180664
-0.13025669753551483 -0.13178294897079468 0.11627912521362305
-0.13073430955410004 -0.13178294897079468 0.1317828893661499
-0.12923592329025269 -0.13178294897079468 0.1472867727279663
-0.1261271983385086 -0.13178294897079468 0.16279065608978271
-0.12293960154056549 -0.13178294897079468 0.17829453945159912
-0.12130739539861679 -0.13178294897079468 0.19379842281341553
-0.11834698915481567 -0.13178294897079468 0.20930230617523193
-0.11799930781126022 -0.13178294897079468 0.27131783962249756
-0.12079145014286041 -0.13178294897079468 0.28682172298431396
-0.12048123776912689 -0.13178294897079468 0.30232560634613037
-0.1175115555524826 -0.13178294897079468 0.3178294897079468
-0.12119568139314651 -0.13178294897079468 0.5968992710113525
-0.11802352219820023 -0.11627906560897827 -0.612403154373169
-0.1228618174791336 -0.11627906560897827 -0.5968992114067078
-0.12923142313957214 -0.11627906560897827 -0.5813953876495361
-0.1185021847486496 -0.11627906560897827 -0.05426359176635742
-0.12024425715208054 -0.11627906560897827 -0.038759708404541016
-0.1216978058218956 -0.11627906560897827 -0.02325582504272461
-0.12474291026592255 -0.11627906560897827 -0.007751941680908203
-0.12682722508907318 -0.11627906560897827 0.007751941680908203
-0.12782464921474457 -0.11627906560897827 0.02325582504272461
-0.12922796607017517 -0.11627906560897827 0.038759708404541016
-0.12987180054187775 -0.11627906560897827 0.20930230617523193
-0.12664437294006348 -0.11627906560897827 0.22480618953704834
-0.12262387573719025 -0.11627906560897827 0.24031007289886475
-0.12117695063352585 -0.11627906560897827 0.25581395626068115
-0.12453141808509827 -0.11627906560897827 0.27131783962249756
-0.12657815217971802 -0.11627906560897827 0.28682172298431396
-0.12542465329170227 -0.11627906560897827 0.30232560634613037
-0.12209901213645935 -0.11627906560897827 0.3178294897079468
-0.11695221066474915 -0.11627906560897827 0.3333333730697632
-0.1270570456981659 -0.11627906560897827 0.5968992710113525
-0.117355115711689 -0.10077518224716187 -0.6589146852493286
-0.12172755599021912 -0.10077518224716187 -0.643410861492157
-0.12604224681854248 -0.10077518224716187 -0.6279069781303406
-0.13085636496543884 -0.10077518224716187 -0.6124030947685242
-0.11672978103160858 -0.10077518224716187 -0.11627906560897827
-0.1198887899518013 -0.10077518224716187 -0.10077518224716187
-0.1221529021859169 -0.10077518224716187 -0.08527129888534546
-0.12339848279953003 -0.10077518224716187 -0.06976741552352905
-0.126830592751503 -0.10077517479658127 -0.05426359176635742
-0.12797918915748596 -0.10077518224716187 -0.038759708404541016
-0.13003727793693542 -0.10077518224716187 -0.02325582504272461
-0.13004085421562195 -0.10077518224716187 0.24031008780002594
-0.12721844017505646 -0.10077517479658127 0.25581395626068115
-0.12947699427604675 -0.10077518224716187 0.27131783962249756
-0.13086658716201782 -0.10077517479658127 0.28682172298431396
-0.12891553342342377 -0.10077518224716187 0.30232560634613037
-0.12484726309776306 -0.10077518224716187 0.3178294897079468
-0.11920058727264404 -0.10077518224716187 0.3333333730697632
-0.11955537647008896 -0.10077518224716187 0.612403154373169
-0.1195557564496994 -0.08527129888534546 -0.6899224519729614
-0.12379641830921173 -0.08527129888534546 -0.674418568611145
-0.1281214952468872 -0.08527129888534546 -0.6589146852493286
-0.11977773904800415 -0.08527129888534546 -0.30232560634613037
-0.12350964546203613 -0.08527129888534546 -0.28682172298431396
-0.1267639547586441 -0.08527129888534546 -0.27131783962249756
-0.12718692421913147 -0.08527129888534546 -0.25581395626068115
-0.12641115486621857 -0.08527129888534546 -0.24031007289886475
-0.12424018979072571 -0.08527129888534546 -0.22480618953704834
-0.12271556258201599 -0.08527129888534546 -0.20930230617523193
-0.12205858528614044 -0.08527129888534546 -0.19379842281341553
-0.12072432041168213 -0.08527129888534546 -0.1782945990562439
-0.11996503174304962 -0.08527129888534546 -0.1627907156944275
-0.12108421325683594 -0.08527129888534546 -0.14728683233261108
-0.1245633065700531 -0.08527129888534546 -0.13178294897079468
-0.1285635232925415 -0.08527129888534546 -0.11627906560897827
-0.13062162697315216 -0.08527129888534546 -0.10077518224716187
-0.13124634325504303 -0.08527129888534546 -0.08527129888534546
-0.13040319085121155 -0.08527129888534546 -0.06976741552352905
-0.13142932951450348 -0.08527129888534546 -0.05426359176635742
-0.1277657449245453 -0.08527129888534546 0.3178294897079468
-0.12166827917098999 -0.08527129888534546 0.3333333730697632
-0.12369921803474426 -0.08527129888534546 0.612403154373169
-0.11759603768587112 -0.06976741552352905 -0.7209302186965942
-0.12331195175647736 -0.06976741552352905 -0.7054263353347778
-0.12758255004882812 -0.06976741552352905 -0.6899224519729614
-0.11668798327445984 -0.06976741552352905 -0.3798449635505676
-0.12008236348628998 -0.06976741552352905 -0.3643410801887512
-0.12351647019386292 -0.06976741552352905 -0.3488371968269348
-0.12597662210464478 -0.06976741552352905 -0.3333333134651184
-0.12810193002223969 -0.06976741552352905 -0.317829430103302
-0.1316630095243454 -0.06976741552352905 -0.30232560634613037
-0.13123741745948792 -0.06976741552352905 -0.19379843771457672
-0.13015945255756378 -0.06976741552352905 -0.1782945990562439
-0.12983639538288116 -0.06976741552352905 -0.1627907156944275
-0.13133466243743896 -0.06976742297410965 -0.14728683233261108
-0.1262916624546051 -0.06976741552352905 0.3333333730697632
-0.12003015726804733 -0.06976741552352905 0.3488372564315796
-0.13024435937404633 -0.06976741552352905 0.612403154373169
-0.11885851621627808 -0.05426359176635742 -0.7364341020584106
-0.12427447736263275 -0.05426359176635742 -0.7209302186965942
-0.12947960197925568 -0.05426359176635742 -0.7054263353347778
-0.117284394800663 -0.05426359176635742 -0.4573643207550049
-0.12123249471187592 -0.05426359176635742 -0.4418604373931885
-0.12392595410346985 -0.05426359176635742 -0.42635661363601685
-0.12625369429588318 -0.05426359176635742 -0.41085273027420044
-0.1272156536579132 -0.05426359176635742 -0.39534884691238403
-0.12985846400260925 -0.05426358804106712 -0.37984493374824524
-0.12662415206432343 -0.05426359176635742 0.3488372564315796
-0.12024098634719849 -0.05426359176635742 0.364341139793396
-0.12285417318344116 -0.05426359176635742 0.6279069185256958
-0.1164960190653801 -0.05426359176635742 0.7829457521438599
-0.117296501994133 -0.038759708404541016 -0.751937985420227
-0.12390504777431488 -0.038759708404541016 -0.7364341020584106
-0.1295686960220337 -0.038759708404541016 -0.7209302186965942
-0.12020918726921082 -0.038759708404541016 -0.4883720874786377
-0.12392717599868774 -0.038759708404541016 -0.4728682041168213
-0.12703540921211243 -0.038759708404541016 -0.4573643207550049
-0.12980741262435913 -0.038759708404541016 -0.4418604373931885
-0.13169632852077484 -0.038759708404541016 -0.42635661363601685
-0.1255122423171997 -0.038759708404541016 0.364341139793396
-0.11870290338993073 -0.038759708404541016 0.37984490394592285
-0.12988606095314026 -0.03875970467925072 0.6279069185256958
-0.11942946165800095 -0.038759708404541016 0.7829457521438599
-0.12196221947669983 -0.02325582504272461 -0.751937985420227
-0.12760969996452332 -0.02325582504272461 -0.7364341616630554
-0.12087418138980865 -0.02325582504272461 -0.5193798542022705
-0.12413419783115387 -0.02325582504272461 -0.5038759708404541
-0.12746691703796387 -0.02325582318007946 -0.4883720874786377
-0.1305822879076004 -0.02325582504272461 -0.4728682041168213
-0.13028666377067566 -0.02325582504272461 0.37984490394592285
-0.11968729645013809 -0.02325582504272461 0.39534878730773926
-0.11984118074178696 -0.02325582504272461 0.6434108018875122
-0.12368080019950867 -0.007751941680908203 -0.751937985420227
-0.1306837797164917 -0.007751941680908203 -0.7364341020584106
-0.1193447858095169 -0.007751941680908203 -0.5348837375640869
-0.12467065453529358 -0.00775194214656949 -0.5193798542022705
-0.1272658407688141 -0.007751941680908203 -0.5038759708404541
-0.13005705177783966 -0.007751941680908203 -0.4883721172809601
-0.12906533479690552 -0.00775194214656949 0.39534878730773926
-0.12236097455024719 -0.007751941680908203 0.6434108018875122
-0.1168724000453949 0.007751941680908203 -0.7674418687820435
-0.12386729568243027 0.007751941680908203 -0.751937985420227
-0.13113923370838165 0.007751941680908203 -0.7364341020584106
-0.11888621002435684 0.007751941680908203 -0.5503876209259033
-0.12232507765293121 0.007751941680908203 -0.5348837375640869
-0.12663596868515015 0.007751941680908203 -0.5193798542022705
-0.12854552268981934 0.007751941680908203 -0.5038759708404541
-0.13061583042144775 0.007751941680908203 -0.4883721172809601
-0.12646585702896118 0.007751941680908203 0.39534878730773926
-0.12326334416866302 0.007751941680908203 0.6434108018875122
-0.12154564261436462 0.02325582504272461 -0.751937985420227
-0.12688982486724854 0.02325582504272461 -0.7364341020584106
-0.11756734549999237 0.02325582504272461 -0.5503876209259033
-0.12039999663829803 0.02325582504272461 -0.5348837375640869
-0.124055877327919 0.02325582504272461 -0.5193798542022705
-0.12549200654029846 0.02325582504272461 -0.5038759708404541
-0.1272246539592743 0.02325582504272461 -0.4883720874786377
-0.12935781478881836 0.02325582504272461 -0.4728682041168213
-0.1315121203660965 0.02325582504272461 -0.4573642909526825
-0.1276334971189499 0.02325582504272461 0.06976747512817383
-0.1271076202392578 0.02325582504272461 0.08527135848999023
-0.13026480376720428 0.02325582504272461 0.10077524185180664
-0.1260617971420288 0.02325582504272461 0.39534878730773926
-0.12346728146076202 0.02325582504272461 0.6434108018875122
-0.12257765233516693 0.038759708404541016 -0.7364341020584106
-0.12734703719615936 0.038759708404541016 -0.7209302186965942
-0.11698328703641891 0.038759708404541016 -0.5348837375640869
-0.12028705328702927 0.038759708404541016 -0.5193798542022705
-0.1214502602815628 0.038759708404541016 -0.5038759708404541
-0.12325406819581985 0.038759708404541016 -0.4883720874786377
-0.12542644143104553 0.038759708404541016 -0.4728682041168213
-0.1277594119310379 0.038759708404541016 -0.4573643207550049
-0.13061778247356415 0.038759708404541016 -0.4418604373931885
-0.12799009680747986 0.038759708404541016 0.06976747512817383
-0.12672029435634613 0.038759708404541016 0.08527135848999023
-0.13093958795070648 0.038759708404541016 0.10077524185180664
-0.1300939917564392 0.038759708404541016 0.39534878730773926
-0.12285618484020233 0.038759708404541016 0.6434108018875122
-0.1217489168047905 0.05426359176635742 -0.7209302186965942
-0.1256219893693924 0.05426359176635742 -0.7054263353347778
-0.13080020248889923 0.05426359176635742 -0.6899224519729614
-0.11812689155340195 0.05426359176635742 -0.4883720874786377
-0.12065617740154266 0.05426359176635742 -0.4728682041168213
-0.12341336905956268 0.05426359176635742 -0.4573643207550049
-0.12687617540359497 0.05426359176635742 -0.4418604373931885
-0.13039425015449524 0.05426359176635742 -0.42635661363601685
-0.12834367156028748 0.05426359176635742 0.39534878730773926
-0.12081028521060944 0.05426359176635742 0.6434108018875122
-0.11883760243654251 0.06976747512817383 -0.7054263353347778
-0.12321219593286514 0.06976747512817383 -0.6899224519729614
-0.12623563408851624 0.06976747512817383 -0.674418568611145
-0.13000531494617462 0.06976747512817383 -0.6589146852493286
-0.1175466850399971 0.06976747512817383 -0.4573643207550049
-0.12114779651165009 0.06976747512817383 -0.4418604373931885
-0.12457174062728882 0.06976747512817383 -0.42635661363601685
-0.12841856479644775 0.06976747512817383 -0.41085273027420044
-0.13166911900043488 0.06976747512817383 -0.39534884691238403
-0.1307540088891983 0.06976747512817383 0.37984490394592285
-0.12288977205753326 0.06976747512817383 0.39534878730773926
-0.11762190610170364 0.06976747512817383 0.6434108018875122
-0.11833944171667099 0.08527135848999023 -0.674418568611145
-0.12185081839561462 0.08527135848999023 -0.6589146852493286
-0.12429419159889221 0.08527135848999023 -0.643410861492157
-0.12769395112991333 0.08527135848999023 -0.6279069185256958
-0.13118073344230652 0.08527135848999023 -0.6124030351638794
-0.11922760307788849 0.08527135848999023 -0.41085273027420044
-0.12239965796470642 0.08527135848999023 -0.39534884691238403
-0.12716108560562134 0.08527135848999023 -0.3798449635505676
-0.1317557692527771 0.08527135848999023 -0.3643410801887512
-0.13125236332416534 0.08527135848999023 0.364341139793396
-0.12475806474685669 0.08527135848999023 0.37984490394592285
-0.11850240081548691 0.10077524185180664 -0.6279069781303406
-0.12169928848743439 0.10077524185180664 -0.6124030947685242
-0.12515757977962494 0.10077524185180664 -0.5968992114067078
-0.1293480396270752 0.10077524185180664 -0.5813953876495361
-0.11961439251899719 0.10077524185180664 -0.3643410801887512
-0.12429502606391907 0.10077524185180664 -0.3488371968269348
-0.12865830957889557 0.10077524185180664 -0.3333333134651184
