0.038759708404541016 -0.14637716114521027 -0.08527129888534546
0.038759708404541016 -0.1437205970287323 -0.06976741552352905
0.038759708404541016 -0.14136648178100586 -0.05426359176635742
0.038759708404541016 -0.14078271389007568 -0.038759708404541016
0.038759708404541016 -0.14058318734169006 -0.02325582504272461
0.038759708404541016 -0.14223384857177734 -0.007751941680908203
0.038759708404541016 -0.14212238788604736 0.007751941680908203
0.038759708404541016 -0.14027172327041626 0.02325582504272461
0.038759708404541016 -0.1372172087430954 0.038759708404541016
0.038759708404541016 -0.1331302672624588 0.05426359176635742
0.038759708404541016 -0.1323556900024414 0.06976747512817383
0.038759708404541016 -0.13264156877994537 0.08527135848999023
0.038759708404541016 -0.1334117352962494 0.10077524185180664
0.038759708404541016 -0.13461610674858093 0.11627912521362305
0.038759708404541016 -0.13413240015506744 0.1317828893661499
0.038759708404541016 -0.11768387258052826 -0.7054263353347778
0.038759708404541016 -0.12330713868141174 -0.6899224519729614
0.038759708404541016 -0.12742215394973755 -0.674418568611145
0.03875970467925072 -0.13120003044605255 -0.6589146852493286
0.038759708404541016 -0.1166774109005928 -0.4883720874786377
0.038759708404541016 -0.11855637282133102 -0.4728682041168213
0.038759708404541016 -0.12014186382293701 -0.4573643207550049
0.038759708404541016 -0.12293030321598053 -0.4418604373931885
0.038759708404541016 -0.1254490315914154 -0.42635664343833923
0.038759708404541016 -0.12758100032806396 -0.41085273027420044
0.038759708404541016 -0.1298799067735672 -0.39534881711006165
0.038759708404541016 -0.13145412504673004 -0.3798449635505676
0.038759708404541016 -0.12955160439014435 0.1472867727279663
0.038759708404541016 -0.12352631986141205 0.16279065608978271
0.038759708404541016 -0.11729297041893005 0.8294574022293091
0.038759708404541016 -0.11963352560997009 0.8449612855911255
0.038759708404541016 -0.10344241559505463 -0.751937985420227
0.038759708404541016 -0.10870274901390076 -0.7364341020584106
0.038759708404541016 -0.11343362182378769 -0.7209302186965942
0.038759708404541016 -0.10195578634738922 -0.5503876209259033
0.038759708404541016 -0.107370525598526 -0.5348837375640869
0.038759708404541016 -0.11220085620880127 -0.5193798542022705
0.038759708404541016 -0.11450552195310593 -0.5038759708404541
0.038759708404541016 -0.11378154158592224 0.17829453945159912
0.038759708404541016 -0.10339406132698059 0.19379842281341553
0.038759708404541016 -0.10178406536579132 0.3178294897079468
0.038759708404541016 -0.10862598568201065 0.3333333730697632
0.038759708404541016 -0.11159072816371918 0.3488372564315796
0.038759708404541016 -0.11011554300785065 0.364341139793396
0.038759708404541016 -0.10776236653327942 0.37984490394592285
0.038759708404541016 -0.10517339408397675 0.39534878730773926
0.038759708404541016 -0.10187969356775284 0.41085267066955566
0.038759708404541016 -0.10767565667629242 0.5348837375640869
0.038759708404541016 -0.10850125551223755 0.612403154373169
0.038759708404541016 -0.10503153502941132 0.8139535188674927
0.038759708404541016 -0.08676007390022278 -0.7984496355056763
0.038759708404541016 -0.09294594824314117 -0.7829457521438599
0.038759708404541016 -0.09842583537101746 -0.7674418687820435
0.038759708404541016 -0.09464259445667267 -0.5658915042877197
0.038759708404541016 -0.0916518121957779 0.20930230617523193
0.038759708404541016 -0.09155981242656708 0.30232560634613037
0.038759708404541016 -0.09841173142194748 0.42635655403137207
0.038759708404541016 -0.09722698479890823 0.4418604373931885
0.038759708404541016 -0.09768544137477875 0.4573643207550049
0.038759708404541016 -0.09955096244812012 0.4728682339191437
0.038759708404541016 -0.09965048730373383 0.4883720874786377
0.038759708404541016 -0.09453251957893372 0.5038759708404541
0.038759708404541016 -0.09476269781589508 0.5193798542022705
0.038759708404541016 -0.09146509319543839 0.7984496355056763
0.038759708404541016 -0.09693294763565063 0.8449612855911255
0.038759708404541016 -0.07524188607931137 -0.8294573426246643
0.038759708404541016 -0.08127641677856445 -0.8139535188674927
0.038759708404541016 -0.07493405044078827 -0.5968992114067078
0.038759708404541016 -0.08517423272132874 -0.5813953280448914
0.038759708404541016 -0.08203453570604324 0.22480618953704834
0.038759708404541016 -0.07912881672382355 0.24031007289886475
0.038759708404541016 -0.07720811665058136 0.25581395626068115
0.038759708404541016 -0.07902590185403824 0.27131783962249756
0.03875970467925072 -0.08506350964307785 0.28682172298431396
0.038759708404541016 -0.07289314270019531 0.7829457521438599
0.038759708404541016 -0.07491942495107651 0.8294574022293091
0.038759708404541016 -0.06074315682053566 -0.8604651093482971
0.038759708404541016 -0.06809676438570023 -0.8449612259864807
0.038759708404541016 -0.05772058293223381 -0.6124030947685242
0.038759708404541016 -0.05550488084554672 0.6279069185256958
0.038759708404541016 -0.04219786450266838 -0.8914728164672852
0.038759708404541016 -0.05157719925045967 -0.8759689927101135
0.038759708404541016 -0.040577031672000885 -0.6279069781303406
0.038759708404541016 -0.039117857813835144 0.6434108018875122
0.038759708404541016 -0.05197137966752052 0.7674418687820435
0.038759708404541016 -0.04739081859588623 0.8139535188674927
0.038759708404541016 -0.029925202950835228 -0.9069767594337463
0.038759708404541016 -0.024335099384188652 -0.6589146852493286
0.038759708404541016 -0.029213350266218185 -0.643410861492157
0.038759708404541016 -0.027719372883439064 0.751937985420227
0.038759708404541016 -0.008073820732533932 -0.9224806427955627
0.038759708404541016 -0.010502079501748085 -0.6899224519729614
0.038759708404541016 -0.015432018786668777 -0.674418568611145
0.038759708404541016 -0.01894044131040573 0.7984496355056763
0.038759708404541016 0.006046590395271778 -0.7054263353347778
0.038759708404541016 0.005678900517523289 0.7364341020584106
0.038759708404541016 0.0071006882935762405 0.7829457521438599
0.038759708404541016 0.011489387601613998 -0.922480583190918
0.038759708404541016 0.011221654713153839 -0.7054263353347778
0.038759708404541016 0.01062937080860138 0.5348837375640869
0.038759708404541016 0.01088719256222248 0.6589146852493286
0.038759708404541016 0.018056800588965416 0.674418568611145
0.038759708404541016 0.03241269662976265 -0.9069767594337463
0.038759708404541016 0.03600152209401131 0.5193798542022705
0.038759708404541016 0.032540213316679 0.6279069185256958
0.038759708404541016 0.027738600969314575 0.6434108018875122
0.038759708404541016 0.02459023892879486 0.6899224519729614
0.038759708404541016 0.03638111799955368 0.7054263353347778
0.038759708404541016 0.03875827044248581 0.7209302186965942
0.038759708404541016 0.04510476812720299 -0.8914728760719299
0.038759708404541016 0.040379978716373444 -0.6899224519729614
0.038759708404541016 0.048634953796863556 -0.674418568611145
0.038759708404541016 0.04421619698405266 0.5038759708404541
0.038759708404541016 0.044727127999067307 0.6589146852493286
0.038759708404541016 0.048469167202711105 0.7054263353347778
0.038759708404541016 0.0387628935277462 0.7209302186965942
0.038759708404541016 0.040972672402858734 0.7674418091773987
0.038759708404541016 0.05511537566781044 -0.8759689927101135
0.038759708404541016 0.06286285817623138 -0.8604651093482971
0.038759708404541016 0.06653392314910889 -0.6589146852493286
0.038759708404541016 0.06802760064601898 0.24031007289886475
0.038759708404541016 0.05852995440363884 0.25581395626068115
0.038759708404541016 0.06292285025119781 0.27131783962249756
0.038759708404541016 0.05604159086942673 0.4883720874786377
0.038759708404541016 0.055878203362226486 0.674418568611145
0.038759708404541016 0.05657748505473137 0.6899224519729614
0.038759708404541016 0.06556597352027893 0.7674418687820435
0.038759708404541016 0.07021614164113998 -0.8449612855911255
0.038759708404541016 0.07720872759819031 -0.8294573426246643
0.038759708404541016 0.0837370902299881 -0.8139535188674927
0.038759708404541016 0.07841584831476212 -0.643410861492157
0.038759708404541016 0.07839428633451462 0.22480618953704834
0.038759708404541016 0.0807369276881218 0.28682172298431396
0.038759708404541016 0.07626799494028091 0.4728681743144989
0.038759708404541016 0.08953499794006348 -0.7984496355056763
0.038759708404541016 0.09559852629899979 -0.7829457521438599
0.038759708404541016 0.09049622714519501 -0.6279069781303406
0.038759708404541016 0.09817507117986679 -0.6124030947685242
0.038759708404541016 0.09575644135475159 0.20930230617523193
0.038759708404541016 0.09343075752258301 0.4573643207550049
0.038759708404541016 0.08649120479822159 0.6124030947685242
0.038759708404541016 0.09342549741268158 0.7364341020584106
0.038759708404541016 0.09548428654670715 0.7829457521438599
0.038759708404541016 0.1012863740324974 -0.7674418091773987
0.038759708404541016 0.1071833148598671 -0.751937985420227
0.038759708404541016 0.11230669170618057 -0.7364341020584106
0.038759708404541016 0.105406753718853 -0.5968992114067078
0.038759708404541016 0.1122954785823822 -0.5813953876495361
0.038759708404541016 0.11411844193935394 0.19379842281341553
0.038759708404541016 0.11203092336654663 0.42635655403137207
0.038759708404541016 0.10376802086830139 0.4418604373931885
0.038759708404541016 0.10394740104675293 0.751937985420227
0.038759708404541016 0.10788169503211975 0.7674418687820435
0.038759708404541016 0.11604097485542297 0.7829457521438599
0.038759708404541016 0.1128210574388504 0.7984496355056763
0.038759708404541016 0.11704283207654953 -0.7209301590919495
0.038759708404541016 0.12222541868686676 -0.7054263353347778
0.038759708404541016 0.12697312235832214 -0.6899224519729614
0.038759708404541016 0.13148830831050873 -0.674418568611145
0.038759708404541016 0.11892670392990112 -0.5658915042877197
0.038759708404541016 0.12410420179367065 -0.5503876209259033
0.038759708404541016 0.12788039445877075 -0.5348837375640869
0.038759708404541016 0.1270691454410553 0.17829453945159912
0.038759708404541016 0.12315895408391953 0.30232560634613037
0.038759708404541016 0.1273929923772812 0.39534878730773926
0.038759708404541016 0.1195944994688034 0.41085267066955566
0.038759712129831314 0.11926056444644928 0.7984496355056763
0.038759708404541016 0.13012489676475525 0.8294574022293091
0.038759708404541016 0.13590653240680695 -0.6589146852493286
0.038759708404541016 0.13976040482521057 -0.643410861492157
0.038759708404541016 0.1436832696199417 -0.6279069781303406
0.038759708404541016 0.13192413747310638 -0.5193798542022705
0.038759708404541016 0.13381454348564148 -0.5038759708404541
0.038759708404541016 0.13596211373806 -0.4883720874786377
0.038759708404541016 0.13804994523525238 -0.4728682339191437
0.038759708404541016 0.13982447981834412 -0.4573643207550049
0.038759708404541016 0.14176422357559204 -0.4418604373931885
0.038759708404541016 0.14369195699691772 -0.42635661363601685
0.038759708404541016 0.1457134187221527 -0.41085273027420044
0.038759708404541016 0.14547689259052277 0.1472867727279663
0.038759708404541016 0.13833186030387878 0.16279065608978271
0.038759712129831314 0.13464047014713287 0.3178294897079468
0.038759708404541016 0.14073461294174194 0.3333333730697632
0.038759708404541016 0.14239846169948578 0.3488372564315796
0.038759708404541016 0.14024919271469116 0.364341139793396
0.038759708404541016 0.13535133004188538 0.37984490394592285
0.038759708404541016 0.13500192761421204 0.8294574022293091
0.038759708404541016 0.14730264246463776 -0.6124030947685242
0.038759708404541016 0.15082117915153503 -0.5968992114067078
0.038759708404541016 0.1540451943874359 -0.5813953876495361
0.038759708404541016 0.15666954219341278 -0.5658915042877197
0.038759708404541016 0.15852785110473633 -0.5503876209259033
0.038759708404541016 0.1604337990283966 -0.5348837375640869
0.038759708404541016 0.1473863422870636 -0.39534884691238403
0.038759708404541016 0.14862819015979767 -0.3798449635505676
0.038759708404541016 0.15031278133392334 -0.3643410801887512
0.038759708404541016 0.15138471126556396 -0.3488371968269348
0.038759708404541016 0.15252548456192017 -0.3333333134651184
0.038759708404541016 0.15375524759292603 -0.317829430103302
0.038759708404541016 0.15470299124717712 -0.30232560634613037
0.038759708404541016 0.1550520956516266 -0.28682172298431396
0.038759708404541016 0.15544387698173523 -0.27131783962249756
0.038759708404541016 0.1545121967792511 -0.25581395626068115
0.038759708404541016 0.152616947889328 -0.24031008780002594
0.038759708404541016 0.1511978805065155 -0.22480620443820953
0.038759708404541016 0.14968706667423248 -0.20930230617523193
0.038759708404541016 0.15013284981250763 -0.19379842281341553
0.038759708404541016 0.15332210063934326 -0.1782945990562439
0.038759708404541016 0.15808285772800446 -0.1627907156944275
0.038759708404541016 0.16237428784370422 -0.14728683233261108
0.038759708404541016 0.16229398548603058 -0.13178294897079468
0.038759708404541016 0.16161216795444489 -0.11627906560897827
0.038759708404541016 0.16273988783359528 -0.10077518224716187
0.038759708404541016 0.1602182388305664 -0.02325582504272461
0.038759708404541016 0.15627121925354004 -0.007751941680908203
0.038759708404541016 0.15343379974365234 0.007751941680908203
0.038759708404541016 0.15358218550682068 0.02325582504272461
0.038759708404541016 0.15371891856193542 0.038759708404541016
0.038759708404541016 0.1526208221912384 0.05426359176635742
0.038759708404541016 0.15351124107837677 0.06976747512817383
0.038759708404541016 0.15269267559051514 0.08527135848999023
0.038759708404541016 0.15262942016124725 0.10077524185180664
0.038759708404541016 0.1525697112083435 0.11627912521362305
0.038759708404541016 0.15050172805786133 0.1317828893661499
0.038759708404541016 0.16341421008110046 -0.5193798542022705
0.038759708404541016 0.16593807935714722 -0.5038759708404541
0.038759708404541016 0.16843682527542114 -0.4883720874786377
0.038759708404541016 0.17044112086296082 -0.4728682041168213
0.038759708404541016 0.1725858598947525 -0.4573643207550049
0.038759708404541016 0.1741207391023636 -0.4418604373931885
0.038759708404541016 0.17582003772258759 -0.42635661363601685
0.038759708404541016 0.1642078161239624 -0.08527129888534546
0.038759708404541016 0.16593468189239502 -0.06976741552352905
0.038759708404541016 0.16544745862483978 -0.05426359176635742
0.038759708404541016 0.16406235098838806 -0.038759708404541016
0.038759712129831314 0.16576209664344788 0.5968992710113525
0.038759708404541016 0.17893144488334656 -0.41085273027420044
0.038759708404541016 0.18206936120986938 -0.39534884691238403
0.038759708404541016 0.18446964025497437 -0.3798449635505676
0.038759708404541016 0.1864604353904724 -0.3643410801887512
0.038759708404541016 0.1883772760629654 -0.3488371968269348
0.038759708404541016 0.18954291939735413 -0.3333333134651184
0.038759708404541016 0.1907201111316681 -0.317829430103302
0.038759708404541016 0.1927250623703003 -0.30232560634613037
0.038759708404541016 0.18682076036930084 0.5813953876495361
0.038759708404541016 0.1952723264694214 -0.28682172298431396
0.038759708404541016 0.19760872423648834 -0.27131783962249756
0.038759708404541016 0.19937986135482788 -0.25581395626068115
0.038759708404541016 0.2004016488790512 -0.24031007289886475
0.038759708404541016 0.2011646032333374 -0.22480618953704834
0.038759708404541016 0.20188212394714355 -0.20930230617523193
0.038759708404541016 0.2027098536491394 -0.19379842281341553
0.038759708404541016 0.20338183641433716 -0.1782945990562439
0.038759708404541016 0.20364511013031006 -0.1627907156944275
0.038759708404541016 0.20382288098335266 -0.14728683233261108
0.038759708404541016 0.2040022611618042 -0.13178294897079468
0.038759708404541016 0.20415368676185608 -0.11627906560897827
0.038759708404541016 0.20418903231620789 -0.10077518224716187
0.038759708404541016 0.20411255955696106 -0.08527129888534546
0.038759708404541016 0.20395812392234802 -0.06976741552352905
0.038759708404541016 0.20404908061027527 -0.05426359176635742
0.038759708404541016 0.20417845249176025 -0.038759708404541016
0.038759708404541016 0.2044607251882553 -0.02325582504272461
0.038759708404541016 0.20470121502876282 -0.007751941680908203
0.038759708404541016 0.20490539073944092 0.007751941680908203
0.038759708404541016 0.20499707758426666 0.02325582504272461
0.038759708404541016 0.20524555444717407 0.038759708404541016
0.038759708404541016 0.2056850790977478 0.05426359176635742
0.038759708404541016 0.2061256468296051 0.06976747512817383
0.038759708404541016 0.20691578090190887 0.08527135848999023
0.038759708404541016 0.20759917795658112 0.10077524185180664
0.038759708404541016 0.2083626091480255 0.11627912521362305
0.038759708404541016 0.2088487595319748 0.1317828893661499
0.038759708404541016 0.2090579867362976 0.1472867727279663
0.038759708404541016 0.20888473093509674 0.16279065608978271
0.038759708404541016 0.20841975510120392 0.17829453945159912
0.038759708404541016 0.20808684825897217 0.19379842281341553
0.038759708404541016 0.20772168040275574 0.20930230617523193
0.038759708404541016 0.20736002922058105 0.22480618953704834
0.038759708404541016 0.20714454352855682 0.24031007289886475
0.038759708404541016 0.2069631814956665 0.25581395626068115
0.038759708404541016 0.2067294716835022 0.27131783962249756
0.038759708404541016 0.2067468911409378 0.28682172298431396
0.038759708404541016 0.20695337653160095 0.30232560634613037
0.038759708404541016 0.20708604156970978 0.3178294897079468
0.038759708404541016 0.2071932852268219 0.3333333730697632
0.038759708404541016 0.20709215104579926 0.3488372564315796
0.038759708404541016 0.20688828825950623 0.364341139793396
0.038759708404541016 0.20673300325870514 0.37984490394592285
0.038759708404541016 0.2065741866827011 0.39534878730773926
0.038759708404541016 0.20649001002311707 0.41085267066955566
0.038759708404541016 0.20650340616703033 0.42635655403137207
0.038759708404541016 0.20662933588027954 0.4418604373931885
0.038759708404541016 0.20681972801685333 0.4573643207550049
0.038759708404541016 0.20695015788078308 0.4728682041168213
0.038759708404541016 0.20680680871009827 0.4883720874786377
0.038759708404541016 0.20648954808712006 0.5038759708404541
0.038759708404541016 0.20573994517326355 0.5193798542022705
0.038759708404541016 0.20367474853992462 0.5348837375640869
0.038759708404541016 0.20069363713264465 0.5503876209259033
0.038759708404541016 0.1956256479024887 0.5658915042877197
0.05426359176635742 -0.1966952383518219 -0.28682172298431396
0.05426359176635742 -0.19921232759952545 -0.27131783962249756
0.05426359176635742 -0.20051205158233643 -0.25581395626068115
0.05426359176635742 -0.20137512683868408 -0.24031007289886475
0.05426359176635742 -0.20219682157039642 -0.22480618953704834
0.05426359176635742 -0.20285485684871674 -0.20930230617523193
0.05426359176635742 -0.20335787534713745 -0.19379842281341553
0.05426359176635742 -0.20371213555335999 -0.1782945990562439
0.05426359176635742 -0.20388343930244446 -0.1627907156944275
0.05426359176635742 -0.20391328632831573 -0.14728683233261108
0.05426359176635742 -0.20391812920570374 -0.13178294897079468
0.05426359176635742 -0.20390117168426514 -0.11627906560897827
0.05426359176635742 -0.20397141575813293 -0.10077517479658127
0.05426358804106712 -0.20402571558952332 -0.08527129888534546
0.05426359176635742 -0.20407523214817047 -0.06976741552352905
0.05426359176635742 -0.2041330337524414 -0.05426359176635742
0.05426359176635742 -0.2041214108467102 -0.038759708404541016
0.05426359176635742 -0.20406225323677063 -0.02325582504272461
0.05426359176635742 -0.20416373014450073 -0.007751941680908203
0.05426359176635742 -0.20438259840011597 0.007751941680908203
0.05426359176635742 -0.2044961303472519 0.02325582504272461
0.05426359176635742 -0.2046445608139038 0.038759708404541016
0.05426359176635742 -0.20477542281150818 0.05426359176635742
0.05426359176635742 -0.2049589902162552 0.06976747512817383
0.05426359176635742 -0.2050950676202774 0.08527135848999023
0.05426359549164772 -0.20519791543483734 0.10077524185180664
0.05426359176635742 -0.20526716113090515 0.11627912521362305
0.05426359176635742 -0.2053581327199936 0.1317828893661499
0.05426359176635742 -0.2055213302373886 0.1472867727279663
0.05426359549164772 -0.20572590827941895 0.16279065608978271
0.05426359176635742 -0.20593228936195374 0.17829453945159912
0.05426359176635742 -0.2060297280550003 0.19379842281341553
0.05426359176635742 -0.20615079998970032 0.20930230617523193
0.05426359176635742 -0.206170916557312 0.22480618953704834
0.05426359176635742 -0.20616711676120758 0.24031007289886475
0.05426359549164772 -0.20612189173698425 0.25581395626068115
0.05426359176635742 -0.20608334243297577 0.27131783962249756
0.05426359549164772 -0.20603618025779724 0.28682172298431396
0.05426359176635742 -0.20587913691997528 0.30232560634613037
0.05426359176635742 -0.20560818910598755 0.3178294897079468
0.05426359176635742 -0.20542748272418976 0.3333333730697632
0.05426359176635742 -0.20521247386932373 0.3488372564315796
0.05426359176635742 -0.20515255630016327 0.364341139793396
0.05426359176635742 -0.20520570874214172 0.37984490394592285
0.05426358804106712 -0.20515979826450348 0.39534878730773926
0.05426359176635742 -0.2050362527370453 0.41085267066955566
0.05426359176635742 -0.20504909753799438 0.42635655403137207
0.05426359176635742 -0.20523934066295624 0.4418604373931885
0.05426359176635742 -0.20557311177253723 0.4573643207550049
0.05426359176635742 -0.20611457526683807 0.4728682041168213
0.05426359176635742 -0.2063308209180832 0.4883720874786377
0.05426359176635742 -0.2064037322998047 0.5038759708404541
0.05426359176635742 -0.20646429061889648 0.5193798542022705
0.05426359176635742 -0.20590399205684662 0.5348837375640869
0.05426359176635742 -0.2030792534351349 0.5503876209259033
0.05426359176635742 -0.1989256888628006 0.5658915042877197
0.05426359176635742 -0.1800476610660553 -0.39534884691238403
0.05426359176635742 -0.18351420760154724 -0.3798449635505676
0.05426359176635742 -0.185776025056839 -0.3643410801887512
0.05426359176635742 -0.18792355060577393 -0.3488371968269348
0.05426359176635742 -0.18956954777240753 -0.3333333134651184
0.05426359176635742 -0.1911180168390274 -0.317829430103302
0.05426359176635742 -0.19356952607631683 -0.30232560634613037
0.05426359176635742 -0.1881960928440094 0.5813953876495361
0.05426359176635742 -0.16412323713302612 -0.4883720874786377
0.05426359176635742 -0.1679573357105255 -0.4728682041168213
0.05426359176635742 -0.1705470085144043 -0.4573643207550049
0.05426359176635742 -0.17288675904273987 -0.4418604373931885
0.05426359176635742 -0.17482174932956696 -0.42635661363601685
0.05426359176635742 -0.17670626938343048 -0.41085273027420044
0.05426359176635742 -0.17166508734226227 0.5968992710113525
0.05426359176635742 -0.1500915288925171 -0.5658915042877197
0.05426359176635742 -0.1535923033952713 -0.5503876209259033
0.05426359176635742 -0.1559770405292511 -0.5348837375640869
0.05426359176635742 -0.1584341824054718 -0.5193798542022705
0.05426359176635742 -0.16084100306034088 -0.5038759708404541
0.05426359176635742 -0.13186796009540558 -0.643410861492157
0.05426359176635742 -0.13674160838127136 -0.6279069781303406
0.05426359176635742 -0.14049473404884338 -0.6124030351638794
0.05426359176635742 -0.14369897544384003 -0.5968992114067078
0.05426359176635742 -0.14659017324447632 -0.5813953876495361
0.05426359176635742 -0.1318746656179428 -0.3333333134651184
0.05426359176635742 -0.13274763524532318 -0.317829430103302
0.05426359176635742 -0.1344367116689682 -0.30232560634613037
0.05426359176635742 -0.13519135117530823 -0.28682172298431396
0.05426359176635742 -0.13583548367023468 -0.27131783962249756
0.05426359176635742 -0.13484477996826172 -0.25581395626068115
0.05426359176635742 -0.13300521671772003 -0.24031007289886475
0.05426359176635742 -0.13304457068443298 -0.1782945990562439
0.05426359176635742 -0.1364661306142807 -0.1627907156944275
0.05426359176635742 -0.13928169012069702 -0.14728683233261108
0.05426359176635742 -0.140655055642128 -0.13178294897079468
0.05426358804106712 -0.14145126938819885 -0.11627905815839767
0.05426359176635742 -0.14128847420215607 -0.10077518224716187
0.05426359176635742 -0.1378026306629181 -0.08527129888534546
0.05426359176635742 -0.13307756185531616 -0.06976741552352905
0.05426359176635742 -0.13215410709381104 0.8604651689529419
0.05426359176635742 -0.13456577062606812 0.8759689331054688
0.05426359176635742 -0.11840406060218811 -0.6899224519729614
0.05426359176635742 -0.1237536072731018 -0.674418568611145
0.05426359549164772 -0.12807513773441315 -0.6589146852493286
0.05426359176635742 -0.1182694360613823 -0.4418604373931885
0.05426359176635742 -0.12131564319133759 -0.42635661363601685
0.05426359176635742 -0.12388908118009567 -0.41085273027420044
0.05426359176635742 -0.12627846002578735 -0.39534884691238403
0.05426359176635742 -0.1279332935810089 -0.3798449635505676
0.05426359176635742 -0.12920288741588593 -0.3643410801887512
0.05426359176635742 -0.1305416077375412 -0.3488371968269348
0.05426359549164772 -0.13164594769477844 -0.22480618953704834
0.05426358804106712 -0.13115140795707703 -0.20930230617523193
0.05426359176635742 -0.13162526488304138 -0.19379842281341553
0.05426359176635742 -0.12947706878185272 -0.05426359176635742
0.05426359176635742 -0.12674537301063538 -0.038759708404541016
0.05426359176635742 -0.12524503469467163 -0.02325582504272461
0.05426359176635742 -0.12723596394062042 -0.007751941680908203
0.05426359176635742 -0.12957051396369934 0.007751941680908203
0.05426359176635742 -0.13054944574832916 0.02325582504272461
0.05426359176635742 -0.1299888640642166 0.038759708404541016
0.05426359176635742 -0.1280248463153839 0.05426359176635742
0.05426359176635742 -0.1269121766090393 0.06976747512817383
0.05426359176635742 -0.12611766159534454 0.08527135848999023
0.05426359176635742 -0.12572921812534332 0.10077524185180664
0.05426359176635742 -0.12619292736053467 0.11627911776304245
0.05426358804106712 -0.1259140968322754 0.1317828893661499
0.05426359176635742 -0.12125103175640106 0.1472867727279663
0.05426359176635742 -0.11709459125995636 0.3333333730697632
0.05426359176635742 -0.11901823431253433 0.3488372564315796
0.05426359176635742 -0.11645331978797913 0.364341139793396
0.05426359176635742 -0.12105874717235565 0.8449612855911255
0.05426359176635742 -0.12065088748931885 0.8759689331054688
0.05426359176635742 -0.10326136648654938 -0.7364341020584106
0.05426359176635742 -0.10880185663700104 -0.7209302186965942
0.05426359176635742 -0.11391448974609375 -0.7054263353347778
0.05426359176635742 -0.10232511907815933 -0.5348837375640869
0.05426359176635742 -0.1069544106721878 -0.5193798542022705
0.05426359176635742 -0.10895699262619019 -0.5038759708404541
0.05426359176635742 -0.1111685037612915 -0.4883720874786377
0.05426358804106712 -0.11307106912136078 -0.4728682041168213
0.05426359176635742 -0.11491653323173523 -0.4573643207550049
0.05426359176635742 -0.114209845662117 0.16279065608978271
0.05426359176635742 -0.10535527765750885 0.17829453945159912
0.05426359176635742 -0.11004360765218735 0.3178294897079468
0.05426359176635742 -0.11356449127197266 0.37984490394592285
0.05426359176635742 -0.11042486131191254 0.39534878730773926
0.05426359176635742 -0.10823085159063339 0.41085267066955566
0.05426359176635742 -0.10657816380262375 0.42635655403137207
0.05426359176635742 -0.10613490641117096 0.4418604373931885
0.05426359176635742 -0.10666294395923615 0.4573643207550049
0.05426359176635742 -0.10829802602529526 0.4728682041168213
0.05426359176635742 -0.10800540447235107 0.4883720874786377
0.05426359176635742 -0.10142114758491516 0.5038759708404541
0.05426358804106712 -0.11124241352081299 0.8294574022293091
0.05426359176635742 -0.08551738411188126 -0.7829457521438599
0.05426359176635742 -0.09205760061740875 -0.7674418687820435
0.05426359176635742 -0.09826086461544037 -0.751937985420227
0.05426359176635742 -0.08996177464723587 -0.5658915042877197
0.05426359176635742 -0.09758380055427551 -0.5503876209259033
0.05426358804106712 -0.0954844132065773 0.19379842281341553
0.05426359176635742 -0.08905661851167679 0.28682172298431396
0.05426359549164772 -0.10037443041801453 0.30232560634613037
0.05426359176635742 -0.0954853892326355 0.5193798542022705
0.05426359176635742 -0.09952042996883392 0.5348837375640869
0.05426359176635742 -0.08833697438240051 0.612403154373169
0.05426359176635742 -0.09961015731096268 0.8139534592628479
0.05426359176635742 -0.0989125594496727 0.8604651689529419
0.05426359176635742 -0.07347377389669418 -0.8139535188674927
0.05426359176635742 -0.07945653796195984 -0.7984496355056763
0.05426359176635742 -0.08031943440437317 -0.5813953876495361
0.05426359549164772 -0.0843009427189827 0.20930230617523193
0.05426359176635742 -0.0758538693189621 0.22480618953704834
0.05426359176635742 -0.0735861212015152 0.24031007289886475
0.05426359176635742 -0.07406099140644073 0.25581395626068115
0.05426359176635742 -0.08011597394943237 0.27131783962249756
0.05426359176635742 -0.08097770065069199 0.798449695110321
0.05426359176635742 -0.07985837757587433 0.8449612855911255
0.05426359176635742 -0.058834727853536606 -0.8449612259864807
0.05426359176635742 -0.06665930151939392 -0.8294574022293091
0.05426359176635742 -0.06776265054941177 -0.5968992114067078
0.05426359176635742 -0.057528331875801086 0.7829457521438599
0.05426359176635742 -0.05970178544521332 0.8294574022293091
0.05426359176635742 -0.04817637801170349 -0.8604651093482971
0.05426359176635742 -0.04738633334636688 -0.6124030947685242
0.05426359176635742 -0.03633182495832443 -0.8759689927101135
0.05426359176635742 -0.033295635133981705 -0.6279069781303406
0.05426359176635742 -0.037165846675634384 0.6279069185256958
0.05426359176635742 -0.03555746376514435 0.7674418687820435
0.05426359549164772 -0.03721332922577858 0.8139535188674927
0.05426359176635742 -0.016879284754395485 -0.8914728760719299
0.05426359176635742 -0.012169064953923225 -0.6589146852493286
0.05426359176635742 -0.021219385787844658 -0.643410861492157
0.05426359176635742 -0.008656610734760761 0.751937985420227
0.05426359176635742 -0.01931067556142807 0.798449695110321
0.05426359176635742 -0.007636327296495438 0.5348837375640869
0.05426359176635742 0.0023059432860463858 0.7829457521438599
0.05426359176635742 0.018511638045310974 -0.6589146852493286
0.05426359176635742 0.020071154460310936 0.6434108018875122
0.05426359176635742 0.01858510635793209 0.6589146852493286
0.05426359176635742 0.025747589766979218 -0.8914728760719299
0.05426359176635742 0.025145744904875755 0.6279069185256958
0.05426359549164772 0.02399904653429985 0.674418568611145
0.05426359176635742 0.029485143721103668 0.7674418687820435
0.05426359176635742 0.042626313865184784 -0.8759689927101135
0.05426359176635742 0.04627395048737526 -0.643410861492157
0.05426359176635742 0.03939727693796158 0.5193798542022705
0.05426359176635742 0.0423024520277977 0.6434108018875122
0.05426359176635742 0.05427854508161545 -0.8604651689529419
0.05426359176635742 0.06135190278291702 -0.8449612259864807
0.05426359176635742 0.06732693314552307 0.25581395626068115
0.05426359176635742 0.06596121191978455 0.5038759708404541
0.05426359176635742 0.05863289535045624 0.6589146852493286
0.05426359176635742 0.06349866092205048 0.674418568611145
0.05426359176635742 0.06988755613565445 -0.8294574022293091
0.05426359176635742 0.07645902037620544 -0.8139535188674927
0.05426359176635742 0.08340705186128616 -0.7984496355056763
0.05426359176635742 0.0774921178817749 -0.6279069781303406
0.05426359176635742 0.08498363941907883 0.22480618953704834
0.05426359176635742 0.07322970032691956 0.24031007289886475
0.05426359176635742 0.08227966725826263 0.27131783962249756
0.05426359549164772 0.07123420387506485 0.751937985420227
0.05426359176635742 0.08944419026374817 -0.7829457521438599
0.05426359176635742 0.09591277688741684 -0.7674418687820435
0.05426359176635742 0.08845239132642746 -0.6124030351638794
0.05426359176635742 0.09789832681417465 -0.5968992114067078
0.05426359176635742 0.10040584951639175 0.4883720874786377
0.05426359176635742 0.0875706672668457 0.612403154373169
0.05426359176635742 0.10169343650341034 -0.751937985420227
0.05426359176635742 0.107508584856987 -0.7364341020584106
0.05426359176635742 0.11302419751882553 -0.7209302186965942
0.05426359176635742 0.10576005280017853 -0.5813953876495361
0.05426359176635742 0.11404302716255188 -0.5658915042877197
0.05426359176635742 0.11484947055578232 0.19379842281341553
0.05426359176635742 0.1022033840417862 0.20930230617523193
0.05426359176635742 0.1152186244726181 0.4418604373931885
0.05426359176635742 0.11239007860422134 0.4573643207550049
0.05426359176635742 0.1091804951429367 0.4728682041168213
0.05426359176635742 0.1176094338297844 -0.7054263353347778
0.05426359176635742 0.12288613617420197 -0.6899224519729614
0.05426359176635742 0.12781576812267303 -0.674418568611145
0.05426358804106712 0.12015998363494873 -0.5503876209259033
0.05426359176635742 0.12406596541404724 -0.5348837375640869
0.05426359176635742 0.1281442940235138 -0.5193798542022705
0.05426359176635742 0.1307954490184784 -0.5038759708404541
0.05426359176635742 0.12446276843547821 0.17829453945159912
0.05426359176635742 0.11644463986158371 0.28682172298431396
0.05426359176635742 0.12890952825546265 0.30232560634613037
0.05426359176635742 0.1297907531261444 0.39534878730773926
0.05426359176635742 0.12448678910732269 0.41085267066955566
0.05426359176635742 0.11951357126235962 0.42635655403137207
0.05426359176635742 0.13102468848228455 0.8294574022293091
0.05426359176635742 0.13209907710552216 -0.6589146852493286
0.05426359176635742 0.13650140166282654 -0.643410861492157
0.05426359176635742 0.1404014527797699 -0.6279069781303406
0.05426359176635742 0.14402389526367188 -0.6124030947685242
0.05426359176635742 0.13273562490940094 -0.4883720874786377
0.05426359176635742 0.13471512496471405 -0.4728682041168213
0.05426359176635742 0.13679887354373932 -0.4573643207550049
0.05426359176635742 0.13898885250091553 -0.4418604373931885
0.05426359176635742 0.1409607082605362 -0.42635661363601685
0.05426359176635742 0.14297591149806976 -0.41085273027420044
0.05426359176635742 0.1445348858833313 -0.39534884691238403
0.05426359176635742 0.14592120051383972 -0.3798449635505676
0.05426359176635742 0.14604389667510986 -0.22480618953704834
0.05426359176635742 0.1446816772222519 -0.20930230617523193
0.05426359176635742 0.1449485868215561 -0.19379842281341553
0.05426359176635742 0.14696010947227478 -0.1782945990562439
0.05426359176635742 0.14556512236595154 0.1317828893661499
0.05426359176635742 0.14054682850837708 0.1472867727279663
0.05426359176635742 0.13314054906368256 0.16279065608978271
0.05426359176635742 0.1385733187198639 0.3178294897079468
0.05426359176635742 0.14372630417346954 0.3333333730697632
0.05426359176635742 0.14466899633407593 0.3488372564315796
0.05426359176635742 0.14195695519447327 0.364341139793396
0.05426359176635742 0.13703785836696625 0.37984490394592285
0.05426359549164772 0.1328529715538025 0.8294574022293091
0.05426359176635742 0.1450641006231308 0.8449612855911255
0.05426359176635742 0.14736217260360718 -0.596899151802063
0.05426359176635742 0.1507887840270996 -0.5813953876495361
0.05426359176635742 0.1537998765707016 -0.5658915042877197
0.05426359176635742 0.15606729686260223 -0.5503876209259033
0.05426359176635742 0.15818089246749878 -0.5348837375640869
0.05426359176635742 0.1599171906709671 -0.5193798542022705
0.05426359176635742 0.16244496405124664 -0.5038759708404541
0.05426359176635742 0.14741581678390503 -0.3643410801887512
0.05426359176635742 0.14826370775699615 -0.3488371968269348
0.05426359176635742 0.14922067523002625 -0.3333333134651184
0.05426358804106712 0.15033206343650818 -0.317829430103302
0.05426359176635742 0.151225283741951 -0.30232560634613037
0.05426359176635742 0.15137191116809845 -0.28682172298431396
0.05426358804106712 0.15152646601200104 -0.27131783962249756
0.05426359176635742 0.15018026530742645 -0.25581395626068115
0.05426359176635742 0.14760808646678925 -0.24031007289886475
0.05426359176635742 0.15222090482711792 -0.1627907156944275
0.05426359176635742 0.1575954407453537 -0.14728683233261108
0.05426359176635742 0.15868493914604187 -0.13178294897079468
0.05426359176635742 0.1586596667766571 -0.11627906560897827
0.05426359176635742 0.16003037989139557 -0.10077518224716187
0.05426359176635742 0.16178560256958008 -0.08527129888534546
0.05426359176635742 0.16238927841186523 -0.05426359176635742
0.05426359176635742 0.15969333052635193 -0.038759708404541016
0.05426359176635742 0.15437154471874237 -0.02325582504272461
0.05426359549164772 0.14980198442935944 -0.00775194214656949
0.05426359176635742 0.14767324924468994 0.007751941680908203
0.05426359176635742 0.14911413192749023 0.02325582504272461
0.05426359176635742 0.14992447197437286 0.038759708404541016
0.05426359176635742 0.14839470386505127 0.05426359176635742
0.05426359176635742 0.14888940751552582 0.06976747512817383
0.05426359176635742 0.1478734165430069 0.08527135848999023
0.05426359176635742 0.1476881355047226 0.10077524185180664
0.05426359176635742 0.1476106345653534 0.11627912521362305
0.05426358804106712 0.14877447485923767 0.8449612855911255
0.05426359176635742 0.16512492299079895 -0.4883720874786377
0.05426359176635742 0.16797533631324768 -0.4728682041168213
0.05426359176635742 0.17012619972229004 -0.4573643207550049
0.05426359176635742 0.17247961461544037 -0.4418604373931885
0.05426359176635742 0.17410531640052795 -0.42635661363601685
0.05426359176635742 0.17563778162002563 -0.41085273027420044
0.05426359176635742 0.16328009963035583 -0.06976741552352905
0.05426359176635742 0.1643822193145752 0.5968993306159973
0.05426359549164772 0.1786145567893982 -0.3953488767147064
0.05426359176635742 0.1815733015537262 -0.3798449635505676
0.05426359176635742 0.18423093855381012 -0.3643410801887512
0.05426359176635742 0.1861417293548584 -0.3488371968269348
0.05426359176635742 0.1880856603384018 -0.3333333134651184
0.05426359176635742 0.18938812613487244 -0.317829430103302
0.05426359176635742 0.1904834657907486 -0.30232560634613037
0.05426359176635742 0.19182993471622467 -0.28682172298431396
0.05426359176635742 0.19374258816242218 0.5658915042877197
0.05426359176635742 0.18500562012195587 0.5813953876495361
0.05426359176635742 0.19411955773830414 -0.27131786942481995
0.05426358804106712 0.19601298868656158 -0.25581395626068115
0.05426359176635742 0.1977834701538086 -0.24031007289886475
0.05426359176635742 0.1991545855998993 -0.22480618953704834
0.05426359176635742 0.2000432312488556 -0.20930230617523193
0.05426359176635742 0.20077058672904968 -0.19379842281341553
0.05426359176635742 0.20139655470848083 -0.1782945990562439
0.05426359176635742 0.2018088698387146 -0.1627907156944275
0.05426359176635742 0.20230567455291748 -0.14728683233261108
0.05426359176635742 0.20277069509029388 -0.13178294897079468
0.05426359176635742 0.20306496322155 -0.11627906560897827
0.05426359176635742 0.20328885316848755 -0.10077518224716187
0.05426359176635742 0.20341357588768005 -0.08527129888534546
0.05426359176635742 0.20352819561958313 -0.06976741552352905
0.05426359176635742 0.2037353813648224 -0.05426359176635742
0.05426359176635742 0.20389920473098755 -0.038759708404541016
0.05426359176635742 0.20403411984443665 -0.02325582504272461
0.05426359176635742 0.20416972041130066 -0.007751941680908203
0.05426359176635742 0.20430882275104523 0.007751941680908203
0.05426359176635742 0.20435094833374023 0.02325582504272461
0.05426359176635742 0.20439085364341736 0.038759708404541016
0.05426359176635742 0.2044910192489624 0.05426359176635742
0.05426359176635742 0.20456576347351074 0.06976747512817383
0.05426359176635742 0.20479923486709595 0.08527135848999023
0.05426359176635742 0.20498302578926086 0.10077524185180664
0.05426359176635742 0.20506221055984497 0.11627912521362305
0.05426359176635742 0.20516175031661987 0.1317828893661499
0.05426359176635742 0.20529484748840332 0.1472867727279663
0.05426359176635742 0.2053835093975067 0.16279065608978271
0.05426359176635742 0.2054489552974701 0.17829453945159912
0.05426359176635742 0.20546668767929077 0.19379842281341553
0.05426359176635742 0.20532074570655823 0.20930230617523193
0.05426359176635742 0.20511426031589508 0.22480618953704834
0.05426359176635742 0.20499871671199799 0.24031007289886475
0.05426359176635742 0.20491738617420197 0.25581395626068115
0.05426359176635742 0.20474541187286377 0.27131783962249756
0.05426359176635742 0.20469143986701965 0.28682172298431396
0.05426359176635742 0.20469194650650024 0.30232560634613037
0.05426359176635742 0.2047215849161148 0.3178294897079468
0.05426359176635742 0.20481464266777039 0.3333333730697632
0.05426359176635742 0.20483484864234924 0.3488372564315796
0.05426359176635742 0.20474015176296234 0.364341139793396
0.05426359176635742 0.2046428769826889 0.37984490394592285
0.05426359176635742 0.2045491337776184 0.39534878730773926
0.05426359176635742 0.204536572098732 0.41085267066955566
0.05426359176635742 0.20461587607860565 0.42635655403137207
0.05426359176635742 0.20475682616233826 0.4418604373931885
0.05426359176635742 0.20494624972343445 0.4573643207550049
0.05426359176635742 0.20502161979675293 0.4728682041168213
0.05426359176635742 0.20475733280181885 0.4883720874786377
0.05426359176635742 0.20427975058555603 0.5038759708404541
0.05426359176635742 0.20314224064350128 0.5193798542022705
0.05426359176635742 0.20120108127593994 0.5348837375640869
0.05426359176635742 0.19811929762363434 0.5503876209259033
0.06976747512817383 -0.19500982761383057 -0.25581395626068115
0.06976747512817383 -0.19690720736980438 -0.24031007289886475
0.06976747512817383 -0.198492169380188 -0.22480618953704834
0.06976747512817383 -0.19946259260177612 -0.20930230617523193
0.06976747512817383 -0.20008882880210876 -0.19379842281341553
0.06976747512817383 -0.20056551694869995 -0.1782945990562439
0.06976747512817383 -0.20092052221298218 -0.1627907156944275
0.06976747512817383 -0.20107868313789368 -0.14728683233261108
0.06976747512817383 -0.20112043619155884 -0.13178294897079468
0.06976747512817383 -0.2011164128780365 -0.11627906560897827
0.06976747512817383 -0.20128348469734192 -0.10077518224716187
0.06976747512817383 -0.20136108994483948 -0.08527129888534546
0.06976747512817383 -0.2013109028339386 -0.06976741552352905
0.06976747512817383 -0.20106688141822815 -0.05426359176635742
0.06976747512817383 -0.20039239525794983 -0.038759708404541016
0.06976747512817383 -0.199725940823555 -0.02325582504272461
0.06976747512817383 -0.19992618262767792 -0.007751941680908203
0.06976747512817383 -0.20075228810310364 0.007751941680908203
0.06976747512817383 -0.20155422389507294 0.02325582504272461
0.06976747512817383 -0.2023639678955078 0.038759708404541016
0.06976747512817383 -0.2028450071811676 0.05426359176635742
0.06976747512817383 -0.20324718952178955 0.06976747512817383
0.06976747512817383 -0.2034284472465515 0.08527135848999023
0.06976747512817383 -0.20350396633148193 0.10077524185180664
0.06976747512817383 -0.20353859663009644 0.11627912521362305
0.06976747512817383 -0.20356234908103943 0.1317828893661499
0.06976747512817383 -0.20362600684165955 0.1472867727279663
0.06976747512817383 -0.20371699333190918 0.16279065608978271
0.06976747512817383 -0.20381610095500946 0.17829453945159912
0.06976747512817383 -0.20385444164276123 0.19379842281341553
0.06976747512817383 -0.20390531420707703 0.20930230617523193
0.06976747512817383 -0.20381155610084534 0.22480618953704834
0.06976747512817383 -0.2036651074886322 0.24031005799770355
0.06976747512817383 -0.2035091519355774 0.25581395626068115
0.06976747512817383 -0.2033868432044983 0.27131783962249756
0.06976747512817383 -0.20325088500976562 0.28682172298431396
0.06976747512817383 -0.2029057890176773 0.30232560634613037
0.06976747512817383 -0.20233899354934692 0.3178294897079468
0.06976747512817383 -0.20167866349220276 0.3333333730697632
0.06976747512817383 -0.20081350207328796 0.3488372564315796
0.06976747512817383 -0.20027674734592438 0.364341139793396
0.06976747512817383 -0.20040014386177063 0.37984490394592285
0.06976747512817383 -0.20055413246154785 0.39534878730773926
0.06976747512817383 -0.20045755803585052 0.41085267066955566
0.06976747512817383 -0.20049290359020233 0.42635655403137207
0.06976747512817383 -0.2007964700460434 0.4418604373931885
0.06976747512817383 -0.2014341950416565 0.4573643207550049
0.06976747512817383 -0.2023947834968567 0.4728682041168213
0.06976747512817383 -0.20275479555130005 0.4883720874786377
0.06976747512817383 -0.20267178118228912 0.5038759708404541
0.06976747512817383 -0.20225034654140472 0.5193798542022705
0.06976747512817383 -0.20155736804008484 0.5348837375640869
0.06976747512817383 -0.1996850073337555 0.5503876209259033
0.06976747512817383 -0.19487623870372772 0.5658915042877197
0.06976747512817383 -0.18119411170482635 -0.3643410801887512
0.06976747512817383 -0.18419019877910614 -0.3488371968269348
0.06976747512817383 -0.186526358127594 -0.3333333134651184
0.06976747512817383 -0.18847176432609558 -0.317829430103302
0.06976747512817383 -0.1898912489414215 -0.30232560634613037
0.06976747512817383 -0.1911381185054779 -0.28682172298431396
0.06976747512817383 -0.19283929467201233 -0.27131783962249756
0.06976747512817383 -0.18409119546413422 0.5813953876495361
0.06976747512817383 -0.165952667593956 -0.4573643207550049
0.06976747512817383 -0.16932028532028198 -0.4418604373931885
0.06976747512817383 -0.17174550890922546 -0.42635661363601685
0.06976747512817383 -0.17374444007873535 -0.41085273027420044
0.06976747512817383 -0.1755368858575821 -0.39534884691238403
0.06976747512817383 -0.17785637080669403 -0.3798449635505676
0.06976747512817383 -0.16640110313892365 0.5968992710113525
0.06976747512817383 -0.1484161764383316 -0.5503876209259033
0.06976747512817383 -0.1523008495569229 -0.5348837375640869
0.06976747512817383 -0.15496845543384552 -0.5193798542022705
0.06976747512817383 -0.1575232297182083 -0.5038759708404541
0.06976747512817383 -0.15978117287158966 -0.4883721172809601
0.06976747512817383 -0.16233254969120026 -0.4728681743144989
0.06976747512817383 -0.14784732460975647 0.8914728164672852
0.06976747512817383 -0.14929130673408508 0.9069766998291016
0.06976747512817383 -0.1361405849456787 -0.6124030947685242
0.06976747512817383 -0.13981422781944275 -0.5968992710113525
0.06976747512817383 -0.14305388927459717 -0.5813953876495361
0.06976747512817383 -0.1456035077571869 -0.5658915042877197
0.06976747512817383 -0.13331931829452515 -0.13178294897079468
0.06976747512817383 -0.13521620631217957 -0.11627906560897827
0.06976747512817383 -0.1351185441017151 -0.10077518224716187
0.06976747512817383 -0.1318289339542389 0.8604651689529419
0.06976747512817383 -0.13566854596138 0.8759689331054688
0.06976747512817383 -0.1407744288444519 0.9069766998291016
0.06976747512817383 -0.11759530752897263 -0.674418568611145
0.06976747512817383 -0.12303036451339722 -0.6589146852493286
0.06976747512817383 -0.12765544652938843 -0.643410861492157
0.06976746767759323 -0.13155099749565125 -0.6279069185256958
0.06976747512817383 -0.11741356551647186 -0.41085273027420044
0.06976747512817383 -0.1199621707201004 -0.39534884691238403
0.06976747512817383 -0.12193727493286133 -0.3798449635505676
0.06976747512817383 -0.12348902225494385 -0.3643410801887512
0.06976747512817383 -0.12511923909187317 -0.3488371968269348
0.06976747512817383 -0.1265931874513626 -0.3333333134651184
0.06976747512817383 -0.12738463282585144 -0.317829430103302
0.06976747512817383 -0.12879128754138947 -0.30232560634613037
0.06976747512817383 -0.12936916947364807 -0.28682172298431396
0.06976747512817383 -0.12999063730239868 -0.27131783962249756
0.06976747512817383 -0.12923766672611237 -0.25581395626068115
0.06976747512817383 -0.12774154543876648 -0.24031007289886475
0.06976747512817383 -0.1263524889945984 -0.22480618953704834
0.06976747512817383 -0.12543421983718872 -0.20930230617523193
0.06976747512817383 -0.1256123036146164 -0.19379842281341553
0.06976747512817383 -0.12620456516742706 -0.1782945990562439
0.06976747512817383 -0.12842796742916107 -0.1627907156944275
0.06976747512817383 -0.1308070421218872 -0.14728683233261108
