-0.2878887355327606 0.06976747512817383 -0.1627907156944275
-0.29826074838638306 0.06976747512817383 -0.14728683233261108
-0.2997775971889496 0.06976747512817383 0.28682172298431396
-0.28826868534088135 0.06976747512817383 0.30232560634613037
-0.29554852843284607 0.08527135848999023 -0.30232560634613037
-0.2876392900943756 0.08527135848999023 -0.1782945990562439
-0.30016428232192993 0.08527135848999023 -0.1627907156944275
-0.2934154272079468 0.08527135848999023 0.05426359176635742
-0.3015366196632385 0.08527135848999023 0.2868216931819916
-0.2901822030544281 0.08527135848999023 0.30232560634613037
-0.2909606993198395 0.10077524185180664 -0.30232560634613037
-0.2890470623970032 0.10077524185180664 -0.1782945990562439
-0.2923012971878052 0.10077524185180664 0.30232560634613037
-0.2982199192047119 0.11627912521362305 -0.28682172298431396
-0.28778892755508423 0.11627912521362305 0.02325582504272461
-0.29399293661117554 0.11627912521362305 0.30232560634613037
-0.2910812199115753 0.1317828893661499 -0.28682172298431396
-0.29211416840553284 0.1317828893661499 -0.1627907156944275
-0.29571276903152466 0.1317828893661499 0.30232560634613037
-0.29631397128105164 0.1472867727279663 -0.27131783962249756
-0.29462379217147827 0.1472867727279663 -0.1627907156944275
-0.2980908155441284 0.1472867727279663 0.30232560634613037
-0.300799697637558 0.16279065608978271 -0.25581395626068115
-0.29662853479385376 0.16279065608978271 -0.1782945990562439
-0.29406946897506714 0.16279065608978271 0.02325582504272461
-0.3005136549472809 0.16279065608978271 0.30232563614845276
-0.28988930583000183 0.16279065608978271 0.3178294897079468
-0.28830868005752563 0.17829453945159912 -0.25581395626068115
-0.3003098666667938 0.17829453945159912 0.302325576543808
-0.29006290435791016 0.17829453945159912 0.3178294897079468
-0.29583507776260376 0.19379842281341553 -0.24031007289886475
-0.2982363700866699 0.19379842281341553 -0.1627907156944275
-0.29943910241127014 0.19379842281341553 0.30232560634613037
-0.28699395060539246 0.20930230617523193 -0.11627906560897827
-0.29881149530410767 0.20930230617523193 0.30232560634613037
-0.2978323698043823 0.22480618953704834 -0.22480618953704834
-0.29888254404067993 0.22480618953704834 0.30232560634613037
-0.2926650941371918 0.24031007289886475 -0.22480618953704834
-0.2989046573638916 0.24031007289886475 0.30232560634613037
-0.2922790050506592 0.25581395626068115 -0.11627906560897827
-0.2898827791213989 0.25581395626068115 0.038759708404541016
-0.29789623618125916 0.25581395626068115 0.30232560634613037
-0.30068477988243103 0.27131783962249756 -0.20930230617523193
-0.29652076959609985 0.27131783962249756 -0.11627906560897827
-0.2962813675403595 0.27131783962249756 0.30232560634613037
-0.29589444398880005 0.28682172298431396 -0.20930230617523193
-0.29249435663223267 0.28682172298431396 -0.11627906560897827
-0.30114659667015076 0.28682172298431396 0.03875970467925072
-0.29438674449920654 0.28682172298431396 0.30232560634613037
-0.29222097992897034 0.30232560634613037 -0.20930230617523193
-0.2909294068813324 0.30232560634613037 -0.007751941680908203
-0.2934918999671936 0.30232560634613037 0.007751941680908203
-0.3021561801433563 0.30232560634613037 0.02325582504272461
-0.29226720333099365 0.30232560634613037 0.30232560634613037
-0.288387268781662 0.3178294897079468 -0.20930230617523193
-0.29521453380584717 0.3178294897079468 -0.10077518224716187
-0.30075550079345703 0.3178294897079468 0.28682172298431396
-0.29011160135269165 0.3178294897079468 0.30232560634613037
-0.2920553386211395 0.3333333730697632 -0.05426359176635742
-0.29920151829719543 0.3333333730697632 0.28682172298431396
-0.2880920469760895 0.3333333730697632 0.30232560634613037
-0.29856961965560913 0.3488372564315796 0.28682172298431396
-0.30131393671035767 0.364341139793396 -0.19379842281341553
-0.2980649769306183 0.3643411099910736 0.28682172298431396
-0.28864824771881104 0.37984490394592285 -0.19379842281341553
-0.2974942624568939 0.37984490394592285 0.28682172298431396
-0.2967556118965149 0.39534878730773926 0.28682172298431396
-0.29977521300315857 0.41085267066955566 -0.1782945990562439
-0.29525303840637207 0.41085267066955566 0.28682172298431396
-0.2977830767631531 0.42635655403137207 -0.1782945990562439
-0.2924835681915283 0.42635655403137207 0.28682172298431396
-0.2972242832183838 0.4418604373931885 -0.1782945990562439
-0.2888525426387787 0.4418604373931885 0.28682172298431396
-0.2955513000488281 0.4573643207550049 -0.1782945990562439
-0.2998976707458496 0.4573643207550049 0.27131783962249756
-0.2963728904724121 0.4728682041168213 -0.1782945990562439
-0.29750296473503113 0.4728682041168213 0.27131783962249756
-0.29850542545318604 0.4883720874786377 -0.1782945990562439
-0.2943163812160492 0.4883720874786377 0.27131783962249756
-0.301245778799057 0.5038759708404541 0.25581395626068115
-0.2896732687950134 0.5038759708404541 0.27131783962249756
-0.2883804142475128 0.5193798542022705 -0.19379842281341553
-0.29857659339904785 0.5193798542022705 0.25581395626068115
-0.29517725110054016 0.5348837375640869 -0.19379842281341553
-0.2976519465446472 0.5348837375640869 0.25581395626068115
-0.29348528385162354 0.5503876209259033 -0.20930230617523193
-0.29645630717277527 0.5503876209259033 0.25581395626068115
-0.2931608259677887 0.5658915042877197 -0.22480618953704834
-0.293750137090683 0.5658915042877197 0.25581395626068115
-0.2924167811870575 0.5813953876495361 -0.24031007289886475
-0.2989209294319153 0.5813953876495361 0.24031007289886475
-0.28818920254707336 0.5813953876495361 0.25581395626068115
-0.291069895029068 0.5968992710113525 -0.25581395626068115
-0.2971433997154236 0.5968992710113525 0.24031007289886475
-0.29743218421936035 0.612403154373169 -0.25581395626068115
-0.3015804588794708 0.612403154373169 0.22480620443820953
-0.29251283407211304 0.612403154373169 0.24031007289886475
-0.29035794734954834 0.6279069185256958 -0.27131783962249756
-0.29764989018440247 0.6279069185256958 0.22480618953704834
-0.29242855310440063 0.6434108018875122 -0.27131783962249756
-0.2996188998222351 0.6434107422828674 -0.038759708404541016
-0.29020100831985474 0.6434108018875122 -0.02325582504272461
-0.2916545569896698 0.6434108018875122 -0.007751941680908203
-0.3006570339202881 0.6434107422828674 0.20930230617523193
-0.2910652458667755 0.6434108018875122 0.22480618953704834
-0.29500365257263184 0.6589146852493286 -0.27131783962249756
-0.3007214665412903 0.6589146852493286 -0.00775194214656949
-0.2958372235298157 0.6589146852493286 0.20930230617523193
-0.2881717383861542 0.674418568611145 -0.28682172298431396
-0.2967224717140198 0.674418568611145 -0.05426359176635742
-0.2882322371006012 0.674418568611145 -0.038759708404541016
-0.2981730103492737 0.674418568611145 -0.02325582504272461
-0.29860106110572815 0.674418568611145 0.19379842281341553
-0.2948994040489197 0.6899224519729614 -0.28682172298431396
-0.2940056324005127 0.6899224519729614 0.19379842281341553
-0.29325151443481445 0.7054263353347778 -0.30232560634613037
-0.2962520718574524 0.7054263353347778 -0.02325582504272461
-0.2980552315711975 0.7054263353347778 0.17829453945159912
-0.2921604514122009 0.7209302186965942 -0.317829430103302
-0.30160120129585266 0.7209302186965942 0.16279065608978271
-0.293129026889801 0.7209302186965942 0.17829453945159912
-0.289639413356781 0.7364341020584106 -0.3333333134651184
-0.3001875877380371 0.7364341020584106 -0.317829430103302
-0.28876951336860657 0.7364341020584106 -0.06976741552352905
-0.30050504207611084 0.7364341020584106 -0.038759708404541016
-0.2976350784301758 0.7364341020584106 0.16279065608978271
-0.28693655133247375 0.751937985420227 -0.3488371968269348
-0.29750126600265503 0.7519380450248718 -0.3333333134651184
-0.2999441921710968 0.751937985420227 0.1472867727279663
-0.29085272550582886 0.751937985420227 0.16279065608978271
-0.2945724129676819 0.7674418687820435 -0.3488371968269348
-0.3017047643661499 0.7674419283866882 0.1317828893661499
-0.2949985861778259 0.7674418687820435 0.1472867727279663
-0.2891041040420532 0.7829457521438599 -0.3643410801887512
-0.29812973737716675 0.7829457521438599 -0.3488372266292572
-0.2964438498020172 0.7829457521438599 0.1317828893661499
-0.29277148842811584 0.7984496355056763 -0.3643410801887512
-0.3003040850162506 0.7984496355056763 -0.3488371968269348
-0.30146387219429016 0.7984496355056763 0.10077524185180664
-0.2960345447063446 0.7984496355056763 0.11627912521362305
-0.28802916407585144 0.8139535188674927 -0.3798449635505676
-0.2952801287174225 0.8139535188674927 -0.3643410801887512
-0.3021138608455658 0.8139535188674927 -0.3488371670246124
-0.2997327446937561 0.8139535188674927 0.08527135848999023
-0.29205673933029175 0.8139535188674927 0.10077524185180664
-0.28683555126190186 0.8294574022293091 -0.39534884691238403
-0.29270464181900024 0.8294574022293091 -0.3798449635505676
-0.2976829409599304 0.8294574022293091 -0.3643410801887512
-0.3010237216949463 0.8294574022293091 0.05426359176635742
-0.296480655670166 0.8294574022293091 0.06976747512817383
-0.2888084053993225 0.8449612855911255 -0.41085273027420044
-0.29260924458503723 0.8449612855911255 -0.39534884691238403
-0.29583215713500977 0.8449612855911255 -0.3798449635505676
-0.30061888694763184 0.8449612855911255 -0.3643410801887512
-0.3007867932319641 0.8449612855911255 0.02325582504272461
-0.2979368269443512 0.8449612855911255 0.038759708404541016
-0.2870846688747406 0.8449612855911255 0.05426359176635742
-0.2890831530094147 0.8604651689529419 -0.42635661363601685
-0.2921674847602844 0.8604651689529419 -0.41085273027420044
-0.29465609788894653 0.8604651689529419 -0.39534884691238403
-0.29721999168395996 0.8604651093482971 -0.3798449635505676
-0.30184927582740784 0.8604651689529419 -0.3643410801887512
-0.3008301258087158 0.8604651689529419 -0.02325582504272461
-0.2992127537727356 0.8604651093482971 -0.007751941680908203
-0.29507318139076233 0.8604651689529419 0.007751941680908203
-0.2869282364845276 0.8759689331054688 -0.4418604373931885
-0.28924888372421265 0.8759689331054688 -0.42635661363601685
-0.2918813228607178 0.8759689331054688 -0.41085273027420044
-0.29454827308654785 0.8759689331054688 -0.39534884691238403
-0.2965468168258667 0.8759689331054688 -0.3798449635505676
-0.2983899712562561 0.8759689331054688 -0.3643410801887512
-0.30115464329719543 0.8759689331054688 -0.3488371968269348
-0.3015439212322235 0.8759689331054688 -0.11627906560897827
-0.30047059059143066 0.8759689331054688 -0.10077518224716187
-0.29954013228416443 0.8759689331054688 -0.08527129888534546
-0.29818522930145264 0.8759689331054688 -0.06976741552352905
-0.29566091299057007 0.8759689331054688 -0.05426359176635742
-0.2907009720802307 0.8759689331054688 -0.038759708404541016
-0.28858715295791626 0.8914728164672852 -0.41085273027420044
-0.2907204329967499 0.8914728164672852 -0.39534884691238403
-0.293252170085907 0.8914728164672852 -0.3798449635505676
-0.2958442270755768 0.8914728164672852 -0.3643410801887512
-0.2974931001663208 0.8914728164672852 -0.3488371968269348
-0.2987111210823059 0.8914728164672852 -0.3333333134651184
-0.2996005415916443 0.8914727568626404 -0.317829430103302
-0.30024707317352295 0.8914728164672852 -0.30232560634613037
-0.3007514774799347 0.8914728164672852 -0.28682172298431396
-0.30114275217056274 0.8914728164672852 -0.27131783962249756
-0.30100223422050476 0.8914728760719299 -0.25581395626068115
-0.30064821243286133 0.8914728164672852 -0.24031007289886475
-0.30019599199295044 0.8914728164672852 -0.22480618953704834
-0.29968830943107605 0.8914728164672852 -0.20930230617523193
-0.29872241616249084 0.8914728164672852 -0.19379842281341553
-0.29728853702545166 0.8914728164672852 -0.1782945990562439
-0.295504629611969 0.8914728164672852 -0.1627907156944275
-0.292919397354126 0.8914728164672852 -0.14728683233261108
-0.29017865657806396 0.8914728164672852 -0.13178294897079468
-0.2876918911933899 0.8914728164672852 -0.11627906560897827
-0.287199467420578 0.9069766998291016 -0.3643410801887512
-0.2881637215614319 0.9069766998291016 -0.3488371968269348
-0.28919166326522827 0.9069766998291016 -0.3333333134651184
-0.2903616428375244 0.9069766998291016 -0.317829430103302
-0.2912580370903015 0.9069766998291016 -0.30232560634613037
-0.291553258895874 0.9069766998291016 -0.28682172298431396
-0.29151153564453125 0.9069766998291016 -0.27131783962249756
-0.29073721170425415 0.9069766998291016 -0.25581395626068115
-0.28970828652381897 0.9069766998291016 -0.24031007289886475
-0.28847503662109375 0.9069766998291016 -0.22480618953704834
-0.28710705041885376 0.9069766998291016 -0.20930230617523193
-0.2791740596294403 -0.5813953876495361 0.5813953876495361
-0.27221909165382385 -0.24031007289886475 0.038759708404541016
-0.274051308631897 -0.24031007289886475 0.05426359176635742
-0.2753268778324127 -0.24031007289886475 0.06976747512817383
-0.2750943899154663 -0.24031007289886475 0.08527135848999023
-0.2746509611606598 -0.24031007289886475 0.10077524185180664
-0.27377939224243164 -0.24031007289886475 0.11627912521362305
-0.2719874680042267 -0.24031007289886475 0.1317828893661499
-0.27773258090019226 -0.22480618953704834 -0.02325582504272461
-0.28180062770843506 -0.22480618953704834 -0.007751941215246916
-0.2855411469936371 -0.22480618953704834 0.007751941680908203
-0.28579604625701904 -0.22480618953704834 0.11627912521362305
-0.28293758630752563 -0.22480618953704834 0.1317828893661499
-0.28138166666030884 -0.22480618953704834 0.1472867727279663
-0.28012174367904663 -0.22480618953704834 0.16279065608978271
-0.2792688012123108 -0.22480618953704834 0.17829453945159912
-0.2779298722743988 -0.22480618953704834 0.19379842281341553
-0.2760539650917053 -0.22480618953704834 0.20930230617523193
-0.2724873125553131 -0.22480618953704834 0.22480618953704834
-0.27938395738601685 -0.20930230617523193 -0.06976741552352905
-0.28586503863334656 -0.20930230617523193 0.19379842281341553
-0.28239572048187256 -0.20930230617523193 0.20930230617523193
-0.2792481482028961 -0.20930230617523193 0.22480618953704834
-0.27459457516670227 -0.20930230617523193 0.24031007289886475
-0.2722020745277405 -0.19379842281341553 -0.10077518224716187
-0.28637954592704773 -0.19379840791225433 0.22480618953704834
-0.2808992862701416 -0.19379842281341553 0.24031007289886475
-0.27505040168762207 -0.19379842281341553 0.25581395626068115
-0.2726792097091675 -0.1782945990562439 -0.11627906560897827
-0.27469050884246826 -0.1782945990562439 0.038759708404541016
-0.27979207038879395 -0.1782945990562439 0.05426359176635742
-0.28157126903533936 -0.1782945990562439 0.06976747512817383
-0.2819393277168274 -0.1782945990562439 0.08527135848999023
-0.2791755199432373 -0.1782945990562439 0.10077524185180664
-0.2753532826900482 -0.1782945990562439 0.11627912521362305
-0.2818439304828644 -0.1782945990562439 0.25581395626068115
-0.27511999011039734 -0.1782945990562439 0.27131783962249756
-0.2800973653793335 -0.1627907156944275 -0.02325582504272461
-0.28034263849258423 -0.1627907156944275 0.1317828893661499
-0.2734087109565735 -0.1627907156944275 0.1472867727279663
-0.2801053524017334 -0.1627907156944275 0.27131783962249756
-0.2768048346042633 -0.14728683233261108 0.1472867727279663
-0.2819303870201111 -0.14728683233261108 0.27131783962249756
-0.27186357975006104 -0.14728683233261108 0.28682172298431396
-0.28517067432403564 -0.13178294897079468 -0.1472868174314499
-0.2823421359062195 -0.13178294897079468 -0.05426359549164772
-0.28664231300354004 -0.13178294897079468 0.1317828893661499
-0.27399712800979614 -0.13178294897079468 0.1472867727279663
-0.28401467204093933 -0.13178294897079468 0.27131783962249756
-0.27439895272254944 -0.13178294897079468 0.28682172298431396
-0.28541386127471924 -0.11627906560897827 -0.1627907156944275
-0.28410452604293823 -0.11627906560897827 0.1317828893661499
-0.27790817618370056 -0.11627906560897827 0.28682172298431396
-0.27414846420288086 -0.10077518224716187 -0.06976741552352905
-0.2775285243988037 -0.10077518224716187 0.1317828893661499
-0.2805391550064087 -0.10077518224716187 0.28682172298431396
-0.2827962338924408 -0.08527129888534546 -0.06976741552352905
-0.28213733434677124 -0.08527129888534546 0.28682172298431396
-0.2798285186290741 -0.06976741552352905 0.1317828893661499
-0.28329989314079285 -0.06976741552352905 0.28682172298431396
-0.27193501591682434 -0.06976741552352905 0.30232560634613037
-0.27183398604393005 -0.05426359176635742 -0.24031007289886475
-0.27882087230682373 -0.05426359176635742 0.1317828893661499
-0.2840789258480072 -0.05426359176635742 0.28682172298431396
-0.2732113301753998 -0.05426359176635742 0.30232560634613037
-0.2785845398902893 -0.038759708404541016 0.1317828893661499
-0.2850441634654999 -0.038759708404541016 0.28682172298431396
-0.2747194766998291 -0.038759708404541016 0.30232560634613037
-0.2861514687538147 -0.02325582504272461 -0.25581395626068115
-0.2723004221916199 -0.02325582504272461 0.1317828893661499
-0.28622063994407654 -0.02325582504272461 0.28682172298431396
-0.276309996843338 -0.02325582504272461 0.30232560634613037
-0.28191739320755005 -0.007751941680908203 -0.27131783962249756
-0.2782766819000244 -0.007751941680908203 0.30232560634613037
-0.2739642858505249 0.007751941680908203 -0.28682172298431396
-0.2799898386001587 0.007751941680908203 -0.11627906560897827
-0.28020772337913513 0.007751941680908203 0.30232560634613037
-0.27991196513175964 0.02325582504272461 -0.11627906560897827
-0.27897214889526367 0.02325582504272461 0.08527135848999023
-0.2818275988101959 0.02325582504272461 0.30232560634613037
-0.2837192714214325 0.038759708404541016 -0.30232560634613037
-0.27894362807273865 0.038759708404541016 -0.13178294897079468
-0.2836345136165619 0.038759708404541016 0.30232560634613037
-0.2767546772956848 0.05426359176635742 -0.317829430103302
-0.2723073959350586 0.05426359176635742 -0.1627907156944275
-0.28238701820373535 0.05426359176635742 -0.14728683233261108
-0.28593307733535767 0.05426359176635742 0.30232560634613037
-0.27322012186050415 0.05426359176635742 0.3178294897079468
-0.2817096710205078 0.06976747512817383 -0.317829430103302
-0.2763478457927704 0.06976747512817383 -0.1782945990562439
-0.27503320574760437 0.06976747512817383 0.3178294897079468
-0.2803073525428772 0.08527135848999023 -0.317829430103302
-0.27137404680252075 0.08527135848999023 -0.19379842281341553
-0.27644628286361694 0.08527135848999023 0.3178294897079468
-0.27508413791656494 0.10077524185180664 -0.317829430103302
-0.27827292680740356 0.10077524185180664 0.3178294897079468
-0.28418025374412537 0.11627912521362305 -0.30232560634613037
-0.2788357138633728 0.11627912521362305 -0.1782945990562439
-0.27989906072616577 0.11627912521362305 0.3178294897079468
-0.27477970719337463 0.1317828893661499 -0.30232560634613037
-0.28147849440574646 0.1317828893661499 0.3178294897079468
-0.2799893617630005 0.1472867727279663 -0.28682172298431396
-0.2846192717552185 0.1472867727279663 0.3178294897079468
-0.2834866940975189 0.16279065608978271 -0.27131783962249756
-0.27514320611953735 0.16279065608978271 0.3333333730697632
-0.27587854862213135 0.17829453945159912 -0.19379842281341553
-0.2769528925418854 0.17829453945159912 0.3333333730697632
-0.27181726694107056 0.19379842281341553 -0.25581395626068115
-0.27652475237846375 0.19379842281341553 -0.1782945990562439
-0.2867482900619507 0.19379842281341553 0.3178294897079468
-0.2742818295955658 0.19379842281341553 0.3333333730697632
-0.2842119038105011 0.20930230617523193 -0.24031007289886475
-0.2726408839225769 0.20930230617523193 -0.13178294897079468
-0.2851524353027344 0.20930230617523193 0.3178294897079468
-0.2764379382133484 0.22480618953704834 -0.24031007289886475
-0.28045544028282166 0.22480618953704834 -0.11627906560897827
-0.28077441453933716 0.22480618953704834 0.02325582504272461
-0.2851065993309021 0.22480618953704834 0.3178294897079468
-0.27229273319244385 0.24031007289886475 -0.13178294897079468
-0.28607991337776184 0.24031007289886475 -0.11627906560897827
-0.272327184677124 0.24031007289886475 0.02325582504272461
-0.28564170002937317 0.24031007289886475 0.3178294897079468
-0.28508418798446655 0.25581395626068115 -0.22480618953704834
-0.2741391658782959 0.25581395626068115 -0.13178294897079468
-0.28352564573287964 0.25581395626068115 0.3178294897079468
-0.27994823455810547 0.27131783962249756 -0.22480620443820953
-0.27399519085884094 0.27131783962249756 -0.13178294897079468
-0.28038841485977173 0.27131783962249756 0.038759708404541016
-0.28164368867874146 0.27131783962249756 0.3178294897079468
-0.2745715379714966 0.28682172298431396 -0.22480618953704834
-0.27983513474464417 0.28682172298431396 0.3178294897079468
-0.2802833318710327 0.30232560634613037 -0.11627906560897827
-0.2776980996131897 0.30232560634613037 0.3178294897079468
-0.27530965209007263 0.3178294897079468 0.3178294897079468
-0.2851084768772125 0.3333333730697632 -0.20930230617523193
-0.2730865478515625 0.3333333730697632 0.3178294897079468
-0.2808991074562073 0.3488372564315796 -0.20930230617523193
-0.28658103942871094 0.3488372564315796 0.302325576543808
-0.27149131894111633 0.3488372564315796 0.3178294897079468
-0.2726253271102905 0.364341139793396 -0.20930230617523193
-0.28488093614578247 0.364341139793396 0.302325576543808
-0.28339245915412903 0.37984490394592285 0.30232560634613037
-0.2741195559501648 0.39534878730773926 -0.19379842281341553
-0.2821813225746155 0.39534878730773926 0.30232560634613037
-0.2804222106933594 0.41085267066955566 0.30232560634613037
-0.2772272825241089 0.42635655403137207 0.30232560634613037
-0.27252379059791565 0.4418604373931885 0.30232560634613037
-0.2848614454269409 0.45736435055732727 0.28682172298431396
-0.27151697874069214 0.4728682041168213 -0.19379842281341553
-0.2818838655948639 0.4728682041168213 0.28682172298431396
-0.2754398286342621 0.4883720874786377 -0.19379842281341553
-0.2792314291000366 0.4883720874786377 0.28682172298431396
-0.2805025279521942 0.5038759708404541 -0.19379842281341553
-0.27602002024650574 0.5038759708404541 0.28682172298431396
-0.2718055546283722 0.5193798542022705 -0.20930230617523193
-0.28556057810783386 0.5193798542022705 0.27131783962249756
-0.27262529730796814 0.5193798542022705 0.28682172298431396
-0.28318795561790466 0.5348837375640869 -0.20930230617523193
-0.28378617763519287 0.5348837375640869 0.27131783962249756
-0.2822016477584839 0.5503876209259033 -0.22480618953704834
-0.28297460079193115 0.5503876209259033 0.27131783962249756
-0.280785471200943 0.5658915042877197 -0.24031007289886475
-0.28119686245918274 0.5658915042877197 0.27131783962249756
-0.27787286043167114 0.5813953876495361 -0.25581395626068115
-0.277849406003952 0.5813953876495361 0.27131783962249756
-0.2736971974372864 0.5968992710113525 -0.27131783962249756
-0.28329595923423767 0.5968992710113525 0.25581395626068115
-0.28370174765586853 0.612403154373169 -0.27131783962249756
-0.2799910306930542 0.612403154373169 0.25581395626068115
-0.28375548124313354 0.6279069185256958 0.24031008780002594
-0.275188684463501 0.6434108018875122 -0.28682172298431396
-0.2788761854171753 0.6434108018875122 0.24031007289886475
-0.27975189685821533 0.6589146852493286 -0.28682172298431396
-0.27132484316825867 0.6589146852493286 -0.11627906560897827
-0.2864754796028137 0.6589146852493286 -0.038759708404541016
-0.2866448163986206 0.6589146852493286 -0.02325582504272461
-0.2822573184967041 0.6589146852493286 0.22480618953704834
-0.2725309431552887 0.674418568611145 -0.30232560634613037
-0.2747953236103058 0.674418568611145 -0.13178294897079468
-0.27541378140449524 0.674418568611145 -0.11627906560897827
-0.2741377651691437 0.674418568611145 -0.10077518224716187
-0.28647029399871826 0.674418568611145 0.20930230617523193
-0.27509406208992004 0.674418568611145 0.22480618953704834
-0.28245267271995544 0.6899224519729614 -0.30232560634613037
-0.2723296880722046 0.6899224519729614 -0.13178294897079468
-0.27387765049934387 0.6899224519729614 -0.11627906560897827
-0.27486467361450195 0.6899224519729614 -0.10077518224716187
-0.27572211623191833 0.6899224519729614 -0.08527129888534546
-0.27374738454818726 0.6899224519729614 -0.06976741552352905
-0.27641725540161133 0.6899224519729614 -0.05426359176635742
-0.2820197641849518 0.6899224519729614 -0.038759708404541016
-0.2813130021095276 0.6899224519729614 0.20930230617523193
-0.28051990270614624 0.7054263353347778 -0.317829430103302
-0.2723968029022217 0.7054263353347778 -0.10077518224716187
-0.2742382884025574 0.7054263353347778 -0.08527129888534546
-0.2785862386226654 0.7054263353347778 -0.06976741552352905
-0.2856826186180115 0.7054263353347778 0.19379842281341553
-0.274264395236969 0.7054263353347778 0.20930230617523193
-0.2780773639678955 0.7209302186965942 -0.3333333134651184
-0.272381991147995 0.7209302186965942 -0.10077518224716187
-0.2745547890663147 0.7209302186965942 -0.08527129888534546
-0.2793816924095154 0.7209302186965942 -0.06976741552352905
-0.28080540895462036 0.7209302186965942 0.19379842281341553
-0.27570146322250366 0.7364341020584106 -0.3488371968269348
-0.2715592086315155 0.7364341020584106 -0.13178294897079468
-0.2747723460197449 0.7364341020584106 -0.11627906560897827
-0.2781957983970642 0.7364341020584106 -0.10077518224716187
-0.28177040815353394 0.7364341020584106 -0.08527129888534546
-0.28487151861190796 0.7364341020584106 0.17829453945159912
-0.27304643392562866 0.7364341020584106 0.19379842281341553
-0.27245208621025085 0.751937985420227 -0.3643410801887512
-0.2752993106842041 0.751937985420227 -0.13178294897079468
-0.27944403886795044 0.751937985420227 -0.11627906560897827
-0.2830055058002472 0.751937985420227 -0.10077518224716187
-0.2851748466491699 0.751937985420227 -0.08527129888534546
-0.28384965658187866 0.751937985420227 -0.06976741552352905
-0.2797622084617615 0.751937985420227 0.17829453945159912
-0.2809407114982605 0.7674418687820435 -0.3643410801887512
-0.2829035520553589 0.7674418687820435 0.16279065608978271
-0.27431029081344604 0.7829457521438599 -0.3798449635505676
-0.28419119119644165 0.7829457521438599 0.1472867727279663
-0.27175670862197876 0.7829457521438599 0.16279065608978271
-0.2805590033531189 0.7984496355056763 -0.3798449635505676
-0.2842370867729187 0.7984496355056763 0.1317828893661499
-0.27178263664245605 0.7984496355056763 0.1472867727279663
-0.27794119715690613 0.8139535188674927 -0.39534884691238403
-0.28290319442749023 0.8139535188674927 0.11627912521362305
-0.2741014063358307 0.8294574022293091 -0.42635661363601685
-0.27974745631217957 0.8294574022293091 -0.41085273027420044
-0.2854684889316559 0.8294574022293091 0.08527135848999023
-0.27822068333625793 0.8294574022293091 0.10077524185180664
-0.2740733325481415 0.8449612855911255 -0.4573643207550049
-0.27841365337371826 0.8449612855911255 -0.4418604373931885
-0.2832927107810974 0.8449612855911255 -0.42635661363601685
-0.28123927116394043 0.8449612855911255 0.06976747512817383
-0.27233657240867615 0.8604651689529419 -0.5038759708404541
-0.2750128507614136 0.8604651689529419 -0.4883720874786377
-0.277538001537323 0.8604651689529419 -0.4728682041168213
-0.2809596061706543 0.8604651689529419 -0.4573642909526825
-0.2851564586162567 0.8604651093482971 -0.4418604373931885
-0.2857557535171509 0.8604651689529419 0.02325582504272461
-0.2815317213535309 0.8604651689529419 0.038759708404541016
-0.2718176245689392 0.8759689331054688 -0.5658915042877197
-0.2727370858192444 0.8759689331054688 -0.5503876209259033
-0.27385398745536804 0.8759689331054688 -0.5348837375640869
-0.27530351281166077 0.8759689331054688 -0.5193798542022705
-0.27707532048225403 0.8759689331054688 -0.5038759708404541
-0.2787083387374878 0.8759689331054688 -0.4883720874786377
-0.2803462743759155 0.8759689331054688 -0.4728682041168213
-0.28314724564552307 0.8759689331054688 -0.4573643207550049
-0.2856272757053375 0.875968873500824 -0.02325582504272461
-0.283284068107605 0.8759689331054688 -0.007751941680908203
-0.27642348408699036 0.8759689331054688 0.007751941680908203
-0.27238723635673523 0.8914728164672852 -0.5348837375640869
-0.27377256751060486 0.8914728164672852 -0.5193798542022705
-0.2759074866771698 0.8914728164672852 -0.5038759708404541
-0.2784422039985657 0.8914728164672852 -0.4883720874786377
-0.28066855669021606 0.8914728164672852 -0.4728682041168213
-0.282090425491333 0.8914727568626404 -0.4573643207550049
-0.2835080027580261 0.8914728760719299 -0.4418604373931885
-0.2864591181278229 0.8914728164672852 -0.42635661363601685
-0.2856576144695282 0.8914728164672852 -0.10077518224716187
-0.2841554582118988 0.8914728164672852 -0.08527129143476486
-0.28213798999786377 0.8914728164672852 -0.06976741552352905
-0.27832281589508057 0.8914728164672852 -0.05426359176635742
-0.2720855474472046 0.8914728164672852 -0.038759708404541016
-0.2720487713813782 0.9069766998291016 -0.4883720874786377
-0.27414610981941223 0.9069766998291016 -0.4728682041168213
-0.2771562933921814 0.9069766998291016 -0.4573643207550049
-0.28041499853134155 0.9069766998291016 -0.4418604373931885
-0.2825694978237152 0.9069766402244568 -0.42635661363601685
-0.28389281034469604 0.9069766998291016 -0.41085273027420044
-0.28489238023757935 0.9069766998291016 -0.39534881711006165
-0.285757839679718 0.9069766998291016 -0.3798449635505676
-0.28554728627204895 0.9069766402244568 -0.19379840791225433
-0.28412190079689026 0.9069766998291016 -0.1782945990562439
-0.28219926357269287 0.9069766998291016 -0.1627907156944275
-0.2790490388870239 0.9069766998291016 -0.14728683233261108
-0.2753475308418274 0.9069766998291016 -0.13178294897079468
-0.2717399597167969 0.9069766998291016 -0.11627906560897827
-0.2721153199672699 0.922480583190918 -0.41085273027420044
-0.2734379768371582 0.922480583190918 -0.39534884691238403
-0.2745133638381958 0.922480583190918 -0.3798449635505676
-0.275831937789917 0.922480583190918 -0.3643410801887512
-0.2772020101547241 0.922480583190918 -0.3488371968269348
-0.2789625823497772 0.922480583190918 -0.3333333134651184
-0.2803351581096649 0.9224805235862732 -0.317829430103302
-0.280888170003891 0.922480583190918 -0.30232560634613037
-0.2808423936367035 0.922480583190918 -0.28682172298431396
-0.2804344892501831 0.922480583190918 -0.27131783962249756
-0.279308021068573 0.922480583190918 -0.25581395626068115
-0.27787482738494873 0.922480583190918 -0.24031007289886475
-0.27620169520378113 0.922480583190918 -0.22480618953704834
-0.2739189863204956 0.922480583190918 -0.20930230617523193
-0.2713939845561981 0.922480583190918 -0.19379842281341553
-0.26685577630996704 -0.5813953876495361 0.5813953876495361
-0.2585849463939667 -0.5813953876495361 0.5968992710113525
-0.26384806632995605 -0.5813953876495361 0.751937985420227
-0.2673964500427246 -0.5658915042877197 0.6279069185256958
-0.2621559500694275 -0.5658915042877197 0.7209302186965942
-0.26580169796943665 -0.5658915042877197 0.7364341020584106
-0.2713136374950409 -0.5658915042877197 0.751937985420227
-0.25622785091400146 -0.25581395626068115 0.038759708404541016
-0.2591870427131653 -0.25581395626068115 0.05426359176635742
-0.261390745639801 -0.25581395626068115 0.06976747512817383
-0.2621508538722992 -0.25581395626068115 0.08527135848999023
-0.2625052332878113 -0.25581395626068115 0.10077524185180664
-0.2624794840812683 -0.25581395626068115 0.11627912521362305
-0.26168274879455566 -0.25581395626068115 0.1317828893661499
-0.26114267110824585 -0.25581395626068115 0.1472867727279663
-0.2602752447128296 -0.25581395626068115 0.16279065608978271
-0.25952666997909546 -0.25581395626068115 0.17829453945159912
-0.2580323815345764 -0.25581395626068115 0.19379842281341553
-0.25667086243629456 -0.25581395626068115 0.20930230617523193
-0.2614516615867615 -0.24031007289886475 -0.007751941680908203
-0.26612603664398193 -0.24031007289886475 0.007751941680908203
-0.2691040635108948 -0.24031007289886475 0.02325582318007946
-0.2705893814563751 -0.24031005799770355 0.1472867727279663
-0.2689708173274994 -0.24031007289886475 0.16279065608978271
-0.26792338490486145 -0.24031007289886475 0.17829453945159912
-0.26648685336112976 -0.24031007289886475 0.19379842281341553
-0.2652357816696167 -0.24031007289886475 0.20930230617523193
-0.26302415132522583 -0.24031007289886475 0.22480618953704834
-0.259700208902359 -0.24031007289886475 0.24031007289886475
-0.2636132836341858 -0.22480618953704834 -0.05426359176635742
-0.27047958970069885 -0.22480617463588715 -0.03875970467925072
-0.2672867774963379 -0.22480618953704834 0.24031007289886475
-0.2631716728210449 -0.22480618953704834 0.25581395626068115
-0.25696927309036255 -0.22480618953704834 0.27131783962249756
-0.26526325941085815 -0.20930230617523193 -0.08527129888534546
-0.2681967616081238 -0.20930230617523193 0.25581395626068115
-0.26262709498405457 -0.20930230617523193 0.27131783962249756
-0.2672295868396759 -0.19379842281341553 0.27131783962249756
-0.260199636220932 -0.19379842281341553 0.28682172298431396
-0.2639760971069336 -0.1782945990562439 0.02325582504272461
-0.2704075276851654 -0.1782945990562439 0.1317828893661499
-0.25749945640563965 -0.1782945990562439 0.1472867727279663
-0.26508527994155884 -0.1782945990562439 0.28682172298431396
-0.26755183935165405 -0.1627907156944275 -0.13178294897079468
-0.25952455401420593 -0.1627907156944275 -0.038759708404541016
-0.259712278842926 -0.1627907156944275 0.16279065608978271
-0.26989781856536865 -0.1627907007932663 0.2868216931819916
-0.25918683409690857 -0.1627907156944275 0.30232560634613037
-0.26203814148902893 -0.14728683233261108 -0.14728683233261108
-0.26301395893096924 -0.14728683233261108 -0.05426359176635742
-0.26494044065475464 -0.14728683233261108 0.16279065608978271
-0.2606394290924072 -0.14728683233261108 0.30232560634613037
-0.2587815523147583 -0.13178294897079468 -0.1627907156944275
-0.2629837989807129 -0.13178294897079468 0.30232560634613037
-0.25876906514167786 -0.11627906560897827 -0.1782945990562439
-0.2639484405517578 -0.11627906560897827 -0.06976741552352905
-0.26604315638542175 -0.11627906560897827 0.30232560634613037
-0.2618877589702606 -0.10077518224716187 -0.19379842281341553
-0.26642268896102905 -0.10077518224716187 0.1317828893661499
-0.2684110105037689 -0.10077518224716187 0.30232560634613037
-0.2558552622795105 -0.10077518224716187 0.3178294897079468
-0.2659929394721985 -0.08527129888534546 -0.20930230617523193
-0.27015286684036255 -0.08527129888534546 0.30232560634613037
-0.2586435377597809 -0.08527129888534546 0.3178294897079468
-0.2700125575065613 -0.06976741552352905 -0.22480618953704834
-0.2607831358909607 -0.06976741552352905 0.3178294897079468
-0.2620770335197449 -0.05426359176635742 0.3178294897079468
-0.26883813738822937 -0.038759712129831314 -0.25581395626068115
-0.2655346989631653 -0.038759708404541016 -0.08527129888534546
-0.26346153020858765 -0.038759708404541016 0.3178294897079468
-0.26715707778930664 -0.02325582690536976 -0.27131783962249756
-0.26470255851745605 -0.02325582504272461 0.3178294897079468
-0.2597197890281677 -0.007751941680908203 -0.28682172298431396
-0.2661695182323456 -0.007751941680908203 0.3178294897079468
-0.257231205701828 0.007751941680908203 -0.13178294897079468
-0.2678273618221283 0.00775194214656949 0.3178294897079468
-0.2693348824977875 0.02325582504272461 -0.302325576543808
-0.2698248028755188 0.02325582504272461 -0.13178294897079468
-0.2694629728794098 0.02325582504272461 0.3178294897079468
-0.256392240524292 0.02325582504272461 0.3333333730697632
-0.26468002796173096 0.038759708404541016 -0.317829430103302
-0.2562355101108551 0.038759708404541016 -0.1627907156944275
-0.2677156627178192 0.038759708404541016 -0.14728683233261108
-0.2683142125606537 0.038759708404541016 0.06976747512817383
-0.2712886333465576 0.038759708404541016 0.3178294897079468
-0.2575224041938782 0.038759708404541016 0.3333333730697632
-0.25696566700935364 0.05426359176635742 -0.3333333134651184
-0.2624599039554596 0.05426359176635742 -0.1782945990562439
-0.2588794231414795 0.05426359176635742 0.3333333730697632
-0.26423805952072144 0.06976747512817383 -0.3333333134651184
-0.2575225234031677 0.06976747512817383 -0.20930230617523193
-0.2661736309528351 0.06976747512817383 -0.19379842281341553
-0.26000773906707764 0.06976747512817383 0.3333333730697632
-0.2631288170814514 0.08527135848999023 -0.3333333134651184
-0.2568679749965668 0.08527135848999023 -0.20930230617523193
-0.2577695846557617 0.08527135848999023 0.05426359176635742
-0.2609226703643799 0.08527135848999023 0.3333333730697632
-0.2580432891845703 0.10077524185180664 -0.3333333134651184
-0.26636308431625366 0.10077524185180664 -0.19379842281341553
-0.26266711950302124 0.10077524185180664 0.3333333730697632
-0.2673003077507019 0.11627912521362305 -0.317829430103302
-0.25648584961891174 0.11627912521362305 -0.19379842281341553
-0.264475017786026 0.11627912521362305 0.3333333730697632
-0.2659558057785034 0.1317828893661499 -0.1782945990562439
-0.2661917209625244 0.1317828893661499 0.3333333730697632
-0.25965362787246704 0.1472867727279663 -0.30232560634613037
-0.2685616612434387 0.1472867727279663 -0.1782945990562439
-0.2689429521560669 0.1472867727279663 0.3333333730697632
-0.26043501496315 0.16279065608978271 -0.28682172298431396
-0.2667098045349121 0.16279065608978271 -0.19379842281341553
-0.2628880441188812 0.17829453945159912 -0.27131783962249756
-0.2585376501083374 0.17829453945159912 0.3488372564315796
-0.2559925615787506 0.19379842281341553 0.3488372564315796
-0.2595226764678955 0.20930230617523193 -0.25581395626068115
-0.2600327730178833 0.20930230617523193 -0.14728683233261108
-0.2707940340042114 0.20930232107639313 0.3333333730697632
-0.25595715641975403 0.22480618953704834 -0.14728683233261108
-0.2676526606082916 0.22480620443820953 -0.13178294897079468
-0.2704744040966034 0.22480618953704834 0.3333333730697632
-0.268452525138855 0.24031007289886475 -0.24031007289886475
-0.25856468081474304 0.24031007289886475 -0.14728683233261108
-0.2569252550601959 0.24031007289886475 0.007751941680908203
-0.27020731568336487 0.24031007289886475 0.3333333730697632
-0.2637941837310791 0.25581395626068115 -0.24031007289886475
-0.25797614455223083 0.25581395626068115 -0.14728683233261108
-0.26082301139831543 0.25581395626068115 0.02325582504272461
-0.2671339511871338 0.25581395626068115 0.3333333730697632
-0.2586832344532013 0.27131783962249756 -0.24031007289886475
-0.2559525966644287 0.27131783962249756 -0.14728683233261108
-0.2648713290691376 0.27131783962249756 0.3333333730697632
-0.27044153213500977 0.28682172298431396 -0.13178294897079468
-0.25979048013687134 0.28682172298431396 0.02325582504272461
-0.262386292219162 0.28682172298431396 0.3333333730697632
-0.2684321701526642 0.30232560634613037 -0.22480618953704834
-0.2611868679523468 0.30232560634613037 -0.13178294897079468
-0.25951263308525085 0.30232560634613037 0.3333333730697632
-0.26427510380744934 0.3178294897079468 -0.22480618953704834
-0.2644939720630646 0.3178294897079468 -0.11627906560897827
-0.2563554048538208 0.3178294897079468 0.3333333730697632
-0.2603093087673187 0.3333333730697632 -0.22480618953704834
-0.26228615641593933 0.3333333730697632 -0.10077518224716187
-0.2695190906524658 0.364341139793396 0.3178294897079468
-0.2605823278427124 0.37984490394592285 -0.20930230617523193
-0.26766639947891235 0.37984490394592285 0.3178294897079468
-0.26598602533340454 0.39534878730773926 0.3178294897079468
-0.26803258061408997 0.41085267066955566 -0.19379842281341553
-0.2633777856826782 0.41085267066955566 0.3178294897079468
-0.2670193910598755 0.42635655403137207 -0.19379842281341553
-0.2582409977912903 0.42635655403137207 0.3178294897079468
-0.2681007385253906 0.4418604373931885 -0.19379842281341553
-0.26822274923324585 0.4573643207550049 -0.19379842281341553
-0.2680644690990448 0.4573642909526825 0.30232560634613037
-0.26522988080978394 0.4728682041168213 0.30232560634613037
-0.26235392689704895 0.4883720874786377 0.30232560634613037
-0.26012948155403137 0.5038759708404541 -0.20930230617523193
-0.25927025079727173 0.5038759708404541 0.30232560634613037
-0.2559499740600586 0.5193798542022705 0.30232560634613037
-0.2689269781112671 0.5348837375640869 -0.22480618953704834
-0.2702122926712036 0.5348837375640869 0.28682172298431396
-0.2667098641395569 0.5503876209259033 -0.24031007289886475
-0.2688887417316437 0.5503876209259033 0.28682172298431396
-0.2625134587287903 0.5658915042877197 -0.25581395626068115
-0.2666301131248474 0.5658915042877197 0.28682172298431396
-0.25601401925086975 0.5813953876495361 -0.27131783962249756
-0.2634294331073761 0.5813953876495361 0.28682172298431396
-0.27073797583580017 0.5968993306159973 0.27131783962249756
-0.25603172183036804 0.5968992710113525 0.28682172298431396
-0.2613495886325836 0.612403154373169 -0.28682172298431396
-0.2652056813240051 0.612403154373169 0.27131783962249756
-0.2709917426109314 0.6279069185256958 -0.28682172298431396
-0.2711944580078125 0.6279069781303406 0.25581395626068115
-0.2559601962566376 0.6279069185256958 0.27131783962249756
-0.2637132406234741 0.6434108018875122 0.25581395626068115
-0.2616477608680725 0.6589146852493286 -0.30232560634613037
-0.2692256569862366 0.6589146852493286 -0.13178294897079468
-0.2676059603691101 0.6589146852493286 0.24031007289886475
-0.2604725956916809 0.674418568611145 0.24031007289886475
-0.2676506042480469 0.6899224519729614 -0.317829430103302
-0.27041783928871155 0.6899224519729614 -0.06976741552352905
-0.26701194047927856 0.6899224519729614 0.22480618953704834
-0.26537632942199707 0.7054263353347778 -0.3333333134651184
-0.2616300880908966 0.7054263353347778 -0.13178294897079468
-0.2683805227279663 0.7054263353347778 -0.11627907305955887
-0.2637779116630554 0.7054263353347778 -0.06976741552352905
-0.26682421565055847 0.7054263353347778 -0.05426359176635742
-0.2706654667854309 0.7054263353347778 -0.038759708404541016
-0.2598121166229248 0.7054263353347778 0.22480618953704834
-0.26344820857048035 0.7209302186965942 -0.3488371968269348
-0.2605392634868622 0.7209302186965942 -0.13178294897079468
-0.267372727394104 0.7209302186965942 -0.11627906560897827
-0.263075590133667 0.7209302186965942 -0.05426359176635742
-0.2683643400669098 0.7209302186965942 -0.038759708404541016
-0.2667093873023987 0.7209302186965942 0.20930230617523193
-0.2604348659515381 0.7364341020584106 -0.3643410801887512
-0.2594318091869354 0.7364341020584106 -0.1627907156944275
-0.2663938105106354 0.7364341020584106 -0.14728683233261108
-0.25818389654159546 0.7364341020584106 -0.05426359176635742
-0.2706522047519684 0.7364341020584106 -0.03875970467925072
-0.25900334119796753 0.7364341020584106 0.20930230617523193
-0.2564312219619751 0.751937985420227 -0.1627907156944275
-0.27037322521209717 0.751937985420227 -0.14728683233261108
-0.26557090878486633 0.751937985420227 0.19379842281341553
-0.26377516984939575 0.7674418687820435 -0.3798449635505676
-0.26286351680755615 0.7674418687820435 -0.13178294897079468
-0.2712661623954773 0.7674418687820435 -0.11627906560897827
-0.27043044567108154 0.7674418687820435 -0.10077518224716187
-0.2691122889518738 0.7674418687820435 0.17829453945159912
-0.2576013505458832 0.7829457521438599 -0.39534884691238403
-0.25779989361763 0.7829457521438599 0.17829453945159912
-0.2682220935821533 0.7984496355056763 -0.39534884691238403
-0.2594788670539856 0.7984496355056763 0.16279065608978271
-0.25695961713790894 0.8139535188674927 -0.42635661363601685
-0.2686513662338257 0.8139535188674927 -0.41085273027420044
-0.2699000835418701 0.8139535188674927 0.1317828893661499
-0.25630447268486023 0.8139535188674927 0.1472867727279663
-0.26427018642425537 0.8294574022293091 -0.4418604373931885
-0.2671040892601013 0.8294574022293091 0.11627912521362305
-0.2579481601715088 0.8449612855911255 -0.751937985420227
-0.2602876126766205 0.8449612855911255 -0.4883720874786377
-0.267120361328125 0.8449612855911255 -0.4728682041168213
-0.2694496214389801 0.8449612855911255 0.08527135848999023
-0.25923630595207214 0.8449612855911255 0.10077524185180664
-0.25886106491088867 0.8604651689529419 -0.751937985420227
-0.2616881728172302 0.8604651689529419 -0.7364341020584106
-0.26161086559295654 0.8604651689529419 -0.7209302186965942
-0.26140451431274414 0.8604651689529419 -0.7054263353347778
-0.26046022772789 0.8604651689529419 -0.6899224519729614
-0.25967228412628174 0.8604651689529419 -0.674418568611145
-0.2601574659347534 0.8604651689529419 -0.6589146852493286
-0.2610989809036255 0.8604651689529419 -0.643410861492157
-0.26206672191619873 0.8604651689529419 -0.6279069781303406
-0.2630942761898041 0.8604651689529419 -0.6124030947685242
-0.2645301818847656 0.8604651689529419 -0.5968992114067078
-0.26570719480514526 0.8604652285575867 -0.5813953876495361
-0.26660192012786865 0.8604651689529419 -0.5658915042877197
-0.2670682966709137 0.8604651689529419 -0.5503876209259033
-0.2675668001174927 0.8604651689529419 -0.5348837375640869
-0.2693415880203247 0.8604651689529419 -0.5193798542022705
-0.26999950408935547 0.8604651689529419 0.05426359176635742
-0.2617865204811096 0.8604651689529419 0.06976747512817383
-0.25984129309654236 0.8759689331054688 -0.7364341020584106
-0.2625407874584198 0.8759689331054688 -0.7209302186965942
-0.263889342546463 0.8759689331054688 -0.7054263353347778
-0.26399797201156616 0.8759689331054688 -0.6899224519729614
-0.2636161744594574 0.8759689331054688 -0.674418568611145
-0.2638041079044342 0.8759689331054688 -0.6589146852493286
-0.264431893825531 0.8759689331054688 -0.643410861492157
-0.2650966942310333 0.8759689331054688 -0.6279069781303406
-0.2659726142883301 0.8759689331054688 -0.6124030947685242
-0.2677765190601349 0.8759689331054688 -0.5968992114067078
-0.2701120972633362 0.8759689331054688 -0.5813953876495361
-0.2686814069747925 0.875968873500824 0.02325582318007946
-0.26013636589050293 0.8759689331054688 0.038759708404541016
-0.25749659538269043 0.8914728164672852 -0.7209302186965942
-0.25918760895729065 0.8914728164672852 -0.7054263353347778
-0.2603784501552582 0.8914728164672852 -0.6899224519729614
-0.26084038615226746 0.8914728164672852 -0.674418568611145
-0.2615237832069397 0.8914728164672852 -0.6589146852493286
-0.2627357840538025 0.8914728164672852 -0.643410861492157
-0.2640732526779175 0.8914728164672852 -0.6279069781303406
-0.26540878415107727 0.8914728164672852 -0.6124030947685242
-0.266856849193573 0.8914728164672852 -0.5968992114067078
-0.2679176330566406 0.8914727568626404 -0.5813953876495361
-0.2688960134983063 0.8914728164672852 -0.5658915042877197
-0.27085158228874207 0.8914728164672852 -0.5503876209259033
-0.2689917981624603 0.8914728164672852 -0.02325582504272461
-0.26419082283973694 0.8914728164672852 -0.007751941680908203
-0.2561878263950348 0.9069766998291016 -0.6279069781303406
-0.2573624551296234 0.9069766998291016 -0.6124030947685242
-0.2588658928871155 0.9069766998291016 -0.5968992114067078
-0.26059991121292114 0.9069766998291016 -0.5813953876495361
-0.2630349397659302 0.9069766998291016 -0.5658915042877197
-0.2656516134738922 0.9069766998291016 -0.5503876209259033
-0.26779240369796753 0.9069766998291016 -0.5348837375640869
-0.26928699016571045 0.9069766998291016 -0.5193798542022705
-0.2705473303794861 0.9069766998291016 -0.5038759708404541
-0.26915818452835083 0.9069767594337463 -0.10077518224716187
-0.2658843994140625 0.9069766402244568 -0.08527129888534546
-0.2617397606372833 0.9069766998291016 -0.06976741552352905
-0.25589558482170105 0.9069766998291016 -0.05426359176635742
-0.25700294971466064 0.922480583190918 -0.5038759708404541
-0.26064014434814453 0.922480583190918 -0.4883720874786377
-0.26491016149520874 0.922480583190918 -0.4728681743144989
-0.2681211829185486 0.922480583190918 -0.4573642909526825
-0.2696354389190674 0.922480583190918 -0.4418604373931885
-0.2710152864456177 0.922480583190918 -0.42635661363601685
-0.26884788274765015 0.9224806427955627 -0.1782946139574051
-0.26506683230400085 0.922480583190918 -0.1627907156944275
-0.26019376516342163 0.922480583190918 -0.14728683233261108
-0.2559981942176819 0.9379844665527344 -0.30232560634613037
-0.25707685947418213 0.9379844665527344 -0.28682172298431396
-0.2577328085899353 0.9379844665527344 -0.27131783962249756
-0.2573023736476898 0.9379844665527344 -0.25581395626068115
-0.25645413994789124 0.9379844665527344 -0.24031007289886475
