0.4418604373931885 -0.16998863220214844 -0.1627907156944275
0.4418604373931885 -0.15043401718139648 -0.19379842281341553
0.4418604373931885 -0.16051915287971497 -0.1782945990562439
0.4418604373931885 -0.1557067632675171 0.1472867727279663
0.4418604373931885 -0.14096036553382874 -0.20930230617523193
0.4418604373931885 -0.12206815183162689 -0.24031007289886475
0.4418604373931885 -0.13125820457935333 -0.22480618953704834
0.4418604373931885 -0.11861765384674072 0.038759708404541016
0.4418604373931885 -0.1224290132522583 0.1317828893661499
0.4418604373931885 -0.10091259330511093 -0.27131783962249756
0.4418604075908661 -0.1121232658624649 -0.25581395626068115
0.4418604373931885 -0.10481669008731842 0.02325582504272461
0.4418604373931885 -0.10450690239667892 0.41085267066955566
0.4418604373931885 -0.08898000419139862 -0.28682172298431396
0.4418604373931885 -0.08987868577241898 -0.007751941680908203
0.4418604373931885 -0.09650839865207672 0.007751941680908203
0.4418604373931885 -0.09291616082191467 0.11627912521362305
0.4418604373931885 -0.07579545676708221 -0.30232560634613037
0.4418604373931885 -0.07830613106489182 -0.02325582504272461
0.4418604373931885 -0.057516876608133316 -0.317829430103302
0.4418604373931885 -0.0675775334239006 0.11627912521362305
0.4418604373931885 -0.054535917937755585 0.1317828893661499
0.4418604373931885 -0.04491677135229111 0.1472867727279663
0.4418604373931885 -0.03279462456703186 -0.3333333134651184
0.4418604373931885 -0.023302817717194557 -0.02325582504272461
0.4418604075908661 -0.03741581365466118 0.16279065608978271
0.4418604373931885 -0.03001609444618225 0.41085267066955566
0.4418604373931885 -0.021210599690675735 0.16279065608978271
0.4418604373931885 -0.005431875586509705 0.1472867727279663
0.4418604373931885 0.019190099090337753 -0.3488371968269348
0.4418604373931885 0.007969209924340248 -0.007751941215246916
0.4418604373931885 0.020717469975352287 0.007751941680908203
0.4418604373931885 0.015289023518562317 0.1317828893661499
0.4418604373931885 0.029587067663669586 0.02325582504272461
0.4418604373931885 0.03591115400195122 0.038759708404541016
0.4418604373931885 0.03370475023984909 0.39534878730773926
0.4418604373931885 0.060527920722961426 0.038759708404541016
0.4418604373931885 0.060610659420490265 0.1317828893661499
0.4418604373931885 0.08384464681148529 -0.05426359176635742
0.4418604373931885 0.07416624575853348 0.02325582504272461
0.4418604373931885 0.07687005400657654 0.1472867727279663
0.4418604373931885 0.09700553864240646 -0.3488371968269348
0.4418604373931885 0.0921826958656311 -0.08527129888534546
0.4418604373931885 0.08686506003141403 -0.06976741552352905
0.4418604373931885 0.09095113724470139 -0.038759708404541016
0.4418604373931885 0.09355471283197403 -0.02325582504272461
0.4418604373931885 0.09555461257696152 -0.007751941680908203
0.4418604373931885 0.08986979722976685 0.007751941680908203
0.4418604373931885 0.10467012226581573 -0.10077518224716187
0.4418604373931885 0.11081148684024811 0.1317828893661499
0.44186046719551086 0.10203740000724792 0.1472867727279663
0.4418604373931885 0.11947786808013916 -0.11627906560897827
0.4418604373931885 0.127618208527565 0.10077524185180664
0.4418604373931885 0.11961253732442856 0.11627912521362305
0.4418604373931885 0.14716854691505432 -0.3333333134651184
0.4418604373931885 0.14379170536994934 0.06976747512817383
0.4418604373931885 0.13682681322097778 0.08527135848999023
0.4418604373931885 0.14893852174282074 -0.11627906560897827
0.4418604373931885 0.15861991047859192 0.038759708404541016
0.4418604373931885 0.15361839532852173 0.05426359176635742
0.4418604373931885 0.16388525068759918 -0.10077518224716187
0.4418604373931885 0.17440587282180786 -0.08527129888534546
0.4418604373931885 0.17320933938026428 0.007751941680908203
0.4418604373931885 0.16622671484947205 0.02325582504272461
0.4418604373931885 0.18139471113681793 -0.06976741552352905
0.4418604373931885 0.18760594725608826 -0.05426359176635742
0.4418604373931885 0.18892335891723633 -0.038759708404541016
0.4418604373931885 0.18798497319221497 -0.02325582504272461
0.4418604373931885 0.18308520317077637 -0.007751941680908203
0.4418604373931885 0.19611570239067078 0.37984490394592285
0.4418604373931885 0.27961909770965576 -0.317829430103302
0.4418604373931885 0.3471570611000061 -0.30232560634613037
0.4418604373931885 0.37426021695137024 0.364341139793396
0.4418604373931885 0.42423197627067566 0.3488372564315796
0.4418604075908661 0.4632856845855713 0.3333333730697632
0.4418604373931885 0.48333534598350525 -0.28682172298431396
0.4418604373931885 0.4968544840812683 0.3178294897079468
0.4418604373931885 0.5270763635635376 0.30232560634613037
0.4418604373931885 0.5608854293823242 -0.27131783962249756
0.4418604373931885 0.5578810572624207 0.28682172298431396
0.4418604373931885 0.5808373689651489 0.27131783962249756
0.4418604373931885 0.6050243377685547 0.25581395626068115
0.4418604075908661 0.613006055355072 -0.25581395626068115
0.4418604373931885 0.623097836971283 0.24031007289886475
0.4418604373931885 0.6349736452102661 -0.24031008780002594
0.4418604373931885 0.6398370862007141 0.22480618953704834
0.4418604373931885 0.6519301533699036 -0.22480618953704834
0.4418604373931885 0.6563648581504822 0.20930230617523193
0.4418604373931885 0.6667048931121826 -0.20930230617523193
0.4418604373931885 0.672379732131958 0.19379842281341553
0.4418604373931885 0.6833415627479553 -0.19379842281341553
0.4418604373931885 0.6866755485534668 0.17829453945159912
0.4418604373931885 0.7034551501274109 -0.1782945990562439
0.4418604373931885 0.699488639831543 0.16279065608978271
0.4418604373931885 0.7183924913406372 -0.1627907156944275
0.4418604373931885 0.7182552218437195 0.1317828893661499
0.4418604373931885 0.7083182334899902 0.1472867727279663
0.4418604373931885 0.7290852069854736 -0.14728683233261108
0.4418604373931885 0.7344648241996765 0.10077524185180664
0.4418604373931885 0.7266700267791748 0.11627912521362305
0.4418604373931885 0.7416415214538574 -0.13178294897079468
0.4418604373931885 0.7488731741905212 0.06976747512817383
0.4418604373931885 0.7421181797981262 0.08527135848999023
0.4418604373931885 0.7538682818412781 -0.11627906560897827
0.4418604373931885 0.7610163688659668 -0.10077518224716187
0.4418604373931885 0.7651674747467041 -0.08527129888534546
0.4418604373931885 0.7673838138580322 0.02325582504272461
0.4418604373931885 0.7640985250473022 0.038759708404541016
0.4418604373931885 0.7580214738845825 0.05426359176635742
0.4418604373931885 0.768203616142273 -0.06976741552352905
0.4418604373931885 0.771443784236908 -0.05426359176635742
0.4418604373931885 0.773466169834137 -0.038759708404541016
0.4418604373931885 0.7739373445510864 -0.02325582504272461
0.4418604373931885 0.7734127044677734 -0.007751941215246916
0.4418604373931885 0.7708690166473389 0.007751941680908203
0.4573643207550049 -0.5069323182106018 0.7674418687820435
0.4573643207550049 -0.5094107985496521 0.7829457521438599
0.4573643207550049 -0.5107088088989258 0.7984496355056763
0.4573643207550049 -0.5115513801574707 0.8139535188674927
0.4573643207550049 -0.5116932392120361 0.8294574022293091
0.4573643207550049 -0.5111860036849976 0.8449612855911255
0.4573643207550049 -0.5097067356109619 0.8604651689529419
0.4573643207550049 -0.5055827498435974 0.8759689331054688
0.4573643207550049 -0.4901142120361328 0.6899224519729614
0.4573643207550049 -0.49316519498825073 0.7054263353347778
0.4573643207550049 -0.495297372341156 0.7209302186965942
0.4573643207550049 -0.4982522428035736 0.7364341020584106
0.4573643207550049 -0.5026105046272278 0.751937985420227
0.4573643207550049 -0.4959302544593811 0.8914728164672852
0.4573643207550049 -0.47882139682769775 0.6589146852493286
0.45736435055732727 -0.4841827154159546 0.674418568611145
0.4573643207550049 -0.4595903158187866 0.6279069185256958
0.45736435055732727 -0.47195863723754883 0.6434108018875122
0.4573643207550049 -0.4334460496902466 0.8914728164672852
0.4573643207550049 -0.41398298740386963 0.6279069185256958
0.4573643207550049 -0.4188976287841797 0.8759689331054688
0.4573643207550049 -0.4002166986465454 0.6434108018875122
0.4573643207550049 -0.39835184812545776 0.8449612855911255
0.4573643207550049 -0.4076889455318451 0.8604651689529419
0.4573643207550049 -0.3910149931907654 0.6589146852493286
0.4573643207550049 -0.38344305753707886 0.674418568611145
0.4573643207550049 -0.3847880959510803 0.8139535188674927
0.4573643207550049 -0.3909458518028259 0.8294574022293091
0.4573643207550049 -0.3777071237564087 0.6899224519729614
0.4573643207550049 -0.3747864067554474 0.7054263353347778
0.4573643207550049 -0.3722439706325531 0.7209302186965942
0.4573643207550049 -0.37069934606552124 0.7364341020584106
0.4573643207550049 -0.371306836605072 0.751937985420227
0.4573643207550049 -0.37217581272125244 0.7674418687820435
0.4573642909526825 -0.3747876286506653 0.7829457521438599
0.45736435055732727 -0.37837323546409607 0.7984496355056763
0.4573643207550049 -0.28910067677497864 0.1472867727279663
0.4573643207550049 -0.2896823287010193 0.16279065608978271
0.4573643207550049 -0.28894665837287903 0.17829453945159912
0.4573643207550049 -0.2714797556400299 0.06976747512817383
0.4573643207550049 -0.27701300382614136 0.08527135848999023
0.45736435055732727 -0.28105688095092773 0.10077524185180664
0.4573643207550049 -0.28485503792762756 0.11627912521362305
0.4573642909526825 -0.28668713569641113 0.1317828893661499
0.4573643207550049 -0.28584712743759155 0.19379842281341553
0.4573643207550049 -0.2843998670578003 0.20930230617523193
0.4573643207550049 -0.2822343111038208 0.22480618953704834
0.4573643207550049 -0.28048789501190186 0.24031007289886475
0.4573643207550049 -0.28020143508911133 0.25581395626068115
0.4573643207550049 -0.2783219814300537 0.27131783962249756
0.4573643207550049 -0.27699851989746094 0.28682172298431396
0.4573643207550049 -0.27216780185699463 0.30232560634613037
0.4573643207550049 -0.26270025968551636 0.038759708404541016
0.4573643207550049 -0.2669134736061096 0.05426359176635742
0.4573643207550049 -0.2678155303001404 0.3178294897079468
0.4573643207550049 -0.25715112686157227 0.3333333730697632
0.4573643207550049 -0.24159152805805206 -0.007751941680908203
0.4573643207550049 -0.2501423954963684 0.007751941680908203
0.4573643207550049 -0.25500836968421936 0.02325582504272461
0.4573643207550049 -0.22574880719184875 -0.038759708404541016
0.4573643207550049 -0.23492498695850372 -0.02325582504272461
0.4573643207550049 -0.23868274688720703 0.3488372564315796
0.4573643207550049 -0.21821379661560059 -0.05426359176635742
0.4573643207550049 -0.197861447930336 -0.08527129888534546
0.4573643207550049 -0.20854581892490387 -0.06976741552352905
0.4573643207550049 -0.20757627487182617 0.364341139793396
0.4573643207550049 -0.18814757466316223 -0.10077518224716187
0.4573643207550049 -0.1665479838848114 -0.13178294897079468
0.4573643207550049 -0.17692813277244568 -0.11627907305955887
0.4573642909526825 -0.15647654235363007 -0.14728683233261108
0.4573643207550049 -0.14804360270500183 0.37984490394592285
0.4573643207550049 -0.13593623042106628 -0.1782945990562439
0.4573643207550049 -0.1456080973148346 -0.1627907156944275
0.4573643207550049 -0.1259947121143341 -0.19379842281341553
0.4573643207550049 -0.10626225173473358 -0.22480618953704834
0.4573643207550049 -0.11565494537353516 -0.20930230617523193
0.4573643207550049 -0.09614987671375275 -0.24031007289886475
0.4573643207550049 -0.0703534334897995 -0.27131783962249756
0.4573643207550049 -0.08407889306545258 -0.25581395626068115
0.4573643207550049 -0.07312629371881485 -0.007751941680908203
0.4573643207550049 -0.07601732015609741 0.007751941680908203
0.4573643207550049 -0.07791554927825928 0.02325582504272461
0.4573643207550049 -0.07574489712715149 0.038759708404541016
0.4573643207550049 -0.07413014769554138 0.05426359176635742
0.4573643207550049 -0.06783156096935272 -0.02325582504272461
0.4573643207550049 -0.06939653307199478 0.06976747512817383
0.4573643207550049 -0.06827837228775024 0.08527135848999023
0.4573643207550049 -0.06337989866733551 0.10077524185180664
0.4573643207550049 -0.055357642471790314 0.11627912521362305
0.4573643207550049 -0.05217352509498596 -0.28682172298431396
0.4573643207550049 -0.03907996788620949 -0.02325582504272461
0.4573643207550049 -0.04617301747202873 0.1317828893661499
0.4573643207550049 -0.027331434190273285 -0.30232560634613037
0.4573643207550049 -0.016459602862596512 -0.007751941215246916
0.4573643207550049 -0.011168199591338634 0.1317828893661499
0.4573643207550049 0.0017938613891601562 0.007751941680908203
0.4573643207550049 0.005465103313326836 0.11627912521362305
0.4573643207550049 0.023048538714647293 -0.317829430103302
0.4573643207550049 0.010291220620274544 0.02325582504272461
0.4573643207550049 0.01395593024790287 0.038759708404541016
0.4573643207550049 0.01973080076277256 0.05426359176635742
0.4573643207550049 0.01953751966357231 0.06976747512817383
0.4573643207550049 0.02037261612713337 0.08527135848999023
0.4573643207550049 0.015746425837278366 0.10077524185180664
0.4573643207550049 0.02139960043132305 0.37984490394592285
0.4573643207550049 0.0746971070766449 0.08527135848999023
0.4573643207550049 0.07750782370567322 0.10077524185180664
0.4573643207550049 0.09859836846590042 -0.06976741552352905
0.4573643207550049 0.09627632796764374 -0.05426359176635742
0.4573643207550049 0.09342652559280396 0.05426359176635742
0.4573643207550049 0.08668043464422226 0.06976747512817383
0.4573643207550049 0.09891119599342346 0.11627912521362305
0.4573643207550049 0.11477477848529816 -0.317829430103302
0.4573643207550049 0.10463477671146393 -0.08527129888534546
0.45736435055732727 0.10312457382678986 -0.038759708404541016
0.4573643207550049 0.10570845007896423 -0.02325582504272461
0.4573643207550049 0.10863679647445679 -0.007751941680908203
0.4573643207550049 0.1082039475440979 0.00775194214656949
0.4573643207550049 0.10542109608650208 0.02325582504272461
0.4573642909526825 0.10458502173423767 0.038759708404541016
0.4573643207550049 0.10861343145370483 0.10077524185180664
0.4573643207550049 0.10088343173265457 0.11627912521362305
0.4573643207550049 0.12868760526180267 -0.10077518224716187
0.45736435055732727 0.12103849649429321 0.06976747512817383
0.4573643207550049 0.11727253347635269 0.08527135103940964
0.4573643207550049 0.13316431641578674 -0.10077518224716187
0.4573643207550049 0.13898426294326782 0.05426359176635742
0.4573643207550049 0.1582084745168686 -0.08527129888534546
0.4573643207550049 0.1558648645877838 0.02325582504272461
0.45736435055732727 0.1483299732208252 0.038759708404541016
0.4573643207550049 0.16111209988594055 0.364341139793396
0.4573643207550049 0.16744408011436462 -0.06976741552352905
0.4573643207550049 0.17390978336334229 -0.05426359176635742
0.4573643207550049 0.17514866590499878 -0.038759708404541016
0.4573643207550049 0.17521092295646667 -0.02325582504272461
0.4573643207550049 0.17088261246681213 -0.007751941680908203
0.4573642909526825 0.16297148168087006 0.007751941680908203
0.4573643207550049 0.1892343908548355 -0.30232560634613037
0.4573643207550049 0.30818530917167664 -0.28682172298431396
0.45736435055732727 0.32191550731658936 0.3488372564315796
0.4573643207550049 0.3829168677330017 -0.27131783962249756
0.4573643207550049 0.39382117986679077 0.3333333730697632
0.4573643207550049 0.43308109045028687 0.3178294897079468
0.4573643207550049 0.4690799117088318 0.30232560634613037
0.4573643207550049 0.5007898807525635 0.28682172298431396
0.4573643207550049 0.5149725675582886 -0.25581395626068115
0.4573643207550049 0.5303512811660767 0.27131783962249756
0.4573643207550049 0.5627224445343018 -0.24031007289886475
0.4573643207550049 0.5596958994865417 0.25581395626068115
0.4573643207550049 0.5803025960922241 0.24031007289886475
0.4573643207550049 0.6009032130241394 -0.22480620443820953
0.4573643207550049 0.5981772541999817 0.22480618953704834
0.4573643207550049 0.6236298680305481 -0.20930230617523193
0.4573642909526825 0.6140208840370178 0.20930230617523193
0.4573643207550049 0.6402561664581299 -0.19379842281341553
0.4573643207550049 0.6297088265419006 0.19379842281341553
0.4573643207550049 0.6548315286636353 -0.1782945990562439
0.4573643207550049 0.6582047939300537 0.16279065608978271
0.4573643207550049 0.6446404457092285 0.17829453945159912
0.4573643207550049 0.667185366153717 -0.1627907156944275
0.4573643207550049 0.6716201305389404 0.1472867727279663
0.4573643207550049 0.6784499883651733 -0.14728683233261108
0.4573643207550049 0.6888443231582642 -0.13178294897079468
0.4573643207550049 0.6894171833992004 0.11627912521362305
0.4573643207550049 0.6828466653823853 0.1317828893661499
0.4573643207550049 0.6985621452331543 -0.11627906560897827
0.4573643207550049 0.7047833800315857 0.08527135848999023
0.4573643207550049 0.6991832256317139 0.10077524185180664
0.4573642909526825 0.7072234153747559 -0.10077518224716187
0.4573643207550049 0.7157648205757141 -0.08527129888534546
0.4573643207550049 0.7185342907905579 0.05426359176635742
0.4573643207550049 0.7117300033569336 0.06976747512817383
0.45736435055732727 0.7242342233657837 -0.06976741552352905
0.4573643207550049 0.7325652837753296 -0.05426359176635742
0.4573643207550049 0.7329967021942139 0.007751941680908203
0.4573643207550049 0.7285911440849304 0.02325582504272461
0.4573643207550049 0.72330242395401 0.038759708404541016
0.4573643207550049 0.7369405031204224 -0.038759708404541016
0.4573643207550049 0.737960159778595 -0.02325582504272461
0.4573643207550049 0.7365903258323669 -0.007751941215246916
0.4728682041168213 -0.5064094066619873 0.751937985420227
0.4728682041168213 -0.5097553730010986 0.7674418687820435
0.4728682041168213 -0.5117777585983276 0.7829457521438599
0.4728682041168213 -0.5129297971725464 0.7984496355056763
0.4728682339191437 -0.5136310458183289 0.8139535188674927
0.4728682041168213 -0.5137538909912109 0.8294574022293091
0.4728682041168213 -0.5136199593544006 0.8449612855911255
0.4728682041168213 -0.5131234526634216 0.8604651689529419
0.4728682041168213 -0.5104836821556091 0.8759689331054688
0.4728682041168213 -0.505933403968811 0.8914728164672852
0.4728682041168213 -0.4917922616004944 0.6899224519729614
0.4728682041168213 -0.4948064386844635 0.7054263353347778
0.4728682041168213 -0.49757876992225647 0.7209302186965942
0.4728682041168213 -0.5017367601394653 0.7364341020584106
0.4728682041168213 -0.49700263142585754 0.9069766998291016
0.4728682041168213 -0.4733075797557831 0.6434108018875122
0.4728682041168213 -0.4792965054512024 0.6589146852493286
0.4728682041168213 -0.4863106906414032 0.674418568611145
0.4728682041168213 -0.45978814363479614 0.6279069185256958
0.4728682041168213 -0.4515829086303711 0.9069766998291016
0.4728682041168213 -0.43408268690109253 0.8914728164672852
0.4728682041168213 -0.4203397035598755 0.6279069185256958
0.4728682041168213 -0.41120320558547974 0.8604651689529419
0.4728682041168213 -0.421665757894516 0.8759689331054688
0.4728682041168213 -0.40599140524864197 0.6434108018875122
0.4728682041168213 -0.40390023589134216 0.8449612855911255
0.4728681743144989 -0.39457109570503235 0.6589146852493286
0.4728682339191437 -0.3900030255317688 0.674418568611145
0.4728682041168213 -0.38488224148750305 0.6899224519729614
0.4728682041168213 -0.38527995347976685 0.7984496355056763
0.4728682041168213 -0.3902588188648224 0.8139535188674927
0.4728682041168213 -0.39532652497291565 0.8294574022293091
0.4728682041168213 -0.37907662987709045 0.7054263353347778
0.4728682339191437 -0.37719103693962097 0.720930278301239
0.4728681743144989 -0.3761664032936096 0.7364340424537659
0.4728682041168213 -0.37655848264694214 0.751937985420227
0.4728682041168213 -0.37724074721336365 0.7674418687820435
0.4728681743144989 -0.37958061695098877 0.7829456925392151
0.4728682041168213 -0.25582635402679443 0.1317828893661499
0.4728682041168213 -0.24031443893909454 0.038759708404541016
0.4728682041168213 -0.2456236183643341 0.05426359176635742
0.4728682041168213 -0.2489815056324005 0.06976747512817383
0.4728682041168213 -0.2510594129562378 0.08527135848999023
0.4728682041168213 -0.2532345652580261 0.10077524185180664
0.4728682041168213 -0.25566577911376953 0.11627912521362305
0.4728682041168213 -0.25578567385673523 0.1472867727279663
0.4728682041168213 -0.2542445659637451 0.16279065608978271
0.4728682041168213 -0.25244274735450745 0.17829453945159912
0.4728682041168213 -0.24992546439170837 0.19379842281341553
0.4728682041168213 -0.24915975332260132 0.20930230617523193
0.4728682041168213 -0.24796068668365479 0.22480618953704834
0.4728682041168213 -0.2467384934425354 0.24031007289886475
0.4728682041168213 -0.24591831862926483 0.25581395626068115
0.4728682041168213 -0.24239233136177063 0.27131783962249756
0.4728682041168213 -0.2305593192577362 0.007751941680908203
0.4728682041168213 -0.2357427179813385 0.02325582504272461
0.4728682041168213 -0.23800569772720337 0.28682172298431396
0.4728682041168213 -0.2301378846168518 0.30232560634613037
0.4728682041168213 -0.21506230533123016 -0.02325582504272461
0.4728682041168213 -0.22230513393878937 -0.007751941680908203
0.4728682041168213 -0.21729451417922974 0.3178294897079468
0.4728682041168213 -0.19658216834068298 -0.05426359176635742
0.4728682041168213 -0.20623911917209625 -0.038759708404541016
0.4728682041168213 -0.18718242645263672 -0.06976741552352905
0.4728682041168213 -0.19240592420101166 0.33333340287208557
0.4728682041168213 -0.16440816223621368 -0.10077518224716187
0.4728682041168213 -0.1757677048444748 -0.08527129888534546
0.4728682041168213 -0.15354104340076447 -0.11627906560897827
0.4728682041168213 -0.1429043561220169 -0.13178294897079468
0.4728681743144989 -0.14515960216522217 0.3488372564315796
0.4728682041168213 -0.12113228440284729 -0.1627907156944275
0.4728682041168213 -0.1314440816640854 -0.14728683233261108
0.4728682041168213 -0.11109474301338196 -0.1782945990562439
0.4728682041168213 -0.08913934230804443 -0.20930230617523193
0.4728682041168213 -0.09998215734958649 -0.19379842281341553
0.4728682041168213 -0.07774630188941956 -0.22480618953704834
0.4728682041168213 -0.0646568164229393 -0.24031007289886475
0.4728682041168213 -0.054567281156778336 0.007751941680908203
0.4728682041168213 -0.0583132840692997 0.02325582504272461
0.4728682041168213 -0.058216605335474014 0.038759708404541016
0.4728682041168213 -0.05760551989078522 0.05426359176635742
0.4728682041168213 -0.05454670637845993 0.06976747512817383
0.4728682041168213 -0.046454623341560364 -0.25581395626068115
0.4728682041168213 -0.053534843027591705 0.08527135848999023
0.4728682041168213 -0.0501243881881237 0.10077524185180664
0.4728682041168213 -0.04424324631690979 0.11627912521362305
0.4728682041168213 -0.021882688626646996 -0.27131783962249756
0.4728682041168213 -0.020970048382878304 0.007751941680908203
0.4728682041168213 -0.017299789935350418 0.11627913266420364
0.4728682041168213 -0.007330947555601597 0.02325582504272461
0.4728682339191437 -0.00269861682318151 0.038759708404541016
0.4728682041168213 0.0028322292491793633 0.05426359176635742
0.4728682041168213 0.0017297479789704084 0.06976747512817383
0.4728682041168213 0.0005705065559595823 0.08527135848999023
0.4728682041168213 -0.006553946994245052 0.10077524185180664
0.4728682041168213 0.03196394443511963 -0.28682172298431396
0.4728682041168213 0.0469946563243866 0.3488372564315796
0.4728682041168213 0.11284293234348297 -0.06976741552352905
0.4728682041168213 0.10869567096233368 -0.05426359176635742
0.4728682041168213 0.11238197237253189 -0.038759708404541016
0.4728682041168213 0.11451449990272522 -0.02325582504272461
0.4728682041168213 0.12960010766983032 -0.28682172298431396
0.4728682041168213 0.11752503365278244 -0.007751941680908203
0.4728682041168213 0.11831847578287125 0.007751941215246916
0.4728682041168213 0.11781932413578033 0.02325582504272461
0.4728682041168213 0.12647494673728943 0.038759708404541016
0.4728682339191437 0.136238694190979 0.038759708404541016
0.4728682041168213 0.14982762932777405 -0.06976741552352905
0.4728682041168213 0.15842583775520325 -0.05426359176635742
0.4728682041168213 0.16197437047958374 -0.038759708404541016
0.4728682041168213 0.16024570167064667 -0.007751941680908203
0.4728682041168213 0.15466584265232086 0.007751941680908203
0.4728682041168213 0.15064537525177002 0.02325582504272461
0.4728682041168213 0.16329361498355865 -0.02325582318007946
0.4728682041168213 0.2333567589521408 -0.27131783962249756
0.4728682339191437 0.24704618752002716 -0.27131783962249756
0.4728682041168213 0.2495431900024414 0.3333333730697632
0.4728682041168213 0.26093047857284546 -0.27131783962249756
0.4728682041168213 0.3245112895965576 -0.25581395626068115
0.4728682041168213 0.35124340653419495 0.3178294897079468
0.4728682041168213 0.3920014500617981 -0.24031007289886475
0.4728682041168213 0.39424359798431396 0.30232560634613037
0.4728682041168213 0.42515823245048523 0.28682172298431396
0.4728681743144989 0.4612663686275482 0.27131783962249756
0.4728682041168213 0.4991294741630554 0.25581395626068115
0.4728682041168213 0.5235011577606201 -0.22480620443820953
0.4728682041168213 0.5297324657440186 0.24031007289886475
0.4728682041168213 0.5607594847679138 -0.20930230617523193
0.4728682041168213 0.5547744035720825 0.22480620443820953
0.4728682041168213 0.5740643739700317 0.20930230617523193
0.4728682041168213 0.5871976613998413 -0.19379842281341553
0.4728682041168213 0.5912083387374878 0.19379842281341553
0.4728682041168213 0.6080074310302734 -0.1782945990562439
0.4728682041168213 0.6061940789222717 0.17829453945159912
0.4728682041168213 0.6229650974273682 -0.1627907156944275
0.4728682041168213 0.6192069053649902 0.16279065608978271
0.4728682041168213 0.6351079344749451 -0.14728683233261108
0.4728682041168213 0.6406420469284058 0.1317828893661499
0.4728682041168213 0.6292659640312195 0.1472867727279663
0.4728682041168213 0.6453529596328735 -0.13178294897079468
0.4728682041168213 0.6548760533332825 -0.11627906560897827
0.4728682041168213 0.6572670936584473 0.10077524185180664
0.4728682041168213 0.6499664783477783 0.11627912521362305
0.4728681743144989 0.6628036499023438 -0.10077517479658127
0.4728682041168213 0.6693309545516968 -0.08527129888534546
0.4728682041168213 0.6742124557495117 -0.06976741552352905
0.4728682041168213 0.670576810836792 0.06976747512817383
0.4728682041168213 0.6646760702133179 0.08527135848999023
0.4728682041168213 0.6794363856315613 -0.05426359176635742
0.4728682041168213 0.6831067204475403 -0.038759708404541016
0.4728682041168213 0.6845927834510803 -0.02325582504272461
0.4728682041168213 0.6855558156967163 -0.007751941680908203
0.4728682041168213 0.685012936592102 0.007751941680908203
0.4728682041168213 0.6832774877548218 0.02325582504272461
0.4728682041168213 0.6800972819328308 0.038759708404541016
0.4728682041168213 0.6746746897697449 0.05426359176635742
0.4883720874786377 -0.5238886475563049 0.922480583190918
0.4883720874786377 -0.5050516724586487 0.7364341020584106
0.4883720874786377 -0.5085915923118591 0.751937985420227
0.4883720874786377 -0.5113539099693298 0.7674418687820435
0.4883720874786377 -0.5132569074630737 0.7829457521438599
0.4883720874786377 -0.5144332647323608 0.7984495759010315
0.4883720874786377 -0.51490718126297 0.8139535188674927
0.4883720874786377 -0.5144249200820923 0.8294574022293091
0.4883720874786377 -0.5139360427856445 0.8449612855911255
0.4883721172809601 -0.5135769844055176 0.8604651689529419
0.4883720874786377 -0.5117372274398804 0.8759689331054688
0.4883720874786377 -0.50935959815979 0.8914728164672852
0.4883720874786377 -0.513145923614502 0.9069766998291016
0.4883720874786377 -0.4925723671913147 0.6899224519729614
0.4883720874786377 -0.4957016110420227 0.7054263353347778
0.4883720874786377 -0.4996078312397003 0.7209302186965942
0.4883720874786377 -0.4736483693122864 0.6434108018875122
0.4883720874786377 -0.4795418083667755 0.6589146852493286
0.4883720874786377 -0.48812320828437805 0.674418568611145
0.4883720874786377 -0.45932379364967346 0.6279069185256958
0.4883721172809601 -0.47154614329338074 0.922480583190918
0.4883720874786377 -0.45269158482551575 0.9069766998291016
0.4883721172809601 -0.4381631910800934 0.8914728164672852
0.4883720576763153 -0.4240662157535553 0.6279069185256958
0.4883720874786377 -0.4184960722923279 0.8604651689529419
0.4883720874786377 -0.4260375499725342 0.8759689331054688
0.4883720874786377 -0.409944087266922 0.6434108018875122
0.4883720874786377 -0.4031018614768982 0.6589146852493286
0.4883720874786377 -0.3954335153102875 0.8139535188674927
0.4883720874786377 -0.4033260643482208 0.8294574022293091
0.4883720874786377 -0.40939658880233765 0.8449612855911255
0.4883720874786377 -0.3942916989326477 0.674418568611145
0.4883720874786377 -0.3914684057235718 0.6899223923683167
0.4883720874786377 -0.38860148191452026 0.7054263353347778
0.4883720874786377 -0.3857519030570984 0.7209302186965942
0.4883720874786377 -0.38377344608306885 0.7364341020584106
0.4883720874786377 -0.3844703733921051 0.751937985420227
0.4883720874786377 -0.3855416178703308 0.7674418687820435
0.4883720874786377 -0.388327956199646 0.7829457521438599
0.4883721172809601 -0.39138221740722656 0.7984496355056763
0.4883720874786377 -0.22565928101539612 0.06976747512817383
0.4883720874786377 -0.22815972566604614 0.08527135848999023
0.4883720874786377 -0.22989782691001892 0.10077524185180664
0.4883720874786377 -0.2308749258518219 0.11627912521362305
0.4883720874786377 -0.22981126606464386 0.1317828893661499
0.4883720874786377 -0.2286858856678009 0.1472867727279663
0.4883720874786377 -0.22629165649414062 0.16279065608978271
0.4883720874786377 -0.21061258018016815 0.007751941680908203
0.4883720874786377 -0.21680662035942078 0.02325582504272461
0.4883720874786377 -0.21976563334465027 0.038759708404541016
0.4883720874786377 -0.22193023562431335 0.05426359176635742
0.4883720874786377 -0.2232687771320343 0.17829453945159912
0.4883720874786377 -0.21974584460258484 0.19379843771457672
0.4883720874786377 -0.2176722288131714 0.20930230617523193
0.4883720874786377 -0.21486462652683258 0.22480618953704834
0.4883720874786377 -0.21095524728298187 0.24031007289886475
0.4883720874786377 -0.19393904507160187 -0.02325582504272461
0.4883720874786377 -0.20408885180950165 -0.007751941680908203
0.4883720874786377 -0.20620034635066986 0.25581395626068115
0.4883720874786377 -0.19863703846931458 0.27131783962249756
0.4883720874786377 -0.18608632683753967 -0.038759708404541016
0.4883720874786377 -0.18673855066299438 0.28682172298431396
0.4883720874786377 -0.17504781484603882 -0.05426359176635742
0.4883720874786377 -0.1637912541627884 0.30232560634613037
0.4883720874786377 -0.15164974331855774 -0.08527129888534546
0.4883720874786377 -0.16275343298912048 -0.06976741552352905
0.4883720576763153 -0.14085927605628967 -0.10077518224716187
0.4883720874786377 -0.1175031065940857 -0.13178294897079468
0.4883720874786377 -0.12898913025856018 -0.11627906560897827
0.4883720874786377 -0.130576491355896 0.3178294599056244
0.4883720874786377 -0.10637681186199188 -0.14728683233261108
0.4883720874786377 -0.09484748542308807 -0.1627907156944275
0.4883720874786377 -0.08826903253793716 0.3333333730697632
0.4883720874786377 -0.07102029770612717 -0.19379842281341553
0.4883720874786377 -0.08347272872924805 -0.1782945990562439
0.4883720874786377 -0.05645712465047836 -0.20930230617523193
0.4883720874786377 -0.03840665891766548 -0.22480618953704834
0.4883720874786377 -0.012694573029875755 -0.24031007289886475
0.4883720874786377 0.019789913669228554 0.3333333730697632
0.4883720874786377 0.0429052896797657 -0.25581395626068115
0.4883720874786377 0.15409955382347107 -0.25581395626068115
0.4883720874786377 0.18155691027641296 0.3178294897079468
0.4883720874786377 0.28544923663139343 -0.24031007289886475
0.4883720874786377 0.2735994756221771 0.30232560634613037
0.4883720874786377 0.3288520574569702 -0.22480618953704834
0.4883720874786377 0.34056875109672546 0.28682172298431396
0.4883720874786377 0.37847888469696045 0.27131783962249756
0.4883720874786377 0.39508897066116333 -0.20930230617523193
0.4883720874786377 0.40584614872932434 0.25581395626068115
0.4883720874786377 0.4373968541622162 0.24031007289886475
0.4883720874786377 0.48354572057724 0.22480618953704834
0.4883720874786377 0.5115939974784851 -0.19379842281341553
0.4883720874786377 0.5148059129714966 0.20930230617523193
0.4883720874786377 0.5477399826049805 -0.1782945990562439
0.4883720874786377 0.5421984791755676 0.19379842281341553
0.4883720874786377 0.561221182346344 0.17829453945159912
0.4883720874786377 0.5702337026596069 -0.1627907156944275
0.4883720874786377 0.576508104801178 0.16279065608978271
0.4883720874786377 0.5874524116516113 -0.14728683233261108
0.4883720874786377 0.5900019407272339 0.1472867727279663
0.4883720874786377 0.6009889841079712 -0.13178294897079468
0.4883720874786377 0.6118377447128296 -0.11627906560897827
0.4883720874786377 0.6082316040992737 0.11627912521362305
0.4883720874786377 0.6001573801040649 0.1317828893661499
0.4883720874786377 0.6220048666000366 -0.10077518224716187
0.4883720874786377 0.6276538372039795 -0.08527129888534546
0.4883720874786377 0.6260275840759277 0.06976747512817383
0.4883720874786377 0.6222326159477234 0.08527135848999023
0.4883720874786377 0.6152108907699585 0.10077524185180664
0.4883721172809601 0.6337628364562988 -0.06976741552352905
0.4883720874786377 0.6381025314331055 -0.05426359176635742
0.4883720874786377 0.6404777765274048 -0.038759708404541016
0.4883720874786377 0.6411561965942383 -0.02325582504272461
0.4883720874786377 0.6414883732795715 -0.007751941680908203
0.4883720874786377 0.6407400965690613 0.007751941680908203
0.4883720874786377 0.6389879584312439 0.02325582504272461
0.4883720874786377 0.636313796043396 0.038759708404541016
0.4883720874786377 0.6313512325286865 0.05426359176635742
0.5038759708404541 -0.5395482778549194 0.922480583190918
0.5038759708404541 -0.5388780236244202 0.9379844665527344
0.5038759708404541 -0.5308429002761841 0.9069766998291016
0.5038759708404541 -0.5065342783927917 0.7364341020584106
0.5038759708404541 -0.5095052719116211 0.751937985420227
0.5038759708404541 -0.5118914842605591 0.7674418687820435
0.5038759708404541 -0.5134598016738892 0.7829457521438599
0.5038759708404541 -0.5142672061920166 0.7984496355056763
0.5038759708404541 -0.5143219232559204 0.8139535188674927
0.5038759708404541 -0.513462483882904 0.8294574022293091
0.5038759708404541 -0.5127503871917725 0.8449612855911255
0.5038759708404541 -0.5129079222679138 0.8604651689529419
0.5038759708404541 -0.5131446123123169 0.8759689331054688
0.5038759708404541 -0.5171124935150146 0.8914728164672852
0.5038759708404541 -0.4892916977405548 0.674418568611145
0.5038759708404541 -0.49327096343040466 0.6899224519729614
0.5038759708404541 -0.4966716468334198 0.7054263353347778
0.5038759708404541 -0.5017856955528259 0.7209302186965942
0.5038759708404541 -0.4905253052711487 0.9379844665527344
0.5038759708404541 -0.4741401970386505 0.6434108018875122
0.5038759708404541 -0.4801982641220093 0.6589146852493286
0.5038759708404541 -0.45886242389678955 0.6279069185256958
0.5038759708404541 -0.4647161066532135 0.922480583190918
0.5038759708404541 -0.44292667508125305 0.8914728164672852
0.5038759708404541 -0.45456889271736145 0.9069766998291016
0.5038759708404541 -0.43429166078567505 0.8759689331054688
0.5038759708404541 -0.42630454897880554 0.6279069185256958
0.5038759708404541 -0.4148303270339966 0.6434108018875122
0.5038759708404541 -0.4168315529823303 0.8449612855911255
0.5038759708404541 -0.42409831285476685 0.8604651689529419
0.5038759708404541 -0.4074559211730957 0.6589146852493286
0.5038759708404541 -0.4025696814060211 0.674418568611145
0.5038759708404541 -0.39776718616485596 0.7984496355056763
0.5038759708404541 -0.4038804769515991 0.8139535188674927
0.5038759708404541 -0.40885743498802185 0.8294574022293091
0.5038759708404541 -0.3952125906944275 0.6899224519729614
0.5038759708404541 -0.3930742144584656 0.7054263353347778
0.5038759708404541 -0.39170414209365845 0.7209302186965942
0.5038759708404541 -0.3909328579902649 0.7364341020584106
0.5038759708404541 -0.39122042059898376 0.751937985420227
0.5038759708404541 -0.3917597532272339 0.7674418687820435
0.5038759708404541 -0.39356744289398193 0.7829457521438599
0.5038759708404541 -0.1952018290758133 0.02325582504272461
0.5038759708404541 -0.19922256469726562 0.038759708404541016
0.5038759708404541 -0.20103245973587036 0.05426359176635742
0.5038759708404541 -0.20315846800804138 0.06976747512817383
0.5038759708404541 -0.2043699324131012 0.08527135848999023
0.5038759708404541 -0.205448716878891 0.10077524185180664
0.5038759708404541 -0.2060881406068802 0.11627912521362305
0.5038759708404541 -0.2045833170413971 0.1317828893661499
0.5038759708404541 -0.20293688774108887 0.1472867727279663
0.5038759708404541 -0.20006141066551208 0.16279065608978271
0.5038759708404541 -0.19574353098869324 0.17829453945159912
0.5038759708404541 -0.1855297088623047 -0.007751941680908203
0.5038759708404541 -0.19059665501117706 0.007751941680908203
0.5038759708404541 -0.19011932611465454 0.19379842281341553
0.5038759708404541 -0.1853562891483307 0.20930230617523193
0.5038759708404541 -0.16407111287117004 -0.038759708404541016
0.5038759708404541 -0.17489448189735413 -0.02325582504272461
0.5038759708404541 -0.1779228001832962 0.22480618953704834
0.5038759708404541 -0.1684979349374771 0.24031007289886475
0.5038759708404541 -0.15368789434432983 -0.05426359176635742
0.5038759708404541 -0.15625376999378204 0.25581395626068115
0.5038759708404541 -0.14135950803756714 -0.06976741552352905
0.5038759708404541 -0.13837383687496185 0.27131783962249756
0.5038759708404541 -0.11633388698101044 -0.10077518224716187
0.5038759708404541 -0.12875911593437195 -0.08527129888534546
0.5038759708404541 -0.11640084534883499 0.28682172298431396
0.5038759708404541 -0.1043889969587326 -0.11627906560897827
0.5038759708404541 -0.09232095628976822 -0.13178294897079468
0.5038759708404541 -0.08542083948850632 0.30232560634613037
0.5038759708404541 -0.07902295887470245 -0.14728683233261108
0.5038759708404541 -0.06570293754339218 -0.1627907156944275
0.5038759708404541 -0.05122268944978714 -0.1782945990562439
0.5038759708404541 -0.031338170170784 -0.19379842281341553
0.5038759708404541 -0.0013380011077970266 -0.20930230617523193
0.5038759708404541 0.03552716225385666 0.30232560634613037
0.5038759708404541 0.05752759426832199 -0.22480618953704834
0.5038759708404541 0.1864532232284546 0.28682172298431396
0.5038759708404541 0.21011857688426971 -0.22480618953704834
0.5038759708404541 0.24995481967926025 0.27131783962249756
0.5038759708404541 0.286117821931839 -0.20930230617523193
0.5038759708404541 0.3089703917503357 0.25581395626068115
0.5038759708404541 0.32938021421432495 -0.19379842281341553
0.5038759708404541 0.35192012786865234 0.24031007289886475
0.5038759708404541 0.36920735239982605 -0.1782945990562439
0.5038759708404541 0.3775539696216583 0.22480618953704834
0.5038759708404541 0.39868125319480896 0.20930230617523193
0.5038759708404541 0.43452417850494385 0.19379842281341553
0.5038759708404541 0.4665774703025818 0.17829453945159912
0.5038759708404541 0.4827132821083069 -0.1627907156944275
0.5038759708404541 0.5109063386917114 0.16279065608978271
0.5038759708404541 0.5219351053237915 -0.14728683233261108
0.5038759708404541 0.547380805015564 -0.13178294897079468
0.5038759708404541 0.5391514301300049 0.1472867727279663
0.5038759708404541 0.5636923909187317 -0.11627906560897827
0.5038759708404541 0.564891517162323 0.11627912521362305
0.5038759708404541 0.5571249127388 0.1317828893661499
0.5038759708404541 0.5770602822303772 -0.10077518224716187
0.5038759708404541 0.5795292258262634 0.08527135848999023
0.5038759708404541 0.5742344856262207 0.10077524185180664
0.5038759708404541 0.5866645574569702 -0.08527129888534546
0.5038759708404541 0.5929949879646301 -0.06976741552352905
0.5038759708404541 0.5966231226921082 -0.05426359176635742
0.5038759708404541 0.5955199599266052 0.02325582504272461
0.5038759708404541 0.5933240652084351 0.038759708404541016
0.5038759708404541 0.5902114510536194 0.05426359176635742
0.5038759708404541 0.5841769576072693 0.06976747512817383
0.5038759708404541 0.599864661693573 -0.038759708404541016
0.5038759708404541 0.6004126667976379 -0.02325582504272461
0.5038759708404541 0.6001248359680176 -0.007751941680908203
0.5038759708404541 0.5980806946754456 0.007751941680908203
0.5193798542022705 -0.550771951675415 0.9379844665527344
0.5193798542022705 -0.5432470440864563 0.9069766998291016
0.5193798542022705 -0.5475743412971497 0.922480583190918
0.5193798542022705 -0.520294189453125 0.8759689331054688
0.5193798542022705 -0.5282994508743286 0.8914728164672852
0.5193798542022705 -0.5040167570114136 0.7209302186965942
0.5193798542022705 -0.5074922442436218 0.7364341020584106
0.5193798542022705 -0.5101028680801392 0.751937985420227
0.5193798542022705 -0.5119925737380981 0.7674418687820435
0.5193798542022705 -0.5127846002578735 0.7829457521438599
0.5193798542022705 -0.5130406618118286 0.7984496355056763
0.5193798542022705 -0.5131453275680542 0.8139535188674927
0.5193798542022705 -0.5131336450576782 0.8294574022293091
0.5193798542022705 -0.5136512517929077 0.8449612855911255
0.5193798542022705 -0.5157781839370728 0.8604651689529419
0.5193798542022705 -0.48986726999282837 0.674418568611145
0.5193798542022705 -0.4937596321105957 0.6899224519729614
0.5193798542022705 -0.4976198673248291 0.7054263353347778
0.5193798542022705 -0.4739575982093811 0.6434108018875122
0.5193798542022705 -0.48057299852371216 0.6589146852493286
0.5193798542022705 -0.4784899353981018 0.9379844665527344
0.5193798542022705 -0.4602634608745575 0.922480583190918
0.5193798542022705 -0.4546278715133667 0.6279069185256958
0.5193798542022705 -0.4499945342540741 0.8914728164672852
0.5193798542022705 -0.4550628662109375 0.9069766998291016
0.5193798542022705 -0.4359741806983948 0.6279069185256958
0.5193798542022705 -0.43088728189468384 0.8604651689529419
0.5193798542022705 -0.43948274850845337 0.8759689331054688
0.5193798542022705 -0.4194692373275757 0.6434108018875122
0.5193798542022705 -0.41574591398239136 0.8294574022293091
0.5193798542022705 -0.4224913418292999 0.8449612855911255
0.5193798542022705 -0.4101908802986145 0.6589146852493286
0.5193798542022705 -0.40713927149772644 0.674418568611145
0.5193798542022705 -0.4041838049888611 0.6899224519729614
0.5193798542022705 -0.39998310804367065 0.7054263353347778
0.5193798542022705 -0.39731043577194214 0.7674418687820435
0.5193798542022705 -0.40131211280822754 0.7829457521438599
0.5193798542022705 -0.4049237370491028 0.7984496355056763
0.5193798542022705 -0.4088471233844757 0.8139535188674927
0.5193798542022705 -0.3953370749950409 0.7209302186965942
0.5193798542022705 -0.3948041498661041 0.7364341020584106
0.5193798542022705 -0.3952799141407013 0.751937985420227
0.5193798542022705 -0.1796543300151825 0.05426359176635742
0.5193798542022705 -0.18285700678825378 0.06976747512817383
0.5193798542022705 -0.18404877185821533 0.08527135848999023
0.5193798542022705 -0.18457096815109253 0.10077524185180664
0.5193798542022705 -0.1841944307088852 0.11627912521362305
0.5193798542022705 -0.1810303032398224 0.1317828893661499
0.5193798542022705 -0.1638663113117218 -0.007751941680908203
0.5193798542022705 -0.17076140642166138 0.007751941680908203
0.5193798542022705 -0.17373418807983398 0.02325582504272461
0.5193798542022705 -0.17705416679382324 0.038759708404541016
0.5193798542022705 -0.17699699103832245 0.1472867727279663
0.5193798542022705 -0.17247672379016876 0.16279065608978271
0.5193798542022705 -0.16539505124092102 0.17829453945159912
0.5193798542022705 -0.15500688552856445 -0.02325582504272461
0.5193798542022705 -0.15696556866168976 0.19379842281341553
0.5193798542022705 -0.1431715339422226 -0.038759708404541016
0.5193798542022705 -0.14683319628238678 0.20930230617523193
0.5193798542022705 -0.13453532755374908 0.22480618953704834
0.5193798542022705 -0.11783409863710403 -0.06976741552352905
0.5193798542022705 -0.13030284643173218 -0.05426359176635742
0.5193798542022705 -0.1183815449476242 0.24031007289886475
0.5193798542022705 -0.10572856664657593 -0.08527129888534546
0.5193798542022705 -0.0927078127861023 -0.10077518224716187
0.5193798542022705 -0.09787808358669281 0.25581395626068115
0.5193798542022705 -0.0781165137887001 -0.11627906560897827
0.5193798542022705 -0.06340211629867554 -0.13178294897079468
0.5193798542022705 -0.06825166195631027 0.27131783962249756
0.5193798542022705 -0.04583445191383362 -0.14728683233261108
0.5193798542022705 -0.024804169312119484 -0.1627907156944275
0.5193798542022705 -0.02568061091005802 0.28682172298431396
0.5193798542022705 -0.002978492761030793 0.28682172298431396
0.5193798542022705 0.010278008878231049 -0.1782945990562439
0.5193798542022705 0.03498544916510582 0.27131783962249756
0.5193798542022705 0.08639758825302124 -0.19379842281341553
0.5193798542022705 0.16534888744354248 0.25581395626068115
0.5193798542022705 0.20940792560577393 -0.19379842281341553
0.5193798542022705 0.21179918944835663 0.24031007289886475
0.5193798542022705 0.26078248023986816 0.22480618953704834
0.5193798542022705 0.27632468938827515 -0.1782945990562439
0.5193798542022705 0.30762627720832825 0.20930230617523193
0.5193798542022705 0.317857027053833 -0.1627907156944275
0.5193798542022705 0.34446677565574646 0.19379842281341553
0.5193798542022705 0.3517899513244629 -0.14728683233261108
0.5193798542022705 0.37130263447761536 0.17829453945159912
0.5193798542022705 0.39334869384765625 -0.13178294897079468
0.5193798542022705 0.40005967020988464 0.16279065608978271
0.5193798542022705 0.421779066324234 0.1472867727279663
0.5193798542022705 0.45228707790374756 0.1317828893661499
0.5193798542022705 0.48349982500076294 -0.11627906560897827
0.5193798542022705 0.5023190975189209 0.11627912521362305
0.5193798542022705 0.5095096826553345 -0.10077518224716187
0.5193798542022705 0.5283843278884888 -0.08527129888534546
0.5193798542022705 0.5268454551696777 0.10077524185180664
0.5193798542022705 0.5407877564430237 -0.06976741552352905
0.5193798542022705 0.5481471419334412 -0.05426359176635742
0.5193798542022705 0.5493891835212708 0.038759708404541016
0.5193798542022705 0.5471073389053345 0.05426359176635742
0.5193798542022705 0.5424461960792542 0.06976747512817383
0.5193798542022705 0.5359830856323242 0.08527135848999023
0.5193798542022705 0.5524789094924927 -0.038759712129831314
0.5193798542022705 0.5541964173316956 -0.02325582504272461
0.5193798542022705 0.5550754070281982 -0.007751941680908203
0.5193798542022705 0.5544658899307251 0.007751941680908203
0.5193798542022705 0.5519375205039978 0.02325582504272461
0.5348837375640869 -0.5519713759422302 0.9069766998291016
0.5348837375640869 -0.5560141205787659 0.922480583190918
0.5348837375640869 -0.5571933388710022 0.9379844665527344
0.5348837375640869 -0.5512698292732239 0.9534883499145508
0.5348837375640869 -0.5409439206123352 0.8914728164672852
0.5348837375640869 -0.5220157504081726 0.8604651689529419
0.5348837375640869 -0.5280967354774475 0.8759689331054688
0.5348837375640869 -0.5047447681427002 0.7209302186965942
0.5348837375640869 -0.5080429315567017 0.7364341020584106
0.5348837375640869 -0.5104713439941406 0.751937985420227
0.5348837375640869 -0.5118191838264465 0.7674418687820435
0.5348837375640869 -0.5117632150650024 0.7829457521438599
0.5348837375640869 -0.5116207599639893 0.7984496355056763
0.5348837375640869 -0.5119878053665161 0.8139535188674927
0.5348837375640869 -0.5133559703826904 0.8294574022293091
0.5348837375640869 -0.516814649105072 0.8449612855911255
0.5348837375640869 -0.5116233229637146 0.9534883499145508
0.5348837375640869 -0.48996031284332275 0.674418568611145
0.5348837375640869 -0.4939742684364319 0.6899224519729614
0.5348837375640869 -0.4982792139053345 0.7054263353347778
0.5348837375640869 -0.48026514053344727 0.6589146852493286
0.5348837375640869 -0.4729309380054474 0.9379844665527344
0.5348837375640869 -0.47254711389541626 0.6434108018875122
0.5348837375640869 -0.45843616127967834 0.922480583190918
0.5348837375640869 -0.44490671157836914 0.8759689331054688
