0.028226934373378754 0.5348837375640869 -0.1627907156944275
0.02794458344578743 0.5348837375640869 0.4728682041168213
0.031288567930459976 0.5968992710113525 0.4573643207550049
0.03051111474633217 0.6899224519729614 0.42635655403137207
0.030915429815649986 0.7054263353347778 -0.1627907156944275
0.03440117835998535 0.7209302186965942 -0.1782945990562439
0.03826621547341347 0.7364341020584106 -0.19379842281341553
0.02821958251297474 0.751937985420227 -0.19379842281341553
0.02955647185444832 0.7674418687820435 -0.19379842281341553
0.030756499618291855 0.7829457521438599 -0.1782945990562439
0.02790425345301628 0.7829458117485046 0.37984490394592285
0.0342898853123188 0.7984496355056763 0.364341139793396
0.03482542186975479 0.8139535188674927 0.3488372564315796
0.024027854204177856 0.8294574022293091 -0.02325582690536976
0.031068405136466026 0.8294574022293091 0.3333333730697632
0.030968084931373596 0.8449612855911255 0.007751941680908203
0.023293394595384598 0.8449612855911255 0.3178294897079468
0.024449901655316353 0.8604651689529419 0.02325582504272461
0.0371440052986145 0.8759689331054688 0.05426359176635742
0.026964319869875908 0.8914728164672852 0.05426359176635742
0.03410080075263977 0.8914728164672852 0.06976747512817383
0.03354223817586899 0.8914728164672852 0.25581395626068115
0.023668956011533737 0.9069766998291016 0.038759708404541016
0.02808944508433342 0.9069766998291016 0.05426359176635742
0.032301634550094604 0.9069766998291016 0.06976747512817383
0.038612667471170425 0.9069766998291016 0.08527135848999023
0.037064969539642334 0.9069766998291016 0.22480618953704834
0.02378781884908676 0.922480583190918 0.02325582504272461
0.026265433058142662 0.922480583190918 0.038759708404541016
0.029631201177835464 0.922480583190918 0.05426359176635742
0.03335832804441452 0.922480583190918 0.06976747512817383
0.03343585133552551 0.922480583190918 0.19379842281341553
0.025302089750766754 0.9379844665527344 -0.007751941680908203
0.02723364718258381 0.9379844665527344 0.007751941680908203
0.02898517996072769 0.9379844665527344 0.02325582504272461
0.03091347962617874 0.9379844665527344 0.038759708404541016
0.033451661467552185 0.9379844665527344 0.05426359176635742
0.035820286720991135 0.9379844665527344 0.06976747512817383
0.037795424461364746 0.9379844665527344 0.08527135848999023
0.03838757425546646 0.9379844665527344 0.10077524185180664
0.038411542773246765 0.9379844665527344 0.11627912521362305
0.03618291765451431 0.9379844665527344 0.1317828893661499
0.03196593374013901 0.9379844665527344 0.1472867727279663
0.024040963500738144 0.9379844665527344 0.16279065608978271
0.025381963700056076 0.9534883499145508 -0.06976741552352905
0.027921512722969055 0.9534883499145508 -0.05426359176635742
0.029713444411754608 0.9534884095191956 -0.038759708404541016
0.03101187013089657 0.9534883499145508 -0.02325582504272461
0.03207726776599884 0.9534883499145508 -0.007751941680908203
0.032864779233932495 0.9534883499145508 0.007751941680908203
0.03339875489473343 0.9534883499145508 0.02325582504272461
0.03355325385928154 0.9534883499145508 0.038759708404541016
0.03302627056837082 0.9534883499145508 0.05426359176635742
0.03137461096048355 0.9534883499145508 0.06976747512817383
0.028441544622182846 0.9534884095191956 0.08527135848999023
0.024937991052865982 0.9534883499145508 0.10077524185180664
0.02362162433564663 0.9689922332763672 -0.13178294897079468
0.024402840062975883 0.9689922332763672 -0.11627906560897827
0.02516450546681881 0.9689922332763672 -0.10077518224716187
0.02588849514722824 0.9689922332763672 -0.08527129888534546
0.02673056721687317 0.9689922332763672 -0.06976741552352905
0.027752649039030075 0.9689922332763672 -0.05426359176635742
0.02844264730811119 0.9689922332763672 -0.038759708404541016
0.028517168015241623 0.9689922332763672 -0.02325582504272461
0.02791436016559601 0.9689922332763672 -0.007751941680908203
0.02676381729543209 0.9689922332763672 0.007751941680908203
0.025254352018237114 0.9689922332763672 0.02325582504272461
0.023523814976215363 0.9689921736717224 0.038759708404541016
0.03934944421052933 -0.9534883499145508 0.4418604373931885
0.04269636049866676 -0.9534883499145508 0.4573643207550049
0.04389257729053497 -0.9534884095191956 0.4728682041168213
0.0417257584631443 -0.9534883499145508 0.4883720874786377
0.04071607068181038 -0.9379844069480896 0.42635655403137207
0.04497455433011055 -0.9379844665527344 0.4418604373931885
0.04783710092306137 -0.9379844665527344 0.4573643207550049
0.04903462529182434 -0.9379844665527344 0.4728682041168213
0.0477234423160553 -0.9379844665527344 0.4883720874786377
0.040425192564725876 -0.9379844665527344 0.5038759708404541
0.041818637400865555 -0.9224806427955627 0.41085267066955566
0.04684004560112953 -0.9224806427955627 0.42635655403137207
0.05008977651596069 -0.9224806427955627 0.4418604373931885
0.053680818527936935 -0.9224806427955627 0.4573643207550049
0.05316733941435814 -0.9224806427955627 0.4883720874786377
0.048137910664081573 -0.9224806427955627 0.5038759708404541
0.04183533415198326 -0.9069767594337463 0.39534878730773926
0.04872175306081772 -0.9069766998291016 0.41085267066955566
0.05385609716176987 -0.9069767594337463 0.42635655403137207
0.04751041531562805 -0.9069766998291016 0.5193798542022705
0.04004055634140968 -0.8914728760719299 0.37984490394592285
0.049677494913339615 -0.8914728760719299 0.39534878730773926
0.04545626789331436 -0.8914728164672852 0.5348837375640869
0.05195401608943939 -0.8759689927101135 0.37984490394592285
0.04100264981389046 -0.8759689927101135 0.5503876209259033
0.04250140115618706 -0.8604651689529419 0.3488372564315796
0.0484139621257782 -0.8449611663818359 0.3333333730697632
0.04757387936115265 -0.8449612259864807 0.5658915042877197
0.04255262762308121 -0.8139535188674927 0.28682172298431396
0.043200355023145676 -0.8139535188674927 0.5813953876495361
0.04215749353170395 -0.7984496355056763 0.27131783962249756
0.05276481434702873 -0.7674418687820435 0.25581395626068115
0.049014218151569366 -0.751937985420227 0.5968992710113525
0.0487339161336422 -0.7364341020584106 0.24031007289886475
0.04591277986764908 -0.6899224519729614 0.22480618953704834
0.042203959077596664 -0.643410861492157 0.20930230617523193
0.047666072845458984 -0.643410861492157 0.612403154373169
0.04786944389343262 -0.6279069781303406 0.20930230617523193
0.05253942310810089 -0.6124030947685242 0.20930230617523193
0.03920461982488632 -0.5968992114067078 0.19379843771457672
0.04803377017378807 -0.5813953876495361 0.19379842281341553
0.04216395318508148 -0.5658915042877197 0.17829453945159912
0.04848138242959976 -0.5348837375640869 0.16279065608978271
0.04601540043950081 -0.5193798542022705 0.1472867727279663
0.04558589309453964 -0.5038759708404541 0.1317828893661499
0.0477665439248085 -0.4883720874786377 0.11627912521362305
0.04853697121143341 -0.4883720874786377 0.5968992710113525
0.05113649740815163 -0.4728682041168213 0.10077524185180664
0.0407944917678833 -0.4573643207550049 0.06976747512817383
0.04360593110322952 -0.4418604373931885 0.05426359176635742
0.047287240624427795 -0.42635661363601685 0.038759708404541016
0.05192152410745621 -0.41085273027420044 0.02325582504272461
0.0392032116651535 -0.39534884691238403 0.5348837375640869
0.05251391977071762 -0.3798449635505676 0.5038759708404541
0.049712665379047394 -0.3643410801887512 0.4728682041168213
0.051313579082489014 -0.3488371968269348 -0.038759708404541016
0.0480329692363739 -0.3488371968269348 0.4418604373931885
0.04496024549007416 -0.3333333134651184 -0.05426359176635742
0.054249800741672516 -0.3333333134651184 0.41085267066955566
0.04118920862674713 -0.3333333134651184 0.42635655403137207
0.04052272066473961 -0.317829430103302 -0.06976741552352905
0.04440544545650482 -0.317829430103302 0.41085267066955566
0.04124373942613602 -0.30232563614845276 0.41085267066955566
0.042483940720558167 -0.28682172298431396 0.41085267066955566
0.04042753577232361 -0.27131783962249756 -0.11627906560897827
0.045968860387802124 -0.27131783962249756 0.41085267066955566
0.04157014936208725 -0.25581395626068115 -0.13178294897079468
0.04558119177818298 -0.25581395626068115 0.41085267066955566
0.04439600184559822 -0.24031007289886475 -0.14728683233261108
0.04321872070431709 -0.24031007289886475 0.41085267066955566
0.05406637489795685 -0.22480618953704834 -0.1627907156944275
0.047847047448158264 -0.22480618953704834 0.41085267066955566
0.04906850308179855 -0.20930230617523193 0.41085267066955566
0.04612179845571518 -0.19379842281341553 0.41085267066955566
0.04091047868132591 -0.1782945990562439 -0.20930230617523193
0.04313129559159279 -0.1782945990562439 0.41085267066955566
0.054030682891607285 -0.1627907156944275 -0.22480618953704834
0.04410625249147415 -0.1627907156944275 0.41085267066955566
0.049506254494190216 -0.14728683233261108 -0.22480618953704834
0.049201108515262604 -0.14728683233261108 0.41085267066955566
0.04629649966955185 -0.13178294897079468 -0.22480618953704834
0.05288057029247284 -0.11627906560897827 -0.24031007289886475
0.045115359127521515 -0.11627907305955887 -0.22480618953704834
0.05351146683096886 -0.10077518224716187 -0.24031007289886475
0.04705110564827919 -0.10077518224716187 -0.22480618953704834
0.03918355330824852 -0.10077518224716187 0.4263565242290497
0.0516473762691021 -0.08527129888534546 -0.22480618953704834
0.054016921669244766 -0.08527129888534546 0.42635655403137207
0.0460580512881279 -0.038759708404541016 0.4418604373931885
0.04573947191238403 -0.02325582504272461 -0.20930230617523193
0.04432640224695206 0.007751941680908203 0.45736435055732727
0.045792967081069946 0.05426359176635742 0.4728682339191437
0.04302780330181122 0.27131783962249756 -0.14728683233261108
0.03957449644804001 0.27131783962249756 0.4883721172809601
0.0426386296749115 0.28682172298431396 0.4883720874786377
0.04544384032487869 0.30232560634613037 0.4883720874786377
0.04298512265086174 0.3178294897079468 -0.13178294897079468
0.04680093750357628 0.3178294897079468 0.4883720874786377
0.04741079360246658 0.3333333730697632 0.4883720874786377
0.048978306353092194 0.3488372564315796 0.4883720874786377
0.05024814233183861 0.364341139793396 0.4883720874786377
0.05101825296878815 0.37984490394592285 0.4883720874786377
0.05024322122335434 0.39534878730773926 0.4883720874786377
0.04887504130601883 0.41085267066955566 0.4883720874786377
0.04548105597496033 0.42635655403137207 0.4883720576763153
0.04107965528964996 0.4418604373931885 0.4883720576763153
0.04206032305955887 0.5193798542022705 0.4728682041168213
0.05109293758869171 0.5503876209259033 -0.1627907156944275
0.05413571000099182 0.5658915042877197 0.4573643207550049
0.04370059818029404 0.5813953876495361 0.4573643207550049
0.0471782386302948 0.612403154373169 -0.1627907156944275
0.04169637709856033 0.6434108018875122 -0.14728683233261108
0.04770870506763458 0.6434108018875122 0.4418604373931885
0.047520123422145844 0.6589146852493286 -0.14728683233261108
0.04155959561467171 0.674418568611145 -0.14728683233261108
0.04684392362833023 0.6899224519729614 -0.1627907156944275
0.053866565227508545 0.7054263353347778 -0.19379842281341553
0.04557665437459946 0.7054263353347778 -0.1782945990562439
0.05405544117093086 0.7209302186965942 -0.20930230617523193
0.046478599309921265 0.7209302186965942 -0.19379842281341553
0.04422081261873245 0.7209302186965942 0.4108526408672333
0.04968736320734024 0.7364341020584106 -0.20930230617523193
0.0464797243475914 0.751937985420227 -0.20930230617523193
0.04774779453873634 0.751937985420227 0.39534878730773926
0.04776683449745178 0.7674418687820435 -0.20930230617523193
0.04672162979841232 0.7829457521438599 -0.19379842281341553
0.05158046633005142 0.7984496355056763 -0.1627907156944275
0.04621423780918121 0.7984496355056763 -0.14728683233261108
0.041111454367637634 0.7984496355056763 -0.13178294897079468
0.044544994831085205 0.8139535188674927 -0.08527129888534546
0.04581349715590477 0.8604651689529419 0.038759708404541016
0.049269963055849075 0.8604651689529419 0.28682172298431396
0.05040685087442398 0.8759689331054688 0.06976747512817383
0.040246523916721344 0.8759689331054688 0.27131783962249756
0.04327435791492462 0.8914728164672852 0.08527135848999023
0.051170043647289276 0.8914728164672852 0.10077524185180664
0.04807991907000542 0.8914728164672852 0.24031007289886475
0.04481268674135208 0.9069767594337463 0.10077524185180664
0.052153293043375015 0.9069766998291016 0.11627912521362305
0.048573561012744904 0.9069766998291016 0.20930230617523193
0.03961635380983353 0.922480583190918 0.08527135848999023
0.045840829610824585 0.922480583190918 0.10077524185180664
0.0496724434196949 0.922480583190918 0.11627912521362305
0.051502346992492676 0.922480583190918 0.1317828893661499
0.0510660819709301 0.922480583190918 0.1472867727279663
0.04834963381290436 0.922480583190918 0.16279065608978271
0.04235716536641121 0.922480583190918 0.17829453945159912
0.054777923971414566 -0.922480583190918 0.4728682041168213
0.05787696689367294 -0.9069767594337463 0.4418604373931885
0.06276699900627136 -0.9069767594337463 0.4573643207550049
0.06370815634727478 -0.9069768190383911 0.4728682041168213
0.06139775365591049 -0.9069767594337463 0.4883720874786377
0.05545642971992493 -0.9069767594337463 0.5038759708404541
0.05786284804344177 -0.8914728164672852 0.41085267066955566
0.06339997798204422 -0.8914728760719299 0.42635655403137207
0.06760978698730469 -0.8914728760719299 0.4418604373931885
0.06648427993059158 -0.8914728760719299 0.5038759708404541
0.05816870182752609 -0.8914728760719299 0.5193798542022705
0.06289276480674744 -0.8759689927101135 0.39534878730773926
0.059282995760440826 -0.8759689331054688 0.5348837375640869
0.05881311744451523 -0.8604651689529419 0.364341139793396
0.05656486004590988 -0.8604651093482971 0.5503876209259033
0.06866902858018875 -0.8449612259864807 0.3488372564315796
0.05555407702922821 -0.8294573426246643 0.3178294897079468
0.061004169285297394 -0.8294572830200195 0.5658915042877197
0.06055467203259468 -0.8139535188674927 0.30232560634613037
0.06288032233715057 -0.7984496355056763 0.28682172298431396
0.054553840309381485 -0.7984496355056763 0.5813953876495361
0.05980537831783295 -0.7829456925392151 0.27131783962249756
0.06507037580013275 -0.7829457521438599 0.5813953876495361
0.06583519279956818 -0.751937985420227 0.25581395626068115
0.06255774945020676 -0.7364341020584106 0.5968992710113525
0.05912954360246658 -0.7209302186965942 0.24031007289886475
0.06912503391504288 -0.7209302186965942 0.5968992710113525
0.06890455633401871 -0.7054263353347778 0.24031007289886475
0.05572666600346565 -0.6744186282157898 0.22480618953704834
0.06314200162887573 -0.6589146852493286 0.22480618953704834
0.06645170599222183 -0.6279069781303406 0.612403154373169
0.058586567640304565 -0.5968992114067078 0.20930230617523193
0.06038505584001541 -0.5658915042877197 0.19379842281341553
0.054272934794425964 -0.5503876209259033 0.17829453945159912
0.06380075216293335 -0.5348837375640869 0.17829453945159912
0.0585484579205513 -0.5193798542022705 0.16279065608978271
0.0572270005941391 -0.5038759708404541 0.1472867727279663
0.06649154424667358 -0.5038759708404541 0.16279065608978271
0.058348044753074646 -0.4883721172809601 0.1317828893661499
0.06732701510190964 -0.4883720874786377 0.1472867727279663
0.06128055602312088 -0.4728682041168213 0.11627912521362305
0.05508783832192421 -0.4573643207550049 0.08527135848999023
0.06485184282064438 -0.4573643207550049 0.10077524185180664
0.05860671028494835 -0.4418604373931885 0.06976747512817383
0.055256448686122894 -0.4418604373931885 0.5658915042877197
0.062150634825229645 -0.42635661363601685 0.05426359176635742
0.062248021364212036 -0.42635661363601685 0.5503876209259033
0.06651543080806732 -0.41085273027420044 0.038759708404541016
0.0652809590101242 -0.41085273027420044 0.5348837375640869
0.0558716356754303 -0.39534884691238403 0.007751941680908203
0.06070907413959503 -0.39534884691238403 0.5193798542022705
0.05992256850004196 -0.3798449635505676 -0.007751941680908203
0.06507675349712372 -0.3798449635505676 0.4883720874786377
0.059179678559303284 -0.3643410801887512 -0.02325582504272461
0.062218643724918365 -0.3643410801887512 0.4573643207550049
0.061610400676727295 -0.3488371968269348 0.42635655403137207
0.06552085280418396 -0.3333333134651184 0.39534878730773926
0.05824491009116173 -0.317829430103302 0.39534878730773926
0.05853548273444176 -0.30232560634613037 0.39534881711006165
0.06429565697908401 -0.28682172298431396 0.39534878730773926
0.06919410824775696 -0.1627907156944275 -0.7054263353347778
0.06752527505159378 -0.1627907156944275 -0.24031007289886475
0.066109299659729 -0.14728683233261108 -0.25581395626068115
0.06009424105286598 -0.14728683233261108 -0.24031007289886475
0.06926118582487106 -0.13178294897079468 -0.28682172298431396
0.06602399051189423 -0.13178294897079468 -0.27131783962249756
0.06135563552379608 -0.13178294897079468 -0.25581395626068115
0.054619137197732925 -0.13178294897079468 -0.24031008780002594
0.05929029732942581 -0.13178294897079468 0.41085267066955566
0.06959276646375656 -0.11627906560897827 -0.3333333134651184
0.06890426576137543 -0.11627906560897827 -0.317829430103302
0.06779414415359497 -0.11627906560897827 -0.30232560634613037
0.0660502091050148 -0.11627906560897827 -0.28682172298431396
0.06372396647930145 -0.11627906560897827 -0.27131783962249756
0.05994662269949913 -0.11627906560897827 -0.25581395626068115
0.06880801171064377 -0.11627906560897827 0.41085267066955566
0.06972197443246841 -0.10077518224716187 -0.3333333134651184
0.06877896934747696 -0.10077518224716187 -0.317829430103302
0.06749660521745682 -0.10077518224716187 -0.30232560634613037
0.06576550006866455 -0.10077518224716187 -0.28682172298431396
0.06351977586746216 -0.10077518224716187 -0.27131783962249756
0.06003102660179138 -0.10077518224716187 -0.25581395626068115
0.0681145116686821 -0.08527129888534546 -0.28682172298431396
0.06585822999477386 -0.08527129888534546 -0.27131783962249756
0.06316014379262924 -0.08527129888534546 -0.25581395626068115
0.05795044079422951 -0.08527129888534546 -0.24031007289886475
0.0683327317237854 -0.06976741552352905 -0.24031007289886475
0.062330618500709534 -0.06976741552352905 -0.22480618953704834
0.06470882892608643 -0.06976741552352905 0.42635655403137207
0.05934970825910568 -0.02325582690536976 0.4418604373931885
0.059929218143224716 0.02325582504272461 -0.19379842281341553
0.0564851388335228 0.02325582504272461 0.4573643207550049
0.06794843822717667 0.038759708404541016 0.4573643207550049
0.05928947776556015 0.05426359176635742 -0.1782945990562439
0.05574518442153931 0.06976747512817383 0.4728682041168213
0.0661846399307251 0.08527135848999023 0.4728682041168213
0.06846436858177185 0.19379842281341553 -0.14728683233261108
0.06808028370141983 0.24031007289886475 -0.14728683233261108
0.05619187280535698 0.25581395626068115 -0.14728683233261108
0.06053027883172035 0.30232560634613037 -0.13178294897079468
0.06573779135942459 0.3488372564315796 -0.11627906560897827
0.058434583246707916 0.5038759708404541 0.4728682041168213
0.06884549558162689 0.5503876209259033 0.4573643207550049
0.06359054148197174 0.6279069185256958 -0.1627907156944275
0.06424499303102493 0.6279069185256958 0.4418604373931885
0.06972473114728928 0.6589146852493286 -0.1627907156944275
0.060860782861709595 0.674418568611145 -0.1627907156944275
0.057717032730579376 0.674418568611145 0.42635655403137207
0.06808102875947952 0.6899224519729614 -0.19379842281341553
0.058779798448085785 0.6899224519729614 -0.1782945990562439
0.06372881680727005 0.7054263353347778 -0.20930230617523193
0.06310480087995529 0.7054263353347778 0.41085267066955566
0.06304273009300232 0.7209302186965942 -0.22480618953704834
0.06552472710609436 0.7364341020584106 -0.24031007289886475
0.05831747502088547 0.7364341020584106 -0.22480618953704834
0.0691034272313118 0.7364341020584106 0.39534878730773926
0.06848478317260742 0.751937985420227 -0.25581395626068115
0.0634165108203888 0.751937985420227 -0.24031007289886475
0.055583685636520386 0.751937985420227 -0.22480618953704834
0.0667230635881424 0.7674418687820435 -0.25581395626068115
0.06283041089773178 0.7674418687820435 -0.24031007289886475
0.05726170539855957 0.7674418687820435 -0.22480618953704834
0.06650770455598831 0.7674418687820435 0.37984490394592285
0.0690220296382904 0.7829457521438599 -0.27131783962249756
0.06585154682397842 0.7829457521438599 -0.25581395626068115
0.06318525969982147 0.7829457521438599 -0.24031007289886475
0.06024082377552986 0.7829457521438599 -0.22480618953704834
0.05566887930035591 0.7829457521438599 -0.20930230617523193
0.06825967878103256 0.7984496355056763 -0.25581395626068115
0.06609857827425003 0.7984496355056763 -0.24031007289886475
0.06404109299182892 0.7984496355056763 -0.22480618953704834
0.062034789472818375 0.7984496355056763 -0.20930230617523193
0.05969961732625961 0.7984496355056763 -0.19379840791225433
0.05674396827816963 0.7984496355056763 -0.1782945990562439
0.06921865791082382 0.8139535188674927 -0.1782945990562439
0.06810159981250763 0.8139535188674927 -0.1627907156944275
0.0666184052824974 0.8139535188674927 -0.14728683233261108
0.06411544978618622 0.8139535188674927 -0.13178294897079468
0.061011798679828644 0.8139535188674927 -0.11627906560897827
0.05624827370047569 0.8139535188674927 -0.10077518224716187
0.06574370712041855 0.8294574022293091 -0.06976741552352905
0.06192687153816223 0.8294574022293091 -0.05426359176635742
0.05927494168281555 0.8294574022293091 -0.038759708404541016
0.056657008826732635 0.8294574022293091 -0.02325582504272461
0.06263098865747452 0.8449612855911255 0.30232560634613037
0.06782419979572296 0.8604651689529419 0.05426359176635742
0.06775521486997604 0.8759689331054688 0.08527135848999023
0.05587882176041603 0.8759689927101135 0.25581395626068115
0.05984795466065407 0.8914728164672852 0.22480618953704834
0.06516530364751816 0.9069766998291016 0.1317828893661499
0.06902939826250076 0.9069766998291016 0.1472867727279663
0.06758468598127365 0.9069766998291016 0.16279065608978271
0.0641375333070755 0.9069766998291016 0.17829453945159912
0.05636018514633179 0.9069767594337463 0.19379843771457672
0.07009343802928925 -0.8914728760719299 0.4573643207550049
0.07084112614393234 -0.8914728760719299 0.4728682041168213
0.06983651220798492 -0.8914728760719299 0.4883720576763153
0.069801926612854 -0.8759689927101135 0.41085267066955566
0.07493258267641068 -0.8759689927101135 0.42635655403137207
0.08014043420553207 -0.8759689331054688 0.4418604373931885
0.08187726885080338 -0.8759690523147583 0.4573643207550049
0.082374706864357 -0.8759689927101135 0.4728682041168213
0.0816577821969986 -0.8759690523147583 0.4883720874786377
0.0779784619808197 -0.8759689927101135 0.5038759708404541
0.07045461237430573 -0.8759689927101135 0.5193798542022705
0.07313917577266693 -0.8604651093482971 0.37984490394592285
0.0807437151670456 -0.8604651093482971 0.39534878730773926
0.08523300290107727 -0.8604651093482971 0.41085267066955566
0.08313903212547302 -0.8604651093482971 0.5193798542022705
0.07227790355682373 -0.8604651093482971 0.5348837375640869
0.08446776121854782 -0.8449612259864807 0.364341139793396
0.07032272964715958 -0.8449612259864807 0.5503876209259033
0.07487209886312485 -0.8294574022293091 0.3333333730697632
0.08207641541957855 -0.8294573426246643 0.5503876209259033
0.07850006222724915 -0.8139535188674927 0.3178294897079468
0.07240530103445053 -0.8139535188674927 0.5658915042877197
0.08147202432155609 -0.7984496355056763 0.30232560634613037
0.08426304161548615 -0.7984496355056763 0.5658915042877197
0.08072961121797562 -0.7829457521438599 0.28682172298431396
0.07560457289218903 -0.7674418687820435 0.27131783962249756
0.0744907557964325 -0.7674418687820435 0.5813953876495361
0.07624027878046036 -0.7364341020584106 0.25581395626068115
0.07469917833805084 -0.7054263353347778 0.5968992710113525
0.07613959908485413 -0.6899224519729614 0.24031007289886475
0.07931666076183319 -0.6899224519729614 0.5968992710113525
0.08461099863052368 -0.674418568611145 0.24031007289886475
0.07030752301216125 -0.643410861492157 0.22480620443820953
0.07519210875034332 -0.6279070377349854 0.22480618953704834
0.08254676312208176 -0.6124030947685242 0.22480618953704834
0.07975675910711288 -0.6124030947685242 0.612403154373169
0.07178385555744171 -0.5813953876495361 0.20930229127407074
0.08280253410339355 -0.5658915042877197 0.20930230617523193
0.07316840440034866 -0.5503876209259033 0.19379842281341553
0.07837443053722382 -0.5348837375640869 0.19379842281341553
0.0718776062130928 -0.5193798542022705 0.17829455435276031
0.08222588151693344 -0.5193798542022705 0.19379842281341553
0.07667592167854309 -0.5038759708404541 0.17829453945159912
0.07522853463888168 -0.4883720874786377 0.16279065608978271
0.08212848007678986 -0.4883720874786377 0.17829453945159912
0.07065499573945999 -0.4728682041168213 0.1317828893661499
0.07709910720586777 -0.4728682041168213 0.1472867727279663
0.08292786777019501 -0.4728682041168213 0.16279065608978271
0.07159104943275452 -0.4728682041168213 0.5813953876495361
0.07388607412576675 -0.4573643207550049 0.11627912521362305
0.07977159321308136 -0.4573643207550049 0.1317828893661499
0.08310654014348984 -0.4573643207550049 0.5658915042877197
0.07002639770507812 -0.4418604373931885 0.08527135848999023
0.07718545198440552 -0.4418604373931885 0.10077524185180664
0.08388549089431763 -0.4418604373931885 0.11627912521362305
0.07381704449653625 -0.42635661363601685 0.06976747512817383
0.08095310628414154 -0.42635661363601685 0.08527135848999023
0.07738449424505234 -0.41085273027420044 0.05426359176635742
0.07392297685146332 -0.39534884691238403 0.02325582504272461
0.07600926607847214 -0.39534884691238403 0.5038759708404541
0.08021478354930878 -0.3798449635505676 0.007751941680908203
0.07628064602613449 -0.3798449635505676 0.4728682041168213
0.08118797838687897 -0.3643410801887512 -0.007751941680908203
0.07547836005687714 -0.3643410801887512 0.44186046719551086
0.08064063638448715 -0.3488371968269348 -0.02325582504272461
0.07284843921661377 -0.3488371968269348 0.41085267066955566
0.07875441759824753 -0.3333333134651184 -0.038759708404541016
0.0790078267455101 -0.3333333134651184 0.37984490394592285
0.07129853218793869 -0.317829430103302 -0.05426359176635742
0.07224059104919434 -0.317829430103302 0.37984490394592285
0.07038673013448715 -0.30232560634613037 -0.06976741552352905
0.07397906482219696 -0.30232560634613037 0.37984490394592285
0.07206754386425018 -0.28682172298431396 -0.08527129143476486
0.08124679327011108 -0.28682172298431396 0.37984490394592285
0.07536201179027557 -0.27131783962249756 -0.10077518224716187
0.0739380419254303 -0.27131783962249756 0.39534881711006165
0.0798589289188385 -0.25581395626068115 -0.11627906560897827
0.07994946837425232 -0.25581395626068115 0.39534878730773926
0.07215958833694458 -0.20930230617523193 -0.1782945990562439
0.08086352795362473 -0.1782945990562439 -0.7054263353347778
0.0779755488038063 -0.1627907156944275 -0.6899224519729614
0.07316932082176208 -0.14728683233261108 -0.7054263353347778
0.0766705721616745 -0.14728683233261108 -0.6899224519729614
0.07884187251329422 -0.14728683233261108 -0.674418568611145
0.08176419138908386 -0.14728683233261108 -0.6589146852493286
0.08262950927019119 -0.14728683233261108 -0.643410861492157
0.08292540162801743 -0.14728683233261108 -0.6279069781303406
0.08382437378168106 -0.14728683233261108 -0.6124030947685242
0.0849393755197525 -0.14728683233261108 -0.5968992114067078
0.08201906830072403 -0.14728683233261108 -0.28682172298431396
0.07294716686010361 -0.14728683233261108 -0.27131783962249756
0.08252526819705963 -0.13178294897079468 -0.7054263353347778
0.07996757328510284 -0.13178294897079468 -0.6899224519729614
0.07956007868051529 -0.13178294897079468 -0.674418568611145
0.08104656636714935 -0.13178294897079468 -0.6589146852493286
0.08066191524267197 -0.13178294897079468 -0.643410861492157
0.08021979033946991 -0.13178294897079468 -0.6279069781303406
0.08001203835010529 -0.13178294897079468 -0.6124030947685242
0.07986056059598923 -0.13178294897079468 -0.5968992114067078
0.07974672317504883 -0.13178294897079468 -0.5813953876495361
0.07960818707942963 -0.13178294897079468 -0.5658915042877197
0.07948967069387436 -0.13178294897079468 -0.5503876209259033
0.07935120910406113 -0.13178294897079468 -0.5348837375640869
0.07918411493301392 -0.13178294897079468 -0.5193798542022705
0.07919227331876755 -0.13178294897079468 -0.5038759708404541
0.07932387292385101 -0.13178294897079468 -0.4883720874786377
0.07926180958747864 -0.13178294897079468 -0.4728682041168213
0.07936128973960876 -0.13178294897079468 -0.4573643207550049
0.0795903354883194 -0.13178294897079468 -0.4418604373931885
0.07955510169267654 -0.13178294897079468 -0.42635661363601685
0.0794408917427063 -0.13178294897079468 -0.41085273027420044
0.07925418019294739 -0.13178294897079468 -0.39534884691238403
0.0788922905921936 -0.13178294897079468 -0.3798449635505676
0.07825620472431183 -0.13178294897079468 -0.3643410801887512
0.07740093767642975 -0.13178294897079468 -0.3488371968269348
0.07640646398067474 -0.13178294897079468 -0.3333333134651184
0.07520341873168945 -0.13178294897079468 -0.317829430103302
0.07318343222141266 -0.13178294897079468 -0.30232560634613037
0.08480750024318695 -0.11627906560897827 -0.643410861492157
0.08389515429735184 -0.11627906560897827 -0.6279069781303406
0.08322133123874664 -0.11627906560897827 -0.6124030947685242
0.0826120525598526 -0.11627906560897827 -0.5968992114067078
0.08204570412635803 -0.11627906560897827 -0.5813953876495361
0.08148476481437683 -0.11627906560897827 -0.5658915042877197
0.08092425763607025 -0.11627906560897827 -0.5503876209259033
0.0802537351846695 -0.11627906560897827 -0.5348837375640869
0.0797041580080986 -0.11627906560897827 -0.5193798542022705
0.0793384462594986 -0.11627906560897827 -0.5038759708404541
0.07903648912906647 -0.11627906560897827 -0.4883720874786377
0.07864018529653549 -0.11627906560897827 -0.4728682041168213
0.07849260419607162 -0.11627906560897827 -0.4573643207550049
0.07841125130653381 -0.11627906560897827 -0.4418604373931885
0.078009694814682 -0.11627906560897827 -0.42635661363601685
0.07744189351797104 -0.11627906560897827 -0.41085273027420044
0.07665757089853287 -0.11627906560897827 -0.39534884691238403
0.07546895742416382 -0.11627906560897827 -0.3798449635505676
0.07376039773225784 -0.11627906560897827 -0.3643410801887512
0.0715576782822609 -0.11627906560897827 -0.3488371968269348
0.08493363112211227 -0.10077518224716187 -0.4883720874786377
0.08425389975309372 -0.10077518224716187 -0.4728682041168213
0.08381588011980057 -0.10077518224716187 -0.4573643207550049
0.08327001333236694 -0.10077518224716187 -0.4418604373931885
0.08230072259902954 -0.10077518224716187 -0.42635661363601685
0.08104062080383301 -0.10077518224716187 -0.41085273027420044
0.07937448471784592 -0.10077518224716187 -0.39534884691238403
0.07743287086486816 -0.10077518224716187 -0.3798449635505676
0.07544057071208954 -0.10077518224716187 -0.3643410801887512
0.07282333076000214 -0.10077518224716187 -0.3488371968269348
0.07995470613241196 -0.10077518224716187 0.41085267066955566
0.08285669982433319 -0.08527129888534546 -0.3643410801887512
0.07945931702852249 -0.08527129888534546 -0.3488371968269348
0.07672904431819916 -0.08527129888534546 -0.3333333134651184
0.0739850252866745 -0.08527129888534546 -0.317829430103302
0.07014928013086319 -0.08527129888534546 -0.30232560634613037
0.08245988190174103 -0.06976741552352905 -0.28682172298431396
0.07880023121833801 -0.06976741552352905 -0.27131783962249756
0.0731305256485939 -0.06976741552352905 -0.25581395626068115
0.07236238569021225 -0.05426359176635742 0.4263565242290497
0.07681310176849365 -0.038759708404541016 -0.20930230617523193
0.08153504133224487 -0.038759708404541016 0.42635655403137207
0.07048070430755615 -0.007751941680908203 0.4418604373931885
0.07917319983243942 0.007751941680908203 0.4418604373931885
0.08093800395727158 0.05426359176635742 0.4573643207550049
0.07316267490386963 0.08527135848999023 -0.1627907007932663
0.07454285770654678 0.10077524185180664 0.4728682041168213
0.07795600593090057 0.11627912521362305 0.4728682041168213
0.07884404808282852 0.1317828893661499 0.4728682041168213
0.07923591881990433 0.1472867727279663 0.4728682041168213
0.07953888177871704 0.16279065608978271 0.4728682041168213
0.0797184556722641 0.17829453945159912 0.4728682041168213
0.08015095442533493 0.19379842281341553 0.4728682041168213
0.0709092989563942 0.20930230617523193 -0.14728683233261108
0.08170236647129059 0.20930230617523193 0.4728682041168213
0.07503895461559296 0.22480617463588715 -0.14728683233261108
0.0852414146065712 0.22480618953704834 0.4728682041168213
0.07458367943763733 0.28682172298431396 -0.13178294897079468
0.08247657120227814 0.4728682041168213 0.4728682041168213
0.07299569249153137 0.4883720874786377 0.4728682041168213
0.08049225062131882 0.5348837375640869 0.4573643207550049
0.07622549682855606 0.612403154373169 0.44186046719551086
0.07198254764080048 0.6434107422828674 -0.1627907156944275
0.07715070247650146 0.6589146852493286 0.42635655403137207
0.07605312764644623 0.674418568611145 -0.1782945990562439
0.08165308833122253 0.6899224519729614 -0.20930230617523193
0.07979952543973923 0.6899224519729614 0.41085267066955566
0.07223668694496155 0.7054263353347778 -0.22480617463588715
0.08091450482606888 0.7209302186965942 -0.25581395626068115
0.07039618492126465 0.7209301590919495 -0.24031007289886475
0.08410479128360748 0.7209302186965942 0.39534878730773926
0.08015936613082886 0.7364341020584106 -0.27131783962249756
0.07244573533535004 0.7364341616630554 -0.25581395626068115
0.08320887386798859 0.751937985420227 -0.30232560634613037
0.07961336523294449 0.751937985420227 -0.28682172298431396
0.07509392499923706 0.751937985420227 -0.27131783962249756
0.08436089009046555 0.7674418687820435 -0.3488371968269348
0.08199819177389145 0.7674418687820435 -0.3333333134651184
0.07963122427463531 0.7674418687820435 -0.317829430103302
0.07780198752880096 0.7674418687820435 -0.30232560634613037
0.07578188180923462 0.7674418687820435 -0.28682172298431396
0.07153003662824631 0.7674418687820435 -0.27131783962249756
0.08487800508737564 0.7829457521438599 -0.39534884691238403
0.08337714523077011 0.7829457521438599 -0.3798449635505676
0.08164208382368088 0.7829457521438599 -0.3643410801887512
0.08009250462055206 0.7829457521438599 -0.3488371968269348
0.07870849967002869 0.7829457521438599 -0.3333333134651184
0.07714661955833435 0.7829457521438599 -0.317829430103302
0.07572320103645325 0.7829457521438599 -0.30232560634613037
0.07361946254968643 0.7829457521438599 -0.28682172298431396
0.07513923943042755 0.7829457521438599 0.364341139793396
0.08526340872049332 0.7984496355056763 -0.4728682041168213
0.08515530824661255 0.7984496355056763 -0.4573643207550049
0.08521131426095963 0.7984496355056763 -0.4418604373931885
0.08511938899755478 0.7984496355056763 -0.42635661363601685
0.08461961150169373 0.7984496355056763 -0.41085273027420044
0.08366076648235321 0.7984496355056763 -0.39534884691238403
0.08227681368589401 0.7984496355056763 -0.3798449635505676
0.080637626349926 0.7984496355056763 -0.3643410801887512
0.07926394790410995 0.7984496355056763 -0.3488371968269348
0.07809394598007202 0.7984496355056763 -0.3333333134651184
0.07681785523891449 0.7984496355056763 -0.317829430103302
0.07558491826057434 0.7984496355056763 -0.30232560634613037
0.07416574656963348 0.798449695110321 -0.28682172298431396
0.07154814153909683 0.7984496355056763 -0.27131783962249756
0.07844902575016022 0.7984496355056763 0.3488372564315796
0.0852341577410698 0.8139535188674927 -0.3798449635505676
0.0838908776640892 0.8139535188674927 -0.3643410801887512
0.08252489566802979 0.8139535188674927 -0.3488371968269348
0.08122919499874115 0.8139535188674927 -0.3333333134651184
0.07990225404500961 0.8139535188674927 -0.317829430103302
0.07889162003993988 0.8139535188674927 -0.30232560634613037
0.0778132826089859 0.8139535188674927 -0.28682172298431396
0.076469786465168 0.8139535188674927 -0.27131783962249756
0.07510827481746674 0.8139535188674927 -0.25581395626068115
0.07406438887119293 0.8139535188674927 -0.24031007289886475
0.07282791286706924 0.8139535188674927 -0.22480618953704834
0.07174960523843765 0.8139535188674927 -0.20930230617523193
0.07031004130840302 0.8139535188674927 -0.19379842281341553
0.07788161933422089 0.8139535188674927 0.3333333730697632
0.08520077913999557 0.8294574022293091 -0.13178294897079468
0.08220798522233963 0.8294574022293091 -0.11627906560897827
0.07770593464374542 0.8294574022293091 -0.10077518224716187
0.07139434665441513 0.8294574022293091 -0.08527129888534546
0.07275068759918213 0.8294574022293091 0.3178294897079468
0.0817391648888588 0.8449612855911255 0.007751941680908203
0.0727788656949997 0.8604651689529419 0.27131783962249756
0.0746474340558052 0.8759689331054688 0.24031005799770355
0.07444970309734344 0.8914728164672852 0.11627912521362305
0.0821055993437767 0.8914728164672852 0.19379842281341553
0.0707884132862091 0.8914728164672852 0.20930229127407074
0.08922144025564194 -0.8604651093482971 0.42635655403137207
0.09431448578834534 -0.8604651689529419 0.4418604373931885
0.09631020575761795 -0.8604651093482971 0.4573643207550049
0.09659524261951447 -0.8604651093482971 0.4728682041168213
0.09545093774795532 -0.8604651093482971 0.4883720874786377
0.08956621587276459 -0.8604651093482971 0.5038759708404541
0.09599742293357849 -0.8449611663818359 0.37984490394592285
0.09781903028488159 -0.8449612855911255 0.5193798542022705
0.08537300676107407 -0.8449612259864807 0.5348837375640869
0.0937708169221878 -0.8294573426246643 0.3488372564315796
0.09923595190048218 -0.8294573426246643 0.5348837375640869
0.09856941550970078 -0.8139535188674927 0.3333333730697632
0.09480443596839905 -0.8139535188674927 0.5503876209259033
0.09976038336753845 -0.7829457521438599 0.30232560634613037
0.09367269277572632 -0.7829457521438599 0.5658915042877197
0.0954795777797699 -0.7674418687820435 0.28682172298431396
0.08858610689640045 -0.751937985420227 0.27131783962249756
0.08668198436498642 -0.7519380450248718 0.5813954472541809
0.09782722592353821 -0.7364341020584106 0.27131783962249756
0.08659806102514267 -0.7209302186965942 0.25581395626068115
0.09309661388397217 -0.7054263353347778 0.25581395626068115
0.10075021535158157 -0.6899224519729614 0.25581395626068115
0.09066559374332428 -0.674418568611145 0.5968992710113525
0.0904259979724884 -0.6589146852493286 0.24031007289886475
0.09499486535787582 -0.643410861492157 0.24031007289886475
0.0999741405248642 -0.6279069781303406 0.24031007289886475
0.0898289829492569 -0.5968992114067078 0.22480618953704834
0.08752034604549408 -0.5968992710113525 0.6124032139778137
0.09445349127054214 -0.5813953876495361 0.22480618953704834
0.09783855825662613 -0.5813953876495361 0.612403154373169
0.09775445610284805 -0.5658915042877197 0.22480618953704834
0.08872340619564056 -0.5503876209259033 0.20930230617523193
0.10019728541374207 -0.5503876209259033 0.22480618953704834
0.09062828868627548 -0.5348837375640869 0.20930230617523193
0.10058970004320145 -0.5348837375640869 0.22480618953704834
0.0918998271226883 -0.5193798542022705 0.20930230617523193
0.10035545378923416 -0.5193798542022705 0.22480618953704834
0.08654024451971054 -0.5038759708404541 0.19379842281341553
0.09324000775814056 -0.5038759708404541 0.20930230617523193
0.09382720291614532 -0.5038759708404541 0.5968992710113525
0.09016042202711105 -0.4883720874786377 0.19379842281341553
0.09519366919994354 -0.4883720874786377 0.20930230617523193
0.08948292583227158 -0.4728682041168213 0.17829453945159912
0.09391951560974121 -0.4728682041168213 0.19379842281341553
0.09895281493663788 -0.4728682041168213 0.20930230617523193
0.08680471777915955 -0.4573643207550049 0.1472867727279663
0.09172394871711731 -0.4573643207550049 0.16279065608978271
0.09501127898693085 -0.4573643207550049 0.17829453945159912
0.09959673136472702 -0.4573643207550049 0.19379842281341553
0.09024909883737564 -0.4418604373931885 0.1317828893661499
0.09473362565040588 -0.4418604373931885 0.1472867727279663
0.09909568727016449 -0.4418604373931885 0.16279065608978271
0.08821046352386475 -0.4418604373931885 0.5503876209259033
0.08784504979848862 -0.42635661363601685 0.10077524185180664
0.09335318207740784 -0.42635661363601685 0.11627912521362305
0.097979336977005 -0.42635661363601685 0.1317828893661499
0.08933374285697937 -0.42635661363601685 0.5348837375640869
0.08593393862247467 -0.4108527600765228 0.06976747512817383
0.09220465272665024 -0.41085273027420044 0.08527135848999023
0.09653229266405106 -0.41085273027420044 0.10077524185180664
0.08579210937023163 -0.41085273027420044 0.5193797945976257
0.08595910668373108 -0.39534884691238403 0.038759712129831314
0.09216895699501038 -0.39534884691238403 0.05426359176635742
0.09676624834537506 -0.39534884691238403 0.06976747512817383
0.08937142789363861 -0.39534884691238403 0.4883720874786377
0.09373857080936432 -0.3798449635505676 0.02325582504272461
0.09813748300075531 -0.3798449635505676 0.038759708404541016
0.08900526911020279 -0.37984499335289 0.4573643207550049
0.09550240635871887 -0.3643410801887512 0.007751941680908203
0.09927340596914291 -0.3643410801887512 0.41085267066955566
0.08793438971042633 -0.3643410801887512 0.42635655403137207
0.09585902839899063 -0.3488371968269348 -0.007751941680908203
0.09987687319517136 -0.3488371968269348 0.37984490394592285
0.08587590605020523 -0.3488371968269348 0.39534878730773926
0.09783592820167542 -0.3333333134651184 -0.02325582504272461
0.09463381767272949 -0.3333333134651184 0.364341139793396
0.09969489276409149 -0.317829430103302 -0.038759708404541016
0.08698662370443344 -0.317829430103302 0.364341139793396
0.09566836059093475 -0.30232560634613037 -0.05426359176635742
0.08868458122015 -0.30232560634613037 0.364341139793396
0.09905285388231277 -0.28682172298431396 -0.06976741552352905
0.09601443260908127 -0.28682172298431396 0.364341139793396
0.09231371432542801 -0.27131783962249756 0.37984490394592285
0.08570956438779831 -0.24031007289886475 -0.13178294897079468
0.08727272599935532 -0.24031007289886475 0.39534878730773926
0.0968966856598854 -0.22480618953704834 -0.14728683233261108
0.0931437611579895 -0.22480618953704834 0.39534878730773926
0.09272821992635727 -0.20930230617523193 0.39534878730773926
0.08730489015579224 -0.19379842281341553 -0.19379842281341553
0.08933445066213608 -0.19379842281341553 0.39534881711006165
0.08645256608724594 -0.1782945990562439 0.39534878730773926
0.08833032846450806 -0.1627907156944275 -0.674418568611145
0.08728381246328354 -0.1627907156944275 0.39534878730773926
0.08956744521856308 -0.14728683233261108 -0.5813953876495361
0.09517943114042282 -0.14728683233261108 -0.5658915042877197
0.09092164784669876 -0.14728683233261108 0.39534878730773926
0.0958838164806366 -0.13178294897079468 0.39534878730773926
0.10056561231613159 -0.11627906560897827 -0.6899224519729614
0.09504096210002899 -0.11627906560897827 -0.674418568611145
0.09057939797639847 -0.11627906560897827 -0.6589146852493286
0.0992148146033287 -0.10077518224716187 -0.5503876209259033
0.0957079753279686 -0.10077518224716187 -0.5348837375640869
0.09162858128547668 -0.10077518224716187 -0.5193798542022705
0.08734110742807388 -0.10077518224716187 -0.5038759708404541
0.09180028736591339 -0.08527129888534546 -0.3798449635505676
0.09162028878927231 -0.08527129888534546 0.41085267066955566
0.08786176145076752 -0.06976741552352905 -0.30232560634613037
0.10071782767772675 -0.06976741552352905 0.41085267066955566
0.09257155656814575 -0.02325582504272461 0.42635655403137207
0.08912704139947891 0.02325582504272461 0.4418604373931885
0.0991378054022789 0.038759708404541016 0.4418604373931885
0.09356065094470978 0.06976747512817383 0.4573643207550049
0.09783972799777985 0.1317828893661499 -0.14728683233261108
0.0973753109574318 0.1472867727279663 -0.14728683233261108
0.09666198492050171 0.16279065608978271 -0.14728683233261108
0.08533544838428497 0.17829455435276031 -0.14728684723377228
0.08941271901130676 0.24031007289886475 0.4728682041168213
0.09334327280521393 0.25581395626068115 0.4728682041168213
0.09661126881837845 0.27131783962249756 -0.13178294897079468
0.09698128700256348 0.27131783962249756 0.4728682041168213
0.0992668867111206 0.28682172298431396 0.4728682041168213
0.10023222118616104 0.39534878730773926 0.4728682041168213
0.09797132015228271 0.41085267066955566 0.4728682041168213
0.09549970924854279 0.42635655403137207 0.4728682041168213
0.09339693933725357 0.4418604373931885 0.4728682041168213
0.09030991792678833 0.4573643207550049 0.4728682041168213
0.09980672597885132 0.5038759708404541 0.4573643207550049
0.09144215285778046 0.5193798542022705 0.45736435055732727
0.09445515275001526 0.5813953876495361 0.4418604373931885
0.08544763177633286 0.5968992710113525 0.4418604075908661
0.09261460602283478 0.6434108018875122 0.42635655403137207
0.0966043695807457 0.674418568611145 0.41085267066955566
0.087016761302948 0.7054263353347778 -0.24031007289886475
0.09882587939500809 0.7054263353347778 0.39534878730773926
0.10001622885465622 0.7209302186965942 -0.7054263353347778
0.0922374278306961 0.7364341020584106 -0.7054263353347778
0.09974106401205063 0.7364341020584106 -0.30232560634613037
0.08876635134220123 0.7364341616630554 -0.28682172298431396
0.0856277346611023 0.751937985420227 -0.7054263353347778
0.09410470724105835 0.751937985420227 -0.6899224519729614
0.09826701879501343 0.751937985420227 -0.3488371968269348
0.09391460567712784 0.751937985420227 -0.3333333134651184
0.08777253329753876 0.751937985420227 -0.317829430103302
0.08673687279224396 0.751937985420227 0.37984487414360046
0.09000082314014435 0.7674418687820435 -0.7054263353347778
0.09133145213127136 0.7674418687820435 -0.6899224519729614
0.09428004920482635 0.7674418687820435 -0.674418568611145
0.09804468601942062 0.7674418687820435 -0.6589146852493286
0.09836570173501968 0.7674418687820435 -0.643410861492157
0.09765374660491943 0.7674418687820435 -0.6279069781303406
0.09742666035890579 0.7674418687820435 -0.6124030947685242
0.09726326912641525 0.7674418687820435 -0.5968992114067078
0.09730327874422073 0.7674418687820435 -0.5813953876495361
0.09735443443059921 0.7674418687820435 -0.5658915042877197
0.09736370295286179 0.7674418687820435 -0.5503876209259033
0.0970701351761818 0.7674418687820435 -0.5348837375640869
0.09652431309223175 0.7674418687820435 -0.5193798542022705
0.0960947573184967 0.7674418687820435 -0.5038759708404541
0.09586814790964127 0.7674418687820435 -0.4883720874786377
0.0958847776055336 0.7674418687820435 -0.4728682041168213
0.0959191545844078 0.7674418687820435 -0.4573643207550049
0.0961376503109932 0.7674418687820435 -0.4418604373931885
0.09614308178424835 0.7674418687820435 -0.42635661363601685
0.09561499953269958 0.7674418687820435 -0.41085273027420044
0.0944322869181633 0.7674418687820435 -0.39534884691238403
0.09243036806583405 0.7674418687820435 -0.3798449635505676
0.08883537352085114 0.7674418687820435 -0.3643410801887512
0.09684006124734879 0.7674418687820435 0.364341139793396
0.09664875268936157 0.7829457521438599 -0.7054263353347778
0.09092981368303299 0.7829457521438599 -0.6899224519729614
0.09138993173837662 0.7829457521438599 -0.674418568611145
0.0929550975561142 0.7829457521438599 -0.6589146852493286
0.09350012242794037 0.7829457521438599 -0.643410861492157
0.09280872344970703 0.7829457521438599 -0.6279069781303406
0.09245960414409637 0.7829457521438599 -0.6124030947685242
0.09222047030925751 0.7829457521438599 -0.596899151802063
0.0921691283583641 0.7829457521438599 -0.5813953876495361
0.09212377667427063 0.7829457521438599 -0.5658915042877197
0.09202687442302704 0.7829457521438599 -0.5503876209259033
0.0914694219827652 0.7829457521438599 -0.5348837375640869
0.09052342921495438 0.7829457521438599 -0.5193798542022705
0.0894816592335701 0.7829457521438599 -0.5038759708404541
0.08870475739240646 0.7829457521438599 -0.4883720874786377
0.08846801519393921 0.7829457521438599 -0.4728682041168213
0.08839204162359238 0.7829457521438599 -0.4573643207550049
