-0.007751941680908203 0.7984496355056763 0.37066414952278137
-0.007751941680908203 0.8139535188674927 0.003710951656103134
-0.007751941680908203 0.8139535188674927 0.36997973918914795
-0.007751941680908203 0.8294574022293091 0.03729923442006111
-0.007751941680908203 0.8294574022293091 0.3703448176383972
-0.007751941680908203 0.8449612259864807 0.07007154822349548
-0.007751941680908203 0.8449612855911255 0.37149474024772644
-0.007751941680908203 0.8604652285575867 0.10170381516218185
-0.007751941680908203 0.8604651689529419 0.24188372492790222
-0.007751941680908203 0.8604651689529419 0.2813718318939209
-0.007751941680908203 0.8604651689529419 0.3670124411582947
-0.007751941680908203 0.8759689331054688 0.45703282952308655
-0.007751941680908203 0.8759689331054688 0.45970824360847473
-0.007751941680908203 0.8914728164672852 0.43761828541755676
-0.007751941680908203 0.8914728164672852 0.4812122583389282
-0.007751941680908203 0.9069766998291016 0.42047691345214844
-0.007751941680908203 0.9069766998291016 0.4850125014781952
-0.007751941680908203 0.922480583190918 0.4028540253639221
-0.007751941680908203 0.922480583190918 0.482616662979126
-0.007751941680908203 0.9379844665527344 0.38930460810661316
-0.007751941680908203 0.9379844665527344 0.47506827116012573
-0.007751941215246916 0.953488290309906 0.3813754618167877
-0.007751941680908203 0.9534883499145508 0.46026861667633057
-0.007751941680908203 0.968992292881012 0.38085970282554626
-0.007751941680908203 0.9689922332763672 0.4421429932117462
-0.007751941680908203 0.9844961166381836 0.38644009828567505
-0.007751941680908203 0.9844961166381836 0.4199211001396179
0.007751941680908203 -0.9844961166381836 0.37300145626068115
0.007751941680908203 -0.9844961166381836 0.3855454921722412
0.007751941680908203 -0.9689922332763672 0.36397266387939453
0.007751941680908203 -0.9689922332763672 0.39950114488601685
0.007751941680908203 -0.9534883499145508 0.36137595772743225
0.007751941680908203 -0.9534883499145508 0.41193610429763794
0.007751941680908203 -0.9379844665527344 0.3612819015979767
0.007751941680908203 -0.9379844665527344 0.4186958968639374
0.007751941680908203 -0.9224806427955627 0.36214756965637207
0.007751941680908203 -0.9224806427955627 0.42784518003463745
0.007751941680908203 -0.9069767594337463 0.3623739778995514
0.007751941680908203 -0.9069767594337463 0.4359535276889801
0.007751941680908203 -0.8914728760719299 0.3617260754108429
0.007751941680908203 -0.8914728760719299 0.44528019428253174
0.007751941680908203 -0.8759689927101135 0.3603634238243103
0.007751941680908203 -0.8759689927101135 0.457716703414917
0.007751941680908203 -0.8604651093482971 0.35813242197036743
0.007751941680908203 -0.8604651093482971 0.4654708206653595
0.007751941680908203 -0.8449612259864807 0.35481685400009155
0.007751941680908203 -0.8449612259864807 0.4769471287727356
0.007751941680908203 -0.8294573426246643 0.34982502460479736
0.007751941680908203 -0.8294573426246643 0.48998403549194336
0.007751941680908203 -0.8139535188674927 0.34678298234939575
0.007751941680908203 -0.8139535188674927 0.5036600828170776
0.007751941680908203 -0.7984496355056763 0.34476444125175476
0.007751941680908203 -0.7984496355056763 0.5127529501914978
0.007751941680908203 -0.7829457521438599 0.34280961751937866
0.007751941680908203 -0.7829457521438599 0.5223512053489685
0.007751941680908203 -0.7674418687820435 0.3407306671142578
0.007751941680908203 -0.7674418687820435 0.5344258546829224
0.007751941680908203 -0.751937985420227 0.34002217650413513
0.007751941680908203 -0.751937985420227 0.5437219738960266
0.007751941680908203 -0.7364341020584106 0.34029620885849
0.00775194214656949 -0.7364341020584106 0.5556685328483582
0.007751941680908203 -0.7209302186965942 0.3405035138130188
0.007751941680908203 -0.7209302186965942 0.5699000358581543
0.007751941680908203 -0.7054263353347778 0.34089839458465576
0.007751941680908203 -0.7054263353347778 0.584614098072052
0.007751941680908203 -0.6899224519729614 0.3411131203174591
0.007751941680908203 -0.6899225115776062 0.5979294180870056
0.007751941680908203 -0.674418568611145 0.3406795859336853
0.007751941680908203 -0.674418568611145 0.6073870658874512
0.007751941215246916 -0.6589146852493286 0.3395541310310364
0.00775194214656949 -0.6589146852493286 0.6137182116508484
0.007751941680908203 -0.643410861492157 0.33600643277168274
0.00775194214656949 -0.643410861492157 0.6172933578491211
0.007751941680908203 -0.6279069781303406 0.3307032883167267
0.007751941680908203 -0.6279069781303406 0.621100902557373
0.007751941680908203 -0.6124030947685242 0.3177059292793274
0.007751941680908203 -0.6124030947685242 0.6240209937095642
0.007751941680908203 -0.5968992114067078 0.3086887001991272
0.007751941680908203 -0.5968992114067078 0.6256099343299866
0.007751941680908203 -0.5813953876495361 0.29639995098114014
0.007751941680908203 -0.5813953876495361 0.6266790628433228
0.007751941680908203 -0.5658915042877197 0.2822606861591339
0.007751941680908203 -0.5658915042877197 0.6270220279693604
0.007751941680908203 -0.5503876209259033 0.25932011008262634
0.007751941680908203 -0.5503876209259033 0.6270081400871277
0.007751941680908203 -0.5348837375640869 0.23053443431854248
0.007751941680908203 -0.5348837375640869 0.6252612471580505
0.007751941680908203 -0.5193798542022705 0.20497620105743408
0.007751941680908203 -0.5193798542022705 0.6183135509490967
0.007751941680908203 -0.5038759708404541 0.18384681642055511
0.00775194214656949 -0.5038759708404541 0.6021879315376282
0.007751941680908203 -0.4883720874786377 0.1606675684452057
0.007751941680908203 -0.4883720874786377 0.5801115036010742
0.007751941680908203 -0.4728682041168213 0.1334056556224823
0.007751941680908203 -0.4728682041168213 0.5545328855514526
0.007751941680908203 -0.4573643207550049 0.1091344803571701
0.007751941680908203 -0.4573643207550049 0.5400713086128235
0.007751941215246916 -0.4418604373931885 0.08635962009429932
0.007751941680908203 -0.4418604373931885 0.5316902995109558
0.007751941680908203 -0.42635661363601685 0.062276337295770645
0.007751941680908203 -0.42635661363601685 0.5234817862510681
0.007751941680908203 -0.41085273027420044 0.03629275783896446
0.007751941680908203 -0.41085273027420044 0.5142386555671692
0.007751941680908203 -0.39534884691238403 0.015618113800883293
0.007751941680908203 -0.39534884691238403 0.5065240859985352
0.00775194214656949 -0.3798449635505676 -0.0012099710293114185
0.007751941680908203 -0.3798449635505676 0.4998263418674469
0.007751941680908203 -0.3643410801887512 -0.016943130642175674
0.007751941680908203 -0.3643410801887512 0.4942183494567871
0.007751941680908203 -0.3488371968269348 -0.03198738023638725
0.007751941680908203 -0.3488371968269348 0.4853134751319885
0.007751941680908203 -0.3333333134651184 -0.04641418159008026
0.007751941680908203 -0.3333333134651184 0.4785569906234741
0.007751941680908203 -0.317829430103302 -0.058902934193611145
0.007751941680908203 -0.317829430103302 0.46983417868614197
0.007751941680908203 -0.30232560634613037 -0.07099263370037079
0.007751941680908203 -0.30232560634613037 0.46505653858184814
0.00775194214656949 -0.28682172298431396 -0.08207753300666809
0.007751941680908203 -0.28682172298431396 0.45931458473205566
0.007751941680908203 -0.27131783962249756 -0.0932890772819519
0.007751941680908203 -0.27131783962249756 0.4538098871707916
0.007751941680908203 -0.25581395626068115 -0.10523539036512375
0.007751941680908203 -0.25581395626068115 0.45019853115081787
0.007751941680908203 -0.24031007289886475 -0.11668612062931061
0.007751941215246916 -0.24031007289886475 0.4479016363620758
0.007751941680908203 -0.22480618953704834 -0.12481393665075302
0.007751941680908203 -0.22480618953704834 0.4472047984600067
0.007751941680908203 -0.20930230617523193 -0.1356940120458603
0.007751941680908203 -0.20930230617523193 0.44787442684173584
0.007751941680908203 -0.19379842281341553 -0.14454083144664764
0.007751941680908203 -0.19379842281341553 0.4493241310119629
0.007751941680908203 -0.1782945990562439 -0.15408916771411896
0.007751941680908203 -0.1782945990562439 0.4511605501174927
0.007751941680908203 -0.1627907156944275 -0.16366301476955414
0.007751941680908203 -0.1627907156944275 0.45358818769454956
0.007751941680908203 -0.14728683233261108 -0.16664759814739227
0.007751941680908203 -0.14728683233261108 0.45645442605018616
0.007751941680908203 -0.13178294897079468 -0.16884419322013855
0.007751941680908203 -0.13178294897079468 0.45901137590408325
0.007751941680908203 -0.11627906560897827 -0.1743239462375641
0.007751941680908203 -0.11627906560897827 0.4614766240119934
0.007751941680908203 -0.10077518224716187 -0.18005990982055664
0.007751941680908203 -0.10077518224716187 0.4637226164340973
0.007751941680908203 -0.08527129888534546 -0.18233351409435272
0.007751941680908203 -0.08527129888534546 0.46566644310951233
0.007751941680908203 -0.06976741552352905 -0.18370920419692993
0.007751941680908203 -0.06976741552352905 0.4672684073448181
0.007751941680908203 -0.05426359176635742 -0.18392562866210938
0.007751941680908203 -0.05426359176635742 0.46882694959640503
0.007751941680908203 -0.038759708404541016 -0.1832815259695053
0.007751941680908203 -0.038759708404541016 0.4702721834182739
0.007751941680908203 -0.02325582504272461 -0.18227742612361908
0.007751941680908203 -0.02325582504272461 0.47171467542648315
0.007751941680908203 -0.007751941680908203 -0.18143221735954285
0.00775194214656949 -0.00775194214656949 0.47300857305526733
0.007751941680908203 0.007751941680908203 -0.1806865781545639
0.007751941680908203 0.007751941680908203 0.4749440848827362
0.007751941680908203 0.02325582504272461 -0.18014198541641235
0.00775194214656949 0.02325582504272461 0.4784173369407654
0.007751941680908203 0.038759708404541016 -0.17967097461223602
0.007751941680908203 0.038759708404541016 0.4799113869667053
0.007751941680908203 0.05426359176635742 -0.17956511676311493
0.007751941680908203 0.05426359176635742 0.480216920375824
0.007751941680908203 0.06976747512817383 -0.1793810874223709
0.007751941680908203 0.06976747512817383 0.4794430136680603
0.007751941680908203 0.08527135848999023 -0.17932498455047607
0.007751941215246916 0.08527135848999023 0.47906070947647095
0.007751941680908203 0.10077524185180664 -0.1794891506433487
0.007751941680908203 0.10077524185180664 0.4801402688026428
0.007751941680908203 0.11627912521362305 -0.17961831390857697
0.007751941680908203 0.11627912521362305 0.4813360571861267
0.007751941680908203 0.1317828893661499 -0.17946340143680573
0.007751941680908203 0.1317828893661499 0.4823814630508423
0.007751941680908203 0.1472867727279663 -0.17927689850330353
0.007751941680908203 0.1472867727279663 0.48308682441711426
0.007751941680908203 0.16279065608978271 -0.17888759076595306
0.007751941680908203 0.16279065608978271 0.483379602432251
0.007751941680908203 0.17829453945159912 -0.17831085622310638
0.007751941680908203 0.17829453945159912 0.48304134607315063
0.007751941680908203 0.19379842281341553 -0.17573179304599762
0.007751941680908203 0.19379842281341553 0.4817497730255127
0.007751941680908203 0.20930230617523193 -0.17316734790802002
0.007751941680908203 0.20930230617523193 0.4796212911605835
0.007751941680908203 0.22480618953704834 -0.1701575219631195
0.00775194214656949 0.22480620443820953 0.47779443860054016
0.007751941680908203 0.24031007289886475 -0.1669221818447113
0.007751941680908203 0.24031005799770355 0.47657468914985657
0.007751941680908203 0.25581395626068115 -0.1645210087299347
0.007751941680908203 0.25581395626068115 0.47616004943847656
0.007751941680908203 0.27131783962249756 -0.16307221353054047
0.007751941680908203 0.27131783962249756 0.4766520857810974
0.00775194214656949 0.28682175278663635 -0.1612652689218521
0.007751941680908203 0.28682172298431396 0.47753119468688965
0.007751941680908203 0.30232560634613037 -0.1607424020767212
0.007751941680908203 0.30232560634613037 0.478802353143692
0.007751941680908203 0.3178294897079468 -0.16133388876914978
0.007751941680908203 0.3178294897079468 0.4794735908508301
0.007751941215246916 0.3333333730697632 -0.16213928163051605
0.007751941680908203 0.3333333730697632 0.4792533814907074
0.007751941680908203 0.3488372564315796 -0.16314387321472168
0.007751941680908203 0.3488372564315796 0.4784180223941803
0.007751941680908203 0.364341139793396 -0.1638460010290146
0.007751941680908203 0.3643411099910736 0.47703975439071655
0.007751941680908203 0.37984490394592285 -0.1640399694442749
0.007751941680908203 0.37984490394592285 0.4755265712738037
0.007751941680908203 0.39534878730773926 -0.1634136140346527
0.007751941680908203 0.39534878730773926 0.47389206290245056
0.007751941680908203 0.41085267066955566 -0.16157925128936768
0.007751941680908203 0.41085267066955566 0.471457302570343
0.007751941680908203 0.42635655403137207 -0.1591392308473587
0.007751941680908203 0.42635655403137207 0.46819257736206055
0.007751941680908203 0.4418604373931885 -0.15728759765625
0.007751941680908203 0.4418604373931885 0.4666158854961395
0.007751941680908203 0.4573643207550049 -0.1548524647951126
0.007751941680908203 0.4573643207550049 0.4659958481788635
0.007751941680908203 0.4728682041168213 -0.1529478281736374
0.007751941680908203 0.4728682041168213 0.46551069617271423
0.007751941680908203 0.4883720874786377 -0.15079982578754425
0.007751941680908203 0.4883720874786377 0.46562570333480835
0.007751941680908203 0.5038759708404541 -0.14805416762828827
0.007751941680908203 0.5038759708404541 0.46587997674942017
0.007751941680908203 0.5193798542022705 -0.13791672885417938
0.007751941680908203 0.5193798542022705 0.46688759326934814
0.007751941680908203 0.5348837375640869 -0.1319473832845688
0.007751941680908203 0.5348837375640869 0.46739035844802856
0.007751941680908203 0.5503876209259033 -0.12569725513458252
0.007751941680908203 0.5503876209259033 0.4665663242340088
0.007751941680908203 0.5658915042877197 -0.12333559989929199
0.007751941680908203 0.5658915042877197 0.46462416648864746
0.007751941680908203 0.5813953876495361 -0.12315182387828827
0.007751941680908203 0.5813953876495361 0.46107494831085205
0.007751941680908203 0.5968992710113525 -0.12470309436321259
0.007751941680908203 0.5968992710113525 0.45617514848709106
0.007751941680908203 0.612403154373169 -0.1258666068315506
0.007751941680908203 0.612403154373169 0.4533158838748932
0.007751941680908203 0.6279069185256958 -0.1255522072315216
0.007751941680908203 0.6279069185256958 0.45140066742897034
0.007751941680908203 0.6434108018875122 -0.1227455884218216
0.007751941680908203 0.6434108018875122 0.4486865997314453
0.007751941680908203 0.6589146852493286 -0.11886277794837952
0.007751941680908203 0.6589146852493286 0.44561588764190674
0.007751941680908203 0.674418568611145 -0.11078767478466034
0.007751941680908203 0.674418568611145 0.4443667531013489
0.007751941680908203 0.6899224519729614 -0.10309197008609772
0.007751941680908203 0.6899223923683167 0.44381827116012573
0.007751941680908203 0.7054263353347778 -0.09256280958652496
0.007751941680908203 0.7054263353347778 0.4426625072956085
0.00775194214656949 0.720930278301239 -0.08495742082595825
0.007751941680908203 0.7209302186965942 0.43043139576911926
0.007751941680908203 0.7364341020584106 -0.07889343798160553
0.007751941680908203 0.7364341020584106 0.4031231999397278
0.007751941680908203 0.751937985420227 -0.07342477887868881
0.007751941680908203 0.751937985420227 0.3889296054840088
0.007751941680908203 0.7674418687820435 -0.05997828394174576
0.007751941680908203 0.7674418687820435 0.38065317273139954
0.007751941680908203 0.7829457521438599 -0.04285289719700813
0.007751941680908203 0.7829457521438599 0.37351667881011963
0.007751941680908203 0.7984496355056763 -0.02310285158455372
0.007751941680908203 0.7984496355056763 0.37084853649139404
0.007751941680908203 0.8139535188674927 0.004166523925960064
0.007751941680908203 0.8139535188674927 0.36992961168289185
0.007751941680908203 0.8294574022293091 0.037759434431791306
0.007751941680908203 0.8294574022293091 0.37023717164993286
0.007751941680908203 0.8449612855911255 0.07061240077018738
0.007751941680908203 0.8449612855911255 0.3711061477661133
0.007751941680908203 0.8604651689529419 0.10279389470815659
0.007751941680908203 0.8604651689529419 0.2445787638425827
0.007751941680908203 0.8604651689529419 0.2778001129627228
0.007751941680908203 0.8604651689529419 0.36587581038475037
0.007751941680908203 0.8759689331054688 0.45719218254089355
0.007751941215246916 0.8759689331054688 0.45900726318359375
0.007751941680908203 0.8914728164672852 0.4379512369632721
0.007751941680908203 0.8914728164672852 0.48137056827545166
0.007751941680908203 0.9069766998291016 0.4208493232727051
0.007751941680908203 0.9069766998291016 0.485119104385376
0.007751941680908203 0.922480583190918 0.4032931327819824
0.007751941680908203 0.922480583190918 0.48266053199768066
0.007751941680908203 0.9379844665527344 0.3893631100654602
0.00775194214656949 0.9379844665527344 0.4751640558242798
0.00775194214656949 0.9534883499145508 0.38134709000587463
0.007751941680908203 0.9534883499145508 0.46055448055267334
0.007751941680908203 0.9689922332763672 0.3802102208137512
0.007751941680908203 0.9689922332763672 0.44288429617881775
0.007751941680908203 0.9844961166381836 0.3840453028678894
0.007751941680908203 0.9844961166381836 0.42274385690689087
0.02325582504272461 -0.9379844665527344 0.37697845697402954
0.02325582504272461 -0.9379844665527344 0.4096900522708893
0.02325582504272461 -0.922480583190918 0.3742028772830963
0.02325582504272461 -0.922480583190918 0.4202713370323181
0.02325582504272461 -0.9069768190383911 0.3711877167224884
0.02325582504272461 -0.9069767594337463 0.43029582500457764
0.02325582504272461 -0.8914728760719299 0.36602628231048584
0.02325582504272461 -0.8914728760719299 0.44242075085639954
0.02325582504272461 -0.8759689927101135 0.36272960901260376
0.02325582504272461 -0.8759689927101135 0.44976210594177246
0.02325582504272461 -0.8604651093482971 0.36060020327568054
0.02325582504272461 -0.8604651689529419 0.4608129858970642
0.02325582504272461 -0.8449612259864807 0.3581724166870117
0.02325582504272461 -0.8449612259864807 0.4736281931400299
0.02325582504272461 -0.8294573426246643 0.3544948697090149
0.02325582504272461 -0.8294573426246643 0.48467063903808594
0.02325582504272461 -0.8139535188674927 0.3485528528690338
0.02325582504272461 -0.8139535188674927 0.4957605004310608
0.02325582504272461 -0.7984496355056763 0.34620755910873413
0.02325582504272461 -0.7984496355056763 0.5073484778404236
0.02325582504272461 -0.7829457521438599 0.3443063199520111
0.02325582504272461 -0.7829457521438599 0.5194304585456848
0.02325582504272461 -0.7674418687820435 0.34298932552337646
0.02325582504272461 -0.7674418687820435 0.528152585029602
0.02325582504272461 -0.751937985420227 0.34262895584106445
0.02325582504272461 -0.7519380450248718 0.5390191078186035
0.02325582504272461 -0.7364341020584106 0.34265995025634766
0.02325582318007946 -0.7364341020584106 0.5524441599845886
0.02325582504272461 -0.7209302186965942 0.3427444100379944
0.02325582504272461 -0.7209302186965942 0.5670406222343445
0.02325582504272461 -0.7054263353347778 0.34300553798675537
0.02325582318007946 -0.7054262757301331 0.5820139050483704
0.02325582504272461 -0.6899224519729614 0.3433365225791931
0.02325582504272461 -0.6899224519729614 0.5954397320747375
0.02325582504272461 -0.674418568611145 0.3433148264884949
0.02325582504272461 -0.674418568611145 0.6049195528030396
0.02325582504272461 -0.6589146852493286 0.3428250551223755
0.02325582504272461 -0.6589146852493286 0.61290442943573
0.02325582504272461 -0.643410861492157 0.3408114016056061
0.02325582504272461 -0.643410861492157 0.6162385940551758
0.02325582504272461 -0.6279069781303406 0.3357718586921692
0.02325582504272461 -0.6279069781303406 0.6199145317077637
0.02325582504272461 -0.6124030947685242 0.3297742009162903
0.02325582504272461 -0.6124030947685242 0.6229082345962524
0.02325582504272461 -0.5968992114067078 0.31880462169647217
0.02325582504272461 -0.5968992114067078 0.6249591708183289
0.02325582504272461 -0.5813953876495361 0.30966997146606445
0.02325582504272461 -0.5813953876495361 0.6259374618530273
0.02325582504272461 -0.5658915042877197 0.2994627356529236
0.02325582504272461 -0.5658915042877197 0.6264980435371399
0.02325582504272461 -0.5503876209259033 0.2835305333137512
0.02325582504272461 -0.5503876209259033 0.6264069676399231
0.02325582504272461 -0.5348837375640869 0.25305500626564026
0.02325582504272461 -0.5348837375640869 0.624281644821167
0.02325582504272461 -0.5193798542022705 0.21988257765769958
0.02325582504272461 -0.5193798542022705 0.617388904094696
0.02325582504272461 -0.5038759708404541 0.19610610604286194
0.02325582504272461 -0.5038759708404541 0.6009581089019775
0.02325582504272461 -0.4883720874786377 0.17173781991004944
0.02325582504272461 -0.4883720874786377 0.5766423940658569
0.02325582504272461 -0.4728682041168213 0.14494773745536804
0.02325582504272461 -0.4728682041168213 0.5511496067047119
0.02325582690536976 -0.4573643207550049 0.11931177973747253
0.02325582504272461 -0.4573643207550049 0.5369017124176025
0.02325582504272461 -0.4418604373931885 0.09427108615636826
0.02325582504272461 -0.4418604373931885 0.5277130603790283
0.02325582504272461 -0.42635661363601685 0.07086995989084244
0.02325582504272461 -0.42635661363601685 0.520348846912384
0.02325582504272461 -0.41085273027420044 0.04576755315065384
0.02325582504272461 -0.41085273027420044 0.5108622312545776
0.02325582504272461 -0.39534884691238403 0.025780506432056427
0.02325582504272461 -0.39534884691238403 0.5037428736686707
0.02325582504272461 -0.3798449635505676 0.008095849305391312
0.02325582504272461 -0.3798449635505676 0.4970557689666748
0.02325582504272461 -0.3643410801887512 -0.0084214573726058
0.02325582504272461 -0.3643410801887512 0.4909985065460205
0.02325582504272461 -0.3488371968269348 -0.023719921708106995
0.02325582504272461 -0.3488371968269348 0.4831313192844391
0.02325582504272461 -0.3333333134651184 -0.03891756385564804
0.02325582504272461 -0.3333333134651184 0.47580277919769287
0.02325582504272461 -0.317829430103302 -0.05113840475678444
0.02325582504272461 -0.317829430103302 0.46804505586624146
0.02325582504272461 -0.30232560634613037 -0.06318088620901108
0.02325582504272461 -0.30232560634613037 0.4632205665111542
0.02325582504272461 -0.28682172298431396 -0.07586929202079773
0.02325582504272461 -0.28682172298431396 0.4572925865650177
0.02325582504272461 -0.27131783962249756 -0.08888259530067444
0.02325582504272461 -0.27131783962249756 0.4525710344314575
0.02325582504272461 -0.25581395626068115 -0.10125122964382172
0.02325582504272461 -0.25581395626068115 0.449327677488327
0.02325582504272461 -0.24031007289886475 -0.11039941012859344
0.02325582504272461 -0.24031007289886475 0.4474361538887024
0.02325582504272461 -0.22480618953704834 -0.1211508959531784
0.02325582504272461 -0.22480618953704834 0.44686359167099
0.02325582504272461 -0.20930229127407074 -0.1312555968761444
0.02325582504272461 -0.20930230617523193 0.44748246669769287
0.02325582504272461 -0.19379842281341553 -0.14001481235027313
0.02325582504272461 -0.19379842281341553 0.4488655924797058
0.02325582504272461 -0.1782945990562439 -0.1503630131483078
0.02325582504272461 -0.1782945990562439 0.45080262422561646
0.02325582504272461 -0.1627907156944275 -0.15938827395439148
0.02325582504272461 -0.1627907156944275 0.4533159136772156
0.02325582504272461 -0.14728683233261108 -0.16507215797901154
0.02325582504272461 -0.14728683233261108 0.45616546273231506
0.02325582504272461 -0.13178294897079468 -0.16810110211372375
0.02325582504272461 -0.13178294897079468 0.4587690830230713
0.02325582690536976 -0.11627907305955887 -0.17523247003555298
0.02325582504272461 -0.11627906560897827 0.46113038063049316
0.02325582504272461 -0.10077518224716187 -0.1807861179113388
0.02325582504272461 -0.10077518224716187 0.46334442496299744
0.02325582504272461 -0.08527129888534546 -0.18321900069713593
0.02325582504272461 -0.08527129888534546 0.46537306904792786
0.02325582504272461 -0.06976741552352905 -0.18449869751930237
0.02325582504272461 -0.06976741552352905 0.46706196665763855
0.02325582504272461 -0.05426359176635742 -0.18438851833343506
0.02325582504272461 -0.05426359176635742 0.4685903787612915
0.02325582504272461 -0.038759708404541016 -0.1833760291337967
0.02325582504272461 -0.038759708404541016 0.4698953628540039
0.02325582504272461 -0.02325582504272461 -0.18208833038806915
0.02325582504272461 -0.02325582504272461 0.471152663230896
0.02325582504272461 -0.007751941680908203 -0.18105463683605194
0.02325582504272461 -0.007751941680908203 0.4724900722503662
0.02325582504272461 0.007751941680908203 -0.1802610158920288
0.02325582504272461 0.007751941680908203 0.47507745027542114
0.02325582504272461 0.02325582504272461 -0.17974171042442322
0.02325582504272461 0.02325582504272461 0.47882866859436035
0.02325582504272461 0.038759708404541016 -0.17931367456912994
0.02325582504272461 0.038759708404541016 0.480099081993103
0.02325582504272461 0.05426359176635742 -0.17922961711883545
0.02325582504272461 0.05426359176635742 0.4804179072380066
0.02325582504272461 0.06976747512817383 -0.17905819416046143
0.02325582504272461 0.06976747512817383 0.47978854179382324
0.02325582504272461 0.08527135848999023 -0.17898401618003845
0.02325582504272461 0.08527135848999023 0.4789561629295349
0.02325582504272461 0.10077524185180664 -0.17910626530647278
0.02325582504272461 0.10077524185180664 0.4797735810279846
0.02325582504272461 0.11627912521362305 -0.1792001724243164
0.02325582504272461 0.11627912521362305 0.48101499676704407
0.02325582504272461 0.1317828893661499 -0.179002583026886
0.02325582504272461 0.1317828893661499 0.48207950592041016
0.02325582504272461 0.1472867727279663 -0.1787680983543396
0.02325582504272461 0.1472867727279663 0.4827377498149872
0.02325582504272461 0.16279065608978271 -0.17837049067020416
0.02325582504272461 0.16279065608978271 0.4829465448856354
0.02325582318007946 0.17829453945159912 -0.17714066803455353
0.02325582504272461 0.17829453945159912 0.482515424489975
0.02325582504272461 0.19379842281341553 -0.17490142583847046
0.02325582504272461 0.19379842281341553 0.48116812109947205
0.02325582504272461 0.20930230617523193 -0.1725175678730011
0.02325582504272461 0.20930230617523193 0.47927841544151306
0.02325582504272461 0.22480618953704834 -0.16959458589553833
0.02325582504272461 0.22480618953704834 0.47767961025238037
0.02325582504272461 0.24031007289886475 -0.16637682914733887
0.02325582504272461 0.24031007289886475 0.47654205560684204
0.02325582504272461 0.25581395626068115 -0.16394774615764618
0.02325582504272461 0.25581395626068115 0.4761742353439331
0.02325582504272461 0.27131783962249756 -0.16195274889469147
0.02325582504272461 0.27131783962249756 0.476624459028244
0.02325582504272461 0.28682172298431396 -0.159795343875885
0.02325582504272461 0.28682172298431396 0.47742220759391785
0.02325582504272461 0.30232560634613037 -0.15947283804416656
0.02325582504272461 0.30232560634613037 0.4786490499973297
0.02325582504272461 0.3178294897079468 -0.16021418571472168
0.02325582504272461 0.3178294897079468 0.4793030619621277
0.02325582504272461 0.3333333730697632 -0.16105610132217407
0.02325582504272461 0.3333333730697632 0.4790842831134796
0.02325582504272461 0.3488372564315796 -0.16252757608890533
0.02325582504272461 0.3488372564315796 0.4782752990722656
0.02325582504272461 0.364341139793396 -0.16349568963050842
0.02325582504272461 0.364341139793396 0.476924329996109
0.02325582504272461 0.37984490394592285 -0.16380253434181213
0.02325582504272461 0.37984490394592285 0.47545111179351807
0.02325582504272461 0.39534878730773926 -0.16326579451560974
0.02325582504272461 0.39534878730773926 0.47387024760246277
0.02325582504272461 0.4108526408672333 -0.16145485639572144
0.02325582504272461 0.41085267066955566 0.47154319286346436
0.02325582504272461 0.42635655403137207 -0.15946835279464722
0.02325582504272461 0.42635655403137207 0.468381404876709
0.02325582504272461 0.4418604373931885 -0.15819361805915833
0.02325582504272461 0.4418604373931885 0.46683332324028015
0.02325582504272461 0.4573643207550049 -0.15636879205703735
0.02325582504272461 0.4573643207550049 0.46621617674827576
0.02325582504272461 0.4728682041168213 -0.15487359464168549
0.02325582504272461 0.4728682041168213 0.46566903591156006
0.02325582504272461 0.4883720874786377 -0.15309244394302368
0.02325582504272461 0.4883720874786377 0.4656285345554352
0.02325582504272461 0.5038759708404541 -0.150457501411438
0.02325582504272461 0.5038759708404541 0.4657512903213501
0.02325582504272461 0.5193798542022705 -0.1467261165380478
0.02325582504272461 0.5193798542022705 0.4668392539024353
0.02325582504272461 0.5348837375640869 -0.13777072727680206
0.02325582504272461 0.5348837375640869 0.46720319986343384
0.02325582504272461 0.5503876209259033 -0.13339170813560486
0.02325582504272461 0.5503876209259033 0.46618056297302246
0.02325582504272461 0.5658915042877197 -0.13153479993343353
0.02325582504272461 0.5658915042877197 0.46405917406082153
0.02325582504272461 0.5813953876495361 -0.13014301657676697
0.02325582504272461 0.5813953876495361 0.46096906065940857
0.02325582504272461 0.5968992710113525 -0.13038595020771027
0.02325582504272461 0.5968992710113525 0.4562135338783264
0.02325582504272461 0.612403154373169 -0.13245785236358643
0.02325582504272461 0.612403154373169 0.45341598987579346
0.02325582504272461 0.6279069185256958 -0.1342262178659439
0.02325582504272461 0.6279069185256958 0.45157575607299805
0.02325582504272461 0.6434108018875122 -0.1340159773826599
0.02325582504272461 0.6434108018875122 0.4490147829055786
0.02325582504272461 0.6589147448539734 -0.13114583492279053
0.02325582318007946 0.6589146852493286 0.44574326276779175
0.02325582504272461 0.674418568611145 -0.12499460577964783
0.02325582504272461 0.674418568611145 0.4441065788269043
0.02325582504272461 0.6899224519729614 -0.11891178041696548
0.02325582504272461 0.6899224519729614 0.4432666003704071
0.02325582504272461 0.7054263353347778 -0.10941429436206818
0.02325582504272461 0.7054263353347778 0.44080591201782227
0.02325582504272461 0.7209302186965942 -0.10238172858953476
0.02325582504272461 0.7209302186965942 0.42756879329681396
0.02325582504272461 0.7364341020584106 -0.09644647687673569
0.02325582504272461 0.7364341020584106 0.40171289443969727
0.02325582504272461 0.751937985420227 -0.09086660295724869
0.02325582504272461 0.751937985420227 0.38801702857017517
0.02325582504272461 0.7674418687820435 -0.0779707282781601
0.02325582504272461 0.7674419283866882 0.3802115321159363
0.02325582504272461 0.7829457521438599 -0.06018950417637825
0.02325582504272461 0.7829457521438599 0.37327367067337036
0.02325582504272461 0.7984496355056763 -0.041166163980960846
0.02325582504272461 0.7984496355056763 0.36978623270988464
0.02325582504272461 0.8139535188674927 -0.008966799825429916
0.02325582504272461 0.8139535188674927 0.36714643239974976
0.02325582504272461 0.8294574022293091 0.031353265047073364
0.02325582504272461 0.8294574022293091 0.36538487672805786
0.02325582504272461 0.8449612855911255 0.07025259733200073
0.02325582504272461 0.8449612855911255 0.3642202317714691
0.02325582504272461 0.8604651689529419 0.11683283746242523
0.02325582504272461 0.8604651093482971 0.2284705936908722
0.02325582690536976 0.8604652285575867 0.3036263883113861
0.02325582504272461 0.8604651689529419 0.340320885181427
0.02325582504272461 0.8914728164672852 0.45629921555519104
0.02325582504272461 0.8914728164672852 0.47463470697402954
0.02325582504272461 0.9069766998291016 0.4387817084789276
0.02325582504272461 0.9069766998291016 0.4812612533569336
0.02325582504272461 0.922480583190918 0.4231785237789154
0.02325582504272461 0.922480583190918 0.4791203737258911
0.02325582504272461 0.9379844665527344 0.4056188464164734
0.02325582504272461 0.9379844665527344 0.4694339334964752
0.02325582504272461 0.9534883499145508 0.39446383714675903
0.02325582504272461 0.9534883499145508 0.4528135657310486
0.02325582504272461 0.968992292881012 0.3990805745124817
0.02325582504272461 0.9689922332763672 0.42883628606796265
0.038759708404541016 -0.9069767594337463 0.3906749188899994
0.038759708404541016 -0.9069766998291016 0.41361528635025024
0.038759708404541016 -0.8914728760719299 0.37823566794395447
0.038759708404541016 -0.8914728760719299 0.4283088743686676
0.038759708404541016 -0.8759689927101135 0.3729665279388428
0.038759708404541016 -0.8759689927101135 0.44056436419487
0.038759708404541016 -0.8604651093482971 0.36558783054351807
0.038759708404541016 -0.8604651093482971 0.4507151246070862
0.038759708404541016 -0.8449612259864807 0.3622684180736542
0.038759708404541016 -0.8449612855911255 0.46201056241989136
0.038759708404541016 -0.8294573426246643 0.3599487841129303
0.038759708404541016 -0.8294573426246643 0.4742540717124939
0.038759708404541016 -0.8139535188674927 0.3560526371002197
0.038759708404541016 -0.8139535188674927 0.48794758319854736
0.038759708404541016 -0.7984496355056763 0.34991005063056946
0.038759708404541016 -0.7984496355056763 0.4992205500602722
0.038759708404541016 -0.7829457521438599 0.3467741012573242
0.038759708404541016 -0.7829457521438599 0.5096706748008728
0.038759708404541016 -0.7674418687820435 0.3451593220233917
0.038759708404541016 -0.7674418687820435 0.5221064686775208
0.038759708404541016 -0.751937985420227 0.3448105454444885
0.038759708404541016 -0.751937985420227 0.5351876616477966
0.038759708404541016 -0.7364341020584106 0.34514638781547546
0.038759708404541016 -0.7364341020584106 0.5487518906593323
0.038759708404541016 -0.7209302186965942 0.3457889258861542
0.038759708404541016 -0.7209302186965942 0.5630782842636108
0.038759708404541016 -0.7054263353347778 0.34669604897499084
0.038759708404541016 -0.7054263353347778 0.5782238841056824
0.038759708404541016 -0.6899224519729614 0.3480431139469147
0.038759708404541016 -0.6899224519729614 0.5920470356941223
0.038759708404541016 -0.674418568611145 0.34937405586242676
0.038759708404541016 -0.674418568611145 0.6034936904907227
0.038759708404541016 -0.6589146852493286 0.3503621220588684
0.038759708404541016 -0.6589146852493286 0.6120423078536987
0.038759708404541016 -0.643410861492157 0.3499367833137512
0.038759708404541016 -0.643410861492157 0.6151679754257202
0.038759708404541016 -0.6279069781303406 0.34861862659454346
0.038759708404541016 -0.6279070377349854 0.6181760430335999
0.038759708404541016 -0.6124030947685242 0.34669792652130127
0.038759708404541016 -0.6124030947685242 0.6210376024246216
0.038759708404541016 -0.5968992114067078 0.34201738238334656
0.038759708404541016 -0.5968992114067078 0.6233192682266235
0.038759708404541016 -0.5813953876495361 0.3359268009662628
0.038759708404541016 -0.5813953876495361 0.6248028874397278
0.038759708404541016 -0.5658915042877197 0.32912907004356384
0.038759708404541016 -0.5658915042877197 0.6252942085266113
0.038759708404541016 -0.5503876209259033 0.32259172201156616
0.038759708404541016 -0.5503876209259033 0.6253117322921753
0.038759708404541016 -0.5348837375640869 0.3131292462348938
0.038759708404541016 -0.5348837375640869 0.6229217052459717
0.038759708404541016 -0.5193798542022705 0.2685592770576477
0.038759708404541016 -0.5193798542022705 0.6163509488105774
0.038759708404541016 -0.5038759708404541 0.21952097117900848
0.038759708404541016 -0.5038759708404541 0.5994381904602051
0.038759708404541016 -0.4883720874786377 0.188434898853302
0.038759708404541016 -0.4883720874786377 0.5723077654838562
0.038759708404541016 -0.4728682041168213 0.16326500475406647
0.038759708404541016 -0.4728682041168213 0.545466423034668
0.038759708404541016 -0.4573643207550049 0.13591761887073517
0.038759708404541016 -0.4573643207550049 0.5316519737243652
0.038759708404541016 -0.4418604373931885 0.1080610454082489
0.038759708404541016 -0.4418604373931885 0.5226036906242371
0.038759708404541016 -0.42635661363601685 0.08198833465576172
0.038759708404541016 -0.42635661363601685 0.5143210887908936
0.038759708404541016 -0.41085273027420044 0.06025843322277069
0.038759708404541016 -0.41085273027420044 0.5056889653205872
0.038759708404541016 -0.39534884691238403 0.04207868501543999
0.038759708404541016 -0.39534884691238403 0.4981182813644409
0.038759708404541016 -0.3798449635505676 0.022773364558815956
0.038759708404541016 -0.3798449635505676 0.49193182587623596
0.038759708404541016 -0.3643410801887512 0.004596027545630932
0.038759708404541016 -0.3643410801887512 0.48532119393348694
0.038759708404541016 -0.3488371968269348 -0.011009680107235909
0.038759708404541016 -0.3488371968269348 0.479147732257843
0.038759708404541016 -0.3333333134651184 -0.02638142555952072
0.038759708404541016 -0.3333333134651184 0.4703759551048279
0.038759708404541016 -0.317829430103302 -0.04120127484202385
0.038759708404541016 -0.317829430103302 0.46524667739868164
0.038759708404541016 -0.30232560634613037 -0.055522091686725616
0.038759708404541016 -0.30232560634613037 0.45961296558380127
0.038759708404541016 -0.28682172298431396 -0.06939402967691422
0.038759708404541016 -0.28682172298431396 0.45363348722457886
0.038759708404541016 -0.27131783962249756 -0.08138175308704376
0.038759708404541016 -0.27131783962249756 0.45036402344703674
0.038759708404541016 -0.25581395626068115 -0.09258364140987396
0.038759708404541016 -0.25581395626068115 0.44778233766555786
0.038759708404541016 -0.24031007289886475 -0.10435072332620621
0.038759708404541016 -0.24031007289886475 0.4465031623840332
0.038759712129831314 -0.22480620443820953 -0.11460358649492264
0.038759708404541016 -0.22480618953704834 0.44605547189712524
0.038759708404541016 -0.20930230617523193 -0.12367410957813263
0.038759708404541016 -0.20930230617523193 0.44649678468704224
0.038759708404541016 -0.19379842281341553 -0.1345042884349823
0.038759708404541016 -0.19379842281341553 0.44773799180984497
0.038759708404541016 -0.1782945990562439 -0.1442638784646988
0.038759708404541016 -0.1782945990562439 0.4498597979545593
0.038759708404541016 -0.1627907156944275 -0.15349635481834412
0.038759708404541016 -0.1627907156944275 0.4525115191936493
0.038759708404541016 -0.14728683233261108 -0.16330493986606598
0.038759708404541016 -0.14728683233261108 0.45512855052948
0.038759708404541016 -0.13178294897079468 -0.16820642352104187
0.038759708404541016 -0.13178294897079468 0.4578615427017212
0.038759708404541016 -0.11627906560897827 -0.17886556684970856
0.038759708404541016 -0.11627906560897827 0.4599951505661011
0.038759708404541016 -0.10077518224716187 -0.1836588978767395
0.038759708404541016 -0.10077518224716187 0.4621458649635315
0.038759708404541016 -0.08527129888534546 -0.18678423762321472
0.038759708404541016 -0.08527129888534546 0.46432560682296753
0.038759708404541016 -0.06976741552352905 -0.1874348372220993
0.038759708404541016 -0.06976741552352905 0.466169148683548
0.038759708404541016 -0.05426359176635742 -0.18577353656291962
0.038759708404541016 -0.05426359176635742 0.46770817041397095
0.038759708404541016 -0.038759708404541016 -0.18356356024742126
0.038759708404541016 -0.038759708404541016 0.4688093662261963
0.038759708404541016 -0.02325582504272461 -0.18169793486595154
0.038759708404541016 -0.02325582504272461 0.469819039106369
0.038759708404541016 -0.007751941680908203 -0.18038353323936462
0.038759708404541016 -0.007751941680908203 0.4710197150707245
0.038759708404541016 0.007751941680908203 -0.1794917732477188
0.038759708404541016 0.007751941680908203 0.4744225740432739
0.038759708404541016 0.02325582504272461 -0.17895416915416718
0.038759708404541016 0.02325582504272461 0.4783557653427124
0.038759708404541016 0.038759708404541016 -0.17853136360645294
0.038759708404541016 0.038759708404541016 0.479567289352417
0.038759708404541016 0.05426359176635742 -0.17845159769058228
0.038759708404541016 0.05426359176635742 0.4799453318119049
0.038759708404541016 0.06976747512817383 -0.17821858823299408
0.038759708404541016 0.06976747512817383 0.4794485569000244
0.038759708404541016 0.08527135848999023 -0.17790161073207855
0.038759708404541016 0.08527135848999023 0.47823667526245117
0.038759708404541016 0.10077524185180664 -0.17814671993255615
0.038759708404541016 0.10077524185180664 0.47877073287963867
0.038759708404541016 0.11627912521362305 -0.17827534675598145
0.038759708404541016 0.11627912521362305 0.4801274538040161
0.038759708404541016 0.1317828893661499 -0.17740671336650848
0.038759708404541016 0.1317828893661499 0.48124584555625916
0.038759708404541016 0.1472867727279663 -0.17650091648101807
0.038759708404541016 0.1472867727279663 0.48186221718788147
0.038759708404541016 0.16279065608978271 -0.17556694149971008
0.038759708404541016 0.16279065608978271 0.4819871485233307
0.038759708404541016 0.17829453945159912 -0.17462368309497833
0.038759708404541016 0.17829453945159912 0.4814159870147705
0.038759708404541016 0.19379842281341553 -0.17292846739292145
0.038759708404541016 0.19379842281341553 0.48012369871139526
0.038759708404541016 0.20930230617523193 -0.17065556347370148
0.038759708404541016 0.20930230617523193 0.47861599922180176
0.038759708404541016 0.22480618953704834 -0.16786909103393555
0.038759708404541016 0.22480618953704834 0.477336585521698
0.038759708404541016 0.24031007289886475 -0.16469025611877441
0.038759708404541016 0.24031007289886475 0.4763447642326355
0.038759712129831314 0.25581395626068115 -0.1618715524673462
0.038759708404541016 0.25581395626068115 0.47600090503692627
0.038759708404541016 0.27131783962249756 -0.15840426087379456
0.038759708404541016 0.27131783962249756 0.47639748454093933
0.038759708404541016 0.28682172298431396 -0.15644758939743042
0.038759708404541016 0.28682172298431396 0.47708144783973694
0.038759708404541016 0.30232560634613037 -0.15640908479690552
0.038759708404541016 0.30232560634613037 0.47820860147476196
0.038759708404541016 0.3178294897079468 -0.15732607245445251
0.038759708404541016 0.3178294897079468 0.4788084626197815
0.038759708404541016 0.3333333730697632 -0.1580895036458969
0.038759708404541016 0.3333333730697632 0.4785844683647156
0.038759708404541016 0.3488372564315796 -0.15929140150547028
0.038759708404541016 0.3488372564315796 0.47781872749328613
0.038759708404541016 0.364341139793396 -0.16108860075473785
0.038759708404541016 0.364341139793396 0.47657066583633423
0.038759708404541016 0.37984490394592285 -0.16223454475402832
0.038759708404541016 0.37984490394592285 0.47519174218177795
0.03875970467925072 0.39534878730773926 -0.16134902834892273
0.038759712129831314 0.39534881711006165 0.4736607074737549
0.038759708404541016 0.41085267066955566 -0.1595136672258377
0.038759708404541016 0.41085267066955566 0.4711887836456299
0.038759708404541016 0.42635655403137207 -0.15819737315177917
0.038759708404541016 0.42635655403137207 0.4682827293872833
0.038759708404541016 0.4418604373931885 -0.15762101113796234
0.038759708404541016 0.4418604373931885 0.4668092727661133
0.038759708404541016 0.4573643207550049 -0.15662036836147308
0.038759708404541016 0.4573643207550049 0.4662033021450043
0.038759708404541016 0.4728682041168213 -0.15603438019752502
0.038759708404541016 0.4728682041168213 0.4656279385089874
0.038759708404541016 0.4883720874786377 -0.15508151054382324
0.038759708404541016 0.4883720874786377 0.46547552943229675
0.038759708404541016 0.5038759708404541 -0.1528063416481018
0.038759708404541016 0.5038759708404541 0.46541523933410645
0.038759708404541016 0.5193798542022705 -0.14946769177913666
0.038759708404541016 0.5193798542022705 0.4663282036781311
0.038759708404541016 0.5348837375640869 -0.14573988318443298
0.038759708404541016 0.5348837375640869 0.46670037508010864
0.038759708404541016 0.5503876209259033 -0.14045263826847076
0.038759708404541016 0.5503876209259033 0.4654960632324219
0.038759708404541016 0.5658915042877197 -0.13831618428230286
0.038759708404541016 0.5658915042877197 0.463310569524765
0.038759708404541016 0.5813953876495361 -0.13664676249027252
0.038759708404541016 0.5813953876495361 0.4604172706604004
0.038759708404541016 0.5968992710113525 -0.13652271032333374
0.038759708404541016 0.5968992710113525 0.45570260286331177
0.038759708404541016 0.612403154373169 -0.1406424343585968
0.038759708404541016 0.612403154373169 0.45313555002212524
0.038759708404541016 0.6279069185256958 -0.14893126487731934
0.038759708404541016 0.6279069185256958 0.4512121081352234
0.038759708404541016 0.6434108018875122 -0.1556563675403595
0.038759708404541016 0.6434108018875122 0.4486573338508606
0.038759708404541016 0.6589146852493286 -0.15972565114498138
0.038759708404541016 0.6589146852493286 0.445316880941391
0.038759708404541016 0.674418568611145 -0.15820476412773132
0.038759708404541016 0.674418568611145 0.44329947233200073
0.038759708404541016 0.6899224519729614 -0.15345142781734467
0.038759708404541016 0.6899224519729614 0.4418274462223053
0.038759712129831314 0.7054263353347778 -0.14579850435256958
0.038759708404541016 0.7054263353347778 0.4351155161857605
0.038759708404541016 0.7209302186965942 -0.1381891667842865
0.038759708404541016 0.7209302186965942 0.4205864667892456
0.038759708404541016 0.7364341020584106 -0.1325465738773346
0.038759708404541016 0.7364341020584106 0.3989097774028778
0.038759708404541016 0.751937985420227 -0.1275072693824768
0.038759708404541016 0.751937985420227 0.38543349504470825
0.038759708404541016 0.7674418687820435 -0.11745474487543106
0.038759708404541016 0.7674418687820435 0.37718093395233154
0.038759708404541016 0.7829457521438599 -0.0960981622338295
0.038759708404541016 0.7829457521438599 0.3705707788467407
0.038759708404541016 0.7984496355056763 -0.07005520164966583
0.038759708404541016 0.798449695110321 0.3657086193561554
0.038759708404541016 0.8139535784721375 -0.03612390533089638
0.038759708404541016 0.8139535188674927 0.35882580280303955
0.038759708404541016 0.8294574022293091 0.021754348650574684
0.038759712129831314 0.8294574022293091 0.3489757478237152
0.03875970467925072 0.8449612855911255 0.07126613706350327
0.038759708404541016 0.8449612855911255 0.3379085659980774
0.038759708404541016 0.922480583190918 0.451951801776886
0.038759708404541016 0.922480583190918 0.4622783660888672
0.05426359176635742 -0.8759689927101135 0.39458468556404114
0.05426359176635742 -0.8759689927101135 0.4149320423603058
0.05426359176635742 -0.8604651093482971 0.37838515639305115
0.05426359176635742 -0.8604651093482971 0.4353054165840149
0.05426359176635742 -0.8449612259864807 0.37305983901023865
0.05426359176635742 -0.8449612259864807 0.4502273499965668
0.05426359176635742 -0.8294573426246643 0.36428916454315186
0.05426359176635742 -0.8294573426246643 0.4623316526412964
0.05426359176635742 -0.8139535188674927 0.3614223301410675
0.05426359176635742 -0.8139535188674927 0.47488826513290405
0.05426359176635742 -0.7984496355056763 0.3583771884441376
0.05426359176635742 -0.7984495759010315 0.4890114665031433
0.05426359176635742 -0.7829457521438599 0.35396403074264526
0.05426359176635742 -0.7829457521438599 0.5022052526473999
0.05426359176635742 -0.7674418091773987 0.3496778905391693
0.05426359176635742 -0.7674418687820435 0.5148217678070068
0.05426359176635742 -0.751937985420227 0.34858012199401855
0.05426359176635742 -0.751937985420227 0.5274173021316528
0.05426359176635742 -0.7364341020584106 0.3495393395423889
0.05426359176635742 -0.7364341020584106 0.5415553450584412
0.05426359176635742 -0.7209302186965942 0.3525504767894745
0.05426359176635742 -0.7209302186965942 0.5569770336151123
0.05426359176635742 -0.7054263353347778 0.35611438751220703
0.05426359176635742 -0.7054263353347778 0.5738372802734375
0.05426359176635742 -0.6899224519729614 0.35879963636398315
0.05426359176635742 -0.6899224519729614 0.5904674530029297
0.05426359176635742 -0.674418568611145 0.36010825634002686
0.05426359176635742 -0.674418568611145 0.6025222539901733
0.05426359176635742 -0.6589146852493286 0.36122971773147583
0.05426359176635742 -0.6589146852493286 0.610364556312561
0.05426359176635742 -0.643410861492157 0.36257651448249817
0.05426359176635742 -0.643410861492157 0.6135157942771912
0.05426359176635742 -0.6279069781303406 0.3655310273170471
0.05426359176635742 -0.6279069781303406 0.6157958507537842
