0.007751941680908203 -0.22480617463588715 0.1360262781381607
0.007751941680908203 -0.22480618953704834 0.28782445192337036
0.007751941680908203 -0.20930230617523193 -0.19501782953739166
0.007751941680908203 -0.20930230617523193 -0.10930337011814117
0.007751941680908203 -0.20930230617523193 0.13852494955062866
0.007751941680908203 -0.20930230617523193 0.28785979747772217
0.007751941680908203 -0.19379842281341553 -0.19525712728500366
0.007751941680908203 -0.19379842281341553 -0.10749145597219467
0.007751941680908203 -0.19379842281341553 0.13979586958885193
0.007751941680908203 -0.19379842281341553 0.28794065117836
0.007751941680908203 -0.1782945990562439 -0.1953185498714447
0.007751941680908203 -0.1782945990562439 -0.10243833810091019
0.007751941680908203 -0.1782945990562439 0.1399766057729721
0.007751941680908203 -0.1782945990562439 0.28799009323120117
0.007751941680908203 -0.1627907156944275 -0.19522245228290558
0.007751941680908203 -0.1627907156944275 -0.09975925087928772
0.007751941680908203 -0.1627907156944275 0.13840040564537048
0.007751941680908203 -0.1627907156944275 0.2879878282546997
0.007751941680908203 -0.14728683233261108 -0.19508469104766846
0.007751941680908203 -0.14728683233261108 -0.09917803853750229
0.007751941680908203 -0.14728683233261108 0.1369207799434662
0.007751941680908203 -0.14728683233261108 0.2880941927433014
0.007751941680908203 -0.13178294897079468 -0.19521111249923706
0.007751941680908203 -0.13178294897079468 -0.09937728941440582
0.00775194214656949 -0.13178294897079468 0.1349898874759674
0.007751941680908203 -0.13178294897079468 0.2881920635700226
0.007751941680908203 -0.11627906560897827 -0.1956852525472641
0.007751941680908203 -0.11627906560897827 -0.10032176971435547
0.007751941680908203 -0.11627906560897827 0.13284336030483246
0.007751941680908203 -0.11627906560897827 0.28832098841667175
0.007751941680908203 -0.10077518224716187 -0.19609591364860535
0.007751941680908203 -0.10077518224716187 -0.09965352714061737
0.007751941680908203 -0.10077518224716187 0.1301189661026001
0.007751941215246916 -0.10077518224716187 0.28847527503967285
0.007751941680908203 -0.08527129888534546 -0.19649851322174072
0.007751941680908203 -0.08527129888534546 -0.09622952342033386
0.007751941680908203 -0.08527129888534546 0.12611357867717743
0.007751941680908203 -0.08527129888534546 0.2887224555015564
0.007751941680908203 -0.06976741552352905 -0.1968308687210083
0.007751941680908203 -0.06976741552352905 -0.09053480625152588
0.007751941680908203 -0.06976741552352905 0.11990483105182648
0.007751941680908203 -0.06976741552352905 0.28892961144447327
0.007751941680908203 -0.05426359176635742 -0.19727826118469238
0.007751941680908203 -0.05426359176635742 -0.08578285574913025
0.007751941680908203 -0.05426359176635742 0.11408154666423798
0.007751941680908203 -0.05426359176635742 0.289072185754776
0.007751941680908203 -0.038759708404541016 -0.19818823039531708
0.007751941680908203 -0.038759708404541016 -0.08613486588001251
0.007751941680908203 -0.038759708404541016 0.1113450825214386
0.007751941680908203 -0.038759708404541016 0.2891209125518799
0.007751941680908203 -0.02325582504272461 -0.19911500811576843
0.007751941680908203 -0.02325582504272461 -0.0897967517375946
0.007751941680908203 -0.02325582504272461 0.10917635262012482
0.007751941680908203 -0.02325582504272461 0.28916946053504944
0.007751941680908203 -0.007751941680908203 -0.19951216876506805
0.007751941680908203 -0.007751941680908203 -0.08649270236492157
0.007751941680908203 -0.007751941680908203 0.10668157041072845
0.007751941680908203 -0.007751941680908203 0.28916826844215393
0.007751941680908203 0.007751941680908203 -0.1993548572063446
0.007751941215246916 0.007751941215246916 -0.0826561376452446
0.007751941680908203 0.007751941680908203 0.10780508816242218
0.007751941680908203 0.007751941680908203 0.2891746461391449
0.007751941680908203 0.02325582504272461 -0.19893866777420044
0.007751941680908203 0.02325582504272461 -0.0807722955942154
0.007751941680908203 0.02325582504272461 0.10857836902141571
0.007751941215246916 0.02325582504272461 0.28916627168655396
0.007751941680908203 0.038759708404541016 -0.19787190854549408
0.007751941215246916 0.038759708404541016 -0.08486819267272949
0.007751941680908203 0.038759708404541016 0.11141858249902725
0.007751941680908203 0.038759708404541016 0.2891134023666382
0.007751941680908203 0.05426359176635742 -0.19717572629451752
0.007751941680908203 0.05426359176635742 -0.0893758237361908
0.007751941680908203 0.05426359176635742 0.11411786079406738
0.007751941680908203 0.05426359549164772 0.2891165614128113
0.007751941680908203 0.06976747512817383 -0.19671963155269623
0.007751941680908203 0.06976747512817383 -0.09515808522701263
0.007751941215246916 0.06976747512817383 0.1197199746966362
0.007751941680908203 0.06976747512817383 0.28913024067878723
0.007751941680908203 0.08527135848999023 -0.1967732012271881
0.007751941680908203 0.08527135848999023 -0.09812736511230469
0.007751941680908203 0.08527135848999023 0.12380188703536987
0.007751941680908203 0.08527135103940964 0.2891010642051697
0.007751941680908203 0.10077524185180664 -0.19690962135791779
0.007751941680908203 0.10077524185180664 -0.09895990788936615
0.007751941680908203 0.10077524185180664 0.12614955008029938
0.007751941680908203 0.10077524930238724 0.2890681326389313
0.007751941680908203 0.11627912521362305 -0.1966921091079712
0.007751941680908203 0.11627912521362305 -0.09939777851104736
0.007751941680908203 0.11627912521362305 0.1277848780155182
0.007751941680908203 0.11627912521362305 0.2891436815261841
0.007751941680908203 0.1317828893661499 -0.19628892838954926
0.007751941680908203 0.1317828893661499 -0.10186159610748291
0.007751941680908203 0.1317828893661499 0.12825536727905273
0.007751941680908203 0.1317828893661499 0.2891918122768402
0.007751941680908203 0.1472867727279663 -0.19613534212112427
0.007751941680908203 0.1472867727279663 -0.1130603700876236
0.007751941680908203 0.1472867727279663 0.12776051461696625
0.007751941680908203 0.1472867876291275 0.2891242802143097
0.007751941680908203 0.16279065608978271 -0.1961345076560974
0.00775194214656949 0.16279065608978271 -0.1256161630153656
0.007751941680908203 0.16279065608978271 0.12654618918895721
0.007751941680908203 0.16279065608978271 0.2890388071537018
0.007751941680908203 0.17829453945159912 -0.19601322710514069
0.007751941680908203 0.17829453945159912 -0.13252553343772888
0.007751941680908203 0.17829453945159912 0.12434682995080948
0.007751941680908203 0.17829453945159912 0.28898754715919495
0.007751941680908203 0.19379842281341553 -0.1956232339143753
0.007751941680908203 0.19379842281341553 -0.13404785096645355
0.007751941680908203 0.19379842281341553 0.12308622896671295
0.007751941680908203 0.19379842281341553 0.2889016270637512
0.007751941680908203 0.20930230617523193 -0.19518545269966125
0.007751941680908203 0.20930230617523193 -0.13196802139282227
0.007751941680908203 0.20930230617523193 0.1216588020324707
0.007751941680908203 0.20930230617523193 0.28879067301750183
0.007751941680908203 0.22480618953704834 -0.1948080211877823
0.007751941680908203 0.22480618953704834 -0.1255752146244049
0.007751941215246916 0.22480618953704834 0.11849360913038254
0.00775194214656949 0.22480618953704834 0.28868335485458374
0.007751941680908203 0.24031007289886475 -0.19439835846424103
0.007751941680908203 0.24031007289886475 -0.12087206542491913
0.007751941680908203 0.24031007289886475 0.11384822428226471
0.007751941680908203 0.24031007289886475 0.2885664701461792
0.007751941680908203 0.25581395626068115 -0.19404177367687225
0.007751941680908203 0.25581395626068115 -0.11816620081663132
0.007751941680908203 0.25581395626068115 0.10661765933036804
0.007751941215246916 0.25581395626068115 0.28816068172454834
0.007751941680908203 0.27131783962249756 -0.1932225376367569
0.007751941680908203 0.27131783962249756 -0.1150304302573204
0.007751941680908203 0.27131783962249756 0.0958801731467247
0.007751941680908203 0.27131783962249756 0.2878016233444214
0.007751941680908203 0.28682172298431396 -0.19128665328025818
0.007751941680908203 0.28682172298431396 -0.10674557834863663
0.007751941680908203 0.28682172298431396 0.08135656267404556
0.007751941680908203 0.28682172298431396 0.2884971499443054
0.007751941680908203 0.30232560634613037 -0.1906416118144989
0.00775194214656949 0.30232563614845276 -0.08426274359226227
0.007751941680908203 0.30232560634613037 0.060038067400455475
0.007751941680908203 0.30232560634613037 0.26916536688804626
0.00775194214656949 0.3178294897079468 -0.1914818435907364
0.007751941680908203 0.3178294897079468 -0.04257707670331001
0.007751941680908203 0.3178294897079468 0.030821671709418297
0.007751941680908203 0.3178294897079468 0.21151097118854523
0.007751941680908203 0.3333333730697632 -0.19372087717056274
0.007751941680908203 0.3333333730697632 0.17088717222213745
0.007751941680908203 0.3488372564315796 -0.18693982064723969
0.007751941680908203 0.3488372564315796 0.1332894265651703
0.007751941680908203 0.364341139793396 -0.10461000353097916
0.00775194214656949 0.364341139793396 0.09210053086280823
0.02325582504272461 -0.3643410801887512 -0.0855356901884079
0.02325582504272461 -0.3643410801887512 0.08693923056125641
0.02325582504272461 -0.3488371968269348 -0.17749980092048645
0.02325582504272461 -0.3488371968269348 0.13976487517356873
0.02325582504272461 -0.3333333134651184 -0.1938808411359787
0.02325582504272461 -0.3333333134651184 0.18249617516994476
0.02325582504272461 -0.317829430103302 -0.19328908622264862
0.02325582504272461 -0.317829430103302 0.004355322569608688
0.02325582504272461 -0.317829430103302 0.04256486892700195
0.02325582504272461 -0.317829430103302 0.2277187556028366
0.02325582504272461 -0.30232560634613037 -0.19218218326568604
0.02325582690536976 -0.30232560634613037 -0.05103930085897446
0.02325582504272461 -0.30232560634613037 0.08151508122682571
0.02325582504272461 -0.30232560634613037 0.2777213454246521
0.02325582318007946 -0.28682172298431396 -0.19179533421993256
0.02325582504272461 -0.28682172298431396 -0.07477129995822906
0.02325582504272461 -0.28682172298431396 0.09978320449590683
0.02325582504272461 -0.28682172298431396 0.28847092390060425
0.02325582504272461 -0.27131783962249756 -0.19251997768878937
0.02325582504272461 -0.27131783962249756 -0.08839146047830582
0.02325582504272461 -0.27131783962249756 0.11280006170272827
0.02325582318007946 -0.27131783962249756 0.2876591682434082
0.02325582504272461 -0.25581395626068115 -0.1938881129026413
0.02325582504272461 -0.25581395626068115 -0.09590698033571243
0.02325582504272461 -0.25581395626068115 0.12239620089530945
0.02325582504272461 -0.25581395626068115 0.2876933813095093
0.02325582504272461 -0.24031007289886475 -0.1943778693675995
0.02325582504272461 -0.24031007289886475 -0.10075125098228455
0.02325582504272461 -0.24031007289886475 0.12954387068748474
0.02325582504272461 -0.24031007289886475 0.2878064811229706
0.02325582504272461 -0.22480618953704834 -0.1947956681251526
0.02325582504272461 -0.22480618953704834 -0.10505455732345581
0.02325582504272461 -0.22480618953704834 0.13675259053707123
0.02325582504272461 -0.22480620443820953 0.287879079580307
0.02325582504272461 -0.20930230617523193 -0.19519899785518646
0.02325582504272461 -0.20930230617523193 -0.10650000721216202
0.02325582504272461 -0.20930230617523193 0.1393807977437973
0.02325582504272461 -0.20930230617523193 0.28791600465774536
0.02325582504272461 -0.19379842281341553 -0.19539694488048553
0.02325582504272461 -0.19379842281341553 -0.10456940531730652
0.02325582504272461 -0.19379842281341553 0.14130941033363342
0.02325582504272461 -0.19379842281341553 0.28800535202026367
0.02325582504272461 -0.1782945990562439 -0.195420503616333
0.02325582504272461 -0.1782945990562439 -0.09999710321426392
0.02325582504272461 -0.1782945990562439 0.14171981811523438
0.02325582504272461 -0.1782945990562439 0.2880610525608063
0.02325582504272461 -0.1627907156944275 -0.19530856609344482
0.02325582504272461 -0.1627907156944275 -0.09832978993654251
0.02325582504272461 -0.1627907156944275 0.14045125246047974
0.02325582318007946 -0.1627907156944275 0.2880691885948181
0.02325582504272461 -0.14728683233261108 -0.19517119228839874
0.02325582504272461 -0.14728683233261108 -0.09834899753332138
0.02325582504272461 -0.14728683233261108 0.13867390155792236
0.02325582504272461 -0.14728683233261108 0.28817710280418396
0.02325582504272461 -0.13178294897079468 -0.1953199952840805
0.02325582318007946 -0.13178294897079468 -0.09902035444974899
0.02325582504272461 -0.13178294897079468 0.13682310283184052
0.02325582504272461 -0.13178294897079468 0.2882775366306305
0.02325582504272461 -0.11627906560897827 -0.19582894444465637
0.02325582504272461 -0.11627906560897827 -0.10022859275341034
0.02325582504272461 -0.11627906560897827 0.13529415428638458
0.02325582504272461 -0.11627906560897827 0.28840792179107666
0.02325582504272461 -0.10077518224716187 -0.19628237187862396
0.02325582504272461 -0.10077518224716187 -0.09960529953241348
0.02325582504272461 -0.10077518224716187 0.13149277865886688
0.02325582504272461 -0.10077518224716187 0.28855830430984497
0.02325582504272461 -0.08527129888534546 -0.19672514498233795
0.02325582504272461 -0.08527129888534546 -0.09633151441812515
0.02325582504272461 -0.08527129888534546 0.12758684158325195
0.02325582504272461 -0.08527129888534546 0.2888023257255554
0.02325582504272461 -0.06976741552352905 -0.19709594547748566
0.02325582504272461 -0.06976741552352905 -0.09079912304878235
0.02325582504272461 -0.06976741552352905 0.1215219497680664
0.02325582504272461 -0.06976741552352905 0.28900012373924255
0.02325582504272461 -0.05426359176635742 -0.19756731390953064
0.02325582504272461 -0.05426359176635742 -0.08598671108484268
0.02325582504272461 -0.05426359176635742 0.11490100622177124
0.02325582504272461 -0.05426359176635742 0.2891242504119873
0.02325582504272461 -0.038759708404541016 -0.198499396443367
0.02325582504272461 -0.038759708404541016 -0.08505652844905853
0.02325582504272461 -0.038759708404541016 0.11186594516038895
0.02325582504272461 -0.038759708404541016 0.28914010524749756
0.02325582504272461 -0.02325582504272461 -0.199427992105484
0.02325582504272461 -0.02325582504272461 -0.08689083904027939
0.02325582504272461 -0.02325582504272461 0.109739750623703
0.02325582504272461 -0.02325582504272461 0.2891891896724701
0.02325582504272461 -0.007751941680908203 -0.1998060643672943
0.02325582504272461 -0.007751941680908203 -0.08348970860242844
0.02325582504272461 -0.007751941680908203 0.10746614634990692
0.02325582504272461 -0.007751941680908203 0.28920137882232666
0.02325582504272461 0.007751941680908203 -0.19961979985237122
0.02325582504272461 0.007751941680908203 -0.08105702698230743
0.02325582504272461 0.007751941680908203 0.10876815766096115
0.02325582504272461 0.007751941680908203 0.28922057151794434
0.02325582504272461 0.02325582504272461 -0.19918352365493774
0.02325582504272461 0.02325582504272461 -0.08053620159626007
0.02325582504272461 0.02325582504272461 0.10973669588565826
0.02325582690536976 0.02325582690536976 0.28923919796943665
0.02325582504272461 0.038759708404541016 -0.19810765981674194
0.02325582504272461 0.038759708404541016 -0.08436207473278046
0.02325582504272461 0.038759708404541016 0.11243166029453278
0.02325582504272461 0.03875970467925072 0.28919315338134766
0.02325582504272461 0.05426359176635742 -0.19739477336406708
0.02325582504272461 0.05426359176635742 -0.08928418904542923
0.02325582504272461 0.05426359176635742 0.1152331754565239
0.02325582504272461 0.05426359176635742 0.289215087890625
0.02325582504272461 0.06976747512817383 -0.19692012667655945
0.02325582504272461 0.06976747512817383 -0.09514614939689636
0.02325582504272461 0.06976747512817383 0.12186825275421143
0.02325582690536976 0.06976747512817383 0.2892441749572754
0.02325582504272461 0.08527135848999023 -0.19696299731731415
0.02325582504272461 0.08527135848999023 -0.0981987938284874
0.02325582504272461 0.08527135848999023 0.12591373920440674
0.02325582504272461 0.08527135103940964 0.2892173230648041
0.02325582504272461 0.10077524185180664 -0.19709232449531555
0.02325582504272461 0.10077524185180664 -0.09915541112422943
0.02325582504272461 0.10077524185180664 0.1282927393913269
0.02325582504272461 0.10077524185180664 0.2891780436038971
0.02325582504272461 0.11627912521362305 -0.19687329232692719
0.02325582504272461 0.11627912521362305 -0.09960950911045074
0.02325582504272461 0.11627912521362305 0.12985730171203613
0.02325582504272461 0.11627912521362305 0.28925928473472595
0.02325582504272461 0.1317828893661499 -0.19647297263145447
0.02325582504272461 0.1317828893661499 -0.10120123624801636
0.02325582504272461 0.1317828893661499 0.13003894686698914
0.02325582504272461 0.1317828893661499 0.28930798172950745
0.02325582504272461 0.1472867727279663 -0.19632448256015778
0.02325582504272461 0.1472867727279663 -0.11066129058599472
0.02325582504272461 0.1472867727279663 0.129334956407547
0.02325582504272461 0.1472867727279663 0.28923478722572327
0.02325582504272461 0.16279065608978271 -0.19634170830249786
0.02325582504272461 0.16279065608978271 -0.12338472902774811
0.02325582504272461 0.16279065608978271 0.12824009358882904
0.02325582504272461 0.16279065608978271 0.28915709257125854
0.02325582504272461 0.17829453945159912 -0.19623884558677673
0.02325582504272461 0.17829453945159912 -0.13042442500591278
0.02325582504272461 0.17829453945159912 0.126005157828331
0.02325582504272461 0.17829453945159912 0.2891080379486084
0.02325582504272461 0.19379842281341553 -0.19585511088371277
0.02325582504272461 0.19379842281341553 -0.1325828731060028
0.02325582504272461 0.19379842281341553 0.12483223527669907
0.02325582504272461 0.19379842281341553 0.2890363931655884
0.02325582504272461 0.20930230617523193 -0.19541935622692108
0.02325582504272461 0.20930230617523193 -0.12986157834529877
0.02325582504272461 0.20930230617523193 0.12342323362827301
0.02325582504272461 0.20930230617523193 0.2889370322227478
0.02325582504272461 0.22480618953704834 -0.195039764046669
0.02325582504272461 0.22480618953704834 -0.12342119216918945
0.02325582504272461 0.22480618953704834 0.12009303271770477
0.02325582504272461 0.22480618953704834 0.28883305191993713
0.02325582504272461 0.24031007289886475 -0.19462375342845917
0.02325582504272461 0.24031007289886475 -0.11882457882165909
0.02325582504272461 0.24031007289886475 0.11464504152536392
0.02325582504272461 0.24031007289886475 0.2887027859687805
0.02325582504272461 0.25581395626068115 -0.19425274431705475
0.02325582504272461 0.25581395626068115 -0.11613906919956207
0.02325582504272461 0.25581395626068115 0.10734351724386215
0.02325582318007946 0.25581395626068115 0.28825441002845764
0.02325582504272461 0.27131783962249756 -0.19383786618709564
0.02325582504272461 0.27131783962249756 -0.11367249488830566
0.02325582504272461 0.27131783962249756 0.09708278626203537
0.02325582504272461 0.27131783962249756 0.2878641188144684
0.02325582504272461 0.28682172298431396 -0.1917743980884552
0.02325582504272461 0.28682172298431396 -0.10560639202594757
0.02325582504272461 0.28682172298431396 0.08314613252878189
0.02325582504272461 0.28682172298431396 0.2885758578777313
0.02325582504272461 0.30232560634613037 -0.1909116953611374
0.02325582504272461 0.30232560634613037 -0.08360264450311661
0.02325582504272461 0.30232560634613037 0.062302038073539734
0.02325582504272461 0.30232560634613037 0.2679712176322937
0.02325582504272461 0.3178294897079468 -0.19162845611572266
0.02325582504272461 0.3178294897079468 -0.04457101598381996
0.02325582504272461 0.3178294897079468 0.03303564712405205
0.02325582504272461 0.3178294897079468 0.21095071732997894
0.02325582504272461 0.3333333730697632 -0.1938169300556183
0.02325582504272461 0.3333333730697632 0.17062735557556152
0.02325582504272461 0.3488372564315796 -0.18687795102596283
0.02325582504272461 0.3488372564315796 0.1330377459526062
0.02325582504272461 0.364341139793396 -0.10487250238656998
0.02325582504272461 0.364341139793396 0.09224461019039154
0.038759708404541016 -0.3643411099910736 -0.08434560894966125
0.038759708404541016 -0.3643410801887512 0.08652007579803467
0.038759708404541016 -0.3488371968269348 -0.17418500781059265
0.038759708404541016 -0.3488371968269348 0.13906237483024597
0.038759708404541016 -0.3333333134651184 -0.19396817684173584
0.038759708404541016 -0.3333333134651184 0.18186146020889282
0.038759708404541016 -0.317829430103302 -0.19359658658504486
0.038759708404541016 -0.317829430103302 -0.0010142754763364792
0.038759708404541016 -0.317829430103302 0.047181546688079834
0.038759708404541016 -0.317829430103302 0.2271297723054886
0.038759708404541016 -0.30232560634613037 -0.19255147874355316
0.03875970467925072 -0.30232560634613037 -0.053840238600969315
0.038759708404541016 -0.30232560634613037 0.08320056647062302
0.038759708404541016 -0.30232560634613037 0.27759847044944763
0.038759708404541016 -0.28682172298431396 -0.19224709272384644
0.038759708404541016 -0.28682172298431396 -0.07699589431285858
0.038759708404541016 -0.28682172298431396 0.10051918774843216
0.038759708404541016 -0.28682172298431396 0.28854233026504517
0.038759708404541016 -0.27131780982017517 -0.193078875541687
0.038759708404541016 -0.27131783962249756 -0.09024088084697723
0.038759708404541016 -0.27131783962249756 0.11389122903347015
0.038759712129831314 -0.27131783962249756 0.2877068817615509
0.038759708404541016 -0.25581395626068115 -0.19406144320964813
0.038759708404541016 -0.25581395626068115 -0.0970831960439682
0.038759708404541016 -0.25581395626068115 0.12431351840496063
0.038759708404541016 -0.25581395626068115 0.2877552807331085
0.038759708404541016 -0.24031007289886475 -0.19456148147583008
0.038759708404541016 -0.24031007289886475 -0.10105211287736893
0.038759708404541016 -0.24031007289886475 0.13155680894851685
0.038759708404541016 -0.24031007289886475 0.28788673877716064
0.038759708404541016 -0.22480618953704834 -0.1949569582939148
0.038759708404541016 -0.22480618953704834 -0.10424043983221054
0.038759708404541016 -0.22480618953704834 0.13961176574230194
0.038759708404541016 -0.22480618953704834 0.28796812891960144
0.038759708404541016 -0.20930230617523193 -0.19531989097595215
0.038759708404541016 -0.20930230617523193 -0.104732945561409
0.038759708404541016 -0.20930230617523193 0.14182409644126892
0.038759708404541016 -0.20930230617523193 0.28800901770591736
0.038759708404541016 -0.19379842281341553 -0.195454403758049
0.038759708404541016 -0.19379842281341553 -0.10266236960887909
0.038759708404541016 -0.19379842281341553 0.14354294538497925
0.038759708404541016 -0.19379840791225433 0.288098007440567
0.038759708404541016 -0.1782945990562439 -0.195421040058136
0.038759708404541016 -0.1782945990562439 -0.0990554466843605
0.038759708404541016 -0.1782945990562439 0.14423055946826935
0.038759708404541016 -0.1782945990562439 0.28815898299217224
0.038759708404541016 -0.1627907156944275 -0.1952843964099884
0.038759708404541016 -0.1627907156944275 -0.09775874763727188
0.038759708404541016 -0.1627907156944275 0.14311076700687408
0.038759708404541016 -0.1627907007932663 0.2881692945957184
0.038759708404541016 -0.14728683233261108 -0.1951426863670349
0.038759708404541016 -0.14728683233261108 -0.09814264625310898
0.038759708404541016 -0.14728683233261108 0.14172357320785522
0.038759708404541016 -0.14728683233261108 0.288286030292511
0.038759708404541016 -0.13178294897079468 -0.19531476497650146
0.038759708404541016 -0.13178294897079468 -0.09909691661596298
0.038759708404541016 -0.13178294897079468 0.140268012881279
0.038759708404541016 -0.13178294897079468 0.28839170932769775
0.038759708404541016 -0.11627906560897827 -0.19586117565631866
0.038759708404541016 -0.11627906560897827 -0.1003723219037056
0.038759708404541016 -0.11627906560897827 0.1391242891550064
0.038759708404541016 -0.11627907305955887 0.28851544857025146
0.038759708404541016 -0.10077518224716187 -0.19635412096977234
0.038759708404541016 -0.10077518224716187 -0.09982603043317795
0.038759708404541016 -0.10077518224716187 0.1359403133392334
0.038759712129831314 -0.10077518224716187 0.2886596620082855
0.038759708404541016 -0.08527129888534546 -0.19682180881500244
0.038759708404541016 -0.08527129888534546 -0.09684351086616516
0.038759708404541016 -0.08527129888534546 0.13042370975017548
0.038759708404541016 -0.08527129143476486 0.2889021337032318
0.038759708404541016 -0.06976741552352905 -0.1972026228904724
0.038759708404541016 -0.06976741552352905 -0.09165449440479279
0.038759708404541016 -0.06976741552352905 0.125076562166214
0.038759708404541016 -0.06976741552352905 0.2890946865081787
0.038759708404541016 -0.05426359176635742 -0.19766394793987274
0.038759708404541016 -0.05426359176635742 -0.0870005339384079
0.038759708404541016 -0.05426359176635742 0.11814925074577332
0.038759708404541016 -0.05426359176635742 0.2892075777053833
0.038759708404541016 -0.038759708404541016 -0.19856888055801392
0.038759708404541016 -0.038759708404541016 -0.08588406443595886
0.038759708404541016 -0.038759708404541016 0.1145005151629448
0.038759708404541016 -0.038759708404541016 0.2892306447029114
0.038759708404541016 -0.02325582504272461 -0.19946563243865967
0.038759708404541016 -0.02325582504272461 -0.08673923462629318
0.038759708404541016 -0.02325582504272461 0.112242192029953
0.038759708404541016 -0.02325582504272461 0.28926676511764526
0.038759708404541016 -0.007751941680908203 -0.19982115924358368
0.038759708404541016 -0.007751941680908203 -0.0832824856042862
0.038759708404541016 -0.007751941680908203 0.10995025932788849
0.038759708404541016 -0.007751941680908203 0.28927186131477356
0.038759708404541016 0.007751941680908203 -0.19960357248783112
0.038759708404541016 0.007751941680908203 -0.08130919188261032
0.038759708404541016 0.007751941680908203 0.11119100451469421
0.038759708404541016 0.007751941680908203 0.2892951965332031
0.038759708404541016 0.02325582504272461 -0.19914865493774414
0.038759708404541016 0.02325582318007946 -0.08117751032114029
0.038759708404541016 0.02325582504272461 0.11213900148868561
0.038759708404541016 0.02325582504272461 0.28932246565818787
0.038759708404541016 0.038759708404541016 -0.19809657335281372
0.038759708404541016 0.038759708404541016 -0.08479367941617966
0.038759708404541016 0.038759708404541016 0.11474461853504181
0.03875970467925072 0.03875970467925072 0.2892902195453644
0.038759708404541016 0.05426359176635742 -0.19739508628845215
0.038759708404541016 0.05426359176635742 -0.0899273082613945
0.038759712129831314 0.05426359176635742 0.11869372427463531
0.038759708404541016 0.05426359176635742 0.28932270407676697
0.038759708404541016 0.06976747512817383 -0.19692884385585785
0.038759708404541016 0.06976747512817383 -0.0957273542881012
0.038759708404541016 0.06976747512817383 0.12572304904460907
0.038759708404541016 0.06976747512817383 0.2893696427345276
0.038759708404541016 0.08527135848999023 -0.1969815492630005
0.038759708404541016 0.08527135848999023 -0.09881927073001862
0.038759708404541016 0.08527135848999023 0.12955859303474426
0.038759708404541016 0.08527135848999023 0.28934788703918457
0.038759708404541016 0.10077524185180664 -0.19711311161518097
0.03875970467925072 0.10077524185180664 -0.09983469545841217
0.038759708404541016 0.10077523440122604 0.1318695843219757
0.038759708404541016 0.10077524185180664 0.289302259683609
0.038759708404541016 0.11627912521362305 -0.1968986690044403
0.038759708404541016 0.11627911776304245 -0.10029437392950058
0.038759708404541016 0.11627912521362305 0.1343204826116562
0.038759708404541016 0.11627912521362305 0.2893846929073334
0.038759708404541016 0.1317828893661499 -0.19650854170322418
0.038759708404541016 0.1317828893661499 -0.10180139541625977
0.03875970467925072 0.1317828893661499 0.13448363542556763
0.038759712129831314 0.1317828893661499 0.28944310545921326
0.038759708404541016 0.1472867727279663 -0.19635945558547974
0.038759708404541016 0.1472867727279663 -0.10981850326061249
0.038759708404541016 0.1472867727279663 0.13332776725292206
0.038759708404541016 0.1472867727279663 0.28937792778015137
0.038759708404541016 0.16279065608978271 -0.19640754163265228
0.038759708404541016 0.16279065608978271 -0.12100335955619812
0.038759708404541016 0.16279065608978271 0.1314828246831894
0.038759708404541016 0.16279065608978271 0.2892947196960449
0.038759708404541016 0.17829453945159912 -0.19634029269218445
0.038759708404541016 0.17829453945159912 -0.12729787826538086
0.038759708404541016 0.17829453945159912 0.12935882806777954
0.038759708404541016 0.17829453945159912 0.2892538011074066
0.038759708404541016 0.19379842281341553 -0.19598963856697083
0.038759708404541016 0.19379842281341553 -0.12986089289188385
0.038759708404541016 0.19379842281341553 0.128140389919281
0.038759708404541016 0.19379842281341553 0.2891838252544403
0.038759708404541016 0.20930230617523193 -0.1955862194299698
0.038759708404541016 0.20930230617523193 -0.12726370990276337
0.038759708404541016 0.20930230617523193 0.1267329752445221
0.038759708404541016 0.20930229127407074 0.2890883982181549
0.038759708404541016 0.22480618953704834 -0.19523894786834717
0.038759708404541016 0.22480618953704834 -0.12137436121702194
0.038759708404541016 0.22480618953704834 0.12321324646472931
0.038759708404541016 0.22480618953704834 0.28897905349731445
0.038759708404541016 0.24031007289886475 -0.19484123587608337
0.038759708404541016 0.24031007289886475 -0.11731192469596863
0.038759708404541016 0.24031007289886475 0.11672237515449524
0.038759708404541016 0.24031007289886475 0.2888404428958893
0.038759708404541016 0.25581395626068115 -0.19446894526481628
0.038759712129831314 0.25581395626068115 -0.11509975790977478
0.038759708404541016 0.25581395626068115 0.10955021530389786
0.038759708404541016 0.25581395626068115 0.2883663773536682
0.038759708404541016 0.27131783962249756 -0.19403313100337982
0.038759708404541016 0.27131783962249756 -0.11255886405706406
0.038759708404541016 0.27131783962249756 0.09910731017589569
0.038759708404541016 0.27131783962249756 0.2879268527030945
0.038759708404541016 0.28682172298431396 -0.19227859377861023
0.038759708404541016 0.28682172298431396 -0.10460136830806732
0.038759712129831314 0.28682172298431396 0.08560138195753098
0.038759708404541016 0.28682172298431396 0.288618803024292
0.038759708404541016 0.30232560634613037 -0.19108924269676208
0.03875970467925072 0.30232560634613037 -0.08351368457078934
0.038759708404541016 0.30232560634613037 0.06534311920404434
0.038759708404541016 0.30232560634613037 0.26572299003601074
0.038759708404541016 0.3178294897079468 -0.19165493547916412
0.038759708404541016 0.3178294897079468 -0.046870406717061996
0.038759708404541016 0.3178294897079468 0.036392126232385635
0.038759708404541016 0.3178294897079468 0.2106141299009323
0.038759708404541016 0.3333333730697632 -0.19381307065486908
0.038759708404541016 0.3333333730697632 0.17055559158325195
0.038759708404541016 0.3488372564315796 -0.18663766980171204
0.038759708404541016 0.3488372564315796 0.13307911157608032
0.038759708404541016 0.364341139793396 -0.10499758273363113
0.038759708404541016 0.364341139793396 0.09289290010929108
0.05426358804106712 -0.3643410801887512 -0.08283770829439163
0.05426359176635742 -0.3643410801887512 0.08579115569591522
0.05426359176635742 -0.3488371968269348 -0.17130765318870544
0.05426359176635742 -0.3488371968269348 0.13810652494430542
0.05426359176635742 -0.3333333134651184 -0.19398973882198334
0.05426359176635742 -0.333333283662796 0.18102417886257172
0.05426359549164772 -0.317829430103302 -0.193694606423378
0.05426359176635742 -0.317829430103302 -0.0006145674269646406
0.05426359176635742 -0.317829430103302 0.046220820397138596
0.05426359176635742 -0.3178294003009796 0.2262975573539734
0.05426359176635742 -0.30232560634613037 -0.19268912076950073
0.05426359176635742 -0.30232560634613037 -0.054115574806928635
0.05426359176635742 -0.30232560634613037 0.08209116756916046
0.05426359176635742 -0.30232560634613037 0.2772543430328369
0.05426359176635742 -0.28682172298431396 -0.1925109326839447
0.05426359176635742 -0.28682172298431396 -0.07727928459644318
0.05426359176635742 -0.28682172298431396 0.09913084656000137
0.05426359176635742 -0.28682172298431396 0.288606196641922
0.05426359176635742 -0.27131783962249756 -0.1934347003698349
0.05426359176635742 -0.27131783962249756 -0.090370312333107
0.05426359176635742 -0.27131783962249756 0.11321337521076202
0.05426359176635742 -0.27131780982017517 0.28776949644088745
0.05426359176635742 -0.25581395626068115 -0.19416891038417816
0.05426359549164772 -0.25581395626068115 -0.09644380956888199
0.05426359176635742 -0.25581395626068115 0.12352961301803589
0.05426359176635742 -0.25581395626068115 0.2878134548664093
0.05426359176635742 -0.24031007289886475 -0.19467073678970337
0.05426359176635742 -0.24031005799770355 -0.09936874359846115
0.05426359176635742 -0.24031007289886475 0.1309656947851181
0.05426359176635742 -0.24031007289886475 0.2879517078399658
0.05426359176635742 -0.22480618953704834 -0.19503147900104523
0.05426359176635742 -0.22480618953704834 -0.100987508893013
0.05426359176635742 -0.22480618953704834 0.13854587078094482
0.05426359176635742 -0.22480618953704834 0.2880385220050812
0.05426359176635742 -0.20930230617523193 -0.19533853232860565
0.05426359176635742 -0.20930230617523193 -0.10056689381599426
0.05426359176635742 -0.20930230617523193 0.141167551279068
0.05426359549164772 -0.20930230617523193 0.2880803644657135
0.05426359176635742 -0.19379842281341553 -0.19541430473327637
0.05426359176635742 -0.19379842281341553 -0.09902068227529526
0.05426359176635742 -0.19379842281341553 0.1437089592218399
0.05426359176635742 -0.19379842281341553 0.28817248344421387
0.05426359176635742 -0.1782945990562439 -0.19533713161945343
0.05426359176635742 -0.1782945990562439 -0.09660974144935608
0.05426359176635742 -0.1782945990562439 0.14483672380447388
0.05426359176635742 -0.1782945990562439 0.2882313132286072
0.05426359176635742 -0.1627907156944275 -0.1951795071363449
0.05426359176635742 -0.1627907156944275 -0.09608124196529388
0.05426359176635742 -0.1627907156944275 0.14452549815177917
0.05426359549164772 -0.1627907156944275 0.2882441282272339
0.05426359176635742 -0.14728683233261108 -0.19504353404045105
0.05426359176635742 -0.14728683233261108 -0.09687133133411407
0.05426359176635742 -0.14728683233261108 0.14323659241199493
0.05426359176635742 -0.14728683233261108 0.2883569002151489
0.05426359176635742 -0.13178294897079468 -0.1952395737171173
0.05426358804106712 -0.13178294897079468 -0.09815822541713715
0.05426359176635742 -0.13178294897079468 0.14202556014060974
0.05426359176635742 -0.13178294897079468 0.28845882415771484
0.05426359176635742 -0.11627906560897827 -0.19581475853919983
0.05426358804106712 -0.11627905815839767 -0.09961920976638794
0.05426359176635742 -0.11627906560897827 0.1414615511894226
0.05426359176635742 -0.11627906560897827 0.28857946395874023
0.05426359176635742 -0.10077518224716187 -0.19633573293685913
0.05426359176635742 -0.10077518224716187 -0.0991203784942627
0.05426359176635742 -0.10077518224716187 0.13898935914039612
0.05426359176635742 -0.10077518224716187 0.28871679306030273
0.05426359176635742 -0.08527129888534546 -0.19681616127490997
0.05426359176635742 -0.08527129888534546 -0.09633711725473404
0.05426359176635742 -0.08527129888534546 0.13346511125564575
0.05426359549164772 -0.08527129888534546 0.2889571189880371
0.05426359176635742 -0.06976741552352905 -0.19720669090747833
0.05426359176635742 -0.06976741552352905 -0.09127786755561829
0.05426359176635742 -0.06976741552352905 0.12763485312461853
0.05426359176635742 -0.06976741552352905 0.2891342341899872
0.05426359176635742 -0.05426359176635742 -0.19766266644001007
0.05426359176635742 -0.05426359176635742 -0.08640037477016449
0.05426359176635742 -0.05426359176635742 0.12114721536636353
0.05426359176635742 -0.05426359176635742 0.2892206311225891
0.05426359176635742 -0.038759708404541016 -0.19853490591049194
0.05426359176635742 -0.038759708404541016 -0.08430159837007523
0.05426359176635742 -0.038759708404541016 0.11579655110836029
0.05426359176635742 -0.038759708404541016 0.28921017050743103
0.05426359176635742 -0.02325582504272461 -0.19938427209854126
0.05426359549164772 -0.02325582504272461 -0.0841585248708725
0.05426359176635742 -0.02325582504272461 0.11362913250923157
0.05426359176635742 -0.02325582504272461 0.28925320506095886
0.05426359176635742 -0.007751941680908203 -0.19969987869262695
0.05426359176635742 -0.007751941680908203 -0.08123375475406647
0.05426359176635742 -0.007751941680908203 0.11164668202400208
0.05426359176635742 -0.007751941680908203 0.28927722573280334
0.05426359176635742 0.007751941680908203 -0.19945505261421204
0.05426359176635742 0.007751941215246916 -0.08010798692703247
0.05426359176635742 0.007751941680908203 0.11309729516506195
0.05426359176635742 0.007751941680908203 0.28931599855422974
0.05426359176635742 0.02325582504272461 -0.19898369908332825
0.05426359176635742 0.02325582504272461 -0.0808977484703064
0.05426359176635742 0.02325582504272461 0.11432436108589172
0.05426359176635742 0.02325582504272461 0.2893693149089813
0.05426359176635742 0.038759708404541016 -0.19795909523963928
0.05426359176635742 0.038759708404541016 -0.0845341682434082
0.05426359176635742 0.038759708404541016 0.11739179491996765
0.05426359176635742 0.038759708404541016 0.289339542388916
0.05426359176635742 0.05426359176635742 -0.19728732109069824
0.05426359176635742 0.05426359176635742 -0.08980874717235565
0.05426359176635742 0.05426359176635742 0.12255042791366577
0.05426359549164772 0.05426359549164772 0.2893873453140259
0.05426359176635742 0.06976747512817383 -0.19685161113739014
0.05426359176635742 0.06976747512817383 -0.09554459154605865
0.05426359176635742 0.06976747512817383 0.12902680039405823
0.05426359176635742 0.06976747512817383 0.2894497215747833
0.05426359176635742 0.08527135848999023 -0.19692111015319824
0.05426359176635742 0.08527135848999023 -0.09870326519012451
0.05426359176635742 0.08527135103940964 0.13347381353378296
0.05426359176635742 0.08527135848999023 0.2894391417503357
0.05426359176635742 0.10077524185180664 -0.1970536708831787
0.05426359176635742 0.10077524185180664 -0.09979785978794098
0.05426359176635742 0.10077524185180664 0.13707584142684937
0.05426359176635742 0.10077524185180664 0.289395809173584
0.05426359176635742 0.11627912521362305 -0.19684596359729767
0.05426359176635742 0.11627912521362305 -0.10029157996177673
0.05426359176635742 0.11627912521362305 0.13914786279201508
0.05426358804106712 0.11627912521362305 0.2894856035709381
0.05426359176635742 0.1317828893661499 -0.19647328555583954
0.05426359176635742 0.1317828893661499 -0.10101521760225296
0.05426359176635742 0.1317828893661499 0.13902296125888824
0.05426359176635742 0.1317828893661499 0.28953996300697327
0.05426359176635742 0.1472867727279663 -0.1963312029838562
0.05426359176635742 0.1472867727279663 -0.1069682240486145
0.05426358804106712 0.1472867727279663 0.13756456971168518
0.05426359176635742 0.1472867727279663 0.2894602417945862
0.05426359176635742 0.16279065608978271 -0.19638562202453613
0.05426359176635742 0.16279065608978271 -0.11689863353967667
0.05426358804106712 0.16279065608978271 0.13571591675281525
0.05426359176635742 0.16279065608978271 0.2893785238265991
0.05426359176635742 0.17829453945159912 -0.196333646774292
0.05426359176635742 0.17829453945159912 -0.1221485435962677
0.05426359176635742 0.17829453945159912 0.1321467012166977
0.05426359176635742 0.17829452455043793 0.28933051228523254
0.05426359176635742 0.19379842281341553 -0.19600968062877655
0.05426359176635742 0.19379842281341553 -0.12499132752418518
0.05426359176635742 0.19379842281341553 0.13080863654613495
0.05426359176635742 0.19379842281341553 0.2892679274082184
0.05426359176635742 0.20930230617523193 -0.19564233720302582
0.05426359176635742 0.20930230617523193 -0.12313084304332733
0.05426359176635742 0.20930230617523193 0.1292298138141632
0.05426359549164772 0.20930230617523193 0.28917574882507324
0.05426359176635742 0.22480618953704834 -0.19533313810825348
0.05426359176635742 0.22480618953704834 -0.11799892783164978
0.05426359176635742 0.22480618953704834 0.12545263767242432
0.05426359176635742 0.22480618953704834 0.2890635132789612
0.05426359176635742 0.24031007289886475 -0.19496503472328186
0.05426359176635742 0.24031007289886475 -0.11434949934482574
0.05426358804106712 0.24031007289886475 0.11845757812261581
0.05426359176635742 0.24031007289886475 0.2889154255390167
0.05426359176635742 0.25581395626068115 -0.19460472464561462
0.05426359176635742 0.25581395626068115 -0.11209186166524887
0.05426359176635742 0.25581395626068115 0.11046496033668518
0.05426359176635742 0.25581395626068115 0.2884323298931122
0.05426359176635742 0.27131783962249756 -0.19415991008281708
0.05426359176635742 0.27131783962249756 -0.1095171719789505
0.05426359176635742 0.27131783962249756 0.10000239312648773
0.05426359176635742 0.27131783962249756 0.28797802329063416
0.05426359176635742 0.28682172298431396 -0.19262440502643585
0.05426359176635742 0.28682172298431396 -0.10091443359851837
0.05426359176635742 0.28682172298431396 0.086781807243824
0.05426359176635742 0.28682172298431396 0.2886461317539215
0.05426359176635742 0.30232560634613037 -0.19119079411029816
0.05426359176635742 0.30232560634613037 -0.0801401287317276
0.05426359176635742 0.30232560634613037 0.06671023368835449
0.05426359176635742 0.30232560634613037 0.26428794860839844
0.05426359176635742 0.3178294897079468 -0.19162359833717346
0.05426359176635742 0.3178294897079468 -0.04458066448569298
0.05426359176635742 0.3178294897079468 0.0375312864780426
0.05426358804106712 0.3178294897079468 0.2103971689939499
0.05426359176635742 0.3333333730697632 -0.19374984502792358
0.05426359176635742 0.3333333730697632 0.1703946590423584
0.05426359176635742 0.3488372564315796 -0.18616943061351776
0.05426359176635742 0.3488372564315796 0.13283967971801758
0.05426359176635742 0.364341139793396 -0.10444267839193344
0.05426359176635742 0.364341139793396 0.09259569644927979
0.06976747512817383 -0.3643410801887512 -0.08309677988290787
0.06976747512817383 -0.3643410801887512 0.08641991019248962
0.06976747512817383 -0.3488371968269348 -0.17091944813728333
0.06976747512817383 -0.3488371968269348 0.1380230188369751
0.06976747512817383 -0.3333333134651184 -0.19405004382133484
0.06976747512817383 -0.3333333134651184 0.18063287436962128
0.06976747512817383 -0.317829430103302 -0.19382989406585693
0.06976747512817383 -0.317829430103302 0.0026584442239254713
0.06976747512817383 -0.317829430103302 0.04368772357702255
0.06976748257875443 -0.317829430103302 0.2257276177406311
0.06976747512817383 -0.30232560634613037 -0.19296568632125854
0.06976747512817383 -0.30232560634613037 -0.05223061516880989
0.06976747512817383 -0.30232560634613037 0.08071418106555939
0.06976747512817383 -0.30232560634613037 0.2769995629787445
0.06976747512817383 -0.28682172298431396 -0.19294141232967377
0.06976747512817383 -0.28682172298431396 -0.0756521075963974
0.06976747512817383 -0.28682172298431396 0.0978359654545784
0.06976747512817383 -0.28682172298431396 0.2886636555194855
0.06976747512817383 -0.27131783962249756 -0.1938491016626358
0.06976747512817383 -0.27131783962249756 -0.08847179263830185
0.06976747512817383 -0.27131783962249756 0.11188006401062012
0.06976747512817383 -0.27131783962249756 0.2878476679325104
0.06976747512817383 -0.25581395626068115 -0.1943153440952301
0.06976747512817383 -0.25581395626068115 -0.09425196051597595
0.06976747512817383 -0.25581395626068115 0.12237849831581116
0.06976747512817383 -0.25581395626068115 0.2878836691379547
0.06976747512817383 -0.24031007289886475 -0.19481641054153442
0.06976747512817383 -0.24031007289886475 -0.09668143093585968
0.06976747512817383 -0.24031007289886475 0.13014259934425354
0.06976747512817383 -0.24031007289886475 0.2880192995071411
0.06976747512817383 -0.22480618953704834 -0.19516083598136902
0.06976747512817383 -0.22480618953704834 -0.0976441353559494
0.06976747512817383 -0.22480620443820953 0.1372169554233551
0.06976747512817383 -0.22480618953704834 0.28810518980026245
0.06976747512817383 -0.20930230617523193 -0.19544093310832977
0.06976747512817383 -0.20930230617523193 -0.0967494398355484
0.06976747512817383 -0.20930230617523193 0.14021629095077515
0.06976746767759323 -0.20930230617523193 0.28814461827278137
0.06976747512817383 -0.19379842281341553 -0.19550122320652008
0.06976747512817383 -0.19379842281341553 -0.09527115523815155
0.06976747512817383 -0.19379842281341553 0.14302006363868713
0.06976747512817383 -0.19379842281341553 0.2882272005081177
0.06976747512817383 -0.1782945990562439 -0.1954207420349121
0.06976747512817383 -0.1782945990562439 -0.0935327559709549
0.06976747512817383 -0.1782945990562439 0.14444661140441895
0.06976747512817383 -0.1782945990562439 0.2882744073867798
0.06976747512817383 -0.1627907156944275 -0.1952669620513916
0.06976747512817383 -0.1627907156944275 -0.0936780571937561
0.06976747512817383 -0.1627907156944275 0.1447441279888153
0.06976747512817383 -0.1627907156944275 0.28827738761901855
0.06976747512817383 -0.14728683233261108 -0.19514821469783783
0.06976747512817383 -0.14728683233261108 -0.09502366185188293
0.06976747512817383 -0.14728683233261108 0.1439121812582016
0.06976747512817383 -0.14728683233261108 0.2883791923522949
0.06976747512817383 -0.13178294897079468 -0.1953716278076172
0.06976747512817383 -0.13178294897079468 -0.0967147946357727
0.06976747512817383 -0.13178294897079468 0.1429988145828247
0.06976747512817383 -0.13178294897079468 0.2884667217731476
0.06976747512817383 -0.11627906560897827 -0.1959841102361679
0.06976747512817383 -0.11627906560897827 -0.09832014888525009
0.06976747512817383 -0.11627906560897827 0.14264555275440216
0.06976747512817383 -0.11627906560897827 0.28857648372650146
0.06976747512817383 -0.10077518224716187 -0.19653119146823883
0.06976747512817383 -0.10077518224716187 -0.0977887362241745
0.06976747512817383 -0.10077518224716187 0.14048945903778076
0.06976747512817383 -0.10077517479658127 0.2887032926082611
0.06976747512817383 -0.08527129888534546 -0.19702136516571045
0.06976747512817383 -0.08527129888534546 -0.09502182900905609
0.06976747512817383 -0.08527130633592606 0.13570520281791687
0.06976747512817383 -0.08527129888534546 0.2889348566532135
0.06976747512817383 -0.06976741552352905 -0.19741562008857727
0.06976747512817383 -0.06976741552352905 -0.08999346941709518
0.06976747512817383 -0.06976741552352905 0.12934257090091705
0.06976747512817383 -0.06976741552352905 0.28909653425216675
0.06976747512817383 -0.05426359176635742 -0.19786708056926727
0.06976747512817383 -0.05426359176635742 -0.08498159795999527
0.06976747512817383 -0.05426359176635742 0.12310768663883209
0.06976747512817383 -0.05426359176635742 0.2891601324081421
0.06976747512817383 -0.038759708404541016 -0.19872581958770752
0.06976747512817383 -0.038759708404541016 -0.08243443071842194
0.06976747512817383 -0.038759708404541016 0.11738140136003494
0.06976747512817383 -0.038759708404541016 0.2891298532485962
0.06976747512817383 -0.02325582504272461 -0.1995536834001541
0.06976747512817383 -0.02325582504272461 -0.08164393901824951
0.06976747512817383 -0.02325582504272461 0.11481573432683945
0.06976747512817383 -0.02325582504272461 0.28917181491851807
0.06976747512817383 -0.007751941680908203 -0.19984564185142517
0.06976747512817383 -0.007751941680908203 -0.0788034200668335
0.06976747512817383 -0.007751941680908203 0.11301704496145248
0.06976747512817383 -0.007751941680908203 0.28920456767082214
0.06976747512817383 0.007751941680908203 -0.1995881199836731
0.06976747512817383 0.007751941680908203 -0.0782531276345253
0.06976747512817383 0.007751941680908203 0.11449019610881805
0.06976747512817383 0.007751941680908203 0.2892514765262604
0.06976747512817383 0.02325582504272461 -0.19911456108093262
0.06976747512817383 0.02325582504272461 -0.07947517931461334
0.06976747512817383 0.02325582504272461 0.11561501771211624
0.06976747512817383 0.02325582504272461 0.2893112897872925
0.06976747512817383 0.038759708404541016 -0.19807904958724976
