-0.4296053647994995 0.27131783962249756 0.08527135848999023
-0.43330538272857666 0.27131783962249756 0.1317828893661499
-0.43405061960220337 0.28682172298431396 0.1317828893661499
-0.4351404905319214 0.30232560634613037 0.1317828893661499
-0.43622007966041565 0.3178294897079468 0.1317828893661499
-0.436889111995697 0.3333333730697632 0.1317828893661499
-0.4386923909187317 0.3488372564315796 0.1317828893661499
-0.4319855570793152 0.364341139793396 -0.1627907156944275
-0.4213446080684662 -0.30232560634613037 0.08527135848999023
-0.41892680525779724 -0.24031007289886475 -0.11627906560897827
-0.4128841459751129 -0.13178294897079468 0.10077524185180664
-0.4171982407569885 -0.11627906560897827 0.10077524185180664
-0.419730544090271 -0.10077518224716187 0.10077524185180664
-0.4204348921775818 -0.08527129888534546 0.10077524185180664
-0.4194721579551697 -0.06976741552352905 0.10077524185180664
-0.4165731370449066 -0.05426359176635742 0.10077524185180664
-0.41426876187324524 -0.038759708404541016 0.10077524185180664
-0.41128164529800415 -0.02325582504272461 0.10077524185180664
-0.4262584447860718 -0.007751941680908203 0.08527135848999023
-0.42430004477500916 0.007751941680908203 0.08527135848999023
-0.4248946011066437 0.02325582504272461 0.08527135848999023
-0.4222579598426819 0.16279065608978271 0.08527135848999023
-0.42632898688316345 0.17829453945159912 0.06976747512817383
-0.41444677114486694 0.17829453945159912 0.08527135848999023
-0.4113512337207794 0.19379842281341553 -0.11627906560897827
-0.42465364933013916 0.19379840791225433 0.06976747512817383
-0.4126795530319214 0.19379842281341553 0.08527135848999023
-0.4234481453895569 0.20930230617523193 -0.11627906560897827
-0.4137250781059265 0.20930230617523193 0.08527135848999023
-0.41888484358787537 0.22480618953704834 0.08527135848999023
-0.4256320595741272 0.24031005799770355 0.08527135848999023
-0.42228779196739197 0.28682172298431396 0.08527135848999023
-0.4210461974143982 0.30232560634613037 0.06976747512817383
-0.4207571744918823 0.3178294897079468 0.05426358804106712
-0.4040752053260803 -0.3643410801887512 -0.1627907156944275
-0.40580809116363525 -0.3333333134651184 0.038759708404541016
-0.40723615884780884 -0.317829430103302 0.06976747512817383
-0.4009931683540344 -0.28682172298431396 0.10077524185180664
-0.40700292587280273 -0.27131783962249756 0.10077524185180664
-0.40992918610572815 -0.25581395626068115 0.10077524185180664
-0.41052159667015076 -0.24031007289886475 0.10077524185180664
-0.40536442399024963 -0.22480618953704834 -0.11627906560897827
-0.40978485345840454 -0.22480618953704834 0.10077524185180664
-0.3974961042404175 -0.20930230617523193 -0.11627906560897827
-0.4065088629722595 -0.20930230617523193 0.10077524185180664
-0.4039916396141052 -0.19379842281341553 0.10077524185180664
-0.4027782678604126 -0.1782945990562439 0.10077524185180664
-0.4041368365287781 -0.1627907156944275 0.10077524185180664
-0.40968021750450134 -0.14728683233261108 0.10077524185180664
-0.40699297189712524 -0.007751941680908203 0.10077524185180664
-0.4047010540962219 0.007751941680908203 0.10077524185180664
-0.400395929813385 0.02325582504272461 0.10077524185180664
-0.40024638175964355 0.038759708404541016 0.10077524185180664
-0.401745468378067 0.05426359176635742 0.10077524185180664
-0.4026864767074585 0.06976747512817383 0.10077524185180664
-0.39945781230926514 0.08527135848999023 0.10077524185180664
-0.39614197611808777 0.10077524185180664 0.10077524185180664
-0.3965059220790863 0.17829453945159912 -0.11627906560897827
-0.40009552240371704 0.30232560634613037 0.08527135848999023
-0.39122164249420166 -0.3798449635505676 0.1472867727279663
-0.3798877000808716 -0.3643410801887512 0.1472867727279663
-0.3924769163131714 -0.317829430103302 0.08527135848999023
-0.3907790780067444 -0.30232560634613037 0.10077524185180664
-0.38410109281539917 -0.19379842281341553 -0.11627906560897827
-0.3802574872970581 -0.1627907156944275 0.1472867727279663
-0.3829251527786255 -0.14728683233261108 0.1472867727279663
-0.38605284690856934 -0.13178294897079468 0.1472867727279663
-0.3887280523777008 -0.11627906560897827 0.1472867727279663
-0.3910336494445801 -0.10077517479658127 0.1472867727279663
-0.3801872730255127 -0.08527129888534546 0.11627912521362305
-0.39273953437805176 -0.08527129888534546 0.1472867727279663
-0.3941543698310852 -0.06976741552352905 0.1472867727279663
-0.39448684453964233 -0.05426359176635742 0.1472867727279663
-0.3945942521095276 -0.038759708404541016 0.1472867727279663
-0.3935602605342865 -0.02325582504272461 0.1472867727279663
-0.3927115201950073 -0.007751941680908203 0.1472867727279663
-0.39199361205101013 0.007751941680908203 0.1472867727279663
-0.3914392292499542 0.02325582504272461 0.1472867727279663
-0.3845237195491791 0.038759708404541016 -0.11627906560897827
-0.3907715976238251 0.038759708404541016 0.1472867727279663
-0.38347047567367554 0.05426359176635742 -0.11627906560897827
-0.39053094387054443 0.05426359549164772 0.1472867727279663
-0.3825524151325226 0.06976747512817383 -0.11627906560897827
-0.3908312916755676 0.06976747512817383 0.1472867727279663
-0.38026899099349976 0.08527135848999023 -0.11627906560897827
-0.3907260596752167 0.08527135848999023 0.1472867727279663
-0.3906567096710205 0.10077524185180664 0.1472867727279663
-0.3934268355369568 0.11627912521362305 0.10077523440122604
-0.38988327980041504 0.11627912521362305 0.1472867727279663
-0.3913843631744385 0.1317828893661499 0.10077523440122604
-0.389396071434021 0.1317828893661499 0.1472867727279663
-0.39029067754745483 0.1472867727279663 0.10077524185180664
-0.3877622187137604 0.1472867727279663 0.1472867727279663
-0.38869428634643555 0.16279065608978271 0.10077524185180664
-0.3867728114128113 0.16279065608978271 0.1472867727279663
-0.3857092261314392 0.17829453945159912 0.10077524185180664
-0.38480690121650696 0.17829453945159912 0.1472867727279663
-0.3845609128475189 0.19379842281341553 0.10077524185180664
-0.3816138505935669 0.19379842281341553 0.1472867727279663
-0.3844889998435974 0.20930230617523193 0.10077524185180664
-0.38599905371665955 0.22480618953704834 0.10077524185180664
-0.38810205459594727 0.24031007289886475 0.10077524185180664
-0.38848432898521423 0.25581395626068115 0.10077524185180664
-0.3884671926498413 0.27131783962249756 0.10077524185180664
-0.38436344265937805 0.28682172298431396 0.10077524185180664
-0.38193750381469727 0.37984490394592285 0.1472867727279663
-0.3743205666542053 -0.3488371968269348 0.1472867727279663
-0.3660830557346344 -0.3333333134651184 0.02325582504272461
-0.3733064830303192 -0.3333333134651184 0.1472867727279663
-0.3727383017539978 -0.317829430103302 0.10077524185180664
-0.3719077408313751 -0.317829430103302 0.1472867727279663
-0.3722398579120636 -0.30232560634613037 0.1472867727279663
-0.36773568391799927 -0.28682172298431396 0.11627912521362305
-0.3725288510322571 -0.28682172298431396 0.1472867727279663
-0.3719276487827301 -0.27131783962249756 0.11627912521362305
-0.3735041618347168 -0.27131783962249756 0.1472867727279663
-0.37415197491645813 -0.25581395626068115 0.11627912521362305
-0.3748638927936554 -0.25581395626068115 0.1472867727279663
-0.37383297085762024 -0.24031007289886475 0.11627912521362305
-0.37552371621131897 -0.24031005799770355 0.1472867727279663
-0.37255239486694336 -0.22480618953704834 0.11627912521362305
-0.37610769271850586 -0.22480618953704834 0.1472867727279663
-0.36836332082748413 -0.20930230617523193 0.11627912521362305
-0.37630242109298706 -0.20930230617523193 0.1472867727279663
-0.36564740538597107 -0.19379842281341553 0.11627912521362305
-0.3767845034599304 -0.19379842281341553 0.1472867727279663
-0.3782094120979309 -0.1782945990562439 0.1472867727279663
-0.36780089139938354 -0.14728683233261108 -0.11627906560897827
-0.3659112751483917 -0.14728683233261108 0.11627912521362305
-0.3646586537361145 -0.13178294897079468 -0.11627906560897827
-0.3685474395751953 -0.13178294897079468 0.11627912521362305
-0.37445127964019775 -0.11627906560897827 0.11627913266420364
-0.37906545400619507 -0.10077518224716187 0.11627912521362305
-0.37819552421569824 -0.06976741552352905 0.11627912521362305
-0.3723929524421692 -0.05426359176635742 0.11627912521362305
-0.37037038803100586 -0.038759708404541016 0.11627912521362305
-0.3701789379119873 -0.02325582504272461 0.11627912521362305
-0.36724069714546204 -0.007751941680908203 -0.1627907156944275
-0.36995193362236023 -0.007751941680908203 0.11627912521362305
-0.36859560012817383 0.007751941680908203 -0.1627907156944275
-0.3723890781402588 0.007751941680908203 0.11627912521362305
-0.36775094270706177 0.02325582504272461 -0.1627907156944275
-0.37899163365364075 0.02325582504272461 -0.11627906560897827
-0.3705422282218933 0.02325582504272461 0.11627912521362305
-0.3699517846107483 0.038759708404541016 0.11627912521362305
-0.3703687787055969 0.05426359176635742 0.11627912521362305
-0.371082603931427 0.06976747512817383 0.11627912521362305
-0.36777517199516296 0.08527135848999023 0.11627912521362305
-0.36750075221061707 0.10077524185180664 -0.11627906560897827
-0.3648655116558075 0.10077524185180664 0.11627912521362305
-0.378738671541214 0.20930230617523193 0.1472867727279663
-0.37677034735679626 0.22480618953704834 0.1472867727279663
-0.3753840923309326 0.24031005799770355 0.1472867727279663
-0.3744204342365265 0.25581395626068115 0.1472867727279663
-0.37442517280578613 0.27131783962249756 0.1472867727279663
-0.3747338056564331 0.28682172298431396 0.1472867727279663
-0.3735831081867218 0.30232560634613037 0.10077524185180664
-0.3752419650554657 0.30232560634613037 0.1472867727279663
-0.3667425513267517 0.3178294897079468 0.08527135848999023
-0.37549108266830444 0.3178294897079468 0.1472867727279663
-0.36950525641441345 0.3333333730697632 0.02325582504272461
-0.3760886490345001 0.3333333432674408 0.1472867727279663
-0.37626519799232483 0.3488372564315796 0.1472867727279663
-0.3795054256916046 0.364341139793396 0.1472867727279663
-0.3488519489765167 -0.3798449635505676 -0.1627907156944275
-0.3600310683250427 -0.30232560634613037 0.11627913266420364
-0.3636525273323059 -0.1782945990562439 0.11627912521362305
-0.3532879948616028 -0.1627907156944275 -0.11627906560897827
-0.3632238805294037 -0.1627907156944275 0.11627912521362305
-0.3540058135986328 -0.11627906560897827 -0.11627906560897827
-0.35744449496269226 -0.02325582504272461 -0.1627907156944275
-0.34959644079208374 0.11627912521362305 -0.11627906560897827
-0.36229971051216125 0.11627912521362305 0.11627912521362305
-0.3602045178413391 0.1317828893661499 0.11627912521362305
-0.35935550928115845 0.1472867727279663 0.11627912521362305
-0.35253044962882996 0.16279065608978271 -0.11627906560897827
-0.35981371998786926 0.16279065608978271 0.11627912521362305
-0.3582044243812561 0.17829453945159912 0.11627912521362305
-0.35760432481765747 0.19379842281341553 0.11627912521362305
-0.35735487937927246 0.20930230617523193 0.11627912521362305
-0.3571096360683441 0.22480618953704834 0.11627912521362305
-0.3570866286754608 0.24031005799770355 0.11627912521362305
-0.3562003970146179 0.25581395626068115 0.11627912521362305
-0.35637134313583374 0.27131783962249756 0.11627912521362305
-0.3540056347846985 0.28682172298431396 0.11627912521362305
-0.35381728410720825 0.3178294897079468 0.06976747512817383
-0.3614363670349121 0.31782951951026917 0.10077524185180664
-0.3570438623428345 0.3333333730697632 0.007751941680908203
-0.3362547755241394 -0.3798449635505676 0.16279065608978271
-0.3453930616378784 -0.3333333134651184 0.02325582504272461
-0.3484089970588684 -0.317829430103302 0.11627912521362305
-0.33995479345321655 -0.1782945990562439 -0.11627906560897827
-0.3363249897956848 -0.13178294897079468 0.16279065608978271
-0.3386380076408386 -0.11627906560897827 0.16279065608978271
-0.3402656614780426 -0.10077518224716187 -0.11627906560897827
-0.34047597646713257 -0.10077518224716187 0.16279065608978271
-0.34170132875442505 -0.08527129888534546 0.16279065608978271
-0.3426898121833801 -0.06976741552352905 0.16279065608978271
-0.3430292010307312 -0.05426358804106712 0.16279065608978271
-0.3435319662094116 -0.038759708404541016 -0.1627907156944275
-0.3432089686393738 -0.038759708404541016 0.16279065608978271
-0.3427193760871887 -0.02325582504272461 0.16279065608978271
-0.3422927260398865 -0.007751941680908203 0.16279065608978271
-0.3419129252433777 0.007751941680908203 0.16279065608978271
-0.3418392241001129 0.02325582504272461 0.16279065608978271
-0.3473840355873108 0.03875970467925072 -0.1627907156944275
-0.3414742946624756 0.038759708404541016 0.16279065608978271
-0.3412902355194092 0.05426359176635742 0.16279065608978271
-0.34142786264419556 0.06976747512817383 0.16279065608978271
-0.3412994146347046 0.08527135848999023 0.16279065608978271
-0.3410699963569641 0.10077524185180664 0.16279065608978271
-0.3402182459831238 0.11627912521362305 0.16279065608978271
-0.3374677300453186 0.1317828893661499 -0.11627906560897827
-0.3395763337612152 0.1317828893661499 0.16279065608978271
-0.33874061703681946 0.1472867727279663 -0.11627906560897827
-0.3376511037349701 0.1472867727279663 0.16279065608978271
-0.336215615272522 0.16279065608978271 0.16279065608978271
-0.33369141817092896 0.17829453945159912 0.16279065608978271
-0.34723106026649475 0.30232560634613037 0.11627912521362305
-0.33943819999694824 0.3178294897079468 0.11627912521362305
-0.33797308802604675 0.3333333730697632 -0.007751941680908203
-0.3346652388572693 0.3333333730697632 0.10077524185180664
-0.3292764127254486 -0.3643410801887512 0.16279065608978271
-0.3258233070373535 -0.3488371968269348 0.16279065608978271
-0.32566672563552856 -0.3333333134651184 -0.02325582504272461
-0.3246802091598511 -0.3333333134651184 -0.007751941680908203
-0.32394856214523315 -0.3333333134651184 0.007751941680908203
-0.3321816921234131 -0.3333333134651184 0.08527135848999023
-0.3332260847091675 -0.3333333134651184 0.10077523440122604
-0.32429051399230957 -0.3333333134651184 0.16279065608978271
-0.323090136051178 -0.317829430103302 0.16279065608978271
-0.3224114775657654 -0.30232560634613037 0.1317828893661499
-0.32430320978164673 -0.30232560634613037 0.16279065608978271
-0.32553204894065857 -0.28682172298431396 0.1317828893661499
-0.3247261047363281 -0.28682172298431396 0.16279065608978271
-0.3263113498687744 -0.27131783962249756 0.1317828893661499
-0.32546666264533997 -0.27131783962249756 0.16279065608978271
-0.32527661323547363 -0.25581395626068115 0.1317828893661499
-0.3264172077178955 -0.25581395626068115 0.16279065608978271
-0.32280731201171875 -0.24031007289886475 0.1317828893661499
-0.32691171765327454 -0.24031007289886475 0.16279065608978271
-0.3207665681838989 -0.22480618953704834 0.1317828893661499
-0.3274269998073578 -0.22480618953704834 0.16279065608978271
-0.3178430199623108 -0.20930230617523193 0.1317828893661499
-0.32771721482276917 -0.20930230617523193 0.16279065608978271
-0.3283233046531677 -0.19379842281341553 0.16279065608978271
-0.32955265045166016 -0.1782945990562439 0.16279065608978271
-0.33126091957092285 -0.1627907156944275 0.16279065608978271
-0.3331575393676758 -0.14728683233261108 0.16279065608978271
-0.31968405842781067 -0.08527129888534546 -0.11627906560897827
-0.3261840045452118 -0.05426359176635742 -0.1627907156944275
-0.3232607841491699 0.05426359176635742 -0.1627907156944275
-0.3184143006801605 0.06976747512817383 0.1317828893661499
-0.318217396736145 0.08527135848999023 0.1317828893661499
-0.31905397772789 0.1472867727279663 0.1317828893661499
-0.3221655488014221 0.16279065608978271 0.1317828893661499
-0.32244351506233215 0.17829453945159912 0.1317828893661499
-0.32364940643310547 0.19379842281341553 0.1317828893661499
-0.33091768622398376 0.19379842281341553 0.16279065608978271
-0.32348787784576416 0.20930230617523193 0.1317828893661499
-0.3291061818599701 0.20930230617523193 0.16279065608978271
-0.3226691782474518 0.22480618953704834 0.1317828893661499
-0.32794177532196045 0.22480618953704834 0.16279065608978271
-0.32191747426986694 0.24031007289886475 0.1317828893661499
-0.32707226276397705 0.24031007289886475 0.16279065608978271
-0.3208773136138916 0.25581395626068115 0.1317828893661499
-0.3263733685016632 0.25581395626068115 0.16279065608978271
-0.32144540548324585 0.27131783962249756 0.1317828893661499
-0.3262713849544525 0.27131783962249756 0.16279065608978271
-0.3195565938949585 0.28682172298431396 0.1317828893661499
-0.32626092433929443 0.28682172298431396 0.16279065608978271
-0.3263314366340637 0.30232560634613037 0.16279065608978271
-0.3258814513683319 0.3178294897079468 0.16279065608978271
-0.32169270515441895 0.3333333730697632 -0.02325582504272461
-0.32659977674484253 0.3333333730697632 0.16279065608978271
-0.3270638585090637 0.3488372564315796 0.16279065608978271
-0.328968346118927 0.364341139793396 0.16279065608978271
-0.33182957768440247 0.37984490394592285 0.16279065608978271
-0.30835723876953125 -0.3798449635505676 -0.1627907156944275
-0.3044300973415375 -0.3333333134651184 -0.007751941680908203
-0.3132752776145935 -0.3333333134651184 0.00775194214656949
-0.3126016855239868 -0.3333333134651184 0.038759708404541016
-0.3092331290245056 -0.3333333134651184 0.05426359176635742
-0.3108745217323303 -0.3333333134651184 0.06976747512817383
-0.31340551376342773 -0.3333333134651184 0.11627912521362305
-0.31370872259140015 -0.317829430103302 0.1317828893661499
-0.3147925138473511 -0.19379842281341553 0.1317828893661499
-0.30978986620903015 -0.1782945990562439 0.1317828893661499
-0.3063543140888214 -0.1627907156944275 0.1317828893661499
-0.30578482151031494 -0.14728683233261108 0.1317828893661499
-0.30406510829925537 -0.13178294897079468 0.1317828893661499
-0.3047471344470978 -0.11627906560897827 0.1317828893661499
-0.30542856454849243 -0.10077518224716187 0.1317828893661499
-0.30339136719703674 -0.08527129888534546 0.1317828893661499
-0.30595558881759644 -0.06976741552352905 -0.1627907156944275
-0.30927473306655884 -0.06976741552352905 -0.11627906560897827
-0.3033527135848999 -0.05426359176635742 -0.11627906560897827
-0.31321191787719727 0.007751941215246916 -0.11627906560897827
-0.3033531606197357 0.007751941680908203 0.1317828893661499
-0.3079352080821991 0.05426359176635742 0.1317828893661499
-0.3087676167488098 0.06976747512817383 -0.1627907156944275
-0.3161839246749878 0.10077524185180664 0.1317828893661499
-0.3160775601863861 0.11627912521362305 0.1317828893661499
-0.3175913989543915 0.1317828744649887 0.1317828744649887
-0.3141361474990845 0.16279065608978271 -0.1627907156944275
-0.3158434331417084 0.17829453945159912 -0.1627907156944275
-0.30626416206359863 0.19379842281341553 -0.1627907156944275
-0.31318679451942444 0.30232560634613037 0.1317828893661499
-0.30503228306770325 0.3178294897079468 0.1317828893661499
-0.31239843368530273 0.3333333730697632 0.08527135848999023
-0.30371516942977905 0.3333333730697632 0.11627912521362305
-0.2951006591320038 -0.3798449635505676 0.17829453945159912
-0.289268434047699 -0.3643410801887512 0.17829453945159912
-0.2904026210308075 -0.3333333134651184 -0.02325582504272461
-0.2871186435222626 -0.22480618953704834 0.17829453945159912
-0.28762710094451904 -0.20930230617523193 0.17829453945159912
-0.2885531187057495 -0.19379842281341553 0.17829453945159912
-0.29021498560905457 -0.1782945990562439 0.17829453945159912
-0.29216986894607544 -0.1627907156944275 0.17829453945159912
-0.29367202520370483 -0.14728683233261108 0.17829453945159912
-0.29561206698417664 -0.13178294897079468 0.17829453945159912
-0.297201544046402 -0.11627906560897827 0.17829453945159912
-0.29881444573402405 -0.10077518224716187 0.17829453945159912
-0.3001410663127899 -0.08527129888534546 0.17829452455043793
-0.2911636233329773 -0.06976741552352905 0.1317828893661499
-0.3013744652271271 -0.06976742297410965 0.17829453945159912
-0.3017596900463104 -0.05426358804106712 0.17829453945159912
-0.3015806972980499 -0.038759708404541016 -0.11627906560897827
-0.3018113374710083 -0.038759708404541016 0.17829453945159912
-0.30028411746025085 -0.02325582504272461 -0.11627906560897827
-0.3008607029914856 -0.02325582504272461 0.17829453945159912
-0.30224424600601196 -0.007751941680908203 -0.11627906560897827
-0.3001258969306946 -0.007751941680908203 0.17829453945159912
-0.2997773289680481 0.007751941680908203 0.17829453945159912
-0.2998840808868408 0.02325582504272461 0.17829455435276031
-0.2996666729450226 0.038759708404541016 0.17829453945159912
-0.2995307147502899 0.05426359176635742 0.17829453945159912
-0.2996637523174286 0.06976747512817383 0.17829453945159912
-0.29788661003112793 0.08527135848999023 -0.1627907156944275
-0.29945191740989685 0.08527135848999023 0.17829453945159912
-0.29237425327301025 0.10077524185180664 -0.1627907156944275
-0.29912862181663513 0.10077524185180664 0.17829453945159912
-0.2933253049850464 0.11627912521362305 -0.1627907156944275
-0.29819756746292114 0.11627912521362305 0.17829453945159912
-0.2973101735115051 0.1317828893661499 -0.1627907156944275
-0.2976837158203125 0.1317828893661499 0.17829453945159912
-0.301982045173645 0.1472867727279663 -0.1627907156944275
-0.29620489478111267 0.1472867727279663 0.17829453945159912
-0.29517412185668945 0.16279065608978271 0.17829453945159912
-0.2935939431190491 0.17829453945159912 0.17829453945159912
-0.29151830077171326 0.19379842281341553 0.17829453945159912
-0.3018665015697479 0.20930230617523193 -0.1627907156944275
-0.2896787226200104 0.20930230617523193 0.17829453945159912
-0.30169618129730225 0.22480618953704834 -0.1627907156944275
-0.28819239139556885 0.22480618953704834 0.17829453945159912
-0.29652655124664307 0.24031007289886475 -0.1627907156944275
-0.28689566254615784 0.24031007289886475 0.17829453945159912
-0.288909375667572 0.3333333730697632 -0.02325582504272461
-0.29458409547805786 0.3333333730697632 0.02325582504272461
-0.29183903336524963 0.3333333730697632 0.038759708404541016
-0.2881770730018616 0.3333333730697632 0.05426359176635742
-0.2898906469345093 0.364341139793396 0.17829453945159912
-0.2882547378540039 0.37984490394592285 0.17829453945159912
-0.2846841514110565 -0.3488371968269348 0.17829453945159912
-0.27423468232154846 -0.3333333134651184 -0.038759708404541016
-0.2835168242454529 -0.3333333134651184 -0.02325582504272461
-0.2756977677345276 -0.3333333134651184 -0.007751941680908203
-0.28240010142326355 -0.3333333134651184 0.17829455435276031
-0.27576541900634766 -0.317829430103302 0.1472867727279663
-0.2816571593284607 -0.317829430103302 0.17829453945159912
-0.28080394864082336 -0.30232560634613037 -0.13178294897079468
-0.27972644567489624 -0.30232560634613037 0.1472867727279663
-0.2826787233352661 -0.30232560634613037 0.17829453945159912
-0.2766672968864441 -0.28682172298431396 -0.13178294897079468
-0.27986806631088257 -0.28682172298431396 0.1472867727279663
-0.2829369902610779 -0.28682172298431396 0.17829453945159912
-0.2788856625556946 -0.27131783962249756 0.1472867727279663
-0.28380924463272095 -0.27131783962249756 0.17829453945159912
-0.2778799533843994 -0.25581395626068115 0.1472867727279663
-0.2852528691291809 -0.25581395626068115 0.17829453945159912
-0.2742074728012085 -0.24031007289886475 0.1472867727279663
-0.28618329763412476 -0.24031007289886475 0.17829453945159912
-0.2715815305709839 -0.10077518224716187 -0.1627907156944275
-0.28340959548950195 -0.08527129888534546 -0.1627907156944275
-0.27348822355270386 0.007751941680908203 0.1317828893661499
-0.2716330885887146 0.19379842281341553 0.1472867727279663
-0.2740180492401123 0.20930230617523193 0.1472867727279663
-0.27406349778175354 0.22480618953704834 0.1472867727279663
-0.2741018831729889 0.24031007289886475 0.1472867727279663
-0.28574419021606445 0.25581395626068115 -0.1627907156944275
-0.2723084092140198 0.25581395626068115 0.1472867727279663
-0.2856738865375519 0.25581395626068115 0.17829453945159912
-0.27567750215530396 0.27131783962249756 -0.1627907156944275
-0.2732982933521271 0.27131783962249756 0.1472867727279663
-0.2852429747581482 0.27131783962249756 0.17829453945159912
-0.2732200622558594 0.28682172298431396 0.1472867727279663
-0.28496161103248596 0.28682172298431396 0.17829453945159912
-0.2719820737838745 0.30232560634613037 0.1472867727279663
-0.2851884365081787 0.30232560634613037 0.17829452455043793
-0.28474146127700806 0.3178294897079468 0.17829453945159912
-0.2813301682472229 0.3333333730697632 0.08527135848999023
-0.27634307742118835 0.3333333730697632 0.10077524185180664
-0.285010427236557 0.3333333730697632 0.17829453945159912
-0.2717234790325165 0.3488372564315796 -0.1627907156944275
-0.2866711914539337 0.3488372564315796 0.17829453945159912
-0.2622295320034027 -0.3333333134651184 0.007751941680908203
-0.26061534881591797 -0.3333333134651184 0.10077524185180664
-0.2643526792526245 -0.27131783962249756 -0.13178294897079468
-0.26913872361183167 -0.22480618953704834 0.1472867727279663
-0.2575838267803192 -0.20930230617523193 0.1472867727279663
-0.25870999693870544 -0.11627906560897827 -0.1627907156944275
-0.25772517919540405 -0.10077518224716187 0.19379842281341553
-0.2592245936393738 -0.08527129888534546 0.19379842281341553
-0.2605428099632263 -0.06976741552352905 0.19379842281341553
-0.2672193944454193 -0.05426359549164772 0.1317828893661499
-0.2609320878982544 -0.05426359176635742 0.19379842281341553
-0.2607755959033966 -0.038759708404541016 0.19379842281341553
-0.25953948497772217 -0.02325582504272461 0.19379842281341553
-0.25828588008880615 -0.007751941680908203 0.19379842281341553
-0.25761300325393677 0.007751941680908203 0.19379842281341553
-0.25768131017684937 0.02325582504272461 0.19379842281341553
-0.25741463899612427 0.038759708404541016 0.19379842281341553
-0.25727957487106323 0.05426359176635742 0.19379842281341553
-0.2573220133781433 0.06976747512817383 0.19379842281341553
-0.25686267018318176 0.08527135848999023 0.19379842281341553
-0.2565496861934662 0.10077524185180664 0.19379842281341553
-0.2604301869869232 0.17829453945159912 0.1472867727279663
-0.2591812014579773 0.3178294897079468 -0.13178294897079468
-0.26830118894577026 0.3178294897079468 0.1472867727279663
-0.2564617395401001 0.3333333730697632 -0.1627907156944275
-0.26724159717559814 0.3333333730697632 -0.02325582504272461
-0.25599247217178345 0.3333333730697632 0.11627912521362305
-0.25029996037483215 -0.3798449635505676 0.19379842281341553
-0.24610379338264465 -0.3643410801887512 0.19379842281341553
-0.24103502929210663 -0.3488371968269348 0.19379842281341553
-0.25196048617362976 -0.3333333134651184 -0.05426359176635742
-0.24124887585639954 -0.3333333134651184 0.08527135848999023
-0.24071089923381805 -0.27131783962249756 0.19379842281341553
-0.24302533268928528 -0.25581395626068115 0.19379842281341553
-0.24426022171974182 -0.24031007289886475 0.19379842281341553
-0.2452356219291687 -0.22480618953704834 0.19379842281341553
-0.2457035332918167 -0.20930230617523193 0.19379842281341553
-0.24966901540756226 -0.19379842281341553 0.1472867727279663
-0.2464422881603241 -0.19379842281341553 0.19379842281341553
-0.2477605789899826 -0.1782945990562439 0.19379842281341553
-0.24964600801467896 -0.1627907156944275 0.19379842281341553
-0.251218318939209 -0.14728683233261108 0.19379842281341553
-0.25352829694747925 -0.13178294897079468 0.19379842281341553
-0.25562646985054016 -0.11627906560897827 0.19379842281341553
-0.24743300676345825 -0.038759708404541016 0.1317828893661499
-0.25006815791130066 0.007751941680908203 0.1317828893661499
-0.24956157803535461 0.02325582504272461 0.1317828893661499
-0.24340300261974335 0.038759708404541016 0.1317828893661499
-0.2555086612701416 0.11627912521362305 0.19379840791225433
-0.2551291882991791 0.1317828893661499 0.19379842281341553
-0.2534680664539337 0.1472867727279663 0.19379843771457672
-0.2452995479106903 0.16279065608978271 0.1472867727279663
-0.2522739768028259 0.16279065608978271 0.19379842281341553
-0.2505262792110443 0.17829453945159912 0.19379842281341553
-0.2484283447265625 0.19379842281341553 0.19379842281341553
-0.24678118526935577 0.20930230617523193 0.19379842281341553
-0.2457251250743866 0.22480618953704834 0.19379842281341553
-0.24489760398864746 0.24031007289886475 0.19379842281341553
-0.2437088042497635 0.25581395626068115 0.19379842281341553
-0.2431279867887497 0.27131783962249756 0.19379842281341553
-0.2436864674091339 0.28682172298431396 -0.13178294897079468
-0.24271678924560547 0.28682172298431396 0.19379842281341553
-0.25096189975738525 0.30232560634613037 -0.13178294897079468
-0.2433130294084549 0.30232560634613037 0.19379842281341553
-0.24353928864002228 0.3178294897079468 0.19379842281341553
-0.2487424612045288 0.3333333730697632 -0.1627907156944275
-0.24546675384044647 0.3333333730697632 0.06976747512817383
-0.2547353208065033 0.33333340287208557 0.11627913266420364
-0.24257448315620422 0.3333333730697632 0.1317828893661499
-0.24339455366134644 0.3333333730697632 0.19379842281341553
-0.24467988312244415 0.3488372564315796 0.19379842281341553
-0.2491154968738556 0.364341139793396 0.19379842281341553
-0.24578885734081268 0.37984490394592285 0.19379842281341553
-0.22519300878047943 -0.3333333134651184 -0.08527129888534546
-0.23718199133872986 -0.3333333134651184 -0.06976741552352905
-0.23718145489692688 -0.3333333134651184 0.11627913266420364
-0.23861831426620483 -0.3333333134651184 0.19379842281341553
-0.2385065257549286 -0.317829430103302 0.19379842281341553
-0.2389090210199356 -0.30232560634613037 0.19379842281341553
-0.22533920407295227 -0.28682172298431396 0.16279065608978271
-0.2391897290945053 -0.28682172298431396 0.19379842281341553
-0.22547394037246704 -0.27131783962249756 0.16279065608978271
-0.22575955092906952 -0.25581395626068115 0.16279065608978271
-0.23727799952030182 -0.1782945990562439 0.1472867727279663
-0.22740787267684937 -0.13178294897079468 -0.1627907156944275
-0.24007032811641693 -0.02325582504272461 0.1317828893661499
-0.23998591303825378 -0.007751941680908203 0.1317828893661499
-0.23839537799358368 0.27131783962249756 -0.1627907156944275
-0.23725110292434692 0.28682172298431396 -0.13178294897079468
-0.23444721102714539 0.30232560634613037 -0.13178294897079468
-0.22974945604801178 0.3178294897079468 -0.13178294897079468
-0.22513951361179352 0.3178294897079468 0.16279065608978271
-0.2368968427181244 0.3333333730697632 -0.038759708404541016
-0.23941440880298615 0.3333333730697632 0.02325582504272461
-0.23933963477611542 0.3333333730697632 0.11627912521362305
-0.22966817021369934 0.3333333730697632 0.1317828893661499
-0.22312119603157043 -0.3333333134651184 -0.11627906560897827
-0.21318134665489197 -0.3333333134651184 -0.10077518224716187
-0.22365549206733704 -0.3333333134651184 0.02325582504272461
-0.2222343534231186 -0.317829430103302 0.16279065608978271
-0.21702902019023895 -0.30232560634613037 -0.13178294897079468
-0.22456079721450806 -0.30232560634613037 0.1627906709909439
-0.2218998521566391 -0.27131783962249756 -0.13178294897079468
-0.22263407707214355 -0.24031007289886475 0.16279065608978271
-0.21842557191848755 -0.22480618953704834 0.16279065608978271
-0.21249055862426758 -0.20930230617523193 0.16279065608978271
-0.22446712851524353 -0.1627907156944275 0.1472867727279663
-0.21166959404945374 -0.14728683233261108 -0.1627907156944275
-0.21232929825782776 -0.14728683233261108 0.1472867727279663
-0.20952551066875458 -0.10077518224716187 0.20930230617523193
-0.21108084917068481 -0.08527129888534546 0.20930230617523193
-0.21242088079452515 -0.06976741552352905 0.20930230617523193
-0.21282270550727844 -0.05426359176635742 0.20930230617523193
-0.21239422261714935 -0.038759708404541016 0.20930230617523193
-0.21079444885253906 -0.02325582504272461 0.20930230617523193
-0.22398096323013306 0.1472867727279663 0.1472867727279663
-0.21025240421295166 0.17829453945159912 0.16279065608978271
-0.21794547140598297 0.19379842281341553 0.16279065608978271
-0.2215421199798584 0.20930230617523193 0.16279065608978271
-0.22211045026779175 0.22480618953704834 0.16279065608978271
-0.22216887772083282 0.24031007289886475 0.16279065608978271
-0.21915951371192932 0.25581395626068115 0.16279065608978271
-0.21963995695114136 0.27131783962249756 0.16279065608978271
-0.22059786319732666 0.28682172298431396 0.16279065608978271
-0.22190693020820618 0.30232560634613037 0.16279065608978271
-0.22372227907180786 0.3333333730697632 -0.1627907156944275
-0.2160077691078186 0.3333333730697632 -0.05426359176635742
-0.2153315246105194 0.3333333730697632 0.038759708404541016
-0.21916720271110535 0.3333333730697632 0.06976747512817383
-0.20230403542518616 -0.3798449635505676 0.20930230617523193
-0.2014283686876297 -0.3643410801887512 0.20930230617523193
-0.1967974603176117 -0.3488371968269348 0.20930230617523193
-0.1948261708021164 -0.3333333134651184 0.20930230617523193
-0.1945565789937973 -0.317829430103302 0.20930230617523193
-0.19500181078910828 -0.30232560634613037 0.20930230617523193
-0.20880843698978424 -0.28682172298431396 -0.13178294897079468
-0.19544567167758942 -0.28682172298431396 0.20930230617523193
-0.19689981639385223 -0.27131783962249756 0.20930230617523193
-0.19874650239944458 -0.25581395626068115 0.20930230617523193
-0.19975027441978455 -0.24031007289886475 0.20930230617523193
-0.20050737261772156 -0.22480618953704834 0.20930230617523193
-0.20083875954151154 -0.20930230617523193 0.20930230617523193
-0.2074601650238037 -0.19379842281341553 0.16279065608978271
-0.20142708718776703 -0.19379842281341553 0.20930230617523193
-0.19508154690265656 -0.1782945990562439 -0.11627906560897827
-0.1993151754140854 -0.1782945990562439 0.16279065608978271
-0.20231947302818298 -0.1782945990562439 0.20930230617523193
-0.20369891822338104 -0.1627907156944275 0.20930230617523193
-0.20472504198551178 -0.14728683233261108 0.20930230617523193
-0.20198161900043488 -0.13178294897079468 0.1472867727279663
-0.20632264018058777 -0.13178294897079468 0.20930230617523193
-0.19794861972332 -0.11627906560897827 0.1472867727279663
-0.20775450766086578 -0.11627906560897827 0.20930230617523193
-0.19926747679710388 -0.10077518224716187 0.1472867727279663
-0.20290730893611908 -0.08527129888534546 0.1472867727279663
-0.20290811359882355 -0.06976741552352905 0.1472867727279663
-0.19910290837287903 -0.05426359176635742 0.1472867727279663
-0.19692863523960114 -0.038759708404541016 0.1472867727279663
-0.19595366716384888 -0.02325582504272461 0.1472867727279663
-0.1979045569896698 -0.007751941680908203 0.1472867727279663
-0.20906460285186768 -0.007751941680908203 0.20930230617523193
-0.20172441005706787 0.007751941680908203 0.1472867727279663
-0.2082146406173706 0.007751941215246916 0.20930230617523193
-0.19833223521709442 0.02325582504272461 0.1472867727279663
-0.2080192267894745 0.02325582504272461 0.20930232107639313
-0.20746678113937378 0.038759712129831314 0.20930230617523193
-0.20712974667549133 0.05426359176635742 0.20930232107639313
-0.20690584182739258 0.06976747512817383 0.20930230617523193
-0.20658285915851593 0.08527135848999023 0.20930230617523193
-0.20658636093139648 0.10077524185180664 0.20930230617523193
-0.20613789558410645 0.11627912521362305 0.20930230617523193
-0.20360277593135834 0.1317828893661499 0.1472867727279663
-0.20612618327140808 0.1317828893661499 0.20930230617523193
-0.2052515745162964 0.1472867727279663 0.20930230617523193
-0.19849449396133423 0.16279065608978271 0.16279065608978271
-0.20450177788734436 0.16279065608978271 0.20930230617523193
-0.20322495698928833 0.17829453945159912 0.20930230617523193
-0.20162788033485413 0.19379842281341553 0.20930230617523193
-0.20044133067131042 0.20930230617523193 0.20930230617523193
-0.1998191475868225 0.22480618953704834 0.20930230617523193
-0.19933761656284332 0.24031007289886475 0.20930230617523193
-0.1984134167432785 0.25581395626068115 0.20930230617523193
-0.19807499647140503 0.27131783962249756 0.20930230617523193
-0.1978343278169632 0.28682172298431396 0.20930230617523193
-0.19840410351753235 0.30232560634613037 0.20930230617523193
-0.19724051654338837 0.3178294897079468 -0.1627907156944275
-0.1986289620399475 0.3178294897079468 0.20930230617523193
-0.19753766059875488 0.3333333730697632 -0.06976741552352905
-0.19626636803150177 0.3333333730697632 0.05426359176635742
-0.19870314002037048 0.3333333730697632 0.20930230617523193
-0.19965684413909912 0.3488372564315796 0.20930230617523193
-0.20467418432235718 0.364341139793396 0.20930230617523193
-0.198914036154747 0.37984490394592285 0.20930230617523193
-0.1929571032524109 -0.3333333134651184 0.038759708404541016
-0.18081572651863098 -0.317829430103302 0.17829453945159912
-0.18461409211158752 -0.30232560634613037 0.17829453945159912
-0.18604516983032227 -0.28682172298431396 0.17829453945159912
-0.1862860918045044 -0.27131783962249756 0.17829453945159912
-0.1871749758720398 -0.25581395626068115 0.17829453945159912
-0.1847166121006012 -0.24031007289886475 0.17829453945159912
-0.1814395785331726 -0.22480618953704834 0.17829453945159912
-0.19072487950325012 -0.1627907156944275 -0.11627906560897827
-0.1889653205871582 -0.1627907156944275 0.16279065608978271
-0.19107785820960999 -0.05426359176635742 -0.11627906560897827
-0.18949373066425323 -0.038759708404541016 -0.11627906560897827
-0.18799912929534912 -0.02325582504272461 -0.11627906560897827
-0.18112286925315857 -0.007751941680908203 -0.11627906560897827
-0.1904263198375702 0.038759708404541016 0.1472867727279663
-0.18591834604740143 0.05426359176635742 0.1472867727279663
-0.1829926073551178 0.06976747512817383 0.1472867727279663
-0.18246088922023773 0.11627912521362305 0.1472867727279663
-0.18457886576652527 0.1317828893661499 -0.11627906560897827
-0.180352583527565 0.1472867727279663 -0.11627906560897827
-0.18076005578041077 0.1472867727279663 0.16279065608978271
-0.1791459619998932 0.19379842281341553 0.17829453945159912
-0.1812930703163147 0.20930230617523193 0.17829453945159912
-0.18180593848228455 0.22480618953704834 0.17829453945159912
-0.1819646656513214 0.24031007289886475 0.17829453945159912
-0.1803256869316101 0.25581395626068115 0.17829453945159912
-0.19207683205604553 0.27131783962249756 -0.1627907156944275
-0.18036416172981262 0.27131783962249756 0.17829453945159912
-0.1806442141532898 0.28682172298431396 0.17829453945159912
-0.18038439750671387 0.30232560634613037 0.17829453945159912
-0.1792437881231308 0.3178294897079468 0.17829453945159912
-0.17966680228710175 0.3333333730697632 -0.11627906560897827
-0.17247094213962555 -0.3333333134651184 0.05426359176635742
-0.17529869079589844 -0.3333333134651184 0.06976747512817383
-0.17536944150924683 -0.20930232107639313 0.17829453945159912
-0.1778249442577362 -0.19379842281341553 -0.11627906560897827
-0.16693460941314697 -0.19379842281341553 0.17829453945159912
-0.16359087824821472 -0.1627907156944275 0.22480618953704834
-0.16645191609859467 -0.14728683233261108 -0.11627906560897827
-0.1710008680820465 -0.14728683233261108 0.16279065608978271
-0.1647946536540985 -0.14728683233261108 0.22480618953704834
-0.16637524962425232 -0.13178294897079468 0.22480618953704834
-0.16761305928230286 -0.11627906560897827 0.22480618953704834
-0.16894498467445374 -0.10077518224716187 0.22480618953704834
-0.1700151115655899 -0.08527129888534546 0.22480618953704834
-0.17783871293067932 -0.06976741552352905 -0.11627906560897827
-0.17096291482448578 -0.06976741552352905 0.22480618953704834
-0.1712632030248642 -0.05426359176635742 0.22480618953704834
-0.17090710997581482 -0.038759708404541016 0.22480618953704834
-0.1698567420244217 -0.02325582504272461 0.22480618953704834
-0.16864466667175293 -0.007751941680908203 0.22480618953704834
-0.16789527237415314 0.007751941680908203 0.22480618953704834
-0.16761764883995056 0.02325582504272461 0.22480618953704834
-0.16695883870124817 0.038759708404541016 0.22480618953704834
-0.16655993461608887 0.05426359176635742 0.22480618953704834
-0.16626319289207458 0.06976747512817383 0.22480618953704834
-0.16591744124889374 0.08527135848999023 0.22480618953704834
-0.16606679558753967 0.10077524185180664 0.22480618953704834
-0.1665268987417221 0.11627912521362305 -0.11627906560897827
-0.16576500236988068 0.11627912521362305 0.22480618953704834
-0.16579926013946533 0.1317828893661499 0.22480618953704834
-0.16496635973453522 0.1472867727279663 0.22480618953704834
-0.16398780047893524 0.16279065608978271 0.22480618953704834
-0.16746242344379425 0.17829453945159912 0.17829453945159912
-0.1632518172264099 0.3333333730697632 -0.10077518224716187
-0.16997143626213074 0.3333333730697632 -0.08527129888534546
-0.16514058411121368 0.364341139793396 0.22480618953704834
-0.15866276621818542 -0.37984499335289 0.22480618953704834
-0.16120290756225586 -0.3643410801887512 0.22480618953704834
-0.1564372479915619 -0.3488371968269348 0.22480618953704834
-0.15496453642845154 -0.3333333134651184 0.22480618953704834
-0.15484528243541718 -0.317829430103302 0.22480618953704834
-0.15518902242183685 -0.30232560634613037 0.22480618953704834
-0.1556868702173233 -0.28682172298431396 0.22480618953704834
-0.15683063864707947 -0.27131783962249756 0.22480618953704834
-0.15832574665546417 -0.25581395626068115 0.22480618953704834
-0.15928488969802856 -0.24031007289886475 0.22480618953704834
-0.16005046665668488 -0.22480618953704834 0.22480618953704834
-0.16036365926265717 -0.20930230617523193 0.22480618953704834
-0.16098275780677795 -0.19379842281341553 0.22480618953704834
-0.15629972517490387 -0.1782945990562439 0.17829453945159912
-0.16190175712108612 -0.1782945990562439 0.22480618953704834
-0.15513765811920166 -0.14728683233261108 -0.1627907156944275
-0.15227968990802765 -0.08527129888534546 0.16279065608978271
-0.15412776172161102 -0.06976741552352905 0.16279065608978271
-0.15089112520217896 0.007751941680908203 -0.11627906560897827
-0.1533222645521164 0.16279065608978271 -0.11627906560897827
-0.1473417431116104 0.16279065608978271 0.17829453945159912
-0.16218344867229462 0.17829453945159912 0.22480618953704834
-0.16026876866817474 0.19379842281341553 0.22480618953704834
-0.15912555158138275 0.20930230617523193 0.22480618953704834
-0.15868978202342987 0.22480618953704834 0.22480618953704834
-0.15848782658576965 0.24031007289886475 0.22480618953704834
-0.14917007088661194 0.25581395626068115 -0.1627907156944275
-0.15781334042549133 0.25581395626068115 0.22480618953704834
-0.16040027141571045 0.27131783962249756 -0.1627907156944275
-0.15752464532852173 0.27131783962249756 0.22480618953704834
-0.15728184580802917 0.28682172298431396 0.22480620443820953
-0.15766817331314087 0.30232560634613037 0.22480618953704834
-0.16069945693016052 0.3178294599056244 -0.1627907156944275
-0.15779758989810944 0.3178294897079468 0.22480618953704834
-0.1621793806552887 0.3333333730697632 -0.10077518224716187
-0.1568571925163269 0.3333333730697632 -0.08527129888534546
-0.1579219549894333 0.3333333730697632 0.22480618953704834
-0.15920580923557281 0.3488372564315796 0.22480618953704834
-0.15679192543029785 0.37984490394592285 0.22480618953704834
-0.13259531557559967 -0.317829430103302 0.19379842281341553
-0.14125007390975952 -0.30232560634613037 0.19379842281341553
-0.1439424604177475 -0.28682172298431396 0.19379842281341553
-0.14427465200424194 -0.27131783962249756 0.19379842281341553
-0.14411696791648865 -0.25581395626068115 0.19379842281341553
-0.13953302800655365 -0.24031007289886475 0.19379842281341553
-0.13378572463989258 -0.22480618953704834 0.19379842281341553
-0.14339402318000793 -0.1627907156944275 0.17829453945159912
-0.13660012185573578 -0.13178294897079468 -0.1627907156944275
-0.13941098749637604 -0.13178294897079468 -0.11627906560897827
-0.14663352072238922 -0.13178293406963348 0.16279065608978271
-0.14185050129890442 -0.11627907305955887 0.16279065608978271
-0.144761860370636 -0.10077518969774246 0.16279065608978271
-0.13186919689178467 -0.08527129888534546 -0.11627906560897827
-0.1461814045906067 -0.05426358804106712 0.16279065608978271
-0.13932272791862488 -0.038759708404541016 0.16279065608978271
-0.13301227986812592 -0.007751941680908203 0.16279065608978271
-0.1450454145669937 0.007751941680908203 0.16279064118862152
-0.14064542949199677 0.02325582504272461 -0.11627906560897827
-0.14644253253936768 0.02325582504272461 0.16279065608978271
-0.1338157057762146 0.038759708404541016 0.16279065608978271
-0.14273017644882202 0.08527135848999023 0.1472867727279663
-0.13863790035247803 0.10077524185180664 0.1472867727279663
-0.13632723689079285 0.1317828893661499 0.16279065608978271
-0.1406412124633789 0.19379842281341553 -0.1627907156944275
-0.14604072272777557 0.20930229127407074 -0.1627907007932663
-0.1470693051815033 0.22480618953704834 -0.1627907156944275
-0.1463790237903595 0.24031007289886475 -0.1627907156944275
-0.1471911370754242 0.3333333730697632 -0.1627907156944275
-0.12025865912437439 -0.3643410801887512 0.24031007289886475
-0.11765532195568085 -0.25581395626068115 0.24031007289886475
-0.11875267326831818 -0.24031007289886475 0.24031007289886475
-0.1194792240858078 -0.22480618953704834 0.24031007289886475
-0.1250750720500946 -0.20930230617523193 0.19379842281341553
-0.11965449154376984 -0.20930230617523193 0.24031007289886475
-0.11784542351961136 -0.19379842281341553 0.19379842281341553
-0.12021982669830322 -0.19379842281341553 0.24031007289886475
-0.12088856101036072 -0.1782945990562439 0.24031007289886475
-0.12204055488109589 -0.1627907156944275 0.24031007289886475
-0.1296941339969635 -0.14728683233261108 0.17829453945159912
-0.1229529157280922 -0.14728683233261108 0.24031007289886475
-0.11859086155891418 -0.13178294897079468 0.17829453945159912
-0.12409951537847519 -0.13178294897079468 0.24031007289886475
-0.1284094750881195 -0.11627906560897827 -0.1627907156944275
-0.12512584030628204 -0.11627905815839767 0.24031007289886475
-0.1246919184923172 -0.10077518224716187 -0.1627907156944275
-0.11636050045490265 -0.10077518224716187 0.17829453945159912
-0.1263049691915512 -0.10077518224716187 0.24031007289886475
-0.12182508409023285 -0.08527129888534546 -0.1627907156944275
-0.13125070929527283 -0.08527130633592606 -0.11627906560897827
-0.12156020849943161 -0.08527129888534546 0.17829453945159912
-0.12735070288181305 -0.08527129888534546 0.24031007289886475
-0.12043829262256622 -0.06976741552352905 -0.1627907156944275
-0.12040677666664124 -0.06976741552352905 0.17829453945159912
-0.12827378511428833 -0.06976741552352905 0.24031007289886475
-0.12265913188457489 -0.05426359176635742 -0.1627907156944275
-0.12851311266422272 -0.05426359176635742 0.24031007289886475
-0.12305746972560883 -0.038759708404541016 -0.1627907156944275
-0.12803547084331512 -0.038759708404541016 0.24031007289886475
-0.12150925397872925 -0.02325582504272461 -0.1627907156944275
-0.13164392113685608 -0.02325582504272461 0.16279065608978271
-0.1269516795873642 -0.02325582504272461 0.24031007289886475
-0.12025953829288483 -0.007751941680908203 -0.1627907156944275
-0.1257115602493286 -0.007751941680908203 0.24031008780002594
-0.11758958548307419 0.007751941680908203 -0.1627907156944275
-0.12496104091405869 0.007751941680908203 0.24031005799770355
-0.1246233582496643 0.02325582504272461 0.24031007289886475
-0.1239965409040451 0.038759708404541016 0.24031007289886475
-0.12786659598350525 0.05426359176635742 0.16279065608978271
-0.12371718138456345 0.05426359176635742 0.24031007289886475
-0.12353180348873138 0.06976747512817383 0.16279065608978271
-0.12359373271465302 0.06976747512817383 0.24031007289886475
-0.12340202927589417 0.08527135848999023 0.24031007289886475
-0.11769209057092667 0.10077524185180664 -0.11627906560897827
-0.12372315675020218 0.10077524185180664 0.24031007289886475
-0.1236734613776207 0.11627912521362305 0.24031007289886475
-0.11969032138586044 0.1317828893661499 -0.1627907156944275
-0.12372282147407532 0.1317828893661499 0.24031007289886475
-0.12454432249069214 0.1472867727279663 -0.1627907156944275
-0.12321662157773972 0.1472867727279663 0.24031007289886475
-0.12724502384662628 0.16279065608978271 -0.1627907156944275
-0.12248821556568146 0.16279065608978271 0.24031007289886475
-0.13128584623336792 0.17829453945159912 -0.1627907156944275
-0.12111276388168335 0.17829453945159912 0.24031007289886475
-0.11946679651737213 0.19379842281341553 0.24031007289886475
-0.12130838632583618 0.20930230617523193 0.19379842281341553
