-0.3425326943397522 0.17829453945159912 0.1472867727279663
-0.34524187445640564 0.17829453945159912 0.19379842281341553
-0.3382616341114044 0.17829453945159912 0.20930230617523193
-0.3349727690219879 0.17829453945159912 0.22480618953704834
-0.3411942720413208 0.19379842281341553 -0.13178294897079468
-0.34414371848106384 0.19379842281341553 -0.11627906560897827
-0.3450163006782532 0.19379843771457672 -0.10077518224716187
-0.34434935450553894 0.19379842281341553 -0.08527129888534546
-0.34365689754486084 0.19379842281341553 -0.06976741552352905
-0.33965933322906494 0.19379842281341553 -0.05426359176635742
-0.33371680974960327 0.19379842281341553 0.038759708404541016
-0.34633776545524597 0.19379840791225433 0.1472867727279663
-0.3418310284614563 0.19379842281341553 0.20930230617523193
-0.3378360867500305 0.19379842281341553 0.22480618953704834
-0.33457401394844055 0.19379842281341553 0.24031007289886475
-0.3338494896888733 0.20930230617523193 -0.14728683233261108
-0.34430965781211853 0.20930230617523193 -0.13178294897079468
-0.3462918698787689 0.20930230617523193 -0.11627906560897827
-0.3468429148197174 0.20930230617523193 -0.10077518224716187
-0.34626662731170654 0.20930230617523193 -0.08527129888534546
-0.34564247727394104 0.20930230617523193 -0.06976741552352905
-0.34243834018707275 0.20930230617523193 -0.05426359176635742
-0.3372541069984436 0.20930230617523193 -0.038759708404541016
-0.33367493748664856 0.20930230617523193 -0.02325582504272461
-0.33354225754737854 0.20930230617523193 0.007751941680908203
-0.3355828821659088 0.20930230617523193 0.02325582504272461
-0.33771181106567383 0.20930230617523193 0.038759708404541016
-0.3374900817871094 0.20930230617523193 0.05426359176635742
-0.33715111017227173 0.20930230617523193 0.06976747512817383
-0.3437037467956543 0.20930230617523193 0.20930230617523193
-0.3391968011856079 0.20930230617523193 0.22480618953704834
-0.33580249547958374 0.20930230617523193 0.24031007289886475
-0.339389830827713 0.22480618953704834 -0.14728683233261108
-0.3462357819080353 0.22480618953704834 -0.13178294897079468
-0.3476950526237488 0.22480618953704834 -0.11627906560897827
-0.3480944335460663 0.22480618953704834 -0.10077518224716187
-0.3476112186908722 0.22480618953704834 -0.08527129888534546
-0.34700506925582886 0.22480618953704834 -0.06976741552352905
-0.3443286716938019 0.22480618953704834 -0.05426359176635742
-0.3399016261100769 0.22480618953704834 -0.038759708404541016
-0.3365350067615509 0.22480618953704834 -0.02325582504272461
-0.335519015789032 0.22480618953704834 -0.007751941680908203
-0.3363337814807892 0.22480618953704834 0.007751941680908203
-0.33810949325561523 0.22480618953704834 0.02325582504272461
-0.3400226831436157 0.22480618953704834 0.038759708404541016
-0.34005361795425415 0.22480618953704834 0.05426359176635742
-0.33985185623168945 0.22480618953704834 0.06976747512817383
-0.3418412208557129 0.22480618953704834 0.11627912521362305
-0.3456963896751404 0.22480618953704834 0.20930230617523193
-0.3411674499511719 0.22480618953704834 0.22480618953704834
-0.3375224769115448 0.22480618953704834 0.24031007289886475
-0.3403295874595642 0.24031007289886475 -0.14728683233261108
-0.3462493419647217 0.24031007289886475 -0.13178294897079468
-0.3476749360561371 0.24031007289886475 -0.11627906560897827
-0.34808725118637085 0.24031007289886475 -0.10077518224716187
-0.3476351201534271 0.24031008780002594 -0.08527129888534546
-0.3468882143497467 0.24031007289886475 -0.06976741552352905
-0.3441693186759949 0.24031007289886475 -0.05426359176635742
-0.33975091576576233 0.24031007289886475 -0.038759708404541016
-0.3362812101840973 0.24031007289886475 -0.02325582504272461
-0.3353245258331299 0.24031007289886475 -0.007751941680908203
-0.33625462651252747 0.24031007289886475 0.007751941680908203
-0.3382619619369507 0.24031007289886475 0.02325582504272461
-0.34045112133026123 0.24031007289886475 0.038759708404541016
-0.34073299169540405 0.24031007289886475 0.05426359176635742
-0.34043610095977783 0.24031007289886475 0.06976747512817383
-0.3461676836013794 0.24031007289886475 0.11627912521362305
-0.33689743280410767 0.24031007289886475 0.1317828893661499
-0.34713947772979736 0.24031007289886475 0.22480618953704834
-0.3418884575366974 0.24031007289886475 0.24031007289886475
-0.33632779121398926 0.25581395626068115 -0.14728683233261108
-0.3439183533191681 0.25581395626068115 -0.13178294897079468
-0.34592103958129883 0.25581395626068115 -0.11627906560897827
-0.3465329706668854 0.25581395626068115 -0.10077518224716187
-0.3460169732570648 0.25581395626068115 -0.08527129888534546
-0.3449086546897888 0.25581395626068115 -0.06976741552352905
-0.3415284752845764 0.25581395626068115 -0.05426359176635742
-0.3364782929420471 0.25581395626068115 -0.038759708404541016
-0.33340439200401306 0.25581395626068115 0.007751941680908203
-0.33611536026000977 0.25581395626068115 0.02325582504272461
-0.33906251192092896 0.25581395626068115 0.038759708404541016
-0.3396736979484558 0.25581395626068115 0.05426359176635742
-0.3393329977989197 0.25581395626068115 0.06976747512817383
-0.3465055525302887 0.25581395626068115 0.11627912521362305
-0.3369406759738922 0.25581395626068115 0.1317828893661499
-0.34755292534828186 0.25581395626068115 0.24031007289886475
-0.34013184905052185 0.27131783962249756 -0.13178294897079468
-0.3430543541908264 0.27131783962249756 -0.11627906560897827
-0.3439937233924866 0.27131783962249756 -0.10077518224716187
-0.3433534502983093 0.27131783962249756 -0.08527129888534546
-0.34173038601875305 0.27131783962249756 -0.06976741552352905
-0.3374693989753723 0.27131783962249756 -0.05426359176635742
-0.33679720759391785 0.27131783962249756 0.038759708404541016
-0.3378971517086029 0.27131783962249756 0.05426359176635742
-0.3379165530204773 0.27131783962249756 0.06976747512817383
-0.3482530117034912 0.27131783962249756 0.08527135848999023
-0.3447418808937073 0.27131783962249756 0.11627912521362305
-0.3349524736404419 0.28682172298431396 -0.13178294897079468
-0.33921653032302856 0.28682172298431396 -0.11627906560897827
-0.340714693069458 0.28682172298431396 -0.10077518224716187
-0.3400382995605469 0.28682172298431396 -0.08527129888534546
-0.33796533942222595 0.28682172298431396 -0.06976741552352905
-0.33433985710144043 0.28682172298431396 0.038759708404541016
-0.3357948064804077 0.28682172298431396 0.05426359176635742
-0.3364754319190979 0.28682172298431396 0.06976747512817383
-0.3394008278846741 0.28682172298431396 0.11627912521362305
-0.3336881101131439 0.30232560634613037 -0.11627906560897827
-0.336201936006546 0.30232560634613037 -0.10077518224716187
-0.33575642108917236 0.30232560634613037 -0.08527129888534546
-0.33347007632255554 0.30232560634613037 -0.06976741552352905
-0.33453914523124695 0.30232560634613037 0.06976747512817383
-0.33548375964164734 0.3178294897079468 -0.10077518224716187
-0.3354697525501251 0.3178294897079468 -0.08527129888534546
-0.33336493372917175 0.3178294897079468 -0.06976741552352905
-0.33565136790275574 0.3178294897079468 0.06976747512817383
-0.3350434899330139 0.3333333730697632 -0.11627906560897827
-0.33875274658203125 0.3333333730697632 -0.10077518224716187
-0.3390843868255615 0.3333333730697632 -0.08527129888534546
-0.3373010754585266 0.3333333730697632 -0.06976741552352905
-0.3333837389945984 0.3333333730697632 0.038759708404541016
-0.3338901698589325 0.3333333730697632 0.05426359176635742
-0.3368987739086151 0.3333333730697632 0.06976747512817383
-0.3370935916900635 0.3488372564315796 -0.11627906560897827
-0.34127017855644226 0.3488372564315796 -0.10077518224716187
-0.3420723080635071 0.3488372564315796 -0.08527129888534546
-0.3409217596054077 0.3488372564315796 -0.06976741552352905
-0.33618712425231934 0.3488372564315796 -0.05426359176635742
-0.333769291639328 0.3488372564315796 0.038759708404541016
-0.33460116386413574 0.3488372564315796 0.06976747512817383
-0.3374464809894562 0.364341139793396 -0.11627906560897827
-0.34213966131210327 0.364341139793396 -0.10077518224716187
-0.3432113528251648 0.364341139793396 -0.08527129888534546
-0.34278061985969543 0.364341139793396 -0.06976741552352905
-0.33926284313201904 0.364341139793396 -0.05426359176635742
-0.33925724029541016 0.364341139793396 0.08527135848999023
-0.34576019644737244 0.364341139793396 0.22480618953704834
-0.337140828371048 0.364341139793396 0.24031007289886475
-0.3349607586860657 0.37984490394592285 -0.13178294897079468
-0.3424277901649475 0.37984490394592285 -0.11627906560897827
-0.3461879789829254 0.37984490394592285 -0.10077518224716187
-0.34677621722221375 0.37984490394592285 -0.08527129888534546
-0.3464335799217224 0.37984490394592285 -0.06976741552352905
-0.3433782458305359 0.37984490394592285 -0.05426359176635742
-0.33798646926879883 0.37984490394592285 -0.038759708404541016
-0.3434942662715912 0.37984490394592285 0.1472867727279663
-0.34178227186203003 0.37984490394592285 0.19379842281341553
-0.33446377515792847 0.37984490394592285 0.20930230617523193
-0.3335493803024292 0.39534878730773926 -0.14728683233261108
-0.3469129800796509 0.39534878730773926 -0.13178294897079468
-0.3436191976070404 0.39534878730773926 -0.038759708404541016
-0.33732423186302185 0.39534878730773926 -0.02325582504272461
-0.3352928161621094 0.39534878730773926 -0.007751941680908203
-0.3333401083946228 0.39534878730773926 0.007751941680908203
-0.3415674567222595 0.41085267066955566 -0.14728683233261108
-0.3390940725803375 0.41085267066955566 -0.038759708404541016
-0.33813169598579407 0.42635655403137207 -0.14728683233261108
-0.34579747915267944 0.42635655403137207 -0.13178294897079468
-0.3462088406085968 0.42635655403137207 -0.06976741552352905
-0.3364483714103699 0.42635655403137207 -0.05426359176635742
-0.33564090728759766 0.4418604373931885 -0.13178294897079468
-0.3392784893512726 0.4418604373931885 -0.11627906560897827
-0.34100523591041565 0.4418604373931885 -0.10077518224716187
-0.338543176651001 0.4418604373931885 -0.08527129888534546
-0.3339318335056305 0.4418604373931885 -0.06976741552352905
-0.3339094817638397 0.4573643207550049 0.20930230617523193
-0.33393576741218567 0.4883720874786377 -0.10077518224716187
-0.3378567397594452 0.4883720874786377 -0.08527129888534546
-0.3402995467185974 0.4883720874786377 -0.06976741552352905
-0.3376449942588806 0.4883720874786377 -0.05426359176635742
-0.33510860800743103 0.4883720874786377 -0.038759708404541016
-0.3357275128364563 0.4883720874786377 -0.02325582504272461
-0.3367328345775604 0.4883720874786377 -0.007751941680908203
-0.33339717984199524 0.4883720874786377 0.007751941680908203
-0.33911657333374023 0.4883720874786377 0.06976747512817383
-0.33495330810546875 0.4883720874786377 0.08527135848999023
-0.3365684449672699 0.5038759708404541 -0.10077518224716187
-0.3410660922527313 0.5038759708404541 -0.08527129888534546
-0.3449353575706482 0.5038759708404541 -0.06976741552352905
-0.3442552983760834 0.5038759708404541 -0.05426359176635742
-0.3438449501991272 0.5038759708404541 -0.038759708404541016
-0.3442351222038269 0.5038759708404541 -0.02325582504272461
-0.3440827429294586 0.5038759708404541 -0.007751941680908203
-0.3411504626274109 0.5038759708404541 0.007751941680908203
-0.3338550925254822 0.5038759708404541 0.02325582504272461
-0.3342454135417938 0.5038759708404541 0.05426359176635742
-0.33752018213272095 0.5038759708404541 0.06976747512817383
-0.33738696575164795 0.5038759708404541 0.11627912521362305
-0.336489737033844 0.5193798542022705 -0.10077518224716187
-0.3401229977607727 0.5193798542022705 -0.08527129888534546
-0.34428781270980835 0.5193798542022705 -0.06976741552352905
-0.3452373147010803 0.5193798542022705 -0.05426359176635742
-0.3464653789997101 0.5193798542022705 -0.038759708404541016
-0.3478643000125885 0.5193798542022705 -0.02325582504272461
-0.34160900115966797 0.5193798542022705 0.02325582504272461
-0.33439427614212036 0.5348837375640869 -0.10077518224716187
-0.33714598417282104 0.5348837375640869 -0.08527129888534546
-0.3418622612953186 0.5348837375640869 -0.06976741552352905
-0.3438056707382202 0.5348837375640869 -0.05426358804106712
-0.34589314460754395 0.5348837375640869 -0.038759708404541016
-0.3482167422771454 0.5348837375640869 -0.02325582504272461
-0.3383846580982208 0.5348837375640869 0.02325582504272461
-0.33873069286346436 0.5503876209259033 -0.06976741552352905
-0.3417065143585205 0.5503876209259033 -0.05426359176635742
-0.3411737084388733 0.5503876209259033 -0.038759708404541016
-0.34210413694381714 0.5503876209259033 -0.02325582504272461
-0.34754663705825806 0.5503876209259033 0.007751941680908203
-0.3465978801250458 0.5968992710113525 -0.05426359176635742
-0.3382699489593506 0.7054263353347778 -0.02325582504272461
-0.33833733201026917 0.7209302186965942 -0.06976741552352905
-0.3454826772212982 0.9844961762428284 -0.038759708404541016
-0.32634973526000977 -0.9689922332763672 0.10077524185180664
-0.32269400358200073 -0.6124030947685242 0.10077524185180664
-0.33302775025367737 -0.5968992114067078 0.10077524185180664
-0.33016714453697205 -0.30232560634613037 0.10077524185180664
-0.32778966426849365 -0.20930230617523193 0.16279065608978271
-0.31882187724113464 -0.1627907156944275 -0.08527129888534546
-0.31916913390159607 -0.1627907156944275 -0.06976741552352905
-0.3210800588130951 -0.1627907156944275 0.02325582504272461
-0.3188866972923279 -0.14728683233261108 -0.10077518224716187
-0.3213312327861786 -0.14728683233261108 -0.08527129888534546
-0.3211548328399658 -0.14728683233261108 -0.06976741552352905
-0.32175660133361816 -0.14728683233261108 0.038759708404541016
-0.31907275319099426 -0.13178294897079468 -0.10077518224716187
-0.32141321897506714 -0.13178294897079468 -0.08527129888534546
-0.3208714723587036 -0.13178294897079468 -0.06976741552352905
-0.32729464769363403 -0.13178294897079468 0.05426359176635742
-0.3196760416030884 -0.11627906560897827 -0.10077518224716187
-0.3221864402294159 -0.11627906560897827 -0.08527129888534546
-0.32168519496917725 -0.11627906560897827 -0.06976741552352905
-0.31818118691444397 -0.10077518224716187 -0.10077518224716187
-0.32100802659988403 -0.10077518224716187 -0.08527129888534546
-0.3206143379211426 -0.10077518224716187 -0.06976741552352905
-0.32480812072753906 -0.10077518224716187 0.19379842281341553
-0.31880590319633484 -0.10077518224716187 0.20930230617523193
-0.31961318850517273 -0.08527129888534546 -0.08527129888534546
-0.319370836019516 -0.08527129888534546 -0.06976741552352905
-0.32826724648475647 -0.08527129888534546 0.06976747512817383
-0.31970375776290894 -0.08527129888534546 0.16279065608978271
-0.328480988740921 -0.08527129888534546 0.17829453945159912
-0.3302007019519806 -0.08527129888534546 0.20930230617523193
-0.32020315527915955 -0.08527129888534546 0.22480618953704834
-0.3186424970626831 -0.06976741552352905 -0.10077518224716187
-0.3213455080986023 -0.06976741552352905 -0.08527129888534546
-0.32130324840545654 -0.06976741552352905 -0.06976741552352905
-0.3324616253376007 -0.06976741552352905 0.06976747512817383
-0.3231599032878876 -0.06976741552352905 0.24031007289886475
-0.32144880294799805 -0.05426359176635742 -0.10077518224716187
-0.323772668838501 -0.05426359176635742 -0.08527129888534546
-0.32357853651046753 -0.05426359176635742 -0.06976741552352905
-0.31965383887290955 -0.05426359176635742 -0.05426359176635742
-0.3206756114959717 -0.05426359176635742 0.1472867727279663
-0.32240524888038635 -0.038759708404541016 -0.10077518224716187
-0.32451874017715454 -0.038759708404541016 -0.08527129888534546
-0.32415860891342163 -0.038759708404541016 -0.06976741552352905
-0.3200654685497284 -0.038759708404541016 -0.05426359176635742
-0.32308468222618103 -0.02325582504272461 -0.10077518224716187
-0.3249163329601288 -0.02325582504272461 -0.08527129888534546
-0.32460054755210876 -0.02325582504272461 -0.06976741552352905
-0.3209225535392761 -0.02325582504272461 -0.05426359176635742
-0.31902363896369934 -0.02325582504272461 0.02325582504272461
-0.32110801339149475 -0.02325582504272461 0.038759708404541016
-0.3217935860157013 -0.02325582504272461 0.05426359176635742
-0.3214799761772156 -0.007751941680908203 -0.11627906560897827
-0.3258022665977478 -0.007751941680908203 -0.10077518224716187
-0.3272559344768524 -0.00775194214656949 -0.08527129888534546
-0.3271259069442749 -0.007751941680908203 -0.06976741552352905
-0.3242740333080292 -0.007751941680908203 -0.05426359176635742
-0.3193642795085907 -0.007751941680908203 -0.038759708404541016
-0.3193649649620056 -0.007751941680908203 0.007751941680908203
-0.3222689926624298 -0.007751941680908203 0.02325582504272461
-0.3244490921497345 -0.007751941680908203 0.038759708404541016
-0.3252536654472351 -0.007751941680908203 0.05426359176635742
-0.3256375193595886 0.007751941680908203 -0.11627906560897827
-0.3288413882255554 0.00775194214656949 -0.10077518224716187
-0.3299623429775238 0.007751941680908203 -0.08527129888534546
-0.3297915458679199 0.007751941680908203 -0.06976741552352905
-0.3274241089820862 0.007751941680908203 -0.05426359176635742
-0.3234339952468872 0.007751941680908203 -0.038759708404541016
-0.3194483518600464 0.007751941680908203 -0.02325582504272461
-0.3195793628692627 0.007751941680908203 -0.007751941680908203
-0.32208341360092163 0.007751941680908203 0.007751941680908203
-0.3245786130428314 0.007751941680908203 0.02325582504272461
-0.32691314816474915 0.007751941680908203 0.038759708404541016
-0.32735463976860046 0.007751941680908203 0.05426359176635742
-0.32421213388442993 0.007751941680908203 0.11627912521362305
-0.3189185857772827 0.007751941680908203 0.1317828893661499
-0.321729451417923 0.02325582504272461 -0.13178294897079468
-0.32804080843925476 0.02325582504272461 -0.11627906560897827
-0.33077067136764526 0.02325582504272461 -0.10077518224716187
-0.3317936658859253 0.02325582504272461 -0.08527129888534546
-0.33164095878601074 0.02325582504272461 -0.06976741552352905
-0.32953956723213196 0.02325582504272461 -0.05426359176635742
-0.32608452439308167 0.02325582504272461 -0.038759708404541016
-0.3224860429763794 0.02325582504272461 -0.02325582504272461
-0.3222608268260956 0.02325582504272461 -0.007751941680908203
-0.3241733908653259 0.02325582504272461 0.007751941680908203
-0.3263280987739563 0.02325582504272461 0.02325582504272461
-0.32856613397598267 0.02325582690536976 0.038759708404541016
-0.328461617231369 0.02325582504272461 0.05426359176635742
-0.3319088816642761 0.02325582504272461 0.06976747512817383
-0.3321591317653656 0.02325582690536976 0.11627913266420364
-0.3296709656715393 0.02325582504272461 0.1317828893661499
-0.32341980934143066 0.038759708404541016 -0.13178294897079468
-0.32935115694999695 0.038759708404541016 -0.11627906560897827
-0.33210915327072144 0.038759708404541016 -0.10077518224716187
-0.33326256275177 0.038759708404541016 -0.08527129888534546
-0.33322468400001526 0.038759708404541016 -0.06976741552352905
-0.33126676082611084 0.038759712129831314 -0.05426359176635742
-0.3280700147151947 0.038759708404541016 -0.038759708404541016
-0.32474005222320557 0.038759708404541016 -0.02325582504272461
-0.3243013620376587 0.038759708404541016 -0.007751941680908203
-0.3258499503135681 0.038759708404541016 0.007751941680908203
-0.3278011083602905 0.038759708404541016 0.02325582504272461
-0.3300381004810333 0.038759708404541016 0.038759708404541016
-0.32980674505233765 0.038759708404541016 0.05426359176635742
-0.33122581243515015 0.038759708404541016 0.06976747512817383
-0.32364946603775024 0.05426359176635742 -0.13178294897079468
-0.3299374580383301 0.05426359176635742 -0.11627907305955887
-0.3329833745956421 0.05426359176635742 -0.10077518224716187
-0.33236247301101685 0.05426358804106712 -0.05426358804106712
-0.32903188467025757 0.05426359176635742 -0.038759708404541016
-0.32559365034103394 0.05426359176635742 -0.02325582504272461
-0.3249467611312866 0.05426359176635742 -0.007751941680908203
-0.3261979818344116 0.05426359176635742 0.007751941680908203
-0.3279287815093994 0.05426359176635742 0.02325582504272461
-0.3301069736480713 0.05426359176635742 0.038759708404541016
-0.3297572731971741 0.05426359176635742 0.05426359176635742
-0.3302870988845825 0.05426359176635742 0.06976747512817383
-0.321058988571167 0.06976747512817383 -0.13178294897079468
-0.3287786543369293 0.06976747512817383 -0.11627906560897827
-0.33244553208351135 0.06976747512817383 -0.10077518224716187
-0.3318168818950653 0.06976747512817383 -0.05426359176635742
-0.3279114067554474 0.06976747512817383 -0.038759708404541016
-0.32387441396713257 0.06976747512817383 -0.02325582504272461
-0.3230631947517395 0.06976747512817383 -0.007751941680908203
-0.3242437243461609 0.06976747512817383 0.007751941680908203
-0.3259538412094116 0.06976747512817383 0.02325582504272461
-0.3280712962150574 0.06976747512817383 0.038759708404541016
-0.32737404108047485 0.06976747512817383 0.05426359176635742
-0.32719993591308594 0.06976747512817383 0.06976747512817383
-0.32512038946151733 0.06976747512817383 0.10077524185180664
-0.32575535774230957 0.08527135848999023 -0.11627906560897827
-0.33052268624305725 0.08527135848999023 -0.10077518224716187
-0.3323165476322174 0.08527136594057083 -0.08527129888534546
-0.33261221647262573 0.08527135848999023 -0.06976741552352905
-0.3299804627895355 0.08527135848999023 -0.05426359176635742
-0.32498443126678467 0.08527135848999023 -0.038759708404541016
-0.319785475730896 0.08527135848999023 -0.02325582504272461
-0.3188416361808777 0.08527135848999023 -0.007751941680908203
-0.32004591822624207 0.08527135848999023 0.007751941680908203
-0.32175636291503906 0.08527135848999023 0.02325582504272461
-0.3235902786254883 0.08527135848999023 0.038759708404541016
-0.3216874599456787 0.08527135848999023 0.05426359176635742
-0.31912192702293396 0.08527135848999023 0.06976747512817383
-0.32412829995155334 0.08527135848999023 0.08527135848999023
-0.32513225078582764 0.08527135848999023 0.11627912521362305
-0.3319947123527527 0.08527135103940964 0.1317828893661499
-0.3242532014846802 0.10077524185180664 -0.11627906560897827
-0.32976675033569336 0.10077524185180664 -0.10077518224716187
-0.33162426948547363 0.10077524185180664 -0.08527129888534546
-0.33202171325683594 0.10077524185180664 -0.06976741552352905
-0.32905465364456177 0.10077524185180664 -0.05426359176635742
-0.3231128454208374 0.10077524185180664 -0.038759708404541016
-0.3182680606842041 0.10077524185180664 0.02325582504272461
-0.31955695152282715 0.10077524185180664 0.038759708404541016
-0.3226124346256256 0.10077524185180664 0.1317828893661499
-0.3307301998138428 0.10077524185180664 0.24031008780002594
-0.3245074152946472 0.11627912521362305 -0.11627906560897827
-0.33005836606025696 0.11627912521362305 -0.10077518224716187
-0.3316434323787689 0.11627912521362305 -0.08527129888534546
-0.33195221424102783 0.11627912521362305 -0.06976741552352905
-0.32889679074287415 0.11627912521362305 -0.05426358804106712
-0.3225964903831482 0.11627912521362305 -0.038759708404541016
-0.3318163752555847 0.11627911776304245 0.22480618953704834
-0.3200978934764862 0.11627912521362305 0.24031007289886475
-0.326999306678772 0.1317828893661499 -0.11627907305955887
-0.33183300495147705 0.1317828893661499 -0.10077517479658127
-0.3329530954360962 0.1317828893661499 -0.08527129888534546
-0.3330558240413666 0.1317828893661499 -0.06976741552352905
-0.3301231563091278 0.1317828893661499 -0.05426359176635742
-0.3243105411529541 0.1317828893661499 -0.038759708404541016
-0.31850191950798035 0.1317828893661499 -0.02325582504272461
-0.31790801882743835 0.1317828893661499 0.007751941680908203
-0.31874880194664 0.1317828893661499 0.02325582504272461
-0.3192794620990753 0.1317828893661499 0.038759708404541016
-0.32846522331237793 0.1317828893661499 0.20930230617523193
-0.3242749571800232 0.1317828893661499 0.22480618953704834
-0.32102060317993164 0.1472867727279663 -0.13178294897079468
-0.3308080732822418 0.1472867727279663 -0.11627906560897827
-0.3319450318813324 0.1472867727279663 -0.05426359176635742
-0.3268141746520996 0.1472867727279663 -0.038759708404541016
-0.322153240442276 0.1472867727279663 -0.02325582504272461
-0.32120853662490845 0.1472867727279663 -0.007751941680908203
-0.3213198781013489 0.1472867727279663 0.007751941680908203
-0.3219359219074249 0.1472867727279663 0.02325582504272461
-0.3224170506000519 0.1472867727279663 0.038759708404541016
-0.3287716507911682 0.1472867727279663 0.20930230617523193
-0.32377350330352783 0.1472867727279663 0.22480618953704834
-0.32832443714141846 0.16279065608978271 -0.13178294897079468
-0.33319565653800964 0.16279065608978271 -0.05426359176635742
-0.32880014181137085 0.16279065608978271 -0.038759708404541016
-0.3252674341201782 0.16279065608978271 -0.02325582504272461
-0.32434576749801636 0.16279065608978271 -0.007751941680908203
-0.3242567181587219 0.16279065608978271 0.007751941680908203
-0.324598491191864 0.16279065608978271 0.02325582504272461
-0.3248346447944641 0.16279065608978271 0.038759708404541016
-0.32064974308013916 0.16279065608978271 0.05426359176635742
-0.33098304271698 0.16279065608978271 0.22480618953704834
-0.32016631960868835 0.16279065608978271 0.24031007289886475
-0.33101123571395874 0.17829453945159912 -0.038759708404541016
-0.32818010449409485 0.17829453945159912 -0.02325582504272461
-0.3274413049221039 0.17829453945159912 -0.007751941680908203
-0.32766926288604736 0.17829453945159912 0.007751941680908203
-0.32832813262939453 0.17829453945159912 0.02325582504272461
-0.3288765549659729 0.17829453945159912 0.038759708404541016
-0.3255253732204437 0.17829453945159912 0.05426359176635742
-0.31855976581573486 0.17829453945159912 0.06976747512817383
-0.3285280466079712 0.17829453945159912 0.24031007289886475
-0.32546356320381165 0.19379842281341553 -0.14728683233261108
-0.3332465887069702 0.19379842281341553 -0.038759708404541016
-0.3311806619167328 0.19379842281341553 -0.02325582504272461
-0.330594003200531 0.19379840791225433 -0.007751941215246916
-0.33102884888648987 0.19379842281341553 0.007751941680908203
-0.33207786083221436 0.19379842281341553 0.02325582504272461
-0.33280324935913086 0.19379843771457672 0.05426359176635742
-0.3308069109916687 0.19379842281341553 0.06976747512817383
-0.3330157697200775 0.20930230617523193 -0.007751941680908203
-0.3311086893081665 0.20930230617523193 0.11627912521362305
-0.3234829008579254 0.20930230617523193 0.1317828893661499
-0.33177992701530457 0.22480618953704834 0.1317828893661499
-0.3330364525318146 0.25581395626068115 -0.02325582504272461
-0.33270978927612305 0.25581395626068115 -0.007751941680908203
-0.3300360441207886 0.27131783962249756 -0.14728683233261108
-0.33238959312438965 0.27131783962249756 -0.038759708404541016
-0.3300406336784363 0.27131783962249756 -0.02325582690536976
-0.33000409603118896 0.27131783962249756 -0.007751941680908203
-0.33112409710884094 0.27131783962249756 0.007751941680908203
-0.33308669924736023 0.27131783962249756 0.02325582504272461
-0.33300602436065674 0.27131783962249756 0.1317829042673111
-0.32134947180747986 0.28682172298431396 -0.14728683233261108
-0.33309417963027954 0.28682172298431396 -0.05426359176635742
-0.3288925886154175 0.28682172298431396 -0.038759708404541016
-0.3259016275405884 0.28682172298431396 -0.02325582504272461
-0.326391339302063 0.28682172298431396 -0.007751941680908203
-0.3284326195716858 0.28682172298431396 0.007751941215246916
-0.33102020621299744 0.28682172298431396 0.02325582504272461
-0.32471463084220886 0.28682172298431396 0.1317828893661499
-0.3209417164325714 0.28682172298431396 0.25581395626068115
-0.3287692368030548 0.30232560634613037 -0.13178294897079468
-0.3295767307281494 0.30232560634613037 -0.05426359176635742
-0.324313223361969 0.30232560634613037 -0.038759708404541016
-0.3207133412361145 0.30232560634613037 -0.02325582504272461
-0.3220061659812927 0.30232560634613037 -0.007751941680908203
-0.3252573609352112 0.30232560634613037 0.007751941680908203
-0.3285905718803406 0.30232560634613037 0.02325582504272461
-0.33179837465286255 0.30232560634613037 0.038759708404541016
-0.3330667018890381 0.302325576543808 0.05426359176635742
-0.3221702575683594 0.30232560634613037 0.11627912521362305
-0.32623839378356934 0.3178294897079468 -0.13178294897079468
-0.3324049711227417 0.31782951951026917 -0.11627906560897827
-0.3292959928512573 0.3178294897079468 -0.05426359176635742
-0.32357990741729736 0.3178294897079468 -0.038759708404541016
-0.31984665989875793 0.3178294897079468 -0.02325582504272461
-0.32160136103630066 0.3178294897079468 -0.007751941680908203
-0.3252708315849304 0.3178294897079468 0.007751941680908203
-0.32873764634132385 0.3178294897079468 0.02325582504272461
-0.33182963728904724 0.3178294897079468 0.038759708404541016
-0.3329649567604065 0.3178294897079468 0.05426359176635742
-0.3191423714160919 0.3178294897079468 0.25581395626068115
-0.32779350876808167 0.3333333730697632 -0.13178294897079468
-0.3322102725505829 0.3333333730697632 -0.05426359176635742
-0.3264267146587372 0.3333333730697632 -0.038759708404541016
-0.3227398991584778 0.3333333730697632 -0.02325582504272461
-0.3244365453720093 0.3333333730697632 -0.007751941680908203
-0.32774752378463745 0.3333333730697632 0.007751941680908203
-0.3308226466178894 0.3333333730697632 0.02325582690536976
-0.3284425437450409 0.3488372564315796 -0.13178294897079468
-0.3299895226955414 0.3488372564315796 -0.038759708404541016
-0.3264644145965576 0.3488372564315796 -0.02325582504272461
-0.32785338163375854 0.3488372564315796 -0.007751941680908203
-0.33037495613098145 0.3488372564315796 0.007751941680908203
-0.3325948715209961 0.3488372564315796 0.02325582318007946
-0.3330007493495941 0.3488372564315796 0.05426359176635742
-0.32754194736480713 0.364341139793396 -0.13178294897079468
-0.33315402269363403 0.364341139793396 -0.038759708404541016
-0.32965087890625 0.364341139793396 -0.02325582504272461
-0.3303992748260498 0.364341139793396 -0.007751941680908203
-0.3317723274230957 0.364341139793396 0.007751941680908203
-0.33256879448890686 0.3643411099910736 0.02325582504272461
-0.33167314529418945 0.364341139793396 0.038759708404541016
-0.3284139335155487 0.364341139793396 0.05426359176635742
-0.3268930912017822 0.364341139793396 0.06976747512817383
-0.3269376754760742 0.364341139793396 0.10077524185180664
-0.3328445553779602 0.37984490394592285 -0.02325582504272461
-0.3321947455406189 0.37984490394592285 -0.007751941680908203
-0.331904798746109 0.37984490394592285 0.007751941680908203
-0.330567330121994 0.37984487414360046 0.02325582318007946
-0.32712143659591675 0.37984490394592285 0.038759708404541016
-0.3219647705554962 0.37984490394592285 0.05426359176635742
-0.3182153105735779 0.37984490394592285 0.06976747512817383
-0.3281649351119995 0.37984490394592285 0.22480617463588715
-0.329454630613327 0.39534878730773926 0.02325582504272461
-0.3240119218826294 0.39534878730773926 0.038759708404541016
-0.31846246123313904 0.39534878730773926 0.05426359176635742
-0.3303207755088806 0.41085267066955566 -0.02325582504272461
-0.3309217691421509 0.41085267066955566 -0.007751941680908203
-0.33079564571380615 0.41085267066955566 0.007751941680908203
-0.3255758285522461 0.41085267066955566 0.02325582504272461
-0.3182498812675476 0.41085267066955566 0.038759708404541016
-0.3200608193874359 0.42635655403137207 0.007751941680908203
-0.32919079065322876 0.4418604373931885 0.25581395626068115
-0.32278308272361755 0.4573643207550049 -0.11627906560897827
-0.33074769377708435 0.4573643207550049 -0.10077518224716187
-0.3285787105560303 0.4573643207550049 -0.08527129888534546
-0.3233618140220642 0.4573643207550049 -0.06976741552352905
-0.3236995339393616 0.4728682041168213 -0.10077518224716187
-0.3278926908969879 0.4728682041168213 -0.08527129888534546
-0.3282775282859802 0.4728682041168213 -0.06976741552352905
-0.3178434371948242 0.4728682041168213 -0.05426359176635742
-0.3191574513912201 0.4728682041168213 0.06976747512817383
-0.3232238292694092 0.4883720874786377 0.05426359176635742
-0.3271416425704956 0.4883720874786377 0.1472867727279663
-0.324044406414032 0.5038759708404541 -0.11627906560897827
-0.3231542408466339 0.5038759708404541 0.038759708404541016
-0.3265135884284973 0.5193798542022705 -0.11627906560897827
-0.3229110836982727 0.5348837375640869 -0.11627906560897827
-0.32080912590026855 0.5348837375640869 0.02325582504272461
-0.32541602849960327 0.5503876209259033 -0.10077518224716187
-0.3291313052177429 0.5503876209259033 -0.08527129888534546
-0.3281610608100891 0.612403154373169 -0.08527129888534546
-0.32191938161849976 0.612403154373169 -0.02325582504272461
-0.33170175552368164 0.6434108018875122 -0.13178294897079468
-0.33045944571495056 0.6434108018875122 0.007751941680908203
-0.33107098937034607 0.6589147448539734 -0.14728683233261108
-0.3235648572444916 0.674418568611145 0.007751941680908203
-0.32986941933631897 0.7054263353347778 -0.038759708404541016
-0.3249514400959015 0.7364341020584106 -0.14728683233261108
-0.327164888381958 0.7364341020584106 -0.13178294897079468
-0.32566291093826294 0.7364341020584106 -0.11627906560897827
-0.31014055013656616 -0.6279069781303406 0.10077524185180664
-0.3034090995788574 -0.20930230617523193 -0.10077518224716187
-0.30585792660713196 -0.20930230617523193 -0.08527129888534546
-0.3046211004257202 -0.20930230617523193 -0.06976741552352905
-0.30721133947372437 -0.20930230617523193 0.05426359176635742
-0.3068121075630188 -0.20930230617523193 0.10077524185180664
-0.3083646297454834 -0.19379842281341553 -0.10077518224716187
-0.31080594658851624 -0.19379842281341553 -0.08527129888534546
-0.3109901249408722 -0.19379842281341553 -0.06976741552352905
-0.3055024743080139 -0.19379842281341553 -0.05426359176635742
-0.3053908348083496 -0.19379842281341553 0.02325582504272461
-0.3078376054763794 -0.1782945990562439 -0.11627906560897827
-0.31334882974624634 -0.1782945990562439 -0.10077518224716187
-0.3151678442955017 -0.1782945990562439 -0.08527129143476486
-0.31565141677856445 -0.1782945841550827 -0.06976741552352905
-0.3117736577987671 -0.1782945990562439 -0.05426359176635742
-0.30608096718788147 -0.1782945990562439 -0.038759708404541016
-0.30678632855415344 -0.1782945990562439 -0.02325582504272461
-0.31187281012535095 -0.1782945990562439 -0.007751941680908203
-0.313812792301178 -0.1782945990562439 0.007751941680908203
-0.3122812509536743 -0.1627907156944275 -0.11627906560897827
-0.316924124956131 -0.1627907156944275 -0.10077518224716187
-0.31484687328338623 -0.1627907156944275 -0.05426359176635742
-0.3100290298461914 -0.1627907156944275 -0.038759708404541016
-0.31038913130760193 -0.1627907156944275 -0.02325582504272461
-0.31421276926994324 -0.1627907156944275 -0.007751941680908203
-0.3157877027988434 -0.1627907156944275 0.007751941215246916
-0.3125442862510681 -0.1627907156944275 0.10077524185180664
-0.30332231521606445 -0.14728683233261108 -0.13178294897079468
-0.31414228677749634 -0.14728683233261108 -0.11627906560897827
-0.3160167634487152 -0.14728683233261108 -0.05426359176635742
-0.31146106123924255 -0.14728683233261108 -0.038759708404541016
-0.31046760082244873 -0.14728683233261108 -0.02325582504272461
-0.31263113021850586 -0.14728683233261108 -0.007751941680908203
-0.3134689927101135 -0.14728683233261108 0.007751941680908203
-0.3144615888595581 -0.14728683233261108 0.02325582504272461
-0.3027379512786865 -0.14728683233261108 0.10077524185180664
-0.3036045730113983 -0.13178294897079468 -0.13178294897079468
-0.31434106826782227 -0.13178294897079468 -0.11627906560897827
-0.31621095538139343 -0.13178294897079468 -0.05426359176635742
-0.3118758499622345 -0.13178294897079468 -0.038759708404541016
-0.30992478132247925 -0.13178294897079468 -0.02325582504272461
-0.3110044598579407 -0.13178294897079468 -0.007751941680908203
-0.3112379312515259 -0.13178294897079468 0.007751941680908203
-0.3110184669494629 -0.13178294897079468 0.02325582504272461
-0.3129574954509735 -0.13178294897079468 0.038759708404541016
-0.3032680153846741 -0.13178294897079468 0.17829453945159912
-0.3071718215942383 -0.13178294897079468 0.19379842281341553
-0.3034490942955017 -0.11627906560897827 -0.13178294897079468
-0.31449514627456665 -0.11627907305955887 -0.11627907305955887
-0.316754549741745 -0.11627906560897827 -0.05426359549164772
-0.3124462366104126 -0.11627906560897827 -0.038759708404541016
-0.30988550186157227 -0.11627906560897827 -0.02325582504272461
-0.31037282943725586 -0.11627906560897827 -0.007751941680908203
-0.31044554710388184 -0.11627906560897827 0.007751941680908203
-0.3096867799758911 -0.11627906560897827 0.02325582504272461
-0.30985233187675476 -0.11627906560897827 0.038759708404541016
-0.31478989124298096 -0.11627906560897827 0.05426359176635742
-0.30631589889526367 -0.11627906560897827 0.10077524185180664
-0.30704692006111145 -0.11627906560897827 0.16279065608978271
-0.311318576335907 -0.11627907305955887 0.17829453945159912
-0.3157058656215668 -0.11627906560897827 0.19379842281341553
-0.31315746903419495 -0.11627906560897827 0.20930230617523193
-0.3078277111053467 -0.11627906560897827 0.22480618953704834
-0.3134450316429138 -0.10077518224716187 -0.11627906560897827
-0.31626206636428833 -0.10077518224716187 -0.05426359176635742
-0.31182342767715454 -0.10077518224716187 -0.038759708404541016
-0.30881696939468384 -0.10077518224716187 -0.02325582504272461
-0.30912578105926514 -0.10077518224716187 -0.007751941680908203
-0.3093831539154053 -0.10077518224716187 0.007751941680908203
-0.3086896538734436 -0.10077518224716187 0.02325582504272461
-0.30802538990974426 -0.10077518224716187 0.038759708404541016
-0.3105085492134094 -0.10077518224716187 0.05426359176635742
-0.3104599714279175 -0.10077518224716187 0.10077524185180664
-0.3133910298347473 -0.10077518969774246 0.16279065608978271
-0.31657296419143677 -0.10077518224716187 0.17829453945159912
-0.31472957134246826 -0.10077518224716187 0.22480620443820953
-0.310049831867218 -0.10077518224716187 0.24031007289886475
-0.312560498714447 -0.08527129888534546 -0.11627906560897827
-0.317172110080719 -0.08527129143476486 -0.10077518224716187
-0.3160684406757355 -0.08527129888534546 -0.05426359176635742
-0.3121457099914551 -0.08527129888534546 -0.038759708404541016
-0.3092315196990967 -0.08527129888534546 -0.02325582504272461
-0.3095191717147827 -0.08527129888534546 -0.007751941680908203
-0.31010401248931885 -0.08527129888534546 0.007751941680908203
-0.3098045587539673 -0.08527129888534546 0.02325582504272461
-0.30895447731018066 -0.08527129888534546 0.038759708404541016
-0.30933094024658203 -0.08527129888534546 0.05426359176635742
-0.31265369057655334 -0.08527129888534546 0.10077524185180664
-0.30323362350463867 -0.08527129888534546 0.1472867727279663
-0.31421220302581787 -0.08527129888534546 0.24031007289886475
-0.3034079670906067 -0.06976741552352905 -0.13178294897079468
-0.314115971326828 -0.06976741552352905 -0.11627906560897827
-0.31750062108039856 -0.06976741552352905 -0.05426359176635742
-0.3142155408859253 -0.06976741552352905 -0.038759708404541016
-0.3116223216056824 -0.06976741552352905 -0.02325582504272461
-0.31189703941345215 -0.06976741552352905 -0.007751941680908203
-0.3128635287284851 -0.06976741552352905 0.007751941680908203
-0.3132387399673462 -0.06976741552352905 0.02325582504272461
-0.31298762559890747 -0.06976741552352905 0.038759708404541016
-0.3124636709690094 -0.06976741552352905 0.05426359549164772
-0.311931312084198 -0.06976741552352905 0.1472867727279663
-0.3038189709186554 -0.06976741552352905 0.25581395626068115
-0.305968701839447 -0.05426359176635742 -0.13178294897079468
-0.31592515110969543 -0.05426359176635742 -0.11627906560897827
-0.3154577612876892 -0.05426359176635742 -0.03875970467925072
-0.31292396783828735 -0.05426359176635742 -0.02325582504272461
-0.3132288455963135 -0.05426359176635742 -0.007751941680908203
-0.31457534432411194 -0.05426359176635742 0.007751941680908203
-0.3155440390110016 -0.05426359176635742 0.02325582504272461
-0.3159354627132416 -0.05426359176635742 0.038759708404541016
-0.3153705894947052 -0.05426359176635742 0.05426359176635742
-0.3074251115322113 -0.05426359176635742 0.25581395626068115
-0.3075399398803711 -0.038759708404541016 -0.13178294897079468
-0.31674113869667053 -0.038759708404541016 -0.11627906560897827
-0.31567323207855225 -0.038759708404541016 -0.038759708404541016
-0.31331124901771545 -0.038759708404541016 -0.02325582504272461
-0.3138267397880554 -0.038759708404541016 -0.007751941680908203
-0.3155514597892761 -0.038759708404541016 0.007751941680908203
-0.31695568561553955 -0.038759708404541016 0.02325582504272461
-0.3176983594894409 -0.038759708404541016 0.038759708404541016
-0.3173799514770508 -0.038759708404541016 0.05426359176635742
-0.30942341685295105 -0.038759708404541016 0.25581395626068115
-0.3095528781414032 -0.02325582504272461 -0.13178294897079468
-0.31758996844291687 -0.02325582504272461 -0.11627905815839767
-0.316415935754776 -0.02325582504272461 -0.038759708404541016
-0.31431108713150024 -0.02325582504272461 -0.02325582504272461
-0.3148995041847229 -0.02325582504272461 -0.00775194214656949
-0.31676170229911804 -0.02325582504272461 0.007751941215246916
-0.3088147044181824 -0.02325582504272461 0.11627912521362305
-0.3052462935447693 -0.02325582504272461 0.1317828893661499
-0.3151710629463196 -0.02325582504272461 0.25581395626068115
-0.31342798471450806 -0.007751941680908203 -0.13178294897079468
-0.3164747655391693 -0.007751941680908203 -0.02325582504272461
-0.3168913722038269 -0.007751941680908203 -0.007751941680908203
-0.3148331642150879 -0.007751941680908203 0.11627912521362305
-0.31220051646232605 -0.007751941680908203 0.1317828893661499
-0.3176572322845459 0.00775194214656949 -0.13178294897079468
-0.3025038540363312 0.038759708404541016 -0.14728683233261108
-0.3175777494907379 0.03875970467925072 0.25581395626068115
-0.3027024567127228 0.05426359176635742 -0.14728683233261108
-0.31454041600227356 0.05426359176635742 0.25581395626068115
-0.30989935994148254 0.06976747512817383 0.25581395626068115
-0.3162550926208496 0.08527135848999023 -0.13178294897079468
-0.3087007403373718 0.08527135848999023 0.10077524185180664
-0.30435144901275635 0.08527135848999023 0.25581395626068115
-0.31411707401275635 0.10077524185180664 -0.13178294897079468
-0.3174070417881012 0.10077524185180664 -0.02325582690536976
-0.31691139936447144 0.10077524185180664 -0.00775194214656949
-0.31736910343170166 0.10077524930238724 0.007751941680908203
-0.31693100929260254 0.10077524185180664 0.05426359176635742
-0.31426095962524414 0.10077524185180664 0.06976747512817383
-0.3139931559562683 0.10077524185180664 0.08527135848999023
-0.3116820454597473 0.10077524185180664 0.11627912521362305
-0.31392762064933777 0.11627912521362305 -0.13178294897079468
-0.317025363445282 0.11627912521362305 -0.02325582504272461
-0.31649109721183777 0.11627912521362305 -0.007751941680908203
-0.3167337477207184 0.11627912521362305 0.00775194214656949
-0.3171728253364563 0.11627912521362305 0.02325582504272461
-0.31754374504089355 0.11627912521362305 0.038759708404541016
-0.3151911795139313 0.11627912521362305 0.05426359176635742
-0.31122761964797974 0.11627912521362305 0.06976747512817383
-0.30736973881721497 0.11627912521362305 0.08527135848999023
-0.3122785985469818 0.11627912521362305 0.1317828893661499
-0.315942645072937 0.1317828893661499 -0.13178294897079468
-0.31767743825912476 0.1317828893661499 -0.007751941680908203
-0.31601008772850037 0.1317828893661499 0.05426359176635742
-0.3109320104122162 0.1317828893661499 0.06976747512817383
-0.30465808510780334 0.1317828893661499 0.08527135848999023
-0.30685704946517944 0.1317828893661499 0.1317828893661499
-0.313399076461792 0.1317828893661499 0.24031007289886475
-0.3178039789199829 0.1472867727279663 0.05426359176635742
-0.31249919533729553 0.1472867727279663 0.06976747512817383
-0.3056992292404175 0.1472867727279663 0.08527135848999023
-0.30503302812576294 0.1472867727279663 0.1317828893661499
-0.3136894106864929 0.1472867727279663 0.24031007289886475
-0.3145330846309662 0.16279065608978271 0.06976747512817383
-0.3097270131111145 0.16279065608978271 0.08527135848999023
-0.3055257201194763 0.16279065608978271 0.1317828893661499
-0.30905044078826904 0.17829453945159912 -0.14728683233261108
-0.31694623827934265 0.17829453945159912 0.08527135848999023
-0.30487000942230225 0.17829453945159912 0.11627912521362305
-0.3080120384693146 0.17829453945159912 0.1317828893661499
-0.30301836133003235 0.17829453945159912 0.25581395626068115
-0.3142237663269043 0.19379840791225433 0.11627912521362305
-0.3139127790927887 0.19379842281341553 0.1317828893661499
-0.3071807622909546 0.19379842281341553 0.25581395626068115
-0.30890101194381714 0.20930230617523193 0.25581395626068115
-0.3095570206642151 0.22480618953704834 0.25581395626068115
-0.31075578927993774 0.24031007289886475 0.25581395626068115
-0.311931312084198 0.25581395626068115 0.25581395626068115
-0.3161787688732147 0.27131783962249756 0.25581395626068115
-0.3084453046321869 0.30232560634613037 -0.14728683233261108
-0.30839934945106506 0.30232560634613037 0.1317828893661499
-0.31684786081314087 0.30232560634613037 0.25581395626068115
-0.30808642506599426 0.3178294897079468 0.11627912521362305
-0.3177494406700134 0.3333333730697632 0.25581395626068115
-0.31032073497772217 0.3488372564315796 0.25581395626068115
-0.3172674775123596 0.37984490394592285 0.08527135848999023
-0.31074947118759155 0.37984490394592285 0.24031007289886475
-0.3162449896335602 0.39534878730773926 0.06976747512817383
-0.3141852617263794 0.39534881711006165 0.08527135848999023
-0.31422218680381775 0.41085267066955566 0.05426359176635742
-0.3149472773075104 0.41085267066955566 0.06976747512817383
-0.31438782811164856 0.41085267066955566 0.08527135848999023
-0.31640729308128357 0.42635655403137207 -0.038759708404541016
-0.31140145659446716 0.42635655403137207 -0.02325582504272461
-0.31627437472343445 0.42635655403137207 -0.007751941680908203
-0.3154750466346741 0.42635655403137207 0.02325582504272461
-0.309164822101593 0.42635655403137207 0.038759708404541016
-0.3054712414741516 0.42635655403137207 0.05426359176635742
-0.30772387981414795 0.42635655403137207 0.06976747512817383
-0.3079398274421692 0.42635655403137207 0.08527135848999023
-0.31600502133369446 0.4418604373931885 -0.05426359176635742
-0.3044683039188385 0.4418604373931885 -0.038759708404541016
-0.3090115189552307 0.4418604373931885 -0.007751941680908203
-0.3120977282524109 0.4418604373931885 0.007751941680908203
-0.30696284770965576 0.4418604373931885 0.02325582504272461
-0.3065126836299896 0.4573643207550049 -0.13178294897079468
-0.3121892511844635 0.4573643207550049 -0.05426359176635742
-0.3030256927013397 0.4573643207550049 -0.038759708404541016
-0.30935150384902954 0.4573643207550049 -0.007751941680908203
-0.3106721043586731 0.4573643207550049 0.00775194214656949
-0.30238476395606995 0.4573643207550049 0.02325582504272461
-0.30276182293891907 0.4573643207550049 0.06976747512817383
-0.31143832206726074 0.4728682041168213 -0.11627906560897827
-0.3103439211845398 0.4728682041168213 -0.038759708404541016
-0.3105197250843048 0.4728682041168213 -0.02325582504272461
-0.31755712628364563 0.4728681743144989 -0.007751941680908203
-0.31464579701423645 0.4728682041168213 0.007751941680908203
-0.3030152916908264 0.4728682041168213 0.02325582504272461
-0.30423420667648315 0.4728682041168213 0.05426359176635742
-0.3082374632358551 0.4728682041168213 0.08527135848999023
-0.31770291924476624 0.4883721172809601 -0.11627907305955887
-0.31642550230026245 0.4883720874786377 0.02325582504272461
-0.31112557649612427 0.4883720874786377 0.038759708404541016
-0.307438462972641 0.5038759708404541 -0.13178294897079468
-0.3126745820045471 0.5038759708404541 0.08527135848999023
-0.3113374710083008 0.5193798542022705 -0.13178294897079468
-0.31479912996292114 0.5193798542022705 0.038759708404541016
-0.3116512894630432 0.5193798542022705 0.05426359176635742
-0.31284111738204956 0.5193798542022705 0.06976747512817383
-0.3081035017967224 0.5348837375640869 -0.13178294897079468
-0.31624072790145874 0.5348837375640869 0.02325582504272461
-0.3142314851284027 0.5503876209259033 -0.11627906560897827
-0.3051018714904785 0.5503876209259033 -0.038759708404541016
