0.5503876209259033 0.40240585803985596 -0.06976741552352905
0.5503876209259033 0.4017098546028137 -0.05426359176635742
0.5503876209259033 0.40059369802474976 -0.038759708404541016
0.5503876209259033 0.39941591024398804 -0.02325582504272461
0.5503876209259033 0.39815422892570496 -0.007751941680908203
0.5658915042877197 -0.40495002269744873 -0.25581395626068115
0.5658915042877197 -0.4056846499443054 -0.24031008780002594
0.5658915042877197 -0.40425652265548706 -0.22480618953704834
0.5658915042877197 -0.4036062955856323 -0.20930230617523193
0.5658915042877197 -0.40381938219070435 -0.19379842281341553
0.5658915042877197 -0.40409034490585327 -0.1782945990562439
0.5658915042877197 -0.4039802551269531 -0.1627907156944275
0.5658915042877197 -0.4043738842010498 -0.14728683233261108
0.5658915042877197 -0.405419260263443 -0.13178294897079468
0.5658915042877197 -0.40612292289733887 -0.11627906560897827
0.5658915042877197 -0.4066665768623352 -0.10077518224716187
0.5658915042877197 -0.4071028232574463 -0.08527129888534546
0.5658915042877197 -0.40717613697052 -0.06976741552352905
0.5658915042877197 -0.40701791644096375 -0.05426359176635742
0.5658915042877197 -0.4065157473087311 -0.038759708404541016
0.5658915042877197 -0.405611127614975 -0.02325582504272461
0.5658915042877197 -0.4027233421802521 -0.007751941680908203
0.5658915042877197 -0.3966969847679138 0.007751941680908203
0.5658915042877197 -0.3868215084075928 0.02325582504272461
0.5658915042877197 -0.38606947660446167 0.038759708404541016
0.5658915042877197 -0.3845859467983246 0.05426359176635742
0.5658915042877197 -0.38279250264167786 0.06976747512817383
0.5658915042877197 -0.3815934360027313 0.08527135848999023
0.5658915042877197 -0.3802542984485626 0.10077524185180664
0.5658915042877197 -0.3690328896045685 0.11627912521362305
0.565891444683075 -0.34718143939971924 0.11627912521362305
0.5658915042877197 -0.3047875165939331 -0.25581395626068115
0.5658915042877197 -0.28908324241638184 -0.06976741552352905
0.5658915042877197 -0.2924406826496124 -0.05426359176635742
0.5658915042877197 -0.2945714592933655 -0.038759708404541016
0.5658915042877197 -0.29278308153152466 -0.02325582504272461
0.5658915042877197 -0.2882363796234131 -0.007751941680908203
0.5658915638923645 -0.2855948507785797 -0.24031007289886475
0.5658915042877197 -0.28606516122817993 -0.22480618953704834
0.5658915042877197 -0.2858735918998718 -0.20930230617523193
0.5658915042877197 -0.27718862891197205 -0.19379842281341553
0.5658915042877197 -0.2789512276649475 -0.10077518224716187
0.5658915042877197 -0.2857256531715393 -0.08527129888534546
0.5658915042877197 -0.2837142050266266 0.007751941680908203
0.5658915042877197 -0.2762143611907959 0.02325582504272461
0.5658915042877197 -0.26827743649482727 0.038759708404541016
0.5658915042877197 -0.26020365953445435 0.05426359176635742
0.5658915042877197 -0.23160763084888458 -0.10077518224716187
0.5658915042877197 -0.2270365059375763 0.11627912521362305
0.5658915042877197 -0.22140026092529297 -0.1782945990562439
0.5658915042877197 -0.21623638272285461 -0.08527129888534546
0.5658915042877197 -0.20985393226146698 -0.06976741552352905
0.5658915042877197 -0.2152874618768692 -0.02325582504272461
0.5658915042877197 -0.21991240978240967 -0.007751941680908203
0.5658915042877197 -0.2191864252090454 0.007751941680908203
0.5658915042877197 -0.21600782871246338 0.02325582504272461
0.5658915042877197 -0.21302063763141632 0.038759708404541016
0.5658915042877197 -0.2132088541984558 0.05426359176635742
0.5658915042877197 -0.20516501367092133 -0.05426359176635742
0.5658915042877197 -0.20851998031139374 -0.038759712129831314
0.5658915042877197 -0.15223616361618042 -0.1782945990562439
0.5658915042877197 0.0891326516866684 -0.05426359176635742
0.5658915042877197 0.08587773889303207 -0.038759708404541016
0.5658915042877197 0.08619076013565063 -0.02325582504272461
0.5658915042877197 0.0898800641298294 -0.007751941680908203
0.5658915042877197 0.09997613728046417 0.007751941680908203
0.5658915042877197 0.10720250010490417 -0.06976741552352905
0.5658915042877197 0.11957541108131409 0.02325582504272461
0.5658915042877197 0.14851653575897217 -0.06976741552352905
0.5658915042877197 0.15918095409870148 -0.02325582504272461
0.5658915042877197 0.1555304378271103 -0.007751941680908203
0.5658915042877197 0.15524041652679443 0.007751941680908203
0.5658915042877197 0.15095436573028564 0.02325582504272461
0.5658915042877197 0.16497404873371124 -0.05426359176635742
0.5658915042877197 0.16652505099773407 -0.038759708404541016
0.5658915042877197 0.18184947967529297 -0.1782945841550827
0.5658915042877197 0.22347383201122284 -0.05426359176635742
0.5658915042877197 0.21938872337341309 -0.038759708404541016
0.5658915042877197 0.22465850412845612 -0.02325582504272461
0.5658915042877197 0.22213463485240936 0.11627912521362305
0.5658915042877197 0.2385859489440918 -0.08527129888534546
0.5658915042877197 0.2323141098022461 -0.06976741552352905
0.5658915042877197 0.23385968804359436 -0.007751941680908203
0.5658915042877197 0.23979537189006805 0.007751941680908203
0.5658915042877197 0.24267049133777618 -0.08527129888534546
0.5658915042877197 0.25299060344696045 -0.06976741552352905
0.5658915042877197 0.26620346307754517 -0.1782945990562439
0.5658915042877197 0.26134008169174194 -0.05426359176635742
0.5658915042877197 0.2688134014606476 -0.038759708404541016
0.5658915042877197 0.2711382210254669 -0.02325582504272461
0.5658915042877197 0.26514601707458496 -0.007751941680908203
0.5658915042877197 0.25753504037857056 0.007751941680908203
0.5658915042877197 0.2811599373817444 -0.24031007289886475
0.5658915042877197 0.28019362688064575 -0.22480618953704834
0.5658915042877197 0.279854953289032 -0.20930230617523193
0.5658915042877197 0.2747124135494232 -0.19379842281341553
0.5658915042877197 0.29829978942871094 -0.25581395626068115
0.5658915042877197 0.32699865102767944 0.11627912521362305
0.5658915042877197 0.3774822950363159 0.06976747512817383
0.5658915042877197 0.3747521936893463 0.08527135848999023
0.5658915042877197 0.37089836597442627 0.10077524185180664
0.5658915042877197 0.36459025740623474 0.11627912521362305
0.5658915042877197 0.3930802345275879 0.007751941680908203
0.5658915042877197 0.3855290114879608 0.02325582504272461
0.5658915042877197 0.3833477199077606 0.038759708404541016
0.5658915042877197 0.38071009516716003 0.05426359176635742
0.5658915042877197 0.39866119623184204 -0.25581395626068115
0.5658915042877197 0.40081775188446045 -0.24031007289886475
0.5658915042877197 0.39992478489875793 -0.22480618953704834
0.5658915042877197 0.39940962195396423 -0.20930230617523193
0.5658915042877197 0.39952340722084045 -0.19379842281341553
0.5658915042877197 0.39965495467185974 -0.1782945990562439
0.5658915042877197 0.39936965703964233 -0.1627907156944275
0.5658915042877197 0.39953938126564026 -0.14728683233261108
0.5658915042877197 0.40038633346557617 -0.13178294897079468
0.5658915042877197 0.4011215269565582 -0.11627906560897827
0.5658915042877197 0.40190160274505615 -0.10077518224716187
0.5658915042877197 0.40230706334114075 -0.08527129888534546
0.5658915042877197 0.4020780324935913 -0.06976741552352905
0.5658915042877197 0.4014529585838318 -0.05426359176635742
0.5658915042877197 0.400424599647522 -0.038759708404541016
0.5658915042877197 0.3992994725704193 -0.02325582504272461
0.5658915042877197 0.3980005085468292 -0.007751941680908203
0.5813953876495361 -0.39950990676879883 -0.25581395626068115
0.5813953876495361 -0.4053236246109009 -0.24031007289886475
0.5813953876495361 -0.405048131942749 -0.22480618953704834
0.5813953876495361 -0.40389055013656616 -0.20930230617523193
0.5813953876495361 -0.4035722613334656 -0.19379842281341553
0.5813953876495361 -0.40389537811279297 -0.1782945990562439
0.5813953876495361 -0.40424904227256775 -0.1627907156944275
0.5813953876495361 -0.4048057794570923 -0.14728683233261108
0.5813953876495361 -0.40552157163619995 -0.13178294897079468
0.5813953876495361 -0.40601688623428345 -0.11627906560897827
0.5813953876495361 -0.4065854549407959 -0.10077517479658127
0.5813953876495361 -0.4069949984550476 -0.08527129888534546
0.5813953876495361 -0.40708330273628235 -0.06976741552352905
0.5813953876495361 -0.40701615810394287 -0.05426359176635742
0.5813953876495361 -0.40659263730049133 -0.038759708404541016
0.5813953876495361 -0.4051191210746765 -0.02325582504272461
0.5813953876495361 -0.400040864944458 -0.007751941680908203
0.5813953876495361 -0.3887099027633667 0.007751941680908203
0.5813953876495361 -0.3855147361755371 0.02325582504272461
0.5813953876495361 -0.3857094347476959 0.038759708404541016
0.5813953876495361 -0.38412797451019287 0.05426359176635742
0.5813953876495361 -0.38237497210502625 0.06976747512817383
0.5813953876495361 -0.38127654790878296 0.08527135848999023
0.5813953876495361 -0.3801141381263733 0.10077524185180664
0.5813953876495361 -0.3684821128845215 0.11627912521362305
0.5813953876495361 -0.3488522469997406 -0.25581395626068115
0.5813953876495361 -0.35057857632637024 0.11627912521362305
0.5813953876495361 -0.3001725673675537 -0.24031007289886475
0.5813953876495361 -0.2894411087036133 -0.22480618953704834
0.5813953876495361 -0.2898882329463959 -0.05426359176635742
0.5813953876495361 -0.291347473859787 -0.038759708404541016
0.5813953876495361 -0.29046040773391724 -0.02325582504272461
0.5813953876495361 -0.28734833002090454 -0.007751941680908203
0.5813953876495361 -0.2866547703742981 -0.20930230617523193
0.5813953876495361 -0.27860593795776367 -0.19379842281341553
0.5813953876495361 -0.2728886306285858 -0.10077518224716187
0.5813953876495361 -0.28152984380722046 -0.08527129888534546
0.5813953280448914 -0.2866831421852112 -0.06976741552352905
0.5813953876495361 -0.28170183300971985 0.007751941680908203
0.5813953876495361 -0.27251508831977844 0.02325582504272461
0.5813953876495361 -0.2595232427120209 0.038759708404541016
0.5813953876495361 -0.24592989683151245 -0.10077518224716187
0.5813953876495361 -0.24271905422210693 0.05426359176635742
0.5813953876495361 -0.22106802463531494 -0.1782945990562439
0.5813953876495361 -0.219666987657547 -0.08527129888534546
0.5813953876495361 -0.21103273332118988 -0.06976741552352905
0.5813953876495361 -0.20948630571365356 -0.038759708404541016
0.5813953876495361 -0.21443790197372437 -0.02325582504272461
0.5813953876495361 -0.2178657352924347 -0.007751941680908203
0.5813953876495361 -0.21785062551498413 0.007751941680908203
0.5813953876495361 -0.21635210514068604 0.02325582504272461
0.5813953876495361 -0.21748918294906616 0.038759708404541016
0.5813953876495361 -0.22455079853534698 0.05426359176635742
0.5813953876495361 -0.22421544790267944 0.11627912521362305
0.5813953876495361 -0.2062106728553772 -0.05426359176635742
0.5813953876495361 -0.14787210524082184 -0.1782945990562439
0.5813953876495361 0.09789685159921646 -0.05426359176635742
0.5813953876495361 0.09447550773620605 -0.038759708404541016
0.5813953876495361 0.09361880272626877 -0.02325582504272461
0.5813953876495361 0.09746327251195908 -0.007751941680908203
0.5813953876495361 0.11119849979877472 0.007751941680908203
0.5813953876495361 0.15790951251983643 -0.05426359176635742
0.5813953876495361 0.15972185134887695 -0.038759708404541016
0.5813953876495361 0.1557992547750473 -0.02325582504272461
0.5813953876495361 0.1537899523973465 -0.007751941680908203
0.5813953876495361 0.15027254819869995 0.007751941680908203
0.5813953280448914 0.17985758185386658 -0.1782945990562439
0.5813953876495361 0.2201744019985199 -0.06976741552352905
0.5813953876495361 0.21378093957901 -0.05426359176635742
0.5813953876495361 0.21196117997169495 -0.038759708404541016
0.5813953876495361 0.21624493598937988 -0.02325582504272461
0.5813953876495361 0.224221870303154 -0.007751941680908203
0.5813953876495361 0.22178006172180176 0.11627912521362305
0.5813953876495361 0.22711306810379028 -0.1627907156944275
0.5813953876495361 0.23764725029468536 -0.11627906560897827
0.5813953876495361 0.23382152616977692 -0.10077518224716187
0.5813953876495361 0.2268727719783783 -0.08527129888534546
0.5813953876495361 0.23148557543754578 0.007751941680908203
0.5813953876495361 0.24323022365570068 -0.11627906560897827
0.5813953876495361 0.2471526861190796 -0.10077518224716187
0.5813953876495361 0.25321483612060547 -0.08527129888534546
0.5813953876495361 0.2674068808555603 -0.1782945990562439
0.5813954472541809 0.2562253773212433 -0.1627907156944275
0.5813953876495361 0.2581358253955841 -0.06976741552352905
0.5813953876495361 0.2637835144996643 -0.05426359176635742
0.5813953876495361 0.2697655260562897 -0.038759708404541016
0.5813953876495361 0.27080050110816956 -0.007751941680908203
0.5813953876495361 0.26350581645965576 0.007751941680908203
0.5813953876495361 0.2819802165031433 -0.22480618953704834
0.5813953876495361 0.28034356236457825 -0.20930230617523193
0.5813953876495361 0.2749551832675934 -0.19379842281341553
0.5813953876495361 0.2732406556606293 -0.02325582690536976
0.5813953876495361 0.2915618121623993 -0.24031005799770355
0.5813953876495361 0.32935914397239685 0.11627912521362305
0.5813953876495361 0.3776263892650604 0.06976747512817383
0.5813953876495361 0.3748687207698822 0.08527135848999023
0.5813953876495361 0.37088489532470703 0.10077524185180664
0.5813953876495361 0.3645690679550171 0.11627912521362305
0.5813953876495361 0.38870376348495483 0.007751941680908203
0.5813953876495361 0.3848305940628052 0.02325582504272461
0.5813953876495361 0.38324102759361267 0.038759708404541016
0.5813953876495361 0.3807391822338104 0.05426358804106712
0.5813953876495361 0.3999093770980835 -0.24031007289886475
0.5813953876495361 0.4001677930355072 -0.22480618953704834
0.5813953876495361 0.39960169792175293 -0.20930230617523193
0.5813953876495361 0.3995147943496704 -0.19379842281341553
0.5813953876495361 0.3995385468006134 -0.1782945990562439
0.5813953876495361 0.3994559645652771 -0.1627907156944275
0.5813953876495361 0.3997266888618469 -0.14728683233261108
0.5813953876495361 0.4003649652004242 -0.13178294897079468
0.5813953876495361 0.4009999632835388 -0.11627905815839767
0.5813953876495361 0.40167564153671265 -0.10077518224716187
0.5813953876495361 0.4019722640514374 -0.08527129888534546
0.5813953876495361 0.40177828073501587 -0.06976741552352905
0.5813953876495361 0.40126797556877136 -0.05426359176635742
0.5813953876495361 0.4003075957298279 -0.038759708404541016
0.5813953876495361 0.39909783005714417 -0.02325582504272461
0.5813953876495361 0.3972400724887848 -0.007751941215246916
0.5968992710113525 -0.4010086953639984 -0.24031007289886475
0.5968992710113525 -0.40543609857559204 -0.22480617463588715
0.5968992710113525 -0.4048794209957123 -0.20930230617523193
0.5968992710113525 -0.40386587381362915 -0.19379842281341553
0.5968992710113525 -0.4036225974559784 -0.1782945990562439
0.5968992710113525 -0.40393948554992676 -0.1627907156944275
0.5968992710113525 -0.4046129584312439 -0.14728683233261108
0.5968992710113525 -0.40534287691116333 -0.13178294897079468
0.5968992710113525 -0.4058740437030792 -0.11627906560897827
0.5968992710113525 -0.40651100873947144 -0.10077518224716187
0.5968992710113525 -0.4069889485836029 -0.08527129888534546
0.5968992710113525 -0.4071906805038452 -0.06976741552352905
0.5968992710113525 -0.40724843740463257 -0.05426359176635742
0.5968992710113525 -0.40656906366348267 -0.038759708404541016
0.5968992710113525 -0.40329307317733765 -0.02325582504272461
0.5968992710113525 -0.3960098624229431 -0.007751941680908203
0.5968992710113525 -0.3861311972141266 0.007751941680908203
0.5968992710113525 -0.38616275787353516 0.02325582504272461
0.5968992710113525 -0.3859354257583618 0.038759708404541016
0.5968992710113525 -0.3840491771697998 0.05426359176635742
0.5968992710113525 -0.38218727707862854 0.06976747512817383
0.5968992710113525 -0.38101720809936523 0.08527135848999023
0.5968992710113525 -0.3798547387123108 0.10077524185180664
0.5968992710113525 -0.36905837059020996 0.11627912521362305
0.5968992710113525 -0.34052079916000366 -0.24031007289886475
0.5968992710113525 -0.34229880571365356 0.11627912521362305
0.5968992710113525 -0.3086358904838562 -0.22480618953704834
0.5968992710113525 -0.2936133146286011 -0.20930230617523193
0.5968992710113525 -0.28997093439102173 -0.05426359176635742
0.5968992710113525 -0.29079335927963257 -0.038759708404541016
0.5968992710113525 -0.28971952199935913 -0.02325582504272461
0.5968992710113525 -0.28700390458106995 -0.007751941680908203
0.5968992710113525 -0.28269776701927185 -0.19379842281341553
0.5968992710113525 -0.27150124311447144 -0.10077518224716187
0.5968992710113525 -0.28080931305885315 -0.08527129888534546
0.5968992710113525 -0.2863294780254364 -0.06976741552352905
0.5968992710113525 -0.2812669277191162 0.007751941680908203
0.5968992710113525 -0.27242374420166016 0.02325582504272461
0.5968992710113525 -0.2588096261024475 0.038759708404541016
0.5968992710113525 -0.25834450125694275 0.11627912521362305
0.5968992710113525 -0.2520548105239868 -0.10077518224716187
0.5968992710113525 -0.2427537888288498 0.05426359176635742
0.5968992710113525 -0.22130392491817474 -0.1782945990562439
0.5968992710113525 -0.21881863474845886 -0.08527129888534546
0.5968992710113525 -0.21241453289985657 -0.02325582504272461
0.5968992710113525 -0.21312671899795532 -0.007751941680908203
0.5968992710113525 -0.2120082676410675 0.007751941680908203
0.5968992710113525 -0.20973040163516998 0.02325582504272461
0.5968992710113525 -0.21177488565444946 0.038759708404541016
0.5968992710113525 -0.22136473655700684 0.05426359176635742
0.5968992710113525 -0.2076224982738495 -0.06976741552352905
0.5968992710113525 -0.20284658670425415 -0.05426359176635742
0.5968992710113525 -0.20922239124774933 -0.038759708404541016
0.5968992710113525 -0.1400776505470276 -0.1782945990562439
0.5968992710113525 -0.1357608437538147 -0.05426359176635742
0.5968992710113525 -0.1267068237066269 -0.05426359176635742
0.5968992710113525 0.10052772611379623 -0.038759708404541016
0.5968992710113525 0.09803777188062668 -0.02325582504272461
0.5968992710113525 0.1003383919596672 -0.007751941680908203
0.5968992710113525 0.10716837644577026 -0.05426359176635742
0.5968992710113525 0.11458905786275864 0.007751941680908203
0.5968992710113525 0.14195221662521362 -0.05426359176635742
0.5968992710113525 0.1466323882341385 0.007751941680908203
0.5968992710113525 0.14806100726127625 -0.038759708404541016
0.5968992710113525 0.1501404345035553 -0.02325582504272461
0.5968992710113525 0.1518021523952484 -0.007751941680908203
0.5968992710113525 0.17963096499443054 -0.1782945990562439
0.5968992710113525 0.2028561383485794 -0.05426359176635742
0.5968992710113525 0.20410335063934326 -0.038759708404541016
0.5968992710113525 0.21972975134849548 -0.1627907156944275
0.5968992710113525 0.22112655639648438 -0.10077518224716187
0.5968992710113525 0.2150501012802124 -0.08527129888534546
0.5968992710113525 0.21005171537399292 -0.06976741552352905
0.5968992710113525 0.2097044289112091 -0.02325582504272461
0.5968992710113525 0.21488362550735474 -0.007751941680908203
0.5968992710113525 0.22069497406482697 0.007751941680908203
0.5968992710113525 0.23284389078617096 -0.14728683233261108
0.5968992710113525 0.2310427874326706 -0.13178294897079468
0.5968992710113525 0.2254513055086136 -0.11627906560897827
0.5968992710113525 0.22966644167900085 0.02325582504272461
0.5968992710113525 0.2511116564273834 -0.14728683233261108
0.5968992710113525 0.25012344121932983 -0.13178294897079468
0.5968992710113525 0.252279669046402 -0.11627906560897827
0.5968992710113525 0.2543812692165375 -0.10077518224716187
0.5968992710113525 0.2486293911933899 0.11627912521362305
0.5968992710113525 0.2689380347728729 -0.1782945990562439
0.5968992710113525 0.25957250595092773 -0.1627907156944275
0.5968992710113525 0.2574794590473175 -0.08527129888534546
0.5968992710113525 0.2609782814979553 -0.06976741552352905
0.5968992710113525 0.26586097478866577 -0.05426359176635742
0.5968992710113525 0.27026447653770447 -0.038759708404541016
0.5968992710113525 0.269322007894516 0.007751941680908203
0.5968992710113525 0.26063627004623413 0.02325582690536976
0.5968992710113525 0.2830330729484558 -0.20930230617523193
0.5968992710113525 0.27720433473587036 -0.19379842281341553
0.5968992710113525 0.274181991815567 -0.02325582504272461
0.5968992710113525 0.2736574113368988 -0.007751941680908203
0.5968992710113525 0.29407066106796265 -0.22480618953704834
0.5968992710113525 0.31064659357070923 0.11627912521362305
0.5968993306159973 0.34923675656318665 -0.24031007289886475
0.5968992710113525 0.37775754928588867 0.06976747512817383
0.5968992710113525 0.37501418590545654 0.08527135848999023
0.5968992710113525 0.3709668517112732 0.10077524185180664
0.5968992710113525 0.3646310865879059 0.11627912521362305
0.5968992710113525 0.38633954524993896 0.007751941680908203
0.5968992710113525 0.38473641872406006 0.02325582504272461
0.5968992710113525 0.3831794857978821 0.038759708404541016
0.5968992710113525 0.3807491362094879 0.05426359176635742
0.5968992710113525 0.395513117313385 -0.24031007289886475
0.5968992710113525 0.3995543420314789 -0.22480618953704834
0.5968992710113525 0.39990657567977905 -0.20930229127407074
0.5968992710113525 0.3998391032218933 -0.19379842281341553
0.5968992710113525 0.39973849058151245 -0.1782945990562439
0.5968992710113525 0.3996584415435791 -0.1627907156944275
0.5968992710113525 0.4000023603439331 -0.14728683233261108
0.5968992710113525 0.40070611238479614 -0.13178294897079468
0.5968992710113525 0.40122875571250916 -0.11627907305955887
0.5968992710113525 0.4016857147216797 -0.10077518224716187
0.5968992710113525 0.40184691548347473 -0.08527129888534546
0.5968992710113525 0.40164023637771606 -0.06976741552352905
0.5968992710113525 0.40114182233810425 -0.05426359176635742
0.5968992710113525 0.4000852704048157 -0.038759708404541016
0.5968992710113525 0.3985782265663147 -0.02325582504272461
0.5968992710113525 0.3956051468849182 -0.007751941680908203
0.612403154373169 -0.40117087960243225 -0.22480618953704834
0.612403154373169 -0.40502792596817017 -0.20930230617523193
0.612403154373169 -0.40473365783691406 -0.19379842281341553
0.612403154373169 -0.4041808843612671 -0.1782945990562439
0.612403154373169 -0.40409237146377563 -0.1627907156944275
0.612403154373169 -0.40462732315063477 -0.14728683233261108
0.612403154373169 -0.4053599238395691 -0.13178294897079468
0.612403154373169 -0.40590471029281616 -0.11627906560897827
0.612403154373169 -0.4064880907535553 -0.10077518224716187
0.612403154373169 -0.40702179074287415 -0.08527129888534546
0.612403154373169 -0.40729182958602905 -0.06976741552352905
0.612403154373169 -0.4071652293205261 -0.05426359176635742
0.612403154373169 -0.40504682064056396 -0.038759708404541016
0.612403154373169 -0.4004237949848175 -0.02325582504272461
0.612403154373169 -0.39176562428474426 -0.007751941680908203
0.612403154373169 -0.3872080445289612 0.007751941680908203
0.612403154373169 -0.3872215747833252 0.02325582504272461
0.612403154373169 -0.38626953959465027 0.038759708404541016
0.612403154373169 -0.3840445578098297 0.05426359176635742
0.612403154373169 -0.3820587992668152 0.06976747512817383
0.612403154373169 -0.3808506727218628 0.08527135848999023
0.612403154373169 -0.37930434942245483 0.10077524930238724
0.612403154373169 -0.36906400322914124 0.11627912521362305
0.612403154373169 -0.34375691413879395 -0.22480618953704834
0.612403154373169 -0.332712322473526 0.11627912521362305
0.612403154373169 -0.31540584564208984 -0.20930230617523193
0.612403154373169 -0.2952171266078949 -0.19379842281341553
0.612403154373169 -0.2910308837890625 -0.06976741552352905
0.612403154373169 -0.2939254641532898 -0.05426359176635742
0.612403154373169 -0.29348790645599365 -0.038759708404541016
0.612403154373169 -0.29136502742767334 -0.02325582504272461
0.612403154373169 -0.2883670926094055 -0.007751941680908203
0.612403154373169 -0.2918754518032074 0.11627912521362305
0.612403154373169 -0.2738035321235657 -0.10077518224716187
0.612403154373169 -0.2859262228012085 -0.08527129888534546
0.612403154373169 -0.28363698720932007 0.007751941680908203
0.612403154373169 -0.2753608524799347 0.02325582504272461
0.612403154373169 -0.25657063722610474 -0.10077518224716187
0.612403154373169 -0.2615449130535126 0.038759708404541016
0.612403154373169 -0.2462691366672516 0.05426359176635742
0.612403154373169 -0.22412320971488953 -0.1782945990562439
0.612403154373169 -0.2180832326412201 -0.08527129888534546
0.612403154373169 -0.21532149612903595 0.05426359176635742
0.612403154373169 -0.20461687445640564 -0.06976741552352905
0.612403154373169 -0.19880974292755127 -0.05426359176635742
0.612403154373169 -0.2057151347398758 -0.038759708404541016
0.612403154373169 -0.20861585438251495 -0.02325582504272461
0.612403154373169 -0.20487836003303528 -0.007751941680908203
0.612403154373169 -0.20017266273498535 0.007751941680908203
0.612403154373169 -0.19674912095069885 0.02325582504272461
0.612403154373169 -0.20214366912841797 0.038759708404541016
0.612403154373169 -0.16655465960502625 -0.05426359176635742
0.612403154373169 -0.16477665305137634 -0.038759708404541016
0.612403154373169 -0.16509491205215454 -0.02325582504272461
0.612403154373169 -0.167734295129776 -0.007751941680908203
0.612403154373169 -0.16796444356441498 0.007751941680908203
0.6124030947685242 -0.16142363846302032 0.02325582504272461
0.612403154373169 -0.12790772318840027 -0.1782945990562439
0.612403154373169 -0.12774626910686493 0.02325582504272461
0.612403154373169 -0.10807682573795319 -0.05426359176635742
0.612403154373169 -0.10582536458969116 -0.038759708404541016
0.612403154373169 -0.1011749655008316 -0.02325582504272461
0.612403154373169 -0.10195288807153702 0.007751941680908203
0.612403154373169 -0.09699232876300812 -0.007751941680908203
0.612403154373169 0.09967188537120819 -0.038759708404541016
0.612403154373169 0.09382635354995728 -0.02325582504272461
0.612403154373169 0.0919455736875534 -0.007751941680908203
0.612403154373169 0.11193838715553284 -0.05426359176635742
0.612403154373169 0.10273921489715576 0.007751941680908203
0.612403154373169 0.13193772733211517 -0.05426359176635742
0.612403154373169 0.14416438341140747 -0.038759708404541016
0.612403154373169 0.15152841806411743 -0.02325582504272461
0.612403154373169 0.15785439312458038 -0.007751941680908203
0.612403154373169 0.15577836334705353 0.007751941680908203
0.612403154373169 0.1800784021615982 -0.1782945990562439
0.612403154373169 0.20585453510284424 -0.08527129888534546
0.612403154373169 0.19853076338768005 -0.06976741552352905
0.612403154373169 0.19526398181915283 -0.05426358804106712
0.612403154373169 0.19733944535255432 -0.038759708404541016
0.612403154373169 0.20040255784988403 -0.02325582504272461
0.612403154373169 0.2042769193649292 -0.007751941680908203
0.612403154373169 0.21713986992835999 -0.1627907156944275
0.612403154373169 0.22239965200424194 -0.13178294897079468
0.612403154373169 0.21755707263946533 -0.11627906560897827
0.612403154373169 0.21328885853290558 -0.10077517479658127
0.612403154373169 0.2098528891801834 0.007751941215246916
0.612403154373169 0.21419915556907654 0.02325582318007946
0.612403154373169 0.2241758555173874 0.038759708404541016
0.612403154373169 0.22640162706375122 -0.14728683233261108
0.612403154373169 0.2647649347782135 -0.1627907156944275
0.612403154373169 0.25963884592056274 -0.14728683233261108
0.612403154373169 0.25915512442588806 -0.13178294897079468
0.612403154373169 0.2600686848163605 -0.11627906560897827
0.612403154373169 0.2615509033203125 -0.10077518224716187
0.612403154373169 0.2639576494693756 -0.08527129888534546
0.612403154373169 0.26671281456947327 -0.06976741552352905
0.612403154373169 0.27053093910217285 -0.05426359176635742
0.612403154373169 0.2644950747489929 0.038759708404541016
0.612403154373169 0.2848725914955139 -0.19379842281341553
0.612403154373169 0.2750229239463806 -0.1782945990562439
0.612403154373169 0.2758217453956604 -0.038759708404541016
0.612403154373169 0.2798379957675934 -0.02325582504272461
0.612403154373169 0.28022029995918274 -0.007751941680908203
0.612403154373169 0.2778293788433075 0.007751941680908203
0.6124032139778137 0.2730250358581543 0.02325582504272461
0.612403154373169 0.29903003573417664 -0.20930230617523193
0.612403154373169 0.35382694005966187 -0.22480618953704834
0.612403154373169 0.37777000665664673 0.06976747512817383
0.612403154373169 0.3750961720943451 0.08527135848999023
0.612403154373169 0.37105095386505127 0.10077524185180664
0.612403154373169 0.3644755482673645 0.11627913266420364
0.612403154373169 0.392829030752182 -0.007751941680908203
0.612403154373169 0.38605523109436035 0.007751941680908203
0.612403154373169 0.3847876191139221 0.02325582318007946
0.612403154373169 0.38307249546051025 0.038759708404541016
0.612403154373169 0.3806983232498169 0.05426359176635742
0.612403154373169 0.39639797806739807 -0.22480618953704834
0.612403154373169 0.3989696204662323 -0.20930230617523193
0.612403154373169 0.39959198236465454 -0.19379842281341553
0.612403154373169 0.39976781606674194 -0.1782945990562439
0.612403154373169 0.399791955947876 -0.1627907156944275
0.612403154373169 0.40006235241889954 -0.14728683233261108
0.612403154373169 0.4005841612815857 -0.13178294897079468
0.612403154373169 0.40090304613113403 -0.11627906560897827
0.612403154373169 0.4012051820755005 -0.10077518224716187
0.612403154373169 0.4013363718986511 -0.08527129888534546
0.612403154373169 0.40114277601242065 -0.06976741552352905
0.612403154373169 0.4006040096282959 -0.05426359176635742
0.612403154373169 0.3994233310222626 -0.038759708404541016
0.612403154373169 0.39770105481147766 -0.02325582504272461
0.6279069185256958 -0.40035480260849 -0.20930230617523193
0.6279069185256958 -0.4035794734954834 -0.19379842281341553
0.6279069185256958 -0.4039902687072754 -0.1782945990562439
0.6279069185256958 -0.4039870500564575 -0.1627907156944275
0.6279069185256958 -0.4043385684490204 -0.14728683233261108
0.6279069185256958 -0.40487372875213623 -0.13178294897079468
0.6279069185256958 -0.405384361743927 -0.11627906560897827
0.6279069185256958 -0.4059300422668457 -0.10077518224716187
0.6279069185256958 -0.40640318393707275 -0.08527129888534546
0.6279069185256958 -0.4061412215232849 -0.06976741552352905
0.6279069185256958 -0.40424036979675293 -0.05426359176635742
0.6279069185256958 -0.4009452164173126 -0.038759708404541016
0.6279069185256958 -0.3968821167945862 -0.02325582504272461
0.6279069185256958 -0.3907158672809601 -0.007751941680908203
0.6279069185256958 -0.38894516229629517 0.007751941680908203
0.6279069185256958 -0.38789939880371094 0.02325582504272461
0.6279069185256958 -0.3862459361553192 0.038759708404541016
0.6279069185256958 -0.3837728798389435 0.05426359176635742
0.6279069185256958 -0.38175952434539795 0.06976747512817383
0.6279069185256958 -0.3806145489215851 0.08527135848999023
0.6279069185256958 -0.37879523634910583 0.10077524185180664
0.6279069185256958 -0.36921417713165283 0.11627912521362305
0.6279069185256958 -0.34415873885154724 -0.20930230617523193
0.6279069185256958 -0.3197125792503357 -0.19379842281341553
0.6279069185256958 -0.2910359501838684 -0.06976741552352905
0.6279069185256958 -0.29304230213165283 -0.05426359176635742
0.6279069185256958 -0.29121214151382446 -0.038759708404541016
0.6279069185256958 -0.28932565450668335 -0.02325582504272461
0.6279069185256958 -0.2845771014690399 -0.08527129888534546
0.6279069781303406 -0.2867740988731384 -0.00775194214656949
0.6279069185256958 -0.2816247344017029 0.007751941680908203
0.6279069185256958 -0.27309760451316833 0.02325582504272461
0.6279069185256958 -0.2568296790122986 0.038759708404541016
0.6279069185256958 -0.233038067817688 -0.08527129888534546
0.6279069185256958 -0.2281963974237442 0.05426359176635742
0.6279069185256958 -0.22424186766147614 -0.1782945990562439
0.6279069185256958 -0.21429690718650818 -0.06976741552352905
0.6279069185256958 -0.21063660085201263 -0.038759708404541016
0.6279069185256958 -0.20934921503067017 -0.02325582504272461
0.627906858921051 -0.22349227964878082 0.05426359176635742
0.6279069781303406 -0.2080678939819336 -0.05426359176635742
0.6279069185256958 -0.2001611292362213 -0.007751941680908203
0.6279069185256958 -0.20115531980991364 0.038759708404541016
0.6279069185256958 -0.16523022949695587 -0.05426359176635742
0.6279069185256958 -0.16773855686187744 -0.038759708404541016
0.6279069185256958 -0.1713872253894806 -0.02325582504272461
0.6279069185256958 -0.1774643361568451 -0.007751941680908203
0.6279069185256958 -0.11716891080141068 -0.1782945990562439
0.6279069185256958 -0.12245863676071167 0.02325582504272461
0.6279069185256958 -0.11107960343360901 -0.05426359176635742
0.6279069185256958 -0.10563832521438599 -0.038759708404541016
0.6279069185256958 -0.0994483008980751 -0.02325582318007946
0.6279069185256958 -0.09519887715578079 -0.00775194214656949
0.6279069185256958 -0.10023660957813263 0.00775194214656949
0.6279069185256958 0.09567567706108093 -0.02325582504272461
0.6279069185256958 0.09213683754205704 -0.007751941680908203
0.6279069185256958 0.10648740828037262 -0.038759708404541016
0.6279069185256958 0.10315040498971939 0.007751941680908203
0.6279069185256958 0.1356564611196518 -0.038759708404541016
0.6279069185256958 0.14927205443382263 -0.02325582690536976
0.6279069185256958 0.15993769466876984 -0.007751941680908203
0.6279069185256958 0.15686240792274475 0.007751941680908203
0.6279069185256958 0.18301984667778015 -0.1782945990562439
0.6279069185256958 0.20350590348243713 -0.08527129888534546
0.6279069185256958 0.19711527228355408 -0.06976741552352905
0.6279069185256958 0.19457949697971344 -0.05426359176635742
0.6279069185256958 0.1962158977985382 -0.038759708404541016
0.6279069185256958 0.19766895473003387 -0.02325582504272461
0.6279069185256958 0.19909416139125824 -0.007751941680908203
0.6279069185256958 0.20261679589748383 0.007751941680908203
0.6279069185256958 0.20882095396518707 0.02325582504272461
0.6279069185256958 0.2221841663122177 -0.1627907156944275
0.6279069185256958 0.21854418516159058 -0.11627906560897827
0.6279069185256958 0.21305662393569946 -0.10077518224716187
0.6279069185256958 0.2156631052494049 0.038759708404541016
0.6279069185256958 0.23111173510551453 -0.14728683233261108
0.6279069185256958 0.22504927217960358 -0.13178294897079468
0.6279069185256958 0.23527182638645172 0.05426359176635742
0.6279069185256958 0.2692108750343323 -0.1627907156944275
0.6279069185256958 0.2625214159488678 -0.14728683233261108
0.6279069185256958 0.26356279850006104 -0.13178294897079468
0.6279069185256958 0.26572728157043457 -0.11627906560897827
0.6279069185256958 0.26816996932029724 -0.10077518224716187
0.6279069185256958 0.2706163227558136 -0.08527129888534546
0.6279069185256958 0.256695419549942 0.05426359176635742
0.6279069185256958 0.2855570614337921 -0.1782945990562439
0.6279069185256958 0.27441224455833435 -0.06976741552352905
0.6279069185256958 0.2792128324508667 -0.05426359176635742
0.6279069185256958 0.28266555070877075 -0.038759708404541016
0.6279069185256958 0.2849023938179016 -0.02325582504272461
0.6279069185256958 0.28446269035339355 -0.007751941680908203
0.6279069185256958 0.28199219703674316 0.007751941680908203
0.6279069185256958 0.2778703570365906 0.02325582504272461
0.6279069185256958 0.27172723412513733 0.038759708404541016
0.6279069185256958 0.305488646030426 -0.19379840791225433
0.6279069185256958 0.34835395216941833 -0.20930230617523193
0.6279069185256958 0.37769007682800293 0.06976747512817383
0.6279069185256958 0.3750985264778137 0.08527135848999023
0.6279069185256958 0.37117570638656616 0.10077524185180664
0.6279069781303406 0.3644826412200928 0.11627912521362305
0.6279069185256958 0.39016586542129517 -0.007751941680908203
0.6279069185256958 0.3862605690956116 0.007751941680908203
0.6279069185256958 0.38481637835502625 0.02325582504272461
0.6279069185256958 0.382930189371109 0.038759708404541016
0.6279069185256958 0.38061195611953735 0.05426358804106712
0.6279069185256958 0.39595893025398254 -0.20930230617523193
0.6279069185256958 0.3986753225326538 -0.19379842281341553
0.6279069185256958 0.3990500569343567 -0.1782945990562439
0.6279069185256958 0.3991428315639496 -0.1627907156944275
0.6279069185256958 0.3992840349674225 -0.14728683233261108
0.6279069185256958 0.39958450198173523 -0.13178294897079468
0.6279069185256958 0.3997563123703003 -0.11627906560897827
0.6279069185256958 0.3999749422073364 -0.10077518224716187
0.6279069185256958 0.40011900663375854 -0.08527129888534546
0.6279069185256958 0.3999398648738861 -0.06976741552352905
0.6279069185256958 0.399363249540329 -0.05426359176635742
0.6279069185256958 0.39821380376815796 -0.038759708404541016
0.6279069185256958 0.3964691460132599 -0.02325582504272461
0.6434108018875122 -0.3985587954521179 -0.19379842281341553
0.6434108018875122 -0.4002375900745392 -0.1782945990562439
0.6434108018875122 -0.4011063575744629 -0.1627907156944275
0.6434108018875122 -0.4015654921531677 -0.14728683233261108
0.6434108018875122 -0.40188705921173096 -0.13178294897079468
0.6434108018875122 -0.4022318124771118 -0.11627906560897827
0.6434108018875122 -0.40265989303588867 -0.10077518224716187
0.6434108018875122 -0.4029485285282135 -0.08527129888534546
0.6434108018875122 -0.4020352363586426 -0.06976741552352905
0.6434108018875122 -0.3997447192668915 -0.05426359176635742
0.6434108018875122 -0.39713990688323975 -0.038759708404541016
0.6434108018875122 -0.3952825963497162 -0.02325582504272461
0.6434108018875122 -0.39265260100364685 -0.007751941680908203
0.6434108018875122 -0.3904419541358948 0.007751941680908203
0.6434108018875122 -0.388028621673584 0.02325582504272461
0.6434108018875122 -0.38584643602371216 0.038759708404541016
0.6434108018875122 -0.3832463324069977 0.05426359176635742
0.6434108018875122 -0.3813004791736603 0.06976747512817383
0.6434108018875122 -0.38024577498435974 0.08527135848999023
0.6434107422828674 -0.3780205547809601 0.10077524185180664
0.6434108018875122 -0.36970579624176025 0.11627912521362305
0.6434108018875122 -0.34429463744163513 -0.19379842281341553
0.643410861492157 -0.300994873046875 -0.1782945990562439
0.6434108018875122 -0.27475303411483765 -0.06976741552352905
0.6434108018875122 -0.2842397093772888 -0.05426359176635742
0.6434108018875122 -0.28545984625816345 -0.038759708404541016
0.6434108018875122 -0.285933256149292 -0.02325582318007946
0.6434108018875122 -0.28376010060310364 -0.007751941680908203
0.6434108018875122 -0.279035747051239 0.007751941680908203
0.6434108018875122 -0.2690894603729248 -0.1782945990562439
0.6434108018875122 -0.2704850733280182 0.02325582504272461
0.6434108018875122 -0.25149115920066833 0.038759708404541016
0.6434108018875122 -0.2369128167629242 -0.06976741552352905
0.6434108018875122 -0.2164367437362671 -0.1782945990562439
0.6434108018875122 -0.2206546813249588 -0.05426359176635742
0.6434108018875122 -0.21701186895370483 -0.038759708404541016
0.6434108018875122 -0.2113136351108551 -0.02325582504272461
0.6434108018875122 -0.1966363489627838 -0.007751941680908203
0.6434108018875122 -0.19687022268772125 0.038759708404541016
0.6434108018875122 -0.18528836965560913 -0.007751941680908203
0.6434108018875122 -0.16910609602928162 -0.02325582504272461
0.6434108018875122 -0.14839734137058258 -0.05426359176635742
0.6434108018875122 -0.16011402010917664 -0.038759708404541016
0.6434108018875122 -0.12599961459636688 -0.05426359176635742
0.6434108018875122 -0.1261206567287445 0.02325582504272461
0.6434108018875122 -0.1091960221529007 -0.1782945990562439
0.6434108018875122 -0.11213454604148865 -0.038759708404541016
0.6434108018875122 -0.10293873399496078 -0.02325582504272461
0.6434108018875122 -0.10413577407598495 0.007751941680908203
0.6434108018875122 -0.0979091078042984 -0.007751941680908203
0.6434108018875122 0.1006687730550766 -0.02325582504272461
0.6434108018875122 0.09578718990087509 -0.007751941680908203
0.6434108018875122 0.10854030400514603 0.007751941680908203
0.6434108018875122 0.14207515120506287 -0.02325582504272461
0.6434108018875122 0.15769389271736145 -0.007751941680908203
0.6434108018875122 0.15024253726005554 0.007751941680908203
0.6434108018875122 0.19515278935432434 -0.1782945990562439
0.6434108018875122 0.20249514281749725 -0.06976741552352905
0.6434108018875122 0.19810833036899567 -0.05426359176635742
0.6434108018875122 0.19860750436782837 -0.038759708404541016
0.6434108018875122 0.1987912952899933 -0.02325582504272461
0.6434108018875122 0.19929268956184387 -0.007751941680908203
0.6434108018875122 0.202623188495636 0.007751941680908203
0.6434108018875122 0.2081439346075058 0.02325582504272461
0.6434108018875122 0.2206263244152069 -0.10077518224716187
0.643410861492157 0.21130654215812683 -0.08527129888534546
0.6434108018875122 0.21416732668876648 0.038759708404541016
0.6434108018875122 0.23921819031238556 -0.1627907156944275
0.6434108018875122 0.23950564861297607 -0.13178294897079468
0.6434108018875122 0.2295008897781372 -0.11627906560897827
0.6434108018875122 0.23004436492919922 0.05426359176635742
0.6434108018875122 0.2628544569015503 -0.1627907156944275
0.6434108018875122 0.2578366994857788 -0.13178294897079468
0.6434108018875122 0.264822781085968 -0.11627906560897827
0.6434108018875122 0.27041852474212646 -0.10077518224716187
0.6434108018875122 0.2598373293876648 0.05426359176635742
0.6434108018875122 0.27645137906074524 -0.08527129888534546
0.6434108018875122 0.28039079904556274 -0.06976741552352905
0.6434108018875122 0.28342196345329285 -0.05426359176635742
0.6434108018875122 0.28521645069122314 -0.038759708404541016
0.6434108018875122 0.2863754332065582 -0.02325582504272461
0.6434108018875122 0.28503143787384033 -0.007751941680908203
0.6434108018875122 0.2820655107498169 0.007751941680908203
0.6434108018875122 0.278004914522171 0.02325582504272461
0.6434108018875122 0.27253273129463196 0.038759708404541016
0.6434108018875122 0.3022187352180481 -0.1782945990562439
0.6434108018875122 0.34268903732299805 -0.19379842281341553
0.6434108018875122 0.3776113986968994 0.06976747512817383
0.6434108018875122 0.3750300407409668 0.08527135848999023
0.6434108018875122 0.3712697923183441 0.10077524185180664
0.6434108018875122 0.3646138608455658 0.11627912521362305
0.6434108018875122 0.39454731345176697 -0.19379842281341553
0.6434108018875122 0.38955825567245483 -0.007751941680908203
0.6434108018875122 0.38663309812545776 0.007751941680908203
0.6434108018875122 0.3848609924316406 0.02325582504272461
0.6434108018875122 0.3828132152557373 0.038759708404541016
0.6434108018875122 0.3805598020553589 0.05426359176635742
0.6434108018875122 0.39638879895210266 -0.1782945990562439
0.6434108018875122 0.39697265625 -0.1627907156944275
0.643410861492157 0.397336483001709 -0.14728683233261108
0.6434108018875122 0.3977338671684265 -0.13178294897079468
0.6434108018875122 0.39797353744506836 -0.11627905815839767
0.6434108018875122 0.3981448709964752 -0.10077518224716187
0.6434108018875122 0.39822646975517273 -0.08527129888534546
0.6434108018875122 0.3980618417263031 -0.06976741552352905
0.643410861492157 0.3976442813873291 -0.05426359176635742
0.6434108018875122 0.3968829810619354 -0.038759708404541016
0.6434108018875122 0.39556270837783813 -0.02325582504272461
0.6589146852493286 -0.3967946171760559 -0.1627907156944275
0.6589146852493286 -0.397380530834198 -0.14728683233261108
0.6589146852493286 -0.3977038860321045 -0.13178294897079468
0.6589146852493286 -0.398588627576828 -0.11627906560897827
0.6589146852493286 -0.399098664522171 -0.10077518224716187
0.6589146852493286 -0.3994276225566864 -0.08527129888534546
0.6589146852493286 -0.39929908514022827 -0.06976741552352905
0.6589146852493286 -0.39820194244384766 -0.05426359176635742
0.6589146852493286 -0.39633050560951233 -0.038759708404541016
0.6589146852493286 -0.3955502212047577 -0.02325582504272461
0.6589146852493286 -0.3821016848087311 -0.19379842281341553
0.6589146852493286 -0.39173609018325806 -0.1782945990562439
0.6589146852493286 -0.3951328694820404 -0.007751941680908203
0.6589146852493286 -0.3913608193397522 0.007751941680908203
0.6589146852493286 -0.3880263566970825 0.02325582504272461
0.6589146852493286 -0.3854084610939026 0.038759708404541016
0.6589146852493286 -0.3827178180217743 0.05426359176635742
0.6589146852493286 -0.3808704614639282 0.06976747512817383
0.6589146852493286 -0.37986287474632263 0.08527135848999023
0.6589146852493286 -0.37715843319892883 0.10077524185180664
0.6589146852493286 -0.3702164590358734 0.11627912521362305
0.6589146852493286 -0.3626849055290222 -0.19379843771457672
0.6589146852493286 -0.3046454191207886 -0.1782945990562439
0.6589146852493286 -0.27668994665145874 -0.1782945990562439
0.6589146852493286 -0.27202731370925903 -0.05426359176635742
0.6589146852493286 -0.2774159014225006 -0.038759708404541016
0.6589146852493286 -0.2800883650779724 -0.02325582504272461
0.6589146852493286 -0.2790703773498535 -0.007751941680908203
0.6589146852493286 -0.2749325633049011 0.007751941680908203
0.6589146852493286 -0.26686209440231323 0.02325582504272461
0.6589146852493286 -0.2518158257007599 0.038759708404541016
0.6589146852493286 -0.23537364602088928 -0.05426359176635742
0.6589146852493286 -0.2216976135969162 -0.038759708404541016
0.6589146852493286 -0.21131406724452972 -0.02325582504272461
0.6589147448539734 -0.20579829812049866 -0.1782945990562439
0.6589146852493286 -0.16300708055496216 -0.02325582504272461
0.6589146852493286 -0.1692679226398468 0.038759708404541016
0.6589146852493286 -0.13224823772907257 0.02325582504272461
0.6589146852493286 -0.10300369560718536 -0.1782945990562439
0.6589146852493286 -0.11283481121063232 -0.02325582504272461
0.6589146852493286 -0.10507208108901978 -0.007751941680908203
0.6589146852493286 -0.11178583651781082 0.007751941680908203
0.6589146852493286 0.1105746477842331 -0.02325582504272461
0.6589146852493286 0.10231387615203857 -0.007751941680908203
0.6589146852493286 0.12094950675964355 0.007751941680908203
0.6589146852493286 0.1338745653629303 -0.02325582504272461
0.6589146852493286 0.1423298567533493 0.007751941680908203
0.6589146852493286 0.15904036164283752 -0.007751941680908203
0.6589146852493286 0.20540109276771545 -0.05426359176635742
0.6589146852493286 0.20363853871822357 -0.038759708404541016
0.6589146852493286 0.20243000984191895 -0.02325582504272461
0.6589146852493286 0.20216885209083557 -0.007751941680908203
0.6589146852493286 0.20641647279262543 0.007751941680908203
0.6589146852493286 0.21043843030929565 -0.1782945990562439
0.6589146852493286 0.21974927186965942 -0.08527129888534546
0.6589146852493286 0.21176724135875702 -0.06976741552352905
0.6589146852493286 0.2108181267976761 0.02325582504272461
0.6589146852493286 0.2165517807006836 0.038759708404541016
0.6589146852493286 0.23351961374282837 -0.10077518224716187
0.6589146852493286 0.23479193449020386 0.05426359176635742
0.6589146852493286 0.26507803797721863 -0.10077518224716187
0.6589146852493286 0.26981645822525024 0.038759708404541016
0.6589146852493286 0.25681906938552856 0.05426359176635742
0.6589146852493286 0.2748969495296478 -0.08527129888534546
0.6589146852493286 0.27988147735595703 -0.06976741552352905
0.6589146852493286 0.28271278738975525 -0.05426359176635742
0.6589146852493286 0.28385964035987854 -0.038759708404541016
0.6589146852493286 0.2845454812049866 -0.02325582504272461
0.6589146852493286 0.2827126979827881 -0.007751941680908203
0.6589146852493286 0.279328852891922 0.007751941680908203
0.6589146852493286 0.2752044200897217 0.02325582504272461
0.6589146852493286 0.33319976925849915 -0.1782945990562439
0.6589146852493286 0.3776756525039673 0.06976747512817383
0.6589146852493286 0.3750840723514557 0.08527135848999023
0.6589146852493286 0.3715619444847107 0.10077524185180664
0.6589146256446838 0.3650854825973511 0.11627912521362305
0.6589146852493286 0.38752326369285583 -0.1782945990562439
0.6589146852493286 0.3924463391304016 -0.1627907156944275
0.6589146852493286 0.39500221610069275 -0.14728683233261108
0.6589146852493286 0.39443445205688477 -0.02325582504272461
0.6589146852493286 0.3897348642349243 -0.007751941680908203
0.6589146852493286 0.38707584142684937 0.00775194214656949
0.6589146852493286 0.3850005269050598 0.02325582504272461
