0.3578348755836487 0.8449612855911255 -0.14728683233261108
0.3489476144313812 0.8449612855911255 -0.13178294897079468
0.37599849700927734 -0.7829457521438599 -0.19379842281341553
0.3754402995109558 -0.7829457521438599 -0.1782945990562439
0.3686462342739105 -0.751937985420227 -0.1627907156944275
0.36934569478034973 -0.6279069781303406 -0.1627907156944275
0.3655363619327545 -0.6124030947685242 -0.19379842281341553
0.36620521545410156 -0.6124030947685242 -0.1782945990562439
0.37508195638656616 -0.6124030947685242 -0.1627907156944275
0.37482520937919617 -0.5968992114067078 -0.19379842281341553
0.3746342360973358 -0.5968992114067078 -0.1782945990562439
0.37968939542770386 -0.5813953876495361 -0.1782945990562439
0.37827739119529724 -0.5038759708404541 -0.19379842281341553
0.37773337960243225 -0.5038759708404541 -0.1782945990562439
0.37609249353408813 -0.4883720874786377 -0.19379842281341553
0.3751550018787384 -0.4883720874786377 -0.1782945990562439
0.379605770111084 -0.4883720874786377 -0.1627907156944275
0.3744560480117798 -0.4728682041168213 -0.19379842281341553
0.37281861901283264 -0.4728682041168213 -0.1782945990562439
0.37752291560173035 -0.4728682041168213 -0.1627907156944275
0.37367528676986694 -0.4573643207550049 -0.19379842281341553
0.370880663394928 -0.4573643207550049 -0.1782945990562439
0.3762523829936981 -0.4573643207550049 -0.1627907156944275
0.37383759021759033 -0.4418604373931885 -0.19379842281341553
0.36899060010910034 -0.4418604373931885 -0.1782945990562439
0.37513548135757446 -0.4418604373931885 -0.1627907156944275
0.3745691478252411 -0.42635661363601685 -0.19379842281341553
0.3657945990562439 -0.42635661363601685 -0.1782946139574051
0.37331655621528625 -0.42635661363601685 -0.1627907156944275
0.372832328081131 -0.41085273027420044 -0.19379842281341553
0.36616769433021545 -0.41085273027420044 -0.1627907156944275
0.3771340847015381 -0.39534884691238403 -0.14728683233261108
0.3714038133621216 -0.3488371968269348 -0.19379842281341553
0.3705931305885315 -0.317829430103302 -0.1782945990562439
0.37450891733169556 -0.317829430103302 -0.1627907156944275
0.36756348609924316 -0.317829430103302 -0.14728683233261108
0.36665016412734985 -0.30232560634613037 -0.1782945990562439
0.36902451515197754 -0.30232560634613037 -0.1627907156944275
0.36668750643730164 -0.28682172298431396 -0.1627907156944275
0.3652471601963043 -0.007751941680908203 -0.14728683233261108
0.3650664687156677 0.007751941680908203 -0.1782946139574051
0.3696586489677429 0.007751941680908203 -0.11627906560897827
0.36671891808509827 0.038759712129831314 -0.10077518224716187
0.37651798129081726 0.11627912521362305 -0.19379842281341553
0.37741586565971375 0.11627912521362305 -0.11627906560897827
0.37438738346099854 0.1317828893661499 -0.1782945990562439
0.3686958849430084 0.1317828893661499 -0.1627907156944275
0.3711360692977905 0.1317828893661499 -0.14728683233261108
0.37905657291412354 0.1317828893661499 -0.13178294897079468
0.3794395625591278 0.6434108018875122 -0.19379842281341553
0.36979031562805176 0.6434108018875122 -0.1782945990562439
0.3648565709590912 0.6434108018875122 -0.1627907156944275
0.3653041422367096 0.6434108018875122 -0.14728683233261108
0.3707200884819031 0.6434108018875122 -0.13178294897079468
0.37947607040405273 0.6434108018875122 -0.11627906560897827
0.3704369068145752 0.6899224519729614 -0.10077518224716187
0.3724114000797272 0.7984496355056763 -0.19379842281341553
0.37638360261917114 0.8139535188674927 -0.1782945990562439
0.3720012903213501 0.8294574022293091 -0.1627907156944275
0.37741199135780334 0.8294574022293091 -0.13178294897079468
0.3843652904033661 -0.7674418687820435 -0.19379842281341553
0.3874661922454834 -0.7674418687820435 -0.1782945990562439
0.39375007152557373 -0.751937985420227 -0.19379842281341553
0.3868404030799866 -0.7364341020584106 -0.1627907156944275
0.3942403793334961 -0.6589146852493286 -0.14728683233261108
0.3896850347518921 -0.643410861492157 -0.14728683233261108
0.391624391078949 -0.6279069781303406 -0.14728683233261108
0.3953009247779846 -0.6124030947685242 -0.14728683233261108
0.3803071081638336 -0.5968992114067078 -0.1627907156944275
0.3802541196346283 -0.5813953876495361 -0.19379842281341553
0.3894549608230591 -0.5813953876495361 -0.1627907156944275
0.3883189558982849 -0.5658915042877197 -0.19379842281341553
0.38735413551330566 -0.5658915042877197 -0.1782945990562439
0.3932282328605652 -0.5658915042877197 -0.1627907156944275
0.38982027769088745 -0.5503876209259033 -0.19379842281341553
0.3888252377510071 -0.5503876209259033 -0.1782945990562439
0.39400237798690796 -0.5503876209259033 -0.1627907156944275
0.3885100185871124 -0.5348837375640869 -0.19379842281341553
0.3875850439071655 -0.5348837375640869 -0.1782945990562439
0.3927806615829468 -0.5348837375640869 -0.1627907156944275
0.38417157530784607 -0.5193798542022705 -0.19379842281341553
0.38316982984542847 -0.5193798542022705 -0.1782946139574051
0.3898565471172333 -0.5193798542022705 -0.1627907156944275
0.38561463356018066 -0.5038759708404541 -0.1627907156944275
0.394501268863678 -0.4883720874786377 -0.14728683233261108
0.3922863006591797 -0.4728682041168213 -0.14728683233261108
0.3911585211753845 -0.4573643207550049 -0.14728683233261108
0.3912985920906067 -0.4418604373931885 -0.14728683233261108
0.3926600217819214 -0.42635661363601685 -0.14728683233261108
0.3933437466621399 -0.41085273027420044 -0.14728683233261108
0.38593804836273193 -0.39534884691238403 -0.19379842281341553
0.38320887088775635 -0.3798449635505676 -0.19379842281341553
0.3799234628677368 -0.3643410801887512 -0.19379842281341553
0.38876286149024963 -0.3488371968269348 -0.1782945990562439
0.3951166570186615 -0.3488371968269348 -0.1627907156944275
0.3884367048740387 -0.3488371968269348 -0.14728683233261108
0.3805142939090729 -0.3333333134651184 -0.1782945990562439
0.3839539885520935 -0.3333333134651184 -0.1627907156944275
0.38021305203437805 -0.3333333134651184 -0.14728683233261108
0.38812536001205444 0.007751941680908203 -0.1627907156944275
0.3946186602115631 0.038759708404541016 -0.19379842281341553
0.3849065899848938 0.08527135848999023 -0.10077518224716187
0.39077699184417725 0.1317828893661499 -0.19379842281341553
0.39317840337753296 0.1317828893661499 -0.11627906560897827
0.38895249366760254 0.1472867727279663 -0.1782945990562439
0.38478392362594604 0.1472867727279663 -0.1627907156944275
0.38689494132995605 0.1472867727279663 -0.14728683233261108
0.3931233882904053 0.1472867727279663 -0.13178294897079468
0.3930979371070862 0.612403154373169 -0.1627907156944275
0.39325347542762756 0.612403154373169 -0.14728683233261108
0.39524438977241516 0.6279069185256958 -0.19379842281341553
0.3850967288017273 0.6279069185256958 -0.1782945990562439
0.3799886107444763 0.6279069185256958 -0.16279073059558868
0.3806549906730652 0.6279069185256958 -0.14728683233261108
0.3860771656036377 0.6279069185256958 -0.13178294897079468
0.39460936188697815 0.6279069185256958 -0.11627906560897827
0.38878631591796875 0.674418568611145 -0.10077518224716187
0.39477667212486267 0.751937985420227 -0.10077518224716187
0.39447253942489624 0.8139535188674927 -0.1627907156944275
0.38034698367118835 0.8294574022293091 -0.14728683233261108
0.39775288105010986 -0.7519379258155823 -0.1782945990562439
0.4045017957687378 -0.7364341020584106 -0.19379842281341553
0.41016384959220886 -0.7364341020584106 -0.1782945990562439
0.4029427170753479 -0.7209302186965942 -0.1627907156944275
0.40210556983947754 -0.6589146852493286 -0.14728683233261108
0.407210111618042 -0.5968992114067078 -0.14728683233261108
0.4084721803665161 -0.5193798542022705 -0.14728683233261108
0.40127986669540405 -0.5038759708404541 -0.14728683233261108
0.3972278833389282 -0.41085270047187805 -0.19379840791225433
0.39851585030555725 -0.41085273027420044 -0.14728683233261108
0.4105027914047241 -0.39534884691238403 -0.1782945990562439
0.39768078923225403 -0.39534884691238403 -0.14728683233261108
0.40238428115844727 -0.3798449635505676 -0.1782945990562439
0.4060506820678711 -0.3798449635505676 -0.1627907156944275
0.3979472815990448 -0.3798449635505676 -0.14728683233261108
0.397154301404953 -0.36434105038642883 -0.1782945990562439
0.4010319709777832 -0.3643410801887512 -0.1627907156944275
0.39627593755722046 -0.3643410801887512 -0.14728683233261108
0.4039984941482544 0.007751941680908203 -0.14728683233261108
0.40445077419281006 0.007751941680908203 -0.13178294897079468
0.401462197303772 0.02325582504272461 -0.1782945990562439
0.40625423192977905 0.10077524185180664 -0.10077518224716187
0.40370994806289673 0.1472867727279663 -0.19379842281341553
0.4060232639312744 0.1472867727279663 -0.11627906560897827
0.40333980321884155 0.16279065608978271 -0.1782945990562439
0.39884698390960693 0.16279065608978271 -0.1627907156944275
0.4007772207260132 0.16279065608978271 -0.14728683233261108
0.40642645955085754 0.16279065608978271 -0.13178294897079468
0.40962281823158264 0.5813953876495361 -0.1627907156944275
0.4087460935115814 0.5813953876495361 -0.14728683233261108
0.4106844365596771 0.5813953876495361 -0.13178294897079468
0.4080226421356201 0.5968992710113525 -0.1782945990562439
0.4035581350326538 0.5968992710113525 -0.1627907156944275
0.40333276987075806 0.5968992710113525 -0.14728683233261108
0.4060589671134949 0.5968992710113525 -0.13178294897079468
0.4095018804073334 0.612403154373169 -0.19379842281341553
0.39839446544647217 0.612403154373169 -0.1782945990562439
0.39755305647850037 0.612403154373169 -0.13178294897079468
0.4064710736274719 0.612403154373169 -0.11627906560897827
0.40350010991096497 0.6589146852493286 -0.10077518224716187
0.39786574244499207 0.7829457521438599 -0.19379842281341553
0.40061473846435547 0.7984496355056763 -0.1782945990562439
0.4022217392921448 0.7984496355056763 -0.11627906560897827
0.4047851264476776 0.8139535188674927 -0.14728683233261108
0.4033261239528656 0.8139535188674927 -0.13178294897079468
0.41212043166160583 -0.7209302186965942 -0.19379842281341553
0.42059287428855896 -0.7209302186965942 -0.1782945990562439
0.42203301191329956 -0.7054263353347778 -0.19379842281341553
0.41701042652130127 -0.7054263353347778 -0.1627907156944275
0.4184909462928772 -0.5813953876495361 -0.14728683233261108
0.424286812543869 -0.5658915042877197 -0.14728683233261108
0.4230356812477112 -0.5503876209259033 -0.14728683233261108
0.41710883378982544 -0.5348837375640869 -0.14728683233261108
0.42091816663742065 -0.42635661363601685 -0.19379842281341553
0.4203338623046875 -0.42635661363601685 -0.14728683233261108
0.4234817326068878 -0.41085273027420044 -0.1782945990562439
0.42574813961982727 -0.41085273027420044 -0.1627907156944275
0.4131453335285187 -0.39534884691238403 -0.1627907156944275
0.4197452664375305 0.11627912521362305 -0.10077518224716187
0.4252172112464905 0.1317828893661499 -0.10077518224716187
0.41785234212875366 0.16279065608978271 -0.19379842281341553
0.41796016693115234 0.16279065608978271 -0.11627905815839767
0.41906189918518066 0.17829453945159912 -0.1782945990562439
0.4137946367263794 0.17829453945159912 -0.1627907156944275
0.41504770517349243 0.17829453945159912 -0.14728683233261108
0.42026740312576294 0.17829453945159912 -0.13178294897079468
0.4255431592464447 0.5348837375640869 -0.14728683233261108
0.4262634515762329 0.5348837375640869 -0.13178294897079468
0.42145073413848877 0.5503876209259033 -0.1627907156944275
0.42008697986602783 0.5503876209259033 -0.14728683233261108
0.4212590157985687 0.5503876209259033 -0.13178294897079468
0.42512550950050354 0.5503876209259033 -0.11627906560897827
0.4212847352027893 0.5658915042877197 -0.1782945990562439
0.4163172245025635 0.5658915042877197 -0.1627907156944275
0.4146522283554077 0.5658915042877197 -0.14728683233261108
0.4168250560760498 0.5658915042877197 -0.13178294897079468
0.42177462577819824 0.5658915042877197 -0.11627906560897827
0.42566612362861633 0.5813953876495361 -0.19379842281341553
0.4161955714225769 0.5813953876495361 -0.1782945990562439
0.4186162054538727 0.5813953876495361 -0.11627906560897827
0.4194991886615753 0.5968992710113525 -0.19379842281341553
0.41306620836257935 0.5968992710113525 -0.11627906560897827
0.42401328682899475 0.6279069185256958 -0.10077518224716187
0.4161612391471863 0.6434108018875122 -0.10077518224716187
0.41817301511764526 0.7364341020584106 -0.10077518224716187
0.4215226173400879 0.7674418687820435 -0.19379842281341553
0.42380452156066895 0.7829457521438599 -0.1782945990562439
0.4181748032569885 0.7984496355056763 -0.1627907156944275
0.4263560473918915 0.7984496355056763 -0.13178294897079468
0.42865103483200073 -0.7054263353347778 -0.1782945990562439
0.4292672574520111 -0.6899224519729614 -0.19379842281341553
0.43784064054489136 -0.6899224519729614 -0.1782945990562439
0.42906293272972107 -0.6899223923683167 -0.1627907156944275
0.4380268454551697 -0.674418568611145 -0.19379842281341553
0.4387543201446533 -0.674418568611145 -0.1627907156944275
0.42782458662986755 -0.643410861492157 -0.14728683233261108
0.43756425380706787 -0.6279069781303406 -0.14728683233261108
0.4404466450214386 -0.4418604373931885 -0.19379842281341553
0.4326775074005127 -0.4418604373931885 -0.14728683233261108
0.4405967593193054 -0.42635661363601685 -0.1782945990562439
0.44054582715034485 -0.42635661363601685 -0.1627907156944275
0.43102753162384033 0.02325582504272461 -0.1627907156944275
0.4266411066055298 0.02325582504272461 -0.11627906560897827
0.4383279085159302 0.05426359176635742 -0.10077518224716187
0.4315274953842163 0.1472867727279663 -0.10077518224716187
0.44016510248184204 0.16279065608978271 -0.10077518224716187
0.4338085651397705 0.17829453945159912 -0.19379842281341553
0.4303334355354309 0.17829453945159912 -0.11627906560897827
0.437585711479187 0.19379842281341553 -0.1782945990562439
0.43090173602104187 0.19379842281341553 -0.1627907156944275
0.4310877025127411 0.19379840791225433 -0.14728683233261108
0.43611299991607666 0.19379842281341553 -0.13178294897079468
0.4378476142883301 0.5193798542022705 -0.1627907156944275
0.43575355410575867 0.5193798542022705 -0.14728683233261108
0.43664446473121643 0.5193798542022705 -0.13178294897079468
0.44084733724594116 0.5193798542022705 -0.11627906560897827
0.4353187382221222 0.5348837375640869 -0.1782945990562439
0.4284789264202118 0.5348837375640869 -0.1627907156944275
0.4331718683242798 0.5348837375640869 -0.11627906560897827
0.43840399384498596 0.5503876209259033 -0.19379842281341553
0.4267488420009613 0.5503876805305481 -0.1782945990562439
0.4394760727882385 0.5503876209259033 -0.10077518224716187
0.43234941363334656 0.5658915042877197 -0.19379842281341553
0.4361581802368164 0.5658915042877197 -0.10077518224716187
0.4336416721343994 0.5813953876495361 -0.10077518224716187
0.4313838481903076 0.5968992710113525 -0.10077518224716187
0.4278968572616577 0.6124032139778137 -0.10077518969774246
0.4347204566001892 0.7209302186965942 -0.10077518224716187
0.4411757290363312 0.7829457521438599 -0.1627907156944275
0.42888349294662476 0.7829457521438599 -0.11627905815839767
0.4267953038215637 0.7984496355056763 -0.14728683233261108
0.44465863704681396 -0.674418568611145 -0.1782945990562439
0.4443778395652771 -0.6589146852493286 -0.19379842281341553
0.45271754264831543 -0.6589146852493286 -0.1782945990562439
0.4477691054344177 -0.6589146852493286 -0.1627907156944275
0.4532720744609833 -0.643410861492157 -0.19379842281341553
0.4559727907180786 -0.643410861492157 -0.1627907156944275
0.44582459330558777 -0.6124030947685242 -0.14728683233261108
0.4487569034099579 -0.5968992114067078 -0.14728683233261108
0.44987350702285767 -0.5813953876495361 -0.14728683233261108
0.4496830105781555 -0.5658915042877197 -0.14728683233261108
0.4498102068901062 -0.5503876209259033 -0.14728683233261108
0.4502471685409546 -0.5348837375640869 -0.14728683233261108
0.45062607526779175 -0.5193798542022705 -0.14728683233261108
0.45016908645629883 -0.5038759708404541 -0.14728683233261108
0.4479770064353943 -0.4883720874786377 -0.14728683233261108
0.4453238248825073 -0.4728682041168213 -0.14728683233261108
0.4524480700492859 -0.4573643207550049 -0.19379842281341553
0.4418732821941376 -0.4573643207550049 -0.14728683233261108
0.45263203978538513 -0.4418604373931885 -0.1782945990562439
0.45118212699890137 -0.4418604373931885 -0.1627907156944275
0.44589763879776 0.02325582504272461 -0.14728683233261108
0.4443585276603699 0.02325582504272461 -0.13178294897079468
0.45363718271255493 0.038759708404541016 -0.1782945990562439
0.4545435309410095 0.17829453945159912 -0.10077518224716187
0.4534316658973694 0.19379842281341553 -0.19379842281341553
0.4472132921218872 0.19379842281341553 -0.11627906560897827
0.4503110945224762 0.20930230617523193 -0.1627907156944275
0.4495979845523834 0.20930230617523193 -0.14728683233261108
0.4549805223941803 0.20930230617523193 -0.13178294897079468
0.4505261778831482 0.5038759708404541 -0.1627907156944275
0.44780224561691284 0.5038759708404541 -0.14728683233261108
0.4491826891899109 0.5038759708404541 -0.13178294897079468
0.45504075288772583 0.5038759708404541 -0.11627906560897827
0.4456002712249756 0.5193798542022705 -0.1782945990562439
0.4473074674606323 0.5348837375640869 -0.19379842281341553
0.44736260175704956 0.5348837375640869 -0.10077518224716187
0.44799238443374634 0.7054263353347778 -0.10077518224716187
0.4468277096748352 0.751937985420227 -0.19379842281341553
0.44851380586624146 0.7674418687820435 -0.1782945990562439
0.4500068724155426 0.7674418687820435 -0.11627906560897827
0.4506797194480896 0.7829457521438599 -0.14728683233261108
0.449497789144516 0.7829457521438599 -0.13178294897079468
0.4593660533428192 -0.6434109210968018 -0.1782945990562439
0.4594372510910034 -0.6279069781303406 -0.19379842281341553
0.46688270568847656 -0.6279069781303406 -0.1782945990562439
0.463067889213562 -0.6279070377349854 -0.1627907156944275
0.4673295319080353 -0.6124030947685242 -0.19379842281341553
0.4696081578731537 -0.6124030947685242 -0.1627907156944275
0.47107163071632385 -0.5968992114067078 -0.19379842281341553
0.47162294387817383 -0.5038759708404541 -0.19379842281341553
0.4671768546104431 -0.4883720874786377 -0.19379842281341553
0.4698830246925354 -0.4883720874786377 -0.1627907156944275
0.46212708950042725 -0.4728682041168213 -0.19379842281341553
0.4697335958480835 -0.4728682041168213 -0.1782945990562439
0.465653657913208 -0.4728682041168213 -0.1627907156944275
0.4629063010215759 -0.4573643207550049 -0.1782945990562439
0.45968031883239746 -0.4573643207550049 -0.1627907156944275
0.47020697593688965 0.038759708404541016 -0.1627907156944275
0.4712020456790924 0.038759708404541016 -0.13178294897079468
0.4574323296546936 0.038759712129831314 -0.11627906560897827
0.4589245319366455 0.05426359176635742 -0.19379842281341553
0.46014222502708435 0.06976747512817383 -0.10077518224716187
0.4586295187473297 0.20930232107639313 -0.1782945990562439
0.4683261513710022 0.20930230617523193 -0.11627906560897827
0.4714477062225342 0.22480618953704834 -0.1627907156944275
0.4698641896247864 0.22480618953704834 -0.14728683233261108
0.4662473201751709 0.4883720874786377 -0.1627907156944275
0.463500052690506 0.4883720874786377 -0.14728683233261108
0.465351939201355 0.4883720874786377 -0.13178294897079468
0.47191888093948364 0.4883720874786377 -0.11627906560897827
0.47228777408599854 0.5038759708404541 -0.19379842281341553
0.4586038589477539 0.5038759708404541 -0.1782945990562439
0.4579032063484192 0.5193798542022705 -0.19379842281341553
0.45869913697242737 0.5193798542022705 -0.10077517479658127
0.4705164134502411 0.674418568611145 -0.10077518224716187
0.4603440761566162 0.6899224519729614 -0.10077518224716187
0.46891480684280396 0.7364341020584106 -0.19379842281341553
0.47184300422668457 0.751937985420227 -0.1782945990562439
0.46792611479759216 0.751937985420227 -0.11627906560897827
0.4653494358062744 0.7674418687820435 -0.1627907156944275
0.4724480211734772 0.7674418687820435 -0.14728683233261108
0.4705049693584442 0.7674418687820435 -0.13178294897079468
0.47335654497146606 -0.6124030947685242 -0.1782945990562439
0.4773266315460205 -0.5968992114067078 -0.1782945990562439
0.4739616811275482 -0.596899151802063 -0.1627907156944275
0.4748348295688629 -0.5813953876495361 -0.19379842281341553
0.48158538341522217 -0.5813953876495361 -0.1782945990562439
0.4772259593009949 -0.5813953876495361 -0.1627907156944275
0.47749269008636475 -0.5658915042877197 -0.19379842281341553
0.4837965965270996 -0.5658915042877197 -0.1782945990562439
0.479162335395813 -0.5658915042877197 -0.1627907156944275
0.4779680371284485 -0.5503876209259033 -0.19379842281341553
0.48428893089294434 -0.5503876209259033 -0.1782945990562439
0.47944533824920654 -0.5503876209259033 -0.1627907156944275
0.4772217571735382 -0.5348837375640869 -0.19379840791225433
0.48372066020965576 -0.5348837375640869 -0.1782945990562439
0.4785557687282562 -0.5348837375640869 -0.1627907156944275
0.4750722050666809 -0.5193798542022705 -0.19379842281341553
0.4819702208042145 -0.5193798542022705 -0.1782945990562439
0.4765045642852783 -0.5193798542022705 -0.1627907156944275
0.4790842831134796 -0.5038759708404541 -0.1782945990562439
0.4736465811729431 -0.5038759708404541 -0.1627907156944275
0.47522929310798645 -0.4883720874786377 -0.1782945990562439
0.47462695837020874 0.038759708404541016 -0.14728683233261108
0.4825575649738312 0.05426359176635742 -0.1782945990562439
0.476962685585022 0.05426359176635742 -0.11627906560897827
0.4866361618041992 0.06976747512817383 -0.19379842281341553
0.47525912523269653 0.08527135848999023 -0.10077518224716187
0.4762254059314728 0.19379842281341553 -0.10077518969774246
0.4761294722557068 0.20930230617523193 -0.19379842281341553
0.48059752583503723 0.22480618953704834 -0.1782945990562439
0.4754289984703064 0.22480618953704834 -0.13178294897079468
0.48764318227767944 0.22480618953704834 -0.11627906560897827
0.4869045615196228 0.24031007289886475 -0.14728683233261108
0.48835140466690063 0.4728682041168213 -0.1782945990562439
0.48198941349983215 0.4728682041168213 -0.1627907156944275
0.4796275496482849 0.4728682041168213 -0.14728683233261108
0.48162925243377686 0.4728682041168213 -0.13178294897079468
0.4879514276981354 0.4728682041168213 -0.11627906560897827
0.487535685300827 0.4883720874786377 -0.19379842281341553
0.4745408594608307 0.4883721172809601 -0.1782945990562439
0.47945553064346313 0.5038759708404541 -0.10077518224716187
0.4789111614227295 0.6589146852493286 -0.10077518224716187
0.48799851536750793 0.7209302186965942 -0.19379842281341553
0.48367202281951904 0.7364341020584106 -0.11627906560897827
0.4876280426979065 0.751937985420227 -0.1627907156944275
0.4906081557273865 0.05426359176635742 -0.1627907007932663
0.49211961030960083 0.05426359176635742 -0.14728683233261108
0.488872766494751 0.05426359176635742 -0.13178294897079468
0.5008668899536133 0.06976747512817383 -0.1782945990562439
0.49271610379219055 0.06976747512817383 -0.11627906560897827
0.4909975826740265 0.10077524185180664 -0.10077518224716187
0.502185046672821 0.16279065608978271 -0.20930230617523193
0.49805235862731934 0.22480618953704834 -0.19379842281341553
0.4989449679851532 0.24031007289886475 -0.1782945990562439
0.4888376295566559 0.24031007289886475 -0.1627907156944275
0.49186819791793823 0.24031007289886475 -0.13178294897079468
0.5026044845581055 0.25581395626068115 -0.1627907156944275
0.5001471042633057 0.25581395626068115 -0.14728683233261108
0.5035332441329956 0.25581395626068115 -0.13178294897079468
0.5037364959716797 0.4418604373931885 -0.1627907156944275
0.5016686916351318 0.4418604373931885 -0.14728683233261108
0.5028563141822815 0.4418604373931885 -0.13178294897079468
0.5010859370231628 0.4573643207550049 -0.1782945990562439
0.4948245882987976 0.4573643207550049 -0.1627907156944275
0.4921600818634033 0.45736435055732727 -0.14728683233261108
0.4945438504219055 0.4573643207550049 -0.13178294897079468
0.501541256904602 0.4573643207550049 -0.11627906560897827
0.5015711784362793 0.4728682041168213 -0.19379842281341553
0.49806922674179077 0.6279069185256958 -0.10077518224716187
0.4888342618942261 0.6434108018875122 -0.10077518224716187
0.49793004989624023 0.7209302186965942 -0.11627906560897827
0.49391013383865356 0.7364341020584106 -0.1782945990562439
0.49300479888916016 0.751937985420227 -0.14728683233261108
0.4888061285018921 0.751937985420227 -0.13178294897079468
0.5068501234054565 0.06976747512817383 -0.1627907156944275
0.5075938701629639 0.06976747512817383 -0.14728683233261108
0.5043377876281738 0.06976747512817383 -0.13178294897079468
0.5040011405944824 0.08527135848999023 -0.19379842281341553
0.5160322785377502 0.08527135848999023 -0.1782945990562439
0.5192814469337463 0.08527135848999023 -0.13178294897079468
0.5077712535858154 0.08527135848999023 -0.11627907305955887
0.5104643702507019 0.11627912521362305 -0.10077518224716187
0.5042930245399475 0.16279065608978271 -0.20930230617523193
0.5146201848983765 0.24031007289886475 -0.19379842281341553
0.5050957798957825 0.24031005799770355 -0.11627905815839767
0.5113990306854248 0.25581395626068115 -0.1782945990562439
0.5170994997024536 0.25581395626068115 -0.11627906560897827
0.519031286239624 0.27131783962249756 -0.1782945990562439
0.512128472328186 0.27131783962249756 -0.1627907156944275
0.5097413063049316 0.27131783962249756 -0.14728683233261108
0.513157844543457 0.27131783962249756 -0.13178294897079468
0.5178501605987549 0.28682172298431396 -0.1627907156944275
0.5157551765441895 0.28682172298431396 -0.14728683233261108
0.5180844068527222 0.28682172298431396 -0.13178294897079468
0.5183352828025818 0.30232560634613037 -0.14728683233261108
0.5192440748214722 0.39534878730773926 -0.14728683233261108
0.5184445977210999 0.41085267066955566 -0.1627907156944275
0.51572585105896 0.41085267066955566 -0.14728683233261108
0.5166378617286682 0.41085267066955566 -0.13178294897079468
0.5187354683876038 0.42635655403137207 -0.1782945990562439
0.5130586624145508 0.42635655403137207 -0.1627907156944275
0.5105013847351074 0.42635655403137207 -0.14728683233261108
0.5119307041168213 0.42635655403137207 -0.13178294897079468
0.5180462002754211 0.42635655403137207 -0.11627906560897827
0.5116174221038818 0.4418604373931885 -0.1782945990562439
0.5123587846755981 0.4418604373931885 -0.11627906560897827
0.5137727856636047 0.4573643207550049 -0.19379842281341553
0.5062570571899414 0.4883720874786377 -0.10077518224716187
0.5102041959762573 0.612403154373169 -0.10077518224716187
0.5188094973564148 0.6899224519729614 -0.19379842281341553
0.5043946504592896 0.7054263353347778 -0.19379842281341553
0.5107218623161316 0.7054263353347778 -0.11627906560897827
0.5131130218505859 0.7209302186965942 -0.1782945990562439
0.5071543455123901 0.7364341020584106 -0.1627907007932663
0.5131184458732605 0.7364341020584106 -0.14728683233261108
0.507144033908844 0.7364341020584106 -0.13178294897079468
0.5218066573143005 0.08527135848999023 -0.16279073059558868
0.522407591342926 0.08527135848999023 -0.14728683233261108
0.5229170918464661 0.10077524185180664 -0.19379842281341553
0.5346501469612122 0.10077524185180664 -0.1782945990562439
0.5249844789505005 0.10077524185180664 -0.11627906560897827
0.5290488004684448 0.1317828893661499 -0.10077518224716187
0.5255656838417053 0.25581395626068115 -0.19379842281341553
0.53367018699646 0.27131783962249756 -0.19379842281341553
0.5259095430374146 0.27131783962249756 -0.11627906560897827
0.5262302160263062 0.28682172298431396 -0.1782945990562439
0.5313224792480469 0.28682172298431396 -0.11627906560897827
0.5297189354896545 0.30232560634613037 -0.1782945990562439
0.5213866829872131 0.30232560634613037 -0.1627907156944275
0.5214404463768005 0.30232560634613037 -0.13178294897079468
0.5329532623291016 0.30232560634613037 -0.11627906560897827
0.5314470529556274 0.3178294897079468 -0.1782945990562439
0.5238584876060486 0.3178294897079468 -0.1627907156944275
0.519865095615387 0.3178294897079468 -0.14728683233261108
0.5234982967376709 0.3178294897079468 -0.13178294897079468
0.5332608819007874 0.3178294897079468 -0.11627906560897827
0.5322661399841309 0.3333333730697632 -0.1782945990562439
0.5250775218009949 0.3333333730697632 -0.1627907156944275
0.5214325785636902 0.3333333730697632 -0.14728683233261108
0.5243021249771118 0.3333333730697632 -0.13178294897079468
0.5331727266311646 0.3333333730697632 -0.11627906560897827
0.5324714779853821 0.3488372564315796 -0.1782945990562439
0.5254350900650024 0.3488372564315796 -0.1627907156944275
0.5217218399047852 0.3488372564315796 -0.14728683233261108
0.5241967439651489 0.3488372564315796 -0.13178294897079468
0.5325493812561035 0.3488372564315796 -0.11627906560897827
0.5328811407089233 0.364341139793396 -0.1782945990562439
0.5258736610412598 0.364341139793396 -0.1627907156944275
0.5219645500183105 0.364341139793396 -0.14728683233261108
0.5240060091018677 0.364341139793396 -0.13178294897079468
0.5320035219192505 0.364341139793396 -0.11627906560897827
0.533277690410614 0.37984490394592285 -0.1782945990562439
0.526151716709137 0.37984490394592285 -0.1627907156944275
0.5219481587409973 0.37984490394592285 -0.14728683233261108
0.5236018896102905 0.37984490394592285 -0.13178294897079468
0.5316017866134644 0.37984490394592285 -0.11627906560897827
0.5321347713470459 0.39534878730773926 -0.1782945990562439
0.524577796459198 0.39534878730773926 -0.1627907156944275
0.5207609534263611 0.39534878730773926 -0.13178294897079468
0.5301525592803955 0.39534878730773926 -0.11627906560897827
0.5271077156066895 0.41085267066955566 -0.1782945990562439
0.5255579352378845 0.41085267066955566 -0.11627906560897827
0.5327389240264893 0.42635655403137207 -0.19379842281341553
0.5234287977218628 0.4418604075908661 -0.19379842281341553
0.5224816203117371 0.5968992710113525 -0.10077518224716187
0.5322869420051575 0.674418568611145 -0.19379842281341553
0.5345250964164734 0.674418568611145 -0.11627906560897827
0.5226332545280457 0.6899224519729614 -0.11627905815839767
0.529826819896698 0.7054263353347778 -0.1782945990562439
0.526131272315979 0.7209302186965942 -0.1627907156944275
0.5305421948432922 0.7209302186965942 -0.14728683233261108
0.5242951512336731 0.7209302186965942 -0.13178294897079468
0.5395961999893188 0.10077524185180664 -0.1627907156944275
0.5399763584136963 0.10077524185180664 -0.14728683233261108
0.5362876057624817 0.10077524185180664 -0.13178294897079468
0.5463257431983948 0.11627912521362305 -0.19379842281341553
0.5466729402542114 0.11627912521362305 -0.11627906560897827
0.5436717867851257 0.1472867727279663 -0.10077518224716187
0.5413731336593628 0.28682172298431396 -0.19379842281341553
0.545488715171814 0.30232560634613037 -0.19379842281341553
0.5475631356239319 0.3178294897079468 -0.19379842281341553
0.5486127734184265 0.3333333730697632 -0.19379842281341553
0.5487582087516785 0.3488372564315796 -0.19379842281341553
0.5490312576293945 0.364341139793396 -0.19379842281341553
0.5491187572479248 0.37984490394592285 -0.19379842281341553
0.5476889610290527 0.39534878730773926 -0.19379842281341553
0.5418729186058044 0.41085267066955566 -0.19379842281341553
0.5395042896270752 0.4728682041168213 -0.10077518224716187
0.5487686991691589 0.5658915042877197 -0.10077518224716187
0.5357773900032043 0.5813953876495361 -0.10077518224716187
0.5459020137786865 0.6589146852493286 -0.19379842281341553
0.5481215715408325 0.6589146852493286 -0.11627906560897827
0.544684648513794 0.6899224519729614 -0.1782945990562439
0.541680634021759 0.7054263353347778 -0.1627907156944275
0.5454975366592407 0.7054263353347778 -0.14728683233261108
0.538573682308197 0.7054263353347778 -0.13178294897079468
0.5578524470329285 0.11627912521362305 -0.1782945990562439
0.5627284646034241 0.11627912521362305 -0.1627907156944275
0.5630029439926147 0.11627912521362305 -0.14728683233261108
0.5579885244369507 0.11627912521362305 -0.13178294897079468
0.5535656213760376 0.16279065608978271 -0.10077518224716187
0.5584167242050171 0.17829453945159912 -0.10077518224716187
0.5573705434799194 0.19379842281341553 -0.10077518224716187
0.5609590411186218 0.5503876209259033 -0.10077518224716187
0.5603868961334229 0.6434108018875122 -0.19379842281341553
0.563241183757782 0.6434108018875122 -0.11627906560897827
0.5583482980728149 0.674418568611145 -0.1782945990562439
0.5644785761833191 0.674418568611145 -0.13178294897079468
0.5548073053359985 0.6899224519729614 -0.1627907156944275
0.55906081199646 0.6899224519729614 -0.14728683233261108
0.5513700842857361 0.6899224519729614 -0.13178294897079468
0.569025993347168 0.1317828893661499 -0.19379842281341553
0.5796345472335815 0.1317828893661499 -0.1782945990562439
0.5808954834938049 0.1317828893661499 -0.13178294897079468
0.5682039856910706 0.1317828893661499 -0.11627906560897827
0.578170895576477 0.5038759708404541 -0.10077518224716187
0.5737732648849487 0.5193798542022705 -0.10077518224716187
0.5685960054397583 0.5348837375640869 -0.10077518969774246
0.575742781162262 0.6279069185256958 -0.19379842281341553
0.5794290900230408 0.6279069185256958 -0.11627906560897827
0.5717883110046387 0.6589146852493286 -0.1782945990562439
0.5786729454994202 0.6589146852493286 -0.13178294897079468
0.5675655007362366 0.674418568611145 -0.1627907156944275
0.5711995363235474 0.674418568611145 -0.14728683233261108
0.5854735374450684 0.1317828893661499 -0.1627907156944275
0.5859106779098511 0.1317828893661499 -0.14728683233261108
0.5868498086929321 0.1472867727279663 -0.19379842281341553
0.5868018865585327 0.1472867727279663 -0.11627906560897827
0.5839898586273193 0.4573643207550049 -0.10077518224716187
0.5863785147666931 0.4883720874786377 -0.10077518224716187
0.5913887619972229 0.612403154373169 -0.19379842281341553
0.5959199666976929 0.612403154373169 -0.11627906560897827
0.5849022269248962 0.6434108018875122 -0.1782945990562439
0.5953214168548584 0.6434108018875122 -0.1627907156944275
0.592502236366272 0.6434108018875122 -0.13178294897079468
0.5815805792808533 0.6589146852493286 -0.16279073059558868
0.5837043523788452 0.6589146852493286 -0.14728683233261108
0.6008864641189575 0.1472867727279663 -0.1782945990562439
0.6100462675094604 0.1472867727279663 -0.1627907156944275
0.6046313643455505 0.1472867727279663 -0.13178294897079468
0.6061844229698181 0.16279065608978271 -0.19379842281341553
0.6075412034988403 0.16279065608978271 -0.11627906560897827
0.6023014187812805 0.4573642909526825 -0.10077518224716187
0.5986088514328003 0.4728682041168213 -0.10077518224716187
0.6069418787956238 0.5968992710113525 -0.19379842281341553
0.5983620285987854 0.627906858921051 -0.1782945990562439
0.6095815896987915 0.6279069185256958 -0.1627907156944275
0.6116907596588135 0.6279069185256958 -0.14728683233261108
0.6066097021102905 0.6279069185256958 -0.13178294897079468
0.597172737121582 0.6434108018875122 -0.14728683233261108
0.6128919720649719 0.1472867727279663 -0.14728683233261108
0.626020073890686 0.30232560634613037 -0.11627906560897827
0.6222090721130371 0.5813953876495361 -0.19379842281341553
0.6127487421035767 0.5968992710113525 -0.11627906560897827
0.6136868000030518 0.612403154373169 -0.1782945990562439
0.6247116923332214 0.612403154373169 -0.1627907156944275
0.6266533136367798 0.612403154373169 -0.14728683233261108
0.6214134693145752 0.612403154373169 -0.13178294897079468
0.6365281939506531 0.5658915042877197 -0.19379842281341553
0.6411300897598267 0.5658915042877197 -0.11627906560897827
0.6432718634605408 0.5813953876495361 -0.1782945990562439
0.6286412477493286 0.5813953876495361 -0.11627906560897827
0.629173219203949 0.5968992710113525 -0.1782945990562439
0.6394008994102478 0.5968992710113525 -0.1627907156944275
0.6410517692565918 0.5968992710113525 -0.14728683233261108
0.6359182000160217 0.5968992710113525 -0.13178294897079468
0.6466861963272095 0.16279065608978271 -0.1782945990562439
0.6441597938537598 0.30232560634613037 -0.11627906560897827
0.6579909324645996 0.5348837375640869 -0.19379842281341553
0.6492817997932434 0.5503876209259033 -0.19379842281341553
0.6530283093452454 0.5503876209259033 -0.11627906560897827
0.6561084389686584 0.5658915042877197 -0.1782945990562439
0.6524797677993774 0.5813953876495361 -0.1627907156944275
0.6545820236206055 0.5813953876495361 -0.14728683233261108
0.6488581895828247 0.5813953876495361 -0.13178294897079468
0.6685293316841125 0.16279065608978271 -0.1627907156944275
0.6740302443504333 0.16279065608978271 -0.14728683233261108
0.660597562789917 0.16279065608978271 -0.13178294897079468
0.6670361757278442 0.17829453945159912 -0.19379842281341553
0.6684719324111938 0.17829453945159912 -0.11627906560897827
0.6691798567771912 0.5193798542022705 -0.19379842281341553
0.6738523244857788 0.5193798542022705 -0.11627906560897827
0.6649001240730286 0.5348837375640869 -0.11627906560897827
0.6684129238128662 0.5503876209259033 -0.1782945990562439
0.6722513437271118 0.5503876209259033 -0.13178294897079468
0.6636539697647095 0.5658915042877197 -0.1627907156944275
0.6665300130844116 0.5658915042877197 -0.14728683233261108
0.6597152352333069 0.5658915042877197 -0.13178294897079468
0.6872666478157043 0.4883720874786377 -0.19379842281341553
0.6798651218414307 0.5038759708404541 -0.19379842281341553
0.682763934135437 0.5038759708404541 -0.11627906560897827
0.6877422332763672 0.5193798542022705 -0.1782945990562439
0.6775357723236084 0.5348837375640869 -0.1782946139574051
0.6867377758026123 0.5348837375640869 -0.1627907156944275
0.6883499622344971 0.5348837375640869 -0.14728683233261108
0.6835571527481079 0.5348837375640869 -0.13178294897079468
0.6752563714981079 0.5503876209259033 -0.1627907007932663
0.676749050617218 0.5503876209259033 -0.14728683233261108
0.6926864981651306 0.17829453945159912 -0.1782945990562439
0.6995080709457397 0.17829453945159912 -0.13178294897079468
0.6969061493873596 0.19379842281341553 -0.19379842281341553
0.6974140405654907 0.19379842281341553 -0.11627906560897827
0.6979866027832031 0.4728682041168213 -0.19379842281341553
0.6984006762504578 0.4728682041168213 -0.11627906560897827
0.692112922668457 0.4883720874786377 -0.11627906560897827
0.6981458067893982 0.5038759708404541 -0.1782945990562439
0.7019925713539124 0.5038759708404541 -0.13178294897079468
0.6962352991104126 0.5193798542022705 -0.1627907156944275
0.6985697746276855 0.5193798542022705 -0.14728683233261108
0.6912072896957397 0.5193798542022705 -0.13178294897079468
0.7059565782546997 0.17829453945159912 -0.1627907156944275
0.7095962166786194 0.17829453945159912 -0.14728683233261108
0.7185845375061035 0.20930230617523193 -0.19379842281341553
0.7148427963256836 0.20930230617523193 -0.11627906560897827
0.7197986841201782 0.42635655403137207 -0.11627906560897827
0.7156611084938049 0.4418604373931885 -0.19379842281341553
0.7123042345046997 0.4418604373931885 -0.11627907305955887
0.7056810855865479 0.4573642909526825 -0.19379842281341553
0.7062143087387085 0.4573643207550049 -0.11627906560897827
0.7158386707305908 0.4728682041168213 -0.1782945990562439
0.7183359861373901 0.4728682041168213 -0.13178294897079468
0.7059446573257446 0.4883721172809601 -0.1782945990562439
0.7152899503707886 0.4883720874786377 -0.1627907156944275
0.7170237302780151 0.4883720874786377 -0.14728683233261108
0.7107092142105103 0.4883720874786377 -0.13178294897079468
0.7055771946907043 0.5038759708404541 -0.1627907156944275
0.7066071033477783 0.5038759708404541 -0.14728684723377228
0.7212026119232178 0.19379840791225433 -0.1782945841550827
0.7256355881690979 0.19379842281341553 -0.13178294897079468
0.7321537137031555 0.22480618953704834 -0.11627906560897827
0.7336996793746948 0.39534878730773926 -0.11627906560897827
0.7323658466339111 0.41085267066955566 -0.19379842281341553
0.7262531518936157 0.4108526408672333 -0.11627906560897827
0.7257572412490845 0.42635655403137207 -0.19379842281341553
0.7330157160758972 0.4418604373931885 -0.1782945990562439
0.7335799932479858 0.4418604373931885 -0.13178294897079468
0.7236843109130859 0.4573643207550049 -0.1782945990562439
0.7325034737586975 0.4573643207550049 -0.1627907156944275
0.7337092161178589 0.4573643207550049 -0.14728683233261108
0.726803183555603 0.4573643207550049 -0.13178294897079468
0.7227963209152222 0.4728682041168213 -0.1627907156944275
0.7243940830230713 0.4728682041168213 -0.14728683233261108
0.7367355823516846 0.19379842281341553 -0.1627907156944275
0.7387050986289978 0.19379842281341553 -0.14728683233261108
0.7470316290855408 0.20930230617523193 -0.1782945990562439
0.7473341822624207 0.20930230617523193 -0.13178294897079468
0.7391067147254944 0.22480618953704834 -0.19379842281341553
0.7474774718284607 0.24031007289886475 -0.11627906560897827
0.7490454912185669 0.364341139793396 -0.11627906560897827
0.746594250202179 0.37984490394592285 -0.19379842281341553
0.741418182849884 0.37984490394592285 -0.11627906560897827
0.7415462732315063 0.39534878730773926 -0.19379842281341553
0.749725341796875 0.41085267066955566 -0.1782945990562439
0.7489219903945923 0.41085267066955566 -0.13178294897079468
0.7418075203895569 0.42635655403137207 -0.1782945990562439
0.7497828602790833 0.42635655403137207 -0.1627907156944275
0.750505268573761 0.42635655403137207 -0.14728683233261108
0.742789626121521 0.42635655403137207 -0.13178294897079468
0.7406002283096313 0.4418604373931885 -0.1627907156944275
0.742019534111023 0.4418604373931885 -0.14728683233261108
0.7603329420089722 0.20930230617523193 -0.1627907156944275
0.7599706649780273 0.20930230617523193 -0.14728683233261108
0.7669810056686401 0.22480618953704834 -0.1782945990562439
0.763762891292572 0.22480618953704834 -0.13178294897079468
0.7564465999603271 0.24031005799770355 -0.19379840791225433
0.7668133974075317 0.25581395626068115 -0.19379842281341553
0.7576625347137451 0.25581395626068115 -0.11627905815839767
0.7670504450798035 0.27131783962249756 -0.11627906560897827
0.7635507583618164 0.3333333730697632 -0.19379842281341553
0.7624242901802063 0.3333333730697632 -0.11627906560897827
0.7593407034873962 0.3488372564315796 -0.19379842281341553
0.7563079595565796 0.3488372564315796 -0.11627906560897827
0.7520123720169067 0.364341139793396 -0.19379842281341553
0.7647045850753784 0.37984490394592285 -0.1782945990562439
0.7643957138061523 0.37984490394592285 -0.13178294897079468
0.7584874629974365 0.39534878730773926 -0.1782945990562439
0.7662436962127686 0.39534878730773926 -0.1627907156944275
0.7665233016014099 0.39534878730773926 -0.14728683233261108
0.7583142518997192 0.39534878730773926 -0.13178294897079468
0.7586735486984253 0.41085267066955566 -0.1627907156944275
0.7595642805099487 0.41085267066955566 -0.14728683233261108
0.7783486247062683 0.22480618953704834 -0.1627907156944275
0.7772300243377686 0.22480618953704834 -0.14728683233261108
0.7818092703819275 0.24031007289886475 -0.1782945990562439
0.7769202589988708 0.24031007289886475 -0.13178294897079468
0.7729848623275757 0.27131783962249756 -0.19379842281341553
0.7741807699203491 0.28682172298431396 -0.19379842281341553
0.7702642679214478 0.28682172298431396 -0.11627906560897827
0.7733684182167053 0.30232560634613037 -0.19379842281341553
0.7706441879272461 0.30232560634613037 -0.11627906560897827
0.7697421312332153 0.3178294897079468 -0.19379843771457672
0.7686085104942322 0.3178294897079468 -0.11627906560897827
0.7825489640235901 0.3333333730697632 -0.1782945990562439
0.7781813144683838 0.3488372564315796 -0.1782945990562439
0.7787588834762573 0.3488372564315796 -0.13178294897079468
0.7714294195175171 0.364341139793396 -0.1782945990562439
0.7801019549369812 0.364341139793396 -0.1627907156944275
0.7810732126235962 0.364341139793396 -0.14728683233261108
0.7735828161239624 0.364341139793396 -0.13178294897079468
0.7741627097129822 0.37984490394592285 -0.1627907156944275
0.7752330899238586 0.37984490394592285 -0.14728683233261108
0.7924990653991699 0.24031007289886475 -0.1627907156944275
0.7912402153015137 0.24031007289886475 -0.14728683233261108
0.791594386100769 0.25581395626068115 -0.1782945990562439
0.7879176139831543 0.25581395626068115 -0.13178294897079468
0.7945989966392517 0.27131783962249756 -0.1782945990562439
0.7934461832046509 0.27131783962249756 -0.13178294897079468
0.794716477394104 0.28682172298431396 -0.1782945990562439
0.795259416103363 0.28682172298431396 -0.13178294897079468
0.7933864593505859 0.30232560634613037 -0.1782945990562439
0.7940387725830078 0.30232560634613037 -0.13178294897079468
0.7897748947143555 0.3178294897079468 -0.1782945990562439
0.7977262139320374 0.3178294897079468 -0.1627907156944275
0.798267662525177 0.3178294897079468 -0.14728683233261108
0.7916004061698914 0.3178294897079468 -0.13178294897079468
0.7932741045951843 0.3333333730697632 -0.1627907156944275
0.7941958904266357 0.3333333730697632 -0.14728683233261108
0.7869040966033936 0.3333333730697632 -0.13178294897079468
0.7861990332603455 0.3488372564315796 -0.1627907156944275
0.7878423929214478 0.3488372564315796 -0.14728683233261108
0.8005232810974121 0.25581395626068115 -0.1627907156944275
0.8011863827705383 0.25581395626068115 -0.14728683233261108
0.8048781156539917 0.27131783962249756 -0.1627907156944275
0.8058711290359497 0.27131783962249756 -0.14728683233261108
0.8044978380203247 0.28682172298431396 -0.1627907156944275
0.805679440498352 0.28682172298431396 -0.14728683233261108
0.8013704419136047 0.30232560634613037 -0.1627907156944275
0.8026952147483826 0.30232560634613037 -0.14728683233261108
-0.8294573426246643 0.1144869327545166 -0.1627907156944275
-0.8294573426246643 0.14078347384929657 -0.1782945990562439
-0.8294573426246643 0.1575889140367508 -0.1782945990562439
-0.8294573426246643 0.18590041995048523 -0.1627907156944275
-0.8139535188674927 0.05391934514045715 -0.1627907156944275
-0.8139535188674927 0.057723671197891235 -0.1782945990562439
-0.8139535188674927 0.07100879400968552 -0.14728683233261108
-0.8139535188674927 0.09629500657320023 -0.19379842281341553
-0.8139535188674927 0.20951248705387115 -0.19379842281341553
-0.8139535188674927 0.2656670808792114 -0.1782945990562439
-0.8139535188674927 0.26008763909339905 -0.14728683233261108
-0.8139535188674927 0.27704328298568726 -0.1627907156944275
-0.7984496355056763 0.02324347198009491 -0.1627907156944275
-0.798449695110321 0.02462853491306305 -0.1782946139574051
-0.7984496355056763 0.03456848859786987 -0.14728683233261108
-0.7984496355056763 0.04242856800556183 -0.19379842281341553
-0.7984496355056763 0.08108673989772797 -0.13178294897079468
-0.7984496355056763 0.2811850309371948 -0.19379842281341553
-0.7984496355056763 0.2748596668243408 -0.13178294897079468
-0.7984496355056763 0.3276349604129791 -0.1782945990562439
-0.7984496355056763 0.32707497477531433 -0.14728683233261108
-0.7984496355056763 0.33720847964286804 -0.1627907156944275
-0.7829457521438599 0.000500282971188426 -0.1782945990562439
-0.7829457521438599 0.00048608588986098766 -0.1627907156944275
-0.7829457521438599 0.011610076762735844 -0.19379842281341553
-0.7829457521438599 0.01179627887904644 -0.14728683233261108
-0.7829457521438599 0.04401817172765732 -0.13178294897079468
-0.7829457521438599 0.3479028344154358 -0.19379842281341553
-0.7829457521438599 0.33822888135910034 -0.13178294897079468
-0.7829457521438599 0.37938475608825684 -0.14728683233261108
-0.7829458117485046 0.38450995087623596 -0.1782945990562439
-0.7829457521438599 0.3885946273803711 -0.1627907156944275
-0.7674418687820435 -0.013693960383534431 -0.19379842281341553
-0.7674418687820435 -0.020998496562242508 -0.1782945990562439
-0.7674418687820435 -0.01905158720910549 -0.1627907156944275
-0.7674418687820435 -0.009039804339408875 -0.14728683233261108
-0.7674418687820435 0.01848418079316616 -0.13178294897079468
-0.7674418687820435 0.12620827555656433 -0.13178294897079468
-0.7674419283866882 0.24228405952453613 -0.13178294897079468
-0.7674418687820435 0.38450735807418823 -0.13178294897079468
-0.7674418687820435 0.4076497554779053 -0.19379842281341553
-0.7674418687820435 0.4207645654678345 -0.14728683233261108
-0.7674418091773987 0.4282795786857605 -0.1782945990562439
-0.7674418687820435 0.430558443069458 -0.1627907156944275
-0.751937985420227 -0.04096424952149391 -0.1782945990562439
-0.751937985420227 -0.0350734181702137 -0.19379842281341553
-0.751937985420227 -0.03846580535173416 -0.1627907156944275
-0.751937985420227 -0.02736826054751873 -0.14728683233261108
