-0.30232560634613037 -0.11851391196250916 -0.20930230617523193
-0.30232560634613037 -0.10196134448051453 -0.30232560634613037
-0.30232560634613037 -0.10549371689558029 -0.19379842281341553
-0.30232560634613037 -0.04671981930732727 -0.1782945990562439
-0.30232560634613037 -0.032642267644405365 -0.317829430103302
-0.30232560634613037 -0.005701108369976282 -0.1627907156944275
-0.30232560634613037 0.05375610664486885 -0.317829430103302
-0.30232560634613037 0.11527015268802643 -0.30232560634613037
-0.30232560634613037 0.13334548473358154 -0.28682172298431396
-0.30232560634613037 0.14069099724292755 -0.27131783962249756
-0.30232560634613037 0.14560231566429138 -0.25581395626068115
-0.30232560634613037 0.1351836919784546 -0.1627907156944275
-0.30232563614845276 0.14823919534683228 -0.24031007289886475
-0.30232560634613037 0.1495743691921234 -0.22480618953704834
-0.30232560634613037 0.150399312376976 -0.20930230617523193
-0.30232563614845276 0.14969311654567719 -0.19379842281341553
-0.30232560634613037 0.14745309948921204 -0.1782945990562439
-0.30232560634613037 0.6741302609443665 -0.3333333134651184
-0.30232560634613037 0.6680089235305786 -0.317829430103302
-0.30232560634613037 0.6646076440811157 -0.30232560634613037
-0.30232560634613037 0.6634472608566284 -0.28682172298431396
-0.30232560634613037 0.6648126840591431 -0.27131783962249756
-0.30232560634613037 0.6675963401794434 -0.25581395626068115
-0.30232560634613037 0.6710431575775146 -0.24031007289886475
-0.30232560634613037 0.6745410561561584 -0.22480618953704834
-0.30232560634613037 0.6842561960220337 -0.20930230617523193
-0.30232560634613037 0.694608747959137 -0.19379842281341553
-0.30232560634613037 0.7140210270881653 -0.1782945990562439
-0.30232560634613037 0.7577122449874878 -0.1782945990562439
-0.30232560634613037 0.7679159045219421 -0.3333333134651184
-0.30232560634613037 0.7814165949821472 -0.317829430103302
-0.30232560634613037 0.7810694575309753 -0.20930230617523193
-0.30232560634613037 0.7760006189346313 -0.19379842281341553
-0.30232560634613037 0.7861344218254089 -0.30232560634613037
-0.30232560634613037 0.7899929285049438 -0.28682172298431396
-0.30232560634613037 0.7921279668807983 -0.27131783962249756
-0.30232560634613037 0.7921750545501709 -0.25581395626068115
-0.30232560634613037 0.7904101610183716 -0.24031007289886475
-0.30232560634613037 0.7863014936447144 -0.22480618953704834
-0.28682172298431396 -0.5211794376373291 -0.25581395626068115
-0.28682172298431396 -0.521817684173584 -0.24031007289886475
-0.28682172298431396 -0.5135208368301392 -0.27131783962249756
-0.28682172298431396 -0.5122034549713135 -0.22480618953704834
-0.28682172298431396 -0.501617968082428 -0.28682172298431396
-0.28682172298431396 -0.4929216504096985 -0.20930230617523193
-0.2868216931819916 -0.486994206905365 -0.30232560634613037
-0.28682172298431396 -0.46840542554855347 -0.317829430103302
-0.28682172298431396 -0.4620950222015381 -0.19379842281341553
-0.28682172298431396 -0.40937870740890503 -0.19379842281341553
-0.28682172298431396 -0.36999768018722534 -0.317829430103302
-0.28682172298431396 -0.3774500787258148 -0.20930230617523193
-0.28682172298431396 -0.3520091772079468 -0.30232560634613037
-0.28682172298431396 -0.35139399766921997 -0.22480618953704834
-0.28682172298431396 -0.3364032506942749 -0.28682172298431396
-0.28682172298431396 -0.3223074674606323 -0.27131783962249756
-0.28682172298431396 -0.32382893562316895 -0.24031007289886475
-0.28682172298431396 -0.3110816776752472 -0.25581395626068115
-0.28682172298431396 -0.2475234866142273 0.007751941680908203
-0.28682172298431396 -0.24598318338394165 0.02325582504272461
-0.28682172298431396 -0.22721081972122192 -0.007751941680908203
-0.28682172298431396 -0.2308841347694397 0.038759708404541016
-0.28682172298431396 -0.16471585631370544 -0.007751941680908203
-0.28682172298431396 -0.15318819880485535 0.007751941680908203
-0.28682172298431396 -0.15026836097240448 0.02325582504272461
-0.28682172298431396 -0.1571849286556244 0.038759708404541016
-0.28682172298431396 -0.133296400308609 -0.25581395626068115
-0.28682172298431396 -0.13276386260986328 -0.24031007289886475
-0.28682172298431396 -0.12363786995410919 -0.28682172298431396
-0.28682172298431396 -0.13121411204338074 -0.27131783962249756
-0.28682172298431396 -0.12910977005958557 -0.22480618953704834
-0.28682172298431396 -0.12119588255882263 -0.20930230617523193
-0.28682172298431396 -0.10971984267234802 -0.30232560634613037
-0.28682172298431396 -0.10821717977523804 -0.19379842281341553
-0.28682172298431396 -0.03225884214043617 -0.317829430103302
-0.28682172298431396 -0.02879565954208374 -0.1782945990562439
-0.28682172298431396 0.017834221944212914 -0.1627907156944275
-0.28682172298431396 0.03243047744035721 -0.1627907156944275
-0.28682172298431396 0.05977749079465866 -0.317829430103302
-0.28682172298431396 0.056615911424160004 -0.1627907156944275
-0.28682172298431396 0.12263229489326477 -0.30232560634613037
-0.28682172298431396 0.1380242109298706 -0.28682172298431396
-0.28682172298431396 0.1451513171195984 -0.27131783962249756
-0.28682172298431396 0.14016298949718475 -0.1627907156944275
-0.2868216931819916 0.1489364057779312 -0.25581395626068115
-0.28682172298431396 0.15078124403953552 -0.24031007289886475
-0.28682172298431396 0.15248189866542816 -0.22480618953704834
-0.28682172298431396 0.15355731546878815 -0.20930230617523193
-0.28682172298431396 0.15240800380706787 -0.19379842281341553
-0.2868216931819916 0.1492481231689453 -0.1782945990562439
-0.28682172298431396 0.6685429811477661 -0.317829430103302
-0.28682172298431396 0.6653258800506592 -0.30232560634613037
-0.28682172298431396 0.6643128991127014 -0.28682172298431396
-0.28682172298431396 0.6655534505844116 -0.27131783962249756
-0.28682172298431396 0.6681641340255737 -0.25581395626068115
-0.28682172298431396 0.671509861946106 -0.24031007289886475
-0.28682172298431396 0.6744948625564575 -0.3333333134651184
-0.28682172298431396 0.6762939095497131 -0.22480618953704834
-0.28682172298431396 0.6848729252815247 -0.20930230617523193
-0.28682172298431396 0.6958662867546082 -0.19379842281341553
-0.28682172298431396 0.716488242149353 -0.1782945990562439
-0.28682172298431396 0.7555146217346191 -0.1782945990562439
-0.28682172298431396 0.7708926796913147 -0.3333333134651184
-0.28682172298431396 0.7821714878082275 -0.317829430103302
-0.28682172298431396 0.7823410630226135 -0.20930230617523193
-0.28682172298431396 0.7763608694076538 -0.19379842281341553
-0.28682172298431396 0.7884671688079834 -0.30232560634613037
-0.28682172298431396 0.7925979495048523 -0.28682172298431396
-0.28682172298431396 0.7942503690719604 -0.27131783962249756
-0.28682172298431396 0.794152021408081 -0.25581395626068115
-0.28682172298431396 0.7927587032318115 -0.24031007289886475
-0.28682172298431396 0.7887382507324219 -0.22480618953704834
-0.27131783962249756 -0.5659685134887695 -0.24031007289886475
-0.27131783962249756 -0.5543407201766968 -0.27131783962249756
-0.27131783962249756 -0.5629813075065613 -0.25581395626068115
-0.27131783962249756 -0.5591589212417603 -0.22480618953704834
-0.27131783962249756 -0.5361795425415039 -0.28682172298431396
-0.27131783962249756 -0.5393545627593994 -0.20930230617523193
-0.27131783962249756 -0.5151472687721252 -0.30232560634613037
-0.27131783962249756 -0.5040562152862549 -0.19379842281341553
-0.27131783962249756 -0.49358367919921875 -0.317829430103302
-0.27131783962249756 -0.43482810258865356 -0.3333333134651184
-0.27131783962249756 -0.4199942946434021 -0.3333333134651184
-0.27131783962249756 -0.4029226303100586 -0.19379842281341553
-0.27131783962249756 -0.3735736310482025 -0.317829430103302
-0.27131783962249756 -0.3782230019569397 -0.20930230617523193
-0.27131783962249756 -0.3576385974884033 -0.30232560634613037
-0.27131783962249756 -0.359531432390213 -0.22480618953704834
-0.27131783962249756 -0.34578195214271545 -0.28682172298431396
-0.27131783962249756 -0.33888769149780273 -0.27131783962249756
-0.27131783962249756 -0.3376172184944153 -0.25581395626068115
-0.27131783962249756 -0.34499695897102356 -0.24031008780002594
-0.27131783962249756 -0.25240573287010193 0.007751941215246916
-0.27131783962249756 -0.2542746365070343 0.02325582504272461
-0.27131783962249756 -0.2426435649394989 0.038759708404541016
-0.27131783962249756 -0.22692957520484924 -0.007751941680908203
-0.27131783962249756 -0.2051410973072052 0.05426359176635742
-0.27131783962249756 -0.1844579130411148 0.05426359176635742
-0.27131783962249756 -0.17365923523902893 -0.007751941680908203
-0.27131783962249756 -0.15811797976493835 0.007751941680908203
-0.27131783962249756 -0.155044823884964 0.02325582504272461
-0.27131783962249756 -0.1594768762588501 0.038759708404541016
-0.27131783962249756 -0.13423225283622742 -0.28682172298431396
-0.27131783962249756 -0.14026913046836853 -0.27131783962249756
-0.27131783962249756 -0.14177820086479187 -0.25581395626068115
-0.27131783962249756 -0.13920727372169495 -0.24031007289886475
-0.27131783962249756 -0.13468198478221893 -0.22480618953704834
-0.27131783962249756 -0.11997285485267639 -0.30232560634613037
-0.27131783962249756 -0.12738153338432312 -0.20930230617523193
-0.27131783962249756 -0.11497404426336288 -0.19379842281341553
-0.27131783962249756 -0.08797170221805573 -0.317829430103302
-0.27131783962249756 -0.022727226838469505 -0.1782946139574051
-0.27131783962249756 0.05607818067073822 -0.1627907156944275
-0.27131783962249756 0.08698559552431107 -0.317829430103302
-0.27131783962249756 0.13238006830215454 -0.30232560634613037
-0.27131783962249756 0.14456826448440552 -0.28682172298431396
-0.27131783962249756 0.1503841131925583 -0.27131783962249756
-0.27131783962249756 0.1531677544116974 -0.25581395626068115
-0.27131783962249756 0.15548540651798248 -0.24031007289886475
-0.27131783962249756 0.15759778022766113 -0.22480618953704834
-0.27131783962249756 0.1588222235441208 -0.20930230617523193
-0.27131783962249756 0.15744948387145996 -0.19379842281341553
-0.27131783962249756 0.15251396596431732 -0.1782945990562439
-0.27131783962249756 0.14738737046718597 -0.1627907156944275
-0.27131783962249756 0.6688389778137207 -0.317829430103302
-0.27131783962249756 0.6656343936920166 -0.30232560634613037
-0.27131783962249756 0.6646947860717773 -0.28682172298431396
-0.27131783962249756 0.6659266352653503 -0.27131783962249756
-0.27131783962249756 0.6685316562652588 -0.25581395626068115
-0.27131783962249756 0.6719055771827698 -0.24031007289886475
-0.27131783962249756 0.6755174398422241 -0.3333333134651184
-0.27131783962249756 0.6779757738113403 -0.22480618953704834
-0.27131783962249756 0.6857192516326904 -0.20930230617523193
-0.27131783962249756 0.6977114677429199 -0.19379842281341553
-0.27131783962249756 0.7202073335647583 -0.1782945990562439
-0.27131783962249756 0.7507693767547607 -0.1782945990562439
-0.27131783962249756 0.7729337215423584 -0.3333333134651184
-0.27131783962249756 0.776290774345398 -0.19379842281341553
-0.27131783962249756 0.7836085557937622 -0.317829430103302
-0.27131783962249756 0.7908244132995605 -0.30232560634613037
-0.27131783962249756 0.7945752739906311 -0.28682172298431396
-0.27131783962249756 0.7954701781272888 -0.27131783962249756
-0.27131783962249756 0.7952627539634705 -0.25581395626068115
-0.27131783962249756 0.7942723035812378 -0.24031007289886475
-0.27131783962249756 0.7910615801811218 -0.22480618953704834
-0.27131783962249756 0.7837677001953125 -0.20930230617523193
-0.25581395626068115 -0.5859663486480713 -0.27131783962249756
-0.25581395626068115 -0.5924252271652222 -0.25581395626068115
-0.25581395626068115 -0.594321608543396 -0.24031007289886475
-0.25581395626068115 -0.5906980633735657 -0.22480618953704834
-0.25581395626068115 -0.572867751121521 -0.28682172298431396
-0.25581395626068115 -0.5809102654457092 -0.20930230617523193
-0.25581395626068115 -0.5518020391464233 -0.30232560634613037
-0.25581395626068115 -0.5560672879219055 -0.19379842281341553
-0.25581395626068115 -0.5209198594093323 -0.317829430103302
-0.25581395626068115 -0.4947604537010193 -0.1782945990562439
-0.25581395626068115 -0.46356886625289917 -0.3333333134651184
-0.25581395626068115 -0.4532088339328766 -0.1782945990562439
-0.25581395626068115 -0.42342275381088257 -0.3333333134651184
-0.25581395626068115 -0.40527772903442383 -0.19379842281341553
-0.25581395626068115 -0.3834092915058136 -0.20930230617523193
-0.25581395626068115 -0.37921804189682007 -0.317829430103302
-0.25581395626068115 -0.3675231337547302 -0.22480618953704834
-0.25581392645835876 -0.3642992377281189 -0.30232560634613037
-0.25581395626068115 -0.3546486496925354 -0.28682172298431396
-0.25581395626068115 -0.3495410084724426 -0.27131783962249756
-0.25581395626068115 -0.3496778607368469 -0.25581395626068115
-0.25581395626068115 -0.3556441366672516 -0.24031007289886475
-0.25581395626068115 -0.25613489747047424 0.007751941680908203
-0.25581395626068115 -0.2588215172290802 0.02325582504272461
-0.25581395626068115 -0.2504314184188843 0.038759708404541016
-0.25581395626068115 -0.22694382071495056 -0.007751941680908203
-0.25581395626068115 -0.22628897428512573 0.05426359176635742
-0.25581395626068115 -0.18231385946273804 -0.007751941680908203
-0.25581395626068115 -0.177049458026886 0.05426359176635742
-0.25581395626068115 -0.1499621570110321 -0.28682172298431396
-0.25581395626068115 -0.1585584282875061 -0.27131783962249756
-0.25581395626068115 -0.15433445572853088 -0.25581395626068115
-0.25581395626068115 -0.14746324717998505 -0.24031007289886475
-0.25581395626068115 -0.16211459040641785 0.007751941680908203
-0.25581395626068115 -0.15918701887130737 0.02325582690536976
-0.25581395626068115 -0.1618509143590927 0.038759708404541016
-0.25581395626068115 -0.13281042873859406 -0.30232560634613037
-0.25581395626068115 -0.14032188057899475 -0.22480618953704834
-0.25581395626068115 -0.1326209306716919 -0.20930230617523193
-0.25581395626068115 -0.11921034008264542 -0.19379842281341553
-0.25581395626068115 -0.1068393886089325 -0.317829430103302
-0.25581395626068115 -0.09149341285228729 -0.1782945990562439
-0.25581395626068115 -0.066249318420887 -0.1782945990562439
-0.25581395626068115 -0.01843384839594364 -0.1782945990562439
-0.25581395626068115 0.05610569193959236 -0.1627907156944275
-0.25581395626068115 0.11804962158203125 -0.317829430103302
-0.25581395626068115 0.14093433320522308 -0.30232560634613037
-0.25581395626068115 0.15161383152008057 -0.28682172298431396
-0.25581395626068115 0.15599824488162994 -0.27131783962249756
-0.25581395626068115 0.15905316174030304 -0.25581395626068115
-0.25581395626068115 0.16155844926834106 -0.24031007289886475
-0.25581395626068115 0.1583717167377472 -0.1782945990562439
-0.25581395626068115 0.14982353150844574 -0.1627907156944275
-0.25581395626068115 0.16321636736392975 -0.22480618953704834
-0.25581395626068115 0.16363413631916046 -0.20930230617523193
-0.25581395626068115 0.16323348879814148 -0.19379842281341553
-0.25581395626068115 0.6684712171554565 -0.317829430103302
-0.25581395626068115 0.6650205254554749 -0.30232560634613037
-0.25581395626068115 0.6639804244041443 -0.28682172298431396
-0.25581395626068115 0.6653544902801514 -0.27131783962249756
-0.25581395626068115 0.6682131290435791 -0.25581395626068115
-0.25581395626068115 0.6718673706054688 -0.24031007289886475
-0.25581395626068115 0.6757399439811707 -0.3333333134651184
-0.25581395626068115 0.6783856153488159 -0.22480620443820953
-0.25581395626068115 0.6861417293548584 -0.20930230617523193
-0.25581395626068115 0.6987495422363281 -0.19379842281341553
-0.25581395626068115 0.7316461801528931 -0.1782945990562439
-0.25581395626068115 0.7397943139076233 -0.1782945990562439
-0.25581395626068115 0.7738333940505981 -0.3333333134651184
-0.25581395626068115 0.7756788730621338 -0.19379842281341553
-0.25581395626068115 0.7853940725326538 -0.317829430103302
-0.25581395626068115 0.7927346229553223 -0.30232560634613037
-0.25581395626068115 0.7956213355064392 -0.28682172298431396
-0.25581395626068115 0.7962877750396729 -0.27131783962249756
-0.25581395626068115 0.7960822582244873 -0.25581395626068115
-0.25581395626068115 0.7950174808502197 -0.24031007289886475
-0.25581395626068115 0.7925302982330322 -0.22480618953704834
-0.25581395626068115 0.784796416759491 -0.20930230617523193
-0.24031007289886475 -0.6152281165122986 -0.25581395626068115
-0.24031007289886475 -0.6176072359085083 -0.24031007289886475
-0.24031007289886475 -0.6147992610931396 -0.22480618953704834
-0.24031007289886475 -0.5976464152336121 -0.28682172298431396
-0.24031007289886475 -0.6092385053634644 -0.27131783962249756
-0.24031007289886475 -0.6076557636260986 -0.20930230617523193
-0.24031007289886475 -0.5920714735984802 -0.19379842281341553
-0.24031007289886475 -0.5812071561813354 -0.30232560634613037
-0.24031007289886475 -0.555884599685669 -0.317829430103302
-0.24031007289886475 -0.5567466020584106 -0.1782945990562439
-0.24031007289886475 -0.4735950231552124 -0.3333333134651184
-0.24031007289886475 -0.4694974720478058 -0.3333333134651184
-0.24031007289886475 -0.45504236221313477 -0.1782945990562439
-0.24031007289886475 -0.41544806957244873 -0.19379842281341553
-0.24031007289886475 -0.39060524106025696 -0.317829430103302
-0.24031008780002594 -0.3933158218860626 -0.20930230617523193
-0.24031005799770355 -0.37581416964530945 -0.30232560634613037
-0.24031007289886475 -0.3670732080936432 -0.28682172298431396
-0.24031007289886475 -0.3689335882663727 -0.24031007289886475
-0.24031007289886475 -0.37879520654678345 -0.22480618953704834
-0.24031007289886475 -0.36276715993881226 -0.27131783962249756
-0.24031007289886475 -0.3633436858654022 -0.25581395626068115
-0.24031007289886475 -0.25730884075164795 0.007751941680908203
-0.24031007289886475 -0.2623189091682434 0.02325582504272461
-0.24031007289886475 -0.2571800947189331 0.038759708404541016
-0.24031007289886475 -0.2273409217596054 -0.007751941680908203
-0.24031007289886475 -0.23843297362327576 0.05426359176635742
-0.24031007289886475 -0.21132484078407288 -0.28682172298431396
-0.24031007289886475 -0.20454654097557068 -0.27131783962249756
-0.24031007289886475 -0.19163572788238525 -0.007751941680908203
-0.24031007289886475 -0.1760995239019394 -0.25581395626068115
-0.24031007289886475 -0.16835394501686096 0.007751941680908203
-0.24031007289886475 -0.1646108329296112 0.038759708404541016
-0.24031007289886475 -0.17619147896766663 0.05426359176635742
-0.24031007289886475 -0.14894382655620575 -0.30232560634613037
-0.24031007289886475 -0.15541261434555054 -0.24031007289886475
-0.24031007289886475 -0.16183504462242126 0.02325582504272461
-0.24031007289886475 -0.1452646553516388 -0.22480618953704834
-0.24031007289886475 -0.1356542557477951 -0.20930230617523193
-0.24031007289886475 -0.12081705033779144 -0.317829430103302
-0.24031007289886475 -0.12187694758176804 -0.19379842281341553
-0.24031007289886475 -0.09533907473087311 -0.1782945990562439
-0.24031007289886475 -0.06267695128917694 -0.1782945990562439
-0.24031007289886475 -0.013295385986566544 -0.1782945990562439
-0.24031007289886475 0.05804356560111046 -0.1627907156944275
-0.24031007289886475 0.13272489607334137 -0.317829430103302
-0.24031007289886475 0.1499432623386383 -0.30232560634613037
-0.24031007289886475 0.15779812633991241 -0.28682172298431396
-0.24031007289886475 0.16265611350536346 -0.27131783962249756
-0.24031007289886475 0.15377654135227203 -0.1627907156944275
-0.24031007289886475 0.1640366017818451 -0.25581395626068115
-0.24031007289886475 0.16494517028331757 -0.24031007289886475
-0.24031007289886475 0.16591289639472961 -0.22480618953704834
-0.24031007289886475 0.16657069325447083 -0.20930230617523193
-0.24031008780002594 0.1657380759716034 -0.19379842281341553
-0.24031007289886475 0.16348475217819214 -0.1782945990562439
-0.24031007289886475 0.6677426099777222 -0.317829430103302
-0.24031007289886475 0.6638904809951782 -0.30232560634613037
-0.24031007289886475 0.6626502871513367 -0.28682172298431396
-0.24031007289886475 0.6643341779708862 -0.27131783962249756
-0.24031007289886475 0.6676610112190247 -0.25581395626068115
-0.24031007289886475 0.6717371940612793 -0.24031007289886475
-0.24031008780002594 0.6758080720901489 -0.3333333134651184
-0.24031007289886475 0.6787476539611816 -0.22480618953704834
-0.24031007289886475 0.6866533756256104 -0.20930230617523193
-0.24031007289886475 0.6999214887619019 -0.19379842281341553
-0.24031007289886475 0.7737038135528564 -0.3333333134651184
-0.24031007289886475 0.7742336392402649 -0.19379842281341553
-0.24031007289886475 0.786746621131897 -0.317829430103302
-0.24031007289886475 0.7941691875457764 -0.30232560634613037
-0.24031007289886475 0.7962850332260132 -0.28682172298431396
-0.24031007289886475 0.7973257303237915 -0.27131783962249756
-0.24031007289886475 0.797100305557251 -0.25581395626068115
-0.24031007289886475 0.7956478595733643 -0.24031007289886475
-0.24031007289886475 0.7934587001800537 -0.22480618953704834
-0.24031005799770355 0.7853647470474243 -0.20930230617523193
-0.22480618953704834 -0.6292779445648193 -0.27131783962249756
-0.22480618953704834 -0.6356925964355469 -0.25581395626068115
-0.22480620443820953 -0.6379948258399963 -0.24031007289886475
-0.22480618953704834 -0.6359567642211914 -0.22480618953704834
-0.22480618953704834 -0.6303699612617493 -0.20930230617523193
-0.22480618953704834 -0.6197431087493896 -0.28682172298431396
-0.22480618953704834 -0.6194188594818115 -0.19379842281341553
-0.22480618953704834 -0.6044824719429016 -0.30232560634613037
-0.22480618953704834 -0.5967844724655151 -0.1782945990562439
-0.22480618953704834 -0.5809553861618042 -0.317829430103302
-0.22480618953704834 -0.46723246574401855 -0.1782945990562439
-0.22480618953704834 -0.42993178963661194 -0.19379842281341553
-0.22480620443820953 -0.4078734517097473 -0.3178294599056244
-0.22480618953704834 -0.4087037444114685 -0.20930230617523193
-0.22480618953704834 -0.39047959446907043 -0.30232560634613037
-0.22480618953704834 -0.38211992383003235 -0.28682172298431396
-0.22480618953704834 -0.38430675864219666 -0.24031007289886475
-0.22480618953704834 -0.39342057704925537 -0.22480618953704834
-0.22480618953704834 -0.3782369792461395 -0.27131783962249756
-0.22480618953704834 -0.3789614140987396 -0.25581395626068115
-0.22480618953704834 -0.258598268032074 0.007751941680908203
-0.22480618953704834 -0.26520657539367676 0.02325582504272461
-0.22480618953704834 -0.2608213424682617 0.038759708404541016
-0.22480618953704834 -0.24663901329040527 0.05426359176635742
-0.22480618953704834 -0.22829164564609528 -0.007751941680908203
-0.22480618953704834 -0.21306608617305756 -0.30232560634613037
-0.22480618953704834 -0.22137802839279175 -0.28682172298431396
-0.22480618953704834 -0.21421124041080475 -0.27131783962249756
-0.22480618953704834 -0.19600032269954681 -0.25581395626068115
-0.22480618953704834 -0.198830246925354 -0.007751941680908203
-0.22480618953704834 -0.16310645639896393 -0.24031007289886475
-0.22480618953704834 -0.17324839532375336 0.007751941680908203
-0.22480618953704834 -0.166814386844635 0.02325582504272461
-0.22480618953704834 -0.16895723342895508 0.038759708404541016
-0.22480618953704834 -0.1764557808637619 0.05426358804106712
-0.22480618953704834 -0.14891953766345978 -0.22480618953704834
-0.22480618953704834 -0.13463915884494781 -0.317829430103302
-0.22480618953704834 -0.1380130648612976 -0.20930230617523193
-0.22480618953704834 -0.12339036166667938 -0.19379842281341553
-0.22480618953704834 -0.0941663384437561 -0.1782945990562439
-0.22480618953704834 -0.06390410661697388 -0.1782945990562439
-0.22480618953704834 -0.02560552768409252 -0.317829430103302
-0.22480618953704834 -0.00770723819732666 -0.317829430103302
-0.22480618953704834 -0.002000891836360097 -0.1782945990562439
-0.22480618953704834 0.0643460750579834 -0.1627907156944275
-0.22480618953704834 0.14245636761188507 -0.317829430103302
-0.22480618953704834 0.1566789150238037 -0.30232560634613037
-0.22480618953704834 0.15837359428405762 -0.1627907156944275
-0.22480618953704834 0.1642509400844574 -0.28682172298431396
-0.22480618953704834 0.166672945022583 -0.27131783962249756
-0.22480618953704834 0.16762323677539825 -0.25581395626068115
-0.22480618953704834 0.1685267686843872 -0.24031007289886475
-0.22480618953704834 0.17004041373729706 -0.22480618953704834
-0.22480618953704834 0.17102313041687012 -0.20930230617523193
-0.22480618953704834 0.16966179013252258 -0.19379842281341553
-0.22480618953704834 0.16562043130397797 -0.1782945990562439
-0.22480618953704834 0.6668493747711182 -0.317829430103302
-0.22480618953704834 0.6624970436096191 -0.30232560634613037
-0.22480618953704834 0.661074697971344 -0.28682172298431396
-0.22480618953704834 0.6632587909698486 -0.27131783962249756
-0.22480618953704834 0.6672335863113403 -0.25581395626068115
-0.22480618953704834 0.6718398332595825 -0.24031007289886475
-0.22480618953704834 0.6755492091178894 -0.3333333134651184
-0.22480618953704834 0.6796736717224121 -0.22480618953704834
-0.22480618953704834 0.6876199245452881 -0.20930230617523193
-0.22480618953704834 0.7017520666122437 -0.19379842281341553
-0.22480618953704834 0.7730180025100708 -0.3333333134651184
-0.22480618953704834 0.7710669040679932 -0.19379842281341553
-0.22480618953704834 0.7874083518981934 -0.317829430103302
-0.22480618953704834 0.7949758172035217 -0.30232560634613037
-0.22480618953704834 0.7967863082885742 -0.28682172298431396
-0.22480618953704834 0.7982652187347412 -0.27131783962249756
-0.22480618953704834 0.7979958653450012 -0.25581395626068115
-0.22480618953704834 0.7962157130241394 -0.24031007289886475
-0.22480618953704834 0.7938407063484192 -0.22480618953704834
-0.22480618953704834 0.7849684953689575 -0.20930230617523193
-0.20930230617523193 -0.6491920948028564 -0.27131783962249756
-0.20930230617523193 -0.6543871760368347 -0.25581395626068115
-0.20930230617523193 -0.6564735770225525 -0.24031005799770355
-0.20930230617523193 -0.6549768447875977 -0.22480618953704834
-0.20930230617523193 -0.650833010673523 -0.20930230617523193
-0.20930230617523193 -0.6390671730041504 -0.28682172298431396
-0.20930230617523193 -0.6418670415878296 -0.19379842281341553
-0.20930230617523193 -0.6239675283432007 -0.30232560634613037
-0.20930230617523193 -0.6249908208847046 -0.1782945990562439
-0.20930230617523193 -0.6030692458152771 -0.317829430103302
-0.20930230617523193 -0.5816304087638855 -0.1627907156944275
-0.20930230617523193 -0.5591408014297485 -0.3333333134651184
-0.20930230617523193 -0.5643239617347717 -0.1627907156944275
-0.20930230617523193 -0.5263556241989136 -0.3333333134651184
-0.20930230617523193 -0.48199594020843506 -0.1782945990562439
-0.20930230617523193 -0.44683778285980225 -0.19379842281341553
-0.20930230617523193 -0.4345327615737915 -0.317829430103302
-0.20930230617523193 -0.42680418491363525 -0.20930230617523193
-0.20930230617523193 -0.41286948323249817 -0.22480618953704834
-0.20930230617523193 -0.41040337085723877 -0.30232560634613037
-0.20930230617523193 -0.400834858417511 -0.28682172298431396
-0.20930230617523193 -0.39636901021003723 -0.27131783962249756
-0.20930230617523193 -0.3973860740661621 -0.25581395626068115
-0.20930230617523193 -0.40281814336776733 -0.24031007289886475
-0.20930230617523193 -0.2603088617324829 0.007751941680908203
-0.20930230617523193 -0.26854556798934937 0.02325582504272461
-0.20930230617523193 -0.26373744010925293 0.038759708404541016
-0.20930230617523193 -0.25155603885650635 0.05426359176635742
-0.20930230617523193 -0.2252136617898941 -0.30232560634613037
-0.20930230617523193 -0.22811859846115112 -0.28682172298431396
-0.20930230617523193 -0.2302318811416626 -0.007751941680908203
-0.20930230617523193 -0.22300226986408234 -0.27131783962249756
-0.20930230617523193 -0.20143388211727142 -0.317829430103302
-0.20930230617523193 -0.20775160193443298 -0.25581395626068115
-0.20930230617523193 -0.20339202880859375 -0.007751941680908203
-0.20930230617523193 -0.16856887936592102 -0.317829430103302
-0.20930230617523193 -0.17370395362377167 -0.24031007289886475
-0.20930230617523193 -0.17609000205993652 0.007751941680908203
-0.20930230617523193 -0.1710132360458374 0.02325582504272461
-0.20930230617523193 -0.17179736495018005 0.038759708404541016
-0.20930230617523193 -0.17687900364398956 0.05426359176635742
-0.20930230617523193 -0.15923625230789185 -0.317829430103302
-0.20930230617523193 -0.15154501795768738 -0.22480618953704834
-0.20930230617523193 -0.1391468346118927 -0.20930230617523193
-0.20930230617523193 -0.12357112765312195 -0.19379842281341553
-0.20930230617523193 -0.08949431777000427 -0.1782945990562439
-0.20930230617523193 -0.06761825829744339 -0.1782945990562439
-0.20930230617523193 -0.03792380914092064 -0.317829430103302
-0.20930230617523193 0.015729868784546852 -0.317829430103302
-0.20930230617523193 0.01319060754030943 -0.1782945990562439
-0.20930230617523193 0.07042939960956573 -0.1627907156944275
-0.20930230617523193 0.09609632939100266 -0.3333333134651184
-0.20930230617523193 0.11810685694217682 -0.3333333134651184
-0.20930230617523193 0.15307709574699402 -0.317829430103302
-0.20930230617523193 0.16432516276836395 -0.30232560634613037
-0.20930230617523193 0.16975508630275726 -0.28682172298431396
-0.20930230617523193 0.1719052940607071 -0.27131783962249756
-0.20930230617523193 0.17294344305992126 -0.25581395626068115
-0.20930230617523193 0.17404966056346893 -0.24031007289886475
-0.20930230617523193 0.17575231194496155 -0.22480618953704834
-0.20930230617523193 0.1770121455192566 -0.20930230617523193
-0.20930230617523193 0.17538054287433624 -0.19379842281341553
-0.20930230617523193 0.16950321197509766 -0.1782945990562439
-0.20930230617523193 0.16292138397693634 -0.16279073059558868
-0.20930230617523193 0.6584224700927734 -0.28682172298431396
-0.20930230617523193 0.6741212010383606 -0.3333333134651184
-0.20930230617523193 0.6650307178497314 -0.317829430103302
-0.20930230617523193 0.6596245765686035 -0.30232560634613037
-0.20930232107639313 0.6612675189971924 -0.27131783962249756
-0.20930230617523193 0.6664550304412842 -0.25581395626068115
-0.20930230617523193 0.6718096733093262 -0.24031007289886475
-0.20930230617523193 0.6804717779159546 -0.22480618953704834
-0.20930230617523193 0.6885589361190796 -0.20930230617523193
-0.20930230617523193 0.7037183046340942 -0.19379842281341553
-0.20930230617523193 0.7658545970916748 -0.19379842281341553
-0.20930230617523193 0.7721942663192749 -0.3333333134651184
-0.20930230617523193 0.7874475717544556 -0.317829430103302
-0.20930230617523193 0.7952640056610107 -0.30232560634613037
-0.20930230617523193 0.797120988368988 -0.28682172298431396
-0.20930230617523193 0.796525239944458 -0.24031007289886475
-0.20930230617523193 0.7937569618225098 -0.22480618953704834
-0.20930230617523193 0.783339262008667 -0.20930230617523193
-0.20930230617523193 0.7989075779914856 -0.27131783962249756
-0.20930230617523193 0.7985878586769104 -0.25581395626068115
-0.19379842281341553 -0.666473388671875 -0.27131783962249756
-0.19379842281341553 -0.6715142726898193 -0.25581395626068115
-0.19379842281341553 -0.6735398769378662 -0.24031007289886475
-0.19379842281341553 -0.6721973419189453 -0.22480618953704834
-0.19379842281341553 -0.6684029698371887 -0.20930229127407074
-0.19379842281341553 -0.6613166928291321 -0.19379842281341553
-0.19379842281341553 -0.6570106148719788 -0.28682172298431396
-0.19379842281341553 -0.6484774351119995 -0.1782945990562439
-0.19379842281341553 -0.6425805687904358 -0.30232560634613037
-0.19379842281341553 -0.6223127841949463 -0.317829430103302
-0.19379842281341553 -0.6248512864112854 -0.1627907156944275
-0.19379842281341553 -0.5855695009231567 -0.3333333134651184
-0.19379842281341553 -0.5550857782363892 -0.1627907156944275
-0.19379842281341553 -0.5356965661048889 -0.3333333134651184
-0.19379842281341553 -0.4980451464653015 -0.1782945990562439
-0.19379842281341553 -0.4642036557197571 -0.317829430103302
-0.19379842281341553 -0.46306121349334717 -0.19379842281341553
-0.19379842281341553 -0.44584921002388 -0.20930230617523193
-0.19379842281341553 -0.4367228150367737 -0.30232560634613037
-0.19379842281341553 -0.433674156665802 -0.22480618953704834
-0.19379842281341553 -0.4249400198459625 -0.28682172298431396
-0.19379842281341553 -0.42036861181259155 -0.27131783962249756
-0.19379842281341553 -0.4205712676048279 -0.25581395626068115
-0.19379842281341553 -0.4245877265930176 -0.24031007289886475
-0.19379842281341553 -0.2713424265384674 0.02325582504272461
-0.19379842281341553 -0.26128560304641724 0.007751941680908203
-0.19379842281341553 -0.26681196689605713 0.038759708404541016
-0.19379842281341553 -0.2572239339351654 0.05426359176635742
-0.19379842281341553 -0.22950300574302673 -0.30232560634613037
-0.19379842281341553 -0.2327292263507843 -0.28682172298431396
-0.19379842281341553 -0.22828879952430725 -0.27131783962249756
-0.19379842281341553 -0.23164916038513184 -0.007751941680908203
-0.19379842281341553 -0.2289346605539322 0.06976747512817383
-0.19379842281341553 -0.21838586032390594 -0.317829430103302
-0.19379842281341553 -0.21626901626586914 -0.25581395626068115
-0.19379842281341553 -0.19431906938552856 -0.24031007289886475
-0.19379842281341553 -0.20597392320632935 -0.007751941680908203
-0.19379842281341553 -0.2002924233675003 0.06976747512817383
-0.19379842281341553 -0.17795433104038239 0.007751941215246916
-0.19379842281341553 -0.17401959002017975 0.02325582504272461
-0.19379842281341553 -0.17413559556007385 0.038759708404541016
-0.19379842281341553 -0.17766670882701874 0.05426359176635742
-0.19379842281341553 -0.15576407313346863 -0.22480618953704834
-0.19379842281341553 -0.1404169350862503 -0.20930230617523193
-0.19379842281341553 -0.12394408881664276 -0.19379842281341553
-0.19379842281341553 -0.0871245414018631 -0.1782945990562439
-0.19379842281341553 -0.06961582601070404 -0.1782945990562439
-0.19379842281341553 -0.04575640708208084 -0.317829430103302
-0.19379842281341553 0.03326406329870224 -0.317829430103302
-0.19379842281341553 0.0311919916421175 -0.1782945990562439
-0.19379842281341553 0.0838446170091629 -0.3333333134651184
-0.19379842281341553 0.07753989100456238 -0.1627907156944275
-0.19379842281341553 0.13758736848831177 -0.3333333134651184
-0.19379842281341553 0.16194701194763184 -0.317829430103302
-0.19379842281341553 0.171138733625412 -0.30232560634613037
-0.19379842281341553 0.17714136838912964 -0.28682172298431396
-0.19379842281341553 0.1750795543193817 -0.1782945990562439
-0.19379840791225433 0.16409985721111298 -0.1627907156944275
-0.19379842281341553 0.17865684628486633 -0.27131783962249756
-0.19379842281341553 0.17901918292045593 -0.25581395626068115
-0.19379842281341553 0.17937833070755005 -0.24031007289886475
-0.19379843771457672 0.17984436452388763 -0.22480618953704834
-0.19379842281341553 0.1801510900259018 -0.20930232107639313
-0.19379842281341553 0.17948637902736664 -0.19379842281341553
-0.19379842281341553 0.6571922898292542 -0.30232560634613037
-0.19379842281341553 0.6565715074539185 -0.28682172298431396
-0.19379842281341553 0.6730042099952698 -0.3333333134651184
-0.19379842281341553 0.6625359058380127 -0.317829430103302
-0.19379842281341553 0.6593062877655029 -0.27131783962249756
-0.19379842281341553 0.6660395860671997 -0.25581395626068115
-0.19379842281341553 0.6722543239593506 -0.24031007289886475
-0.19379842281341553 0.6818873286247253 -0.22480618953704834
-0.19379842281341553 0.6898625493049622 -0.20930230617523193
-0.19379843771457672 0.7078074216842651 -0.19379843771457672
-0.19379842281341553 0.7586283087730408 -0.19379842281341553
-0.19379842281341553 0.7702900171279907 -0.3333333134651184
-0.19379842281341553 0.7808356285095215 -0.20930230617523193
-0.19379842281341553 0.7865092754364014 -0.317829430103302
-0.19379842281341553 0.7951086759567261 -0.30232560634613037
-0.19379842281341553 0.7971385717391968 -0.28682172298431396
-0.19379842281341553 0.7964060306549072 -0.24031007289886475
-0.19379842281341553 0.7931027412414551 -0.22480618953704834
-0.19379843771457672 0.7990677356719971 -0.27131783962249756
-0.19379840791225433 0.7987200021743774 -0.25581395626068115
-0.1782945990562439 -0.6819795370101929 -0.27131783962249756
-0.1782945990562439 -0.686363697052002 -0.25581395626068115
-0.1782945990562439 -0.6881536245346069 -0.24031007289886475
-0.1782945990562439 -0.6870371699333191 -0.22480618953704834
-0.1782945990562439 -0.6835540533065796 -0.20930230617523193
-0.1782945990562439 -0.6777524948120117 -0.19379842281341553
-0.1782945990562439 -0.660713255405426 -0.30232560634613037
-0.1782945990562439 -0.6736226677894592 -0.28682172298431396
-0.1782945990562439 -0.666456937789917 -0.1782945990562439
-0.1782945990562439 -0.6486349105834961 -0.1627907156944275
-0.1782946139574051 -0.6412490010261536 -0.317829430103302
-0.1782945990562439 -0.6061386466026306 -0.3333333134651184
-0.1782945990562439 -0.5603527426719666 -0.1627907156944275
-0.1782945990562439 -0.5469867587089539 -0.3333333134651184
-0.1782945990562439 -0.5174340009689331 -0.1782945990562439
-0.1782945990562439 -0.4906996786594391 -0.317829430103302
-0.1782945990562439 -0.47902441024780273 -0.19379842281341553
-0.1782945990562439 -0.46006929874420166 -0.30232560634613037
-0.1782945990562439 -0.4614635109901428 -0.20930230617523193
-0.1782945990562439 -0.44812294840812683 -0.28682172298431396
-0.1782945990562439 -0.44217804074287415 -0.27131783962249756
-0.1782945990562439 -0.4442633390426636 -0.24031007289886475
-0.1782945990562439 -0.4509182572364807 -0.22480618953704834
-0.1782945990562439 -0.44114571809768677 -0.25581395626068115
-0.1782945990562439 -0.27160322666168213 0.02325582504272461
-0.1782945990562439 -0.26082903146743774 0.007751941680908203
-0.1782945990562439 -0.27033084630966187 0.038759708404541016
-0.1782945990562439 -0.2604678273200989 0.05426359176635742
-0.1782945990562439 -0.2415837049484253 0.06976747512817383
-0.1782945990562439 -0.22661727666854858 -0.317829430103302
-0.1782945990562439 -0.23376056551933289 -0.30232560634613037
-0.1782946139574051 -0.23788414895534515 -0.28682172298431396
-0.1782945990562439 -0.23380878567695618 -0.27131783962249756
-0.1782945990562439 -0.22597481310367584 -0.25581395626068115
-0.1782945990562439 -0.2295476347208023 -0.007751941680908203
-0.1782945990562439 -0.21042655408382416 -0.24031007289886475
-0.1782945990562439 -0.20928826928138733 -0.007751941680908203
-0.1782945990562439 -0.1955835372209549 0.06976747512817383
-0.1782945990562439 -0.1846713423728943 0.007751941680908203
-0.1782945990562439 -0.1807890087366104 0.05426359176635742
-0.1782945990562439 -0.17209377884864807 -0.22480618953704834
-0.1782945990562439 -0.17644184827804565 0.02325582318007946
-0.1782945990562439 -0.17613829672336578 0.038759708404541016
-0.1782945990562439 -0.14214226603507996 -0.20930230617523193
-0.1782945990562439 -0.12450865656137466 -0.19379842281341553
-0.1782945990562439 -0.11047926545143127 -0.3333333134651184
-0.1782945990562439 -0.09879940003156662 -0.3333333134651184
-0.1782945990562439 -0.08771996945142746 -0.1782945990562439
-0.1782945841550827 -0.06918628513813019 -0.1782945841550827
-0.1782945990562439 -0.05256900191307068 -0.317829430103302
-0.1782945990562439 -0.0336061455309391 -0.30232560634613037
-0.1782945990562439 -0.029340118169784546 -0.19379842281341553
-0.1782945990562439 -0.008629205636680126 -0.19379842281341553
-0.1782945990562439 0.013084979727864265 -0.30232560634613037
-0.1782945990562439 0.04486563429236412 -0.317829430103302
-0.1782945990562439 0.04217803105711937 -0.1782945990562439
-0.1782945990562439 0.0808493047952652 -0.3333333134651184
-0.1782945990562439 0.08426376432180405 -0.1627907156944275
-0.1782945990562439 0.15190322697162628 -0.3333333134651184
-0.1782945990562439 0.1706230342388153 -0.317829430103302
-0.1782945990562439 0.16620779037475586 -0.1627907156944275
-0.1782945990562439 0.17980243265628815 -0.30232560634613037
-0.1782945990562439 0.18349449336528778 -0.28682172298431396
-0.1782945990562439 0.1843382865190506 -0.27131783962249756
-0.1782945990562439 0.18425077199935913 -0.25581395626068115
-0.1782945990562439 0.1841450333595276 -0.24031007289886475
-0.1782945990562439 0.18457898497581482 -0.22480618953704834
-0.1782945990562439 0.184969961643219 -0.20930230617523193
-0.1782945990562439 0.18329164385795593 -0.19379843771457672
-0.1782945990562439 0.17940987646579742 -0.1782945990562439
-0.1782945990562439 0.6551401615142822 -0.30232560634613037
-0.1782945990562439 0.6551400423049927 -0.28682172298431396
-0.1782945990562439 0.6719562411308289 -0.3333333134651184
-0.1782945990562439 0.6599478125572205 -0.3178294599056244
-0.1782945990562439 0.6590287685394287 -0.27131783962249756
-0.1782945990562439 0.6667456030845642 -0.25581395626068115
-0.1782945990562439 0.6738406419754028 -0.24031007289886475
-0.1782945990562439 0.684431254863739 -0.22480618953704834
-0.1782945990562439 0.6953531503677368 -0.20930230617523193
-0.1782945990562439 0.7176941633224487 -0.19379842281341553
-0.1782945990562439 0.7467215061187744 -0.19379842281341553
-0.1782945990562439 0.7668907642364502 -0.3333333134651184
-0.1782945990562439 0.7770243883132935 -0.20930230617523193
-0.1782945990562439 0.784412682056427 -0.317829430103302
-0.1782945990562439 0.7942250967025757 -0.30232560634613037
-0.1782945990562439 0.7966027855873108 -0.28682172298431396
-0.1782945990562439 0.7982174158096313 -0.27131783962249756
-0.1782945990562439 0.79787278175354 -0.25581395626068115
-0.1782945990562439 0.7956572771072388 -0.24031007289886475
-0.1782945990562439 0.7913204431533813 -0.22480618953704834
-0.1627907156944275 -0.6940490007400513 -0.27131783962249756
-0.1627907156944275 -0.6979221105575562 -0.25581395626068115
-0.1627907156944275 -0.6996375322341919 -0.24031007289886475
-0.1627907156944275 -0.6987195611000061 -0.22480618953704834
-0.1627907156944275 -0.6956879496574402 -0.20930230617523193
-0.1627907156944275 -0.6899429559707642 -0.19379842281341553
-0.1627907156944275 -0.6754941940307617 -0.30232560634613037
-0.16279073059558868 -0.6870665550231934 -0.28682172298431396
-0.1627907156944275 -0.680467963218689 -0.1782945990562439
-0.1627907156944275 -0.6647237539291382 -0.1627907156944275
-0.1627907156944275 -0.6579359769821167 -0.317829430103302
-0.1627907156944275 -0.6300249099731445 -0.14728683233261108
-0.16279073059558868 -0.6245870590209961 -0.3333333134651184
-0.1627907156944275 -0.6086467504501343 -0.14728683233261108
-0.1627907156944275 -0.569593071937561 -0.1627907156944275
-0.1627907156944275 -0.5600485801696777 -0.3333333134651184
-0.1627907156944275 -0.5376346707344055 -0.1782945990562439
-0.1627907156944275 -0.5164368748664856 -0.3178294003009796
-0.1627907156944275 -0.49941718578338623 -0.19379842281341553
-0.1627907156944275 -0.4830659031867981 -0.30232560634613037
-0.1627907156944275 -0.47889310121536255 -0.20930230617523193
-0.1627907156944275 -0.4683934152126312 -0.28682172298431396
-0.1627907156944275 -0.4618956446647644 -0.27131783962249756
-0.1627907156944275 -0.4596308469772339 -0.25581395626068115
-0.1627907156944275 -0.4615130126476288 -0.24031007289886475
-0.1627907156944275 -0.4676264822483063 -0.22480618953704834
-0.1627907156944275 -0.2715621590614319 0.038759708404541016
-0.1627907156944275 -0.25910621881484985 0.007751941680908203
-0.1627907156944275 -0.27105042338371277 0.02325582504272461
-0.1627907156944275 -0.2627198100090027 0.05426359176635742
-0.1627907156944275 -0.24068142473697662 -0.28682172298431396
-0.1627907156944275 -0.24698400497436523 0.06976747512817383
-0.1627907156944275 -0.22909529507160187 -0.317829430103302
-0.1627907156944275 -0.23701876401901245 -0.30232560634613037
-0.1627907156944275 -0.2387000322341919 -0.27131783962249756
-0.1627907156944275 -0.23105905950069427 -0.25581395626068115
-0.1627907156944275 -0.21132272481918335 -0.3333333134651184
-0.1627907156944275 -0.22078514099121094 -0.24031007289886475
-0.1627907156944275 -0.20377573370933533 -0.22480618953704834
-0.1627907156944275 -0.19632869958877563 0.06976747512817383
-0.1627907156944275 -0.18991097807884216 0.007751941680908203
-0.1627907156944275 -0.18183603882789612 0.02325582504272461
-0.1627907156944275 -0.17993777990341187 0.038759708404541016
-0.1627907156944275 -0.18613708019256592 0.05426359176635742
-0.1627907156944275 -0.15561363101005554 -0.3333333134651184
-0.1627907156944275 -0.14321103692054749 -0.20930230617523193
-0.1627907156944275 -0.1225685328245163 -0.19379842281341553
-0.1627907156944275 -0.060519538819789886 -0.317829430103302
-0.1627907156944275 -0.04644680768251419 -0.30232560634613037
-0.1627907156944275 -0.040436431765556335 -0.19379842281341553
-0.1627907156944275 -0.03586608171463013 -0.28682172298431396
-0.1627907156944275 -0.02856522798538208 -0.27131783962249756
-0.1627907156944275 -0.02425157092511654 -0.25581395626068115
-0.1627907156944275 0.00568179227411747 -0.27131783962249756
-0.1627907156944275 -0.004405088257044554 -0.25581395626068115
-0.1627907156944275 0.017067154869437218 -0.28682172298431396
-0.1627907156944275 0.014061890542507172 -0.19379842281341553
-0.1627907156944275 0.033203694969415665 -0.30232560634613037
-0.1627907156944275 0.052411194890737534 -0.317829430103302
-0.1627907156944275 0.05130565166473389 -0.1782945990562439
-0.1627907156944275 0.0815705731511116 -0.3333333134651184
-0.1627907156944275 0.09397118538618088 -0.1627907156944275
-0.1627907156944275 0.16353395581245422 -0.3333333134651184
-0.1627907156944275 0.17126575112342834 -0.1627907156944275
-0.1627907007932663 0.18155163526535034 -0.317829430103302
-0.1627907156944275 0.19029149413108826 -0.30232560634613037
-0.1627907156944275 0.1932869851589203 -0.24031007289886475
-0.1627907156944275 0.1937265843153 -0.22480618953704834
-0.1627907156944275 0.19253605604171753 -0.19379842281341553
-0.1627907156944275 0.18534508347511292 -0.1782945990562439
-0.1627907156944275 0.19430994987487793 -0.28682172298431396
-0.1627907156944275 0.19437940418720245 -0.27131783962249756
-0.1627907156944275 0.19400222599506378 -0.25581395626068115
-0.1627907156944275 0.1941259503364563 -0.20930230617523193
-0.1627907156944275 0.6570794582366943 -0.317829430103302
-0.1627907156944275 0.6525256633758545 -0.30232560634613037
-0.1627907156944275 0.6536767482757568 -0.28682172298431396
-0.1627907156944275 0.6707282066345215 -0.3333333134651184
-0.1627907156944275 0.6597327589988708 -0.27131780982017517
-0.1627907156944275 0.6684776544570923 -0.25581395626068115
-0.1627907156944275 0.6782514452934265 -0.24031007289886475
-0.1627907156944275 0.6880089640617371 -0.22480618953704834
-0.1627907156944275 0.7011752724647522 -0.20930230617523193
-0.1627907156944275 0.7635954022407532 -0.3333333134651184
-0.1627907156944275 0.7817570567131042 -0.317829430103302
-0.1627907156944275 0.7714011073112488 -0.20930230617523193
-0.1627907156944275 0.7920935750007629 -0.30232560634613037
-0.1627907156944275 0.7957599759101868 -0.28682172298431396
-0.1627907156944275 0.7966649532318115 -0.27131783962249756
-0.1627907156944275 0.7963159680366516 -0.25581395626068115
-0.1627907156944275 0.7944903373718262 -0.24031007289886475
-0.1627907156944275 0.7870514392852783 -0.22480618953704834
-0.14728683233261108 -0.7085822224617004 -0.25581395626068115
-0.14728683233261108 -0.7104101777076721 -0.24031007289886475
-0.14728683233261108 -0.7097009420394897 -0.22480618953704834
-0.14728683233261108 -0.7062932848930359 -0.20930230617523193
-0.14728683233261108 -0.6984540224075317 -0.28682172298431396
-0.14728683233261108 -0.7042974233627319 -0.27131783962249756
-0.14728683233261108 -0.7008712887763977 -0.19379842281341553
-0.14728683233261108 -0.6930027008056641 -0.1782945990562439
-0.14728683233261108 -0.6882705092430115 -0.30232560634613037
-0.14728683233261108 -0.6785147190093994 -0.1627907156944275
-0.14728683233261108 -0.672810971736908 -0.317829430103302
-0.14728683233261108 -0.6502969861030579 -0.14728683233261108
-0.1472868174314499 -0.6416683793067932 -0.3333333134651184
-0.14728683233261108 -0.6118891835212708 -0.14728683233261108
-0.14728683233261108 -0.5828955173492432 -0.1627907156944275
-0.14728683233261108 -0.574527382850647 -0.3333333134651184
-0.14728683233261108 -0.5575340390205383 -0.1782945990562439
-0.14728683233261108 -0.5379220247268677 -0.317829430103302
