-0.25581395626068115 -0.5658915042877197 0.2209029495716095
-0.25581395626068115 -0.5503876209259033 -0.2795577645301819
-0.25581395626068115 -0.5503876209259033 -0.1723981648683548
-0.25581395626068115 -0.5503876209259033 0.032316453754901886
-0.25581395626068115 -0.5503876209259033 0.20795013010501862
-0.25581395626068115 -0.5348837375640869 -0.26796963810920715
-0.25581395626068115 -0.5348837375640869 -0.18776947259902954
-0.25581395626068115 -0.5348837375640869 0.02541051059961319
-0.25581395626068115 -0.5348837375640869 0.19402286410331726
-0.25581395626068115 -0.5193798542022705 -0.2434706687927246
-0.25581395626068115 -0.5193798542022705 -0.21129892766475677
-0.25581395626068115 -0.5193798542022705 0.020634526386857033
-0.25581395626068115 -0.5193798542022705 0.17903871834278107
-0.25581395626068115 -0.5038759708404541 0.018971705809235573
-0.25581395626068115 -0.5038759708404541 0.1642168015241623
-0.25581395626068115 -0.4883720874786377 0.019291171804070473
-0.25581395626068115 -0.4883721172809601 0.14966891705989838
-0.25581395626068115 -0.4728682041168213 0.020508697256445885
-0.25581395626068115 -0.4728682041168213 0.1351381540298462
-0.25581395626068115 -0.4573643207550049 0.021561164408922195
-0.25581395626068115 -0.4573643207550049 0.12022972106933594
-0.25581395626068115 -0.4418604373931885 0.022476518526673317
-0.25581395626068115 -0.4418604373931885 0.10482850670814514
-0.25581395626068115 -0.42635661363601685 0.025939535349607468
-0.25581395626068115 -0.42635661363601685 0.08611959218978882
-0.25581395626068115 0.007751941680908203 -0.27390363812446594
-0.25581395626068115 0.007751941680908203 -0.21508821845054626
-0.25581395626068115 0.02325582504272461 -0.2867334187030792
-0.25581395626068115 0.02325582504272461 -0.20112910866737366
-0.25581395626068115 0.038759708404541016 -0.29318898916244507
-0.25581395626068115 0.038759708404541016 -0.19383645057678223
-0.25581395626068115 0.05426359176635742 -0.2945074439048767
-0.25581395626068115 0.05426359176635742 -0.19121350347995758
-0.25581395626068115 0.06976747512817383 -0.29506248235702515
-0.25581395626068115 0.06976747512817383 -0.19060873985290527
-0.25581395626068115 0.08527135848999023 -0.2954692244529724
-0.25581395626068115 0.08527135848999023 -0.1905573308467865
-0.25581395626068115 0.10077524185180664 -0.2955832779407501
-0.25581395626068115 0.10077524185180664 -0.19126535952091217
-0.25581395626068115 0.11627912521362305 -0.2954143285751343
-0.25581395626068115 0.11627912521362305 -0.19213683903217316
-0.25581395626068115 0.1317828893661499 -0.2952922582626343
-0.25581395626068115 0.1317828893661499 -0.1925351917743683
-0.25581395626068115 0.1472867727279663 -0.2949424982070923
-0.25581395626068115 0.1472867727279663 -0.1930680274963379
-0.25581395626068115 0.16279065608978271 -0.2944597601890564
-0.25581395626068115 0.1627906709909439 -0.193719282746315
-0.25581395626068115 0.17829453945159912 -0.29387205839157104
-0.25581395626068115 0.17829453945159912 -0.19615182280540466
-0.25581395626068115 0.19379842281341553 -0.2934408187866211
-0.25581395626068115 0.19379842281341553 -0.2008475363254547
-0.25581395626068115 0.20930230617523193 -0.293006032705307
-0.25581395626068115 0.20930230617523193 -0.2071506381034851
-0.25581395626068115 0.22480618953704834 -0.2914629578590393
-0.25581395626068115 0.22480618953704834 -0.2226591259241104
-0.25581395626068115 0.24031005799770355 -0.2841672897338867
-0.25581395626068115 0.24031007289886475 -0.24701189994812012
-0.25581395626068115 0.28682172298431396 -0.27251818776130676
-0.25581395626068115 0.28682172298431396 -0.26826879382133484
-0.25581395626068115 0.30232560634613037 -0.2884277403354645
-0.25581395626068115 0.30232560634613037 -0.23262625932693481
-0.25581395626068115 0.3178294897079468 -0.291034996509552
-0.25581395626068115 0.3178294897079468 -0.21002890169620514
-0.25581395626068115 0.3333333730697632 -0.29221466183662415
-0.25581395626068115 0.3333333730697632 -0.20263473689556122
-0.25581395626068115 0.3488372564315796 -0.2925395369529724
-0.25581395626068115 0.3488372564315796 -0.19713962078094482
-0.25581395626068115 0.364341139793396 -0.29226070642471313
-0.25581395626068115 0.364341139793396 -0.1923699676990509
-0.25581395626068115 0.37984490394592285 -0.2921019494533539
-0.25581395626068115 0.37984490394592285 -0.19114899635314941
-0.25581395626068115 0.39534878730773926 -0.2922229468822479
-0.25581395626068115 0.39534878730773926 -0.19076858460903168
-0.25581395626068115 0.41085267066955566 -0.29242023825645447
-0.25581395626068115 0.41085267066955566 -0.19050829112529755
-0.25581395626068115 0.42635655403137207 -0.2926604151725769
-0.25581395626068115 0.42635655403137207 -0.19046005606651306
-0.25581395626068115 0.4418604373931885 -0.2930554747581482
-0.25581395626068115 0.4418604373931885 -0.19082269072532654
-0.25581395626068115 0.4573643207550049 -0.29340648651123047
-0.25581395626068115 0.4573643207550049 -0.1918785274028778
-0.25581395626068115 0.4728682041168213 -0.2935214042663574
-0.25581395626068115 0.4728682041168213 -0.193939670920372
-0.25581395626068115 0.4883720874786377 -0.2935951054096222
-0.25581395626068115 0.4883720874786377 -0.20111607015132904
-0.25581395626068115 0.5038759708404541 -0.2936848998069763
-0.25581395626068115 0.5038759708404541 -0.20672957599163055
-0.25581395626068115 0.5193798542022705 -0.29358071088790894
-0.25581395626068115 0.5193798542022705 -0.21691665053367615
-0.25581395626068115 0.5348837375640869 -0.2927224040031433
-0.25581395626068115 0.5348837375640869 -0.22845008969306946
-0.25581395626068115 0.5503876209259033 -0.29034674167633057
-0.25581395626068115 0.5503876209259033 -0.24085374176502228
-0.25581395626068115 0.5658915042877197 -0.27957606315612793
-0.25581395626068115 0.5658915042877197 -0.26159387826919556
-0.25581395626068115 0.7364341020584106 -0.29282182455062866
-0.25581395626068115 0.7364341020584106 -0.21739032864570618
-0.25581395626068115 0.751937985420227 -0.2934134304523468
-0.25581395626068115 0.751937985420227 -0.2002442181110382
-0.25581395626068115 0.7674418687820435 -0.29279661178588867
-0.25581395626068115 0.7674418687820435 -0.19288340210914612
-0.25581395626068115 0.7829457521438599 -0.29231151938438416
-0.25581395626068115 0.7829457521438599 -0.19222712516784668
-0.25581395626068115 0.7984496355056763 -0.2924467921257019
-0.25581395626068115 0.7984496355056763 -0.194869726896286
-0.25581395626068115 0.8139535188674927 -0.2928919494152069
-0.25581395626068115 0.8139535188674927 -0.19996532797813416
-0.25581395626068115 0.8294574022293091 -0.29153603315353394
-0.25581395626068115 0.8294574022293091 -0.2048569619655609
-0.25581395626068115 0.8449612855911255 -0.28219088912010193
-0.25581395626068115 0.8449612855911255 -0.21688809990882874
-0.24031008780002594 -0.9844961166381836 0.18030959367752075
-0.24031008780002594 -0.9844961166381836 0.22672998905181885
-0.24031007289886475 -0.9689922332763672 0.16812755167484283
-0.24031007289886475 -0.9689922332763672 0.2379322350025177
-0.24031007289886475 -0.9534883499145508 0.1715582311153412
-0.24031008780002594 -0.9534883499145508 0.24624735116958618
-0.24031007289886475 -0.9379844665527344 0.18670397996902466
-0.24031007289886475 -0.9379844665527344 0.25015437602996826
-0.24031007289886475 -0.9224806427955627 0.20163118839263916
-0.24031007289886475 -0.922480583190918 0.25098150968551636
-0.24031007289886475 -0.9069766998291016 0.21366620063781738
-0.24031007289886475 -0.9069768190383911 0.2508401572704315
-0.24031007289886475 -0.8914728760719299 0.22471609711647034
-0.24031007289886475 -0.8914728760719299 0.2486950159072876
-0.24031007289886475 -0.8759689927101135 0.23832114040851593
-0.24031007289886475 -0.8759689927101135 0.2444615364074707
-0.24031007289886475 -0.8449612259864807 0.2403067946434021
-0.24031007289886475 -0.8449612259864807 0.24040359258651733
-0.24031007289886475 -0.8294573426246643 0.23887881636619568
-0.24031007289886475 -0.8294573426246643 0.25914666056632996
-0.24031007289886475 -0.8139535188674927 0.23698203265666962
-0.24031007289886475 -0.8139535188674927 0.2636282444000244
-0.24031007289886475 -0.7984496355056763 0.23325544595718384
-0.24031007289886475 -0.7984496355056763 0.2670220732688904
-0.24031007289886475 -0.7829457521438599 0.2248062640428543
-0.24031007289886475 -0.7829457521438599 0.2713247537612915
-0.24031007289886475 -0.7674418687820435 0.21822267770767212
-0.24031007289886475 -0.7674418687820435 0.2738727033138275
-0.24031007289886475 -0.751937985420227 0.2075488567352295
-0.24031007289886475 -0.751937985420227 0.27623361349105835
-0.24031007289886475 -0.7364341020584106 0.20015299320220947
-0.24031007289886475 -0.7364341020584106 0.2780284881591797
-0.24031007289886475 -0.7209302186965942 0.19212506711483002
-0.24031007289886475 -0.7209302186965942 0.27925869822502136
-0.24031007289886475 -0.7054263353347778 0.1876048445701599
-0.24031007289886475 -0.7054263353347778 0.27994275093078613
-0.24031007289886475 -0.6899224519729614 0.18206146359443665
-0.24031007289886475 -0.6899224519729614 0.28004199266433716
-0.24031007289886475 -0.674418568611145 0.16863617300987244
-0.24031007289886475 -0.674418568611145 0.27891579270362854
-0.24031007289886475 -0.6589146852493286 0.10990215837955475
-0.24031007289886475 -0.6589146852493286 0.27607589960098267
-0.24031007289886475 -0.643410861492157 -0.25200173258781433
-0.24031007289886475 -0.6434109210968018 -0.19354477524757385
-0.24031007289886475 -0.6434108018875122 0.09283748269081116
-0.24031007289886475 -0.643410861492157 0.27147579193115234
-0.24031007289886475 -0.6279069781303406 -0.2670781910419464
-0.24031007289886475 -0.6279069781303406 -0.18336501717567444
-0.24031007289886475 -0.6279069781303406 0.08049154281616211
-0.24031007289886475 -0.6279069781303406 0.2640452980995178
-0.24031007289886475 -0.6124030947685242 -0.2772723138332367
-0.24031008780002594 -0.6124030947685242 -0.17535686492919922
-0.24031007289886475 -0.6124030947685242 0.06916473060846329
-0.24031007289886475 -0.6124030947685242 0.257291704416275
-0.24031007289886475 -0.5968992114067078 -0.2823103368282318
-0.24031007289886475 -0.5968992114067078 -0.1673334389925003
-0.24031007289886475 -0.5968992114067078 0.06308010965585709
-0.24031007289886475 -0.5968992114067078 0.2467230260372162
-0.24031005799770355 -0.5813953876495361 -0.2851013243198395
-0.24031007289886475 -0.5813953876495361 -0.16304638981819153
-0.24031007289886475 -0.5813953876495361 0.054146524518728256
-0.24031007289886475 -0.5813953876495361 0.23403656482696533
-0.24031005799770355 -0.565891444683075 -0.2854532301425934
-0.24031007289886475 -0.5658915042877197 -0.1675000935792923
-0.24031007289886475 -0.5658915042877197 0.049337226897478104
-0.24031007289886475 -0.5658915042877197 0.2194066196680069
-0.24031007289886475 -0.5503876209259033 -0.28042179346084595
-0.24031007289886475 -0.5503876209259033 -0.1777782440185547
-0.24031008780002594 -0.5503876209259033 0.04332851618528366
-0.24031007289886475 -0.5503876209259033 0.20428159832954407
-0.24031007289886475 -0.5348837375640869 -0.26837196946144104
-0.24031007289886475 -0.5348837375640869 -0.19134119153022766
-0.24031007289886475 -0.5348837375640869 0.03713829815387726
-0.24031007289886475 -0.5348837375640869 0.18896250426769257
-0.24031007289886475 -0.5193798542022705 -0.24115702509880066
-0.24031007289886475 -0.5193798542022705 -0.21989762783050537
-0.24031007289886475 -0.5193798542022705 0.03505134582519531
-0.24031007289886475 -0.5193798542022705 0.17360535264015198
-0.24031007289886475 -0.5038759708404541 0.03453660011291504
-0.24031007289886475 -0.5038759708404541 0.15863049030303955
-0.24031007289886475 -0.4883720874786377 0.0355258584022522
-0.24031007289886475 -0.4883720874786377 0.14430008828639984
-0.24031007289886475 -0.4728682041168213 0.03802758455276489
-0.24031007289886475 -0.4728682041168213 0.12906862795352936
-0.24031007289886475 -0.4573643207550049 0.044954512268304825
-0.24031007289886475 -0.4573643207550049 0.11194783449172974
-0.24031007289886475 -0.4418604373931885 0.05972863361239433
-0.24031007289886475 -0.4418604373931885 0.08969251811504364
-0.24031007289886475 0.007751941680908203 -0.2743065357208252
-0.24031007289886475 0.007751941680908203 -0.2204464077949524
-0.24031007289886475 0.02325582504272461 -0.2880646586418152
-0.24031007289886475 0.02325582504272461 -0.20360425114631653
-0.24031007289886475 0.038759708404541016 -0.2936760187149048
-0.24031007289886475 0.038759708404541016 -0.1955317258834839
-0.24031007289886475 0.05426359176635742 -0.2947750687599182
-0.24031007289886475 0.05426359176635742 -0.19155055284500122
-0.24031007289886475 0.06976747512817383 -0.2954113781452179
-0.24031008780002594 0.06976747512817383 -0.19021348655223846
-0.24031007289886475 0.08527135848999023 -0.29592040181159973
-0.24031008780002594 0.08527135848999023 -0.18952909111976624
-0.24031007289886475 0.10077524185180664 -0.29605546593666077
-0.24031007289886475 0.10077524185180664 -0.18978720903396606
-0.24031007289886475 0.11627912521362305 -0.2958427667617798
-0.24031005799770355 0.11627911776304245 -0.19034864008426666
-0.24031007289886475 0.1317828893661499 -0.29566770792007446
-0.24031007289886475 0.1317828893661499 -0.19055290520191193
-0.24031007289886475 0.1472867727279663 -0.2952512502670288
-0.24031007289886475 0.1472867727279663 -0.19103926420211792
-0.24031007289886475 0.16279065608978271 -0.29464417695999146
-0.24031007289886475 0.16279065608978271 -0.1917211413383484
-0.24031007289886475 0.17829453945159912 -0.2939111888408661
-0.24031008780002594 0.17829455435276031 -0.1929875761270523
-0.24031007289886475 0.19379842281341553 -0.2933802008628845
-0.24031007289886475 0.19379842281341553 -0.1970721334218979
-0.24031007289886475 0.20930230617523193 -0.29309549927711487
-0.24031007289886475 0.20930230617523193 -0.2030448019504547
-0.24031007289886475 0.22480618953704834 -0.29268884658813477
-0.24031007289886475 0.22480618953704834 -0.2126031070947647
-0.24031007289886475 0.24031007289886475 -0.2907217741012573
-0.24031007289886475 0.24031007289886475 -0.23219352960586548
-0.24031007289886475 0.25581395626068115 -0.2844136357307434
-0.24031007289886475 0.25581395626068115 -0.2497778832912445
-0.24031007289886475 0.27131783962249756 -0.2786763608455658
-0.24031005799770355 0.27131783962249756 -0.25524061918258667
-0.24031007289886475 0.28682172298431396 -0.28758376836776733
-0.24031007289886475 0.28682172298431396 -0.24423354864120483
-0.24031007289886475 0.30232560634613037 -0.29064303636550903
-0.24031007289886475 0.30232560634613037 -0.22204387187957764
-0.24031007289886475 0.3178294897079468 -0.29170241951942444
-0.24031007289886475 0.3178294897079468 -0.20713743567466736
-0.24031007289886475 0.3333333730697632 -0.29237791895866394
-0.24031007289886475 0.3333333730697632 -0.2007923722267151
-0.24031007289886475 0.3488372564315796 -0.29258567094802856
-0.24031007289886475 0.3488372564315796 -0.19486072659492493
-0.24031007289886475 0.364341139793396 -0.29228323698043823
-0.24031007289886475 0.364341139793396 -0.19154499471187592
-0.24031007289886475 0.37984490394592285 -0.292117178440094
-0.24031007289886475 0.37984490394592285 -0.19049513339996338
-0.24031007289886475 0.39534878730773926 -0.29213714599609375
-0.24031008780002594 0.39534878730773926 -0.19036318361759186
-0.24031007289886475 0.41085267066955566 -0.2921513020992279
-0.24031007289886475 0.41085267066955566 -0.19046437740325928
-0.24031007289886475 0.42635655403137207 -0.2922716736793518
-0.24031007289886475 0.42635655403137207 -0.19095051288604736
-0.24031007289886475 0.4418604373931885 -0.2926056385040283
-0.24031007289886475 0.4418604373931885 -0.19191768765449524
-0.24031007289886475 0.4573643207550049 -0.29292526841163635
-0.24031007289886475 0.45736435055732727 -0.19350625574588776
-0.24031007289886475 0.4728682041168213 -0.2930571138858795
-0.24031007289886475 0.4728682041168213 -0.19830723106861115
-0.24031007289886475 0.4883720874786377 -0.2932160794734955
-0.24031007289886475 0.4883720874786377 -0.20350798964500427
-0.24031007289886475 0.5038759708404541 -0.2933489680290222
-0.24031007289886475 0.5038759708404541 -0.20973177254199982
-0.24031007289886475 0.5193798542022705 -0.29310670495033264
-0.24031005799770355 0.5193798542022705 -0.22114986181259155
-0.24031007289886475 0.5348837375640869 -0.29214224219322205
-0.24031007289886475 0.5348837375640869 -0.23338347673416138
-0.24031007289886475 0.5503876209259033 -0.2888287305831909
-0.24031007289886475 0.5503876209259033 -0.24838905036449432
-0.24031007289886475 0.7364341020584106 -0.2923142910003662
-0.24031007289886475 0.7364341020584106 -0.2182117998600006
-0.24031007289886475 0.751937985420227 -0.29334038496017456
-0.24031007289886475 0.751937985420227 -0.20079562067985535
-0.24031007289886475 0.7674418687820435 -0.29285961389541626
-0.24031007289886475 0.7674418687820435 -0.19316710531711578
-0.24031007289886475 0.7829457521438599 -0.29241472482681274
-0.24031007289886475 0.7829457521438599 -0.1923137605190277
-0.24031007289886475 0.7984496355056763 -0.29242706298828125
-0.24031007289886475 0.7984496355056763 -0.1942225992679596
-0.24031007289886475 0.8139535188674927 -0.29274609684944153
-0.24031007289886475 0.8139535188674927 -0.19923076033592224
-0.24031007289886475 0.8294574022293091 -0.29256072640419006
-0.24031007289886475 0.8294574022293091 -0.20322608947753906
-0.24031007289886475 0.8449612855911255 -0.28587666153907776
-0.24031007289886475 0.8449612855911255 -0.21171146631240845
-0.24031007289886475 0.8604651689529419 -0.2681627571582794
-0.24031007289886475 0.8604651689529419 -0.23482298851013184
-0.22480618953704834 -0.9844961166381836 0.16998252272605896
-0.22480618953704834 -0.9844961166381836 0.23825770616531372
-0.22480618953704834 -0.9689922332763672 0.17199549078941345
-0.22480618953704834 -0.9689922332763672 0.24720551073551178
-0.22480618953704834 -0.9534883499145508 0.1785992830991745
-0.22480618953704834 -0.9534883499145508 0.25172674655914307
-0.22480618953704834 -0.9379844665527344 0.18958780169487
-0.22480618953704834 -0.9379844665527344 0.25409838557243347
-0.22480618953704834 -0.9224807024002075 0.2014007568359375
-0.22480618953704834 -0.9224806427955627 0.2554885149002075
-0.22480618953704834 -0.9069767594337463 0.21158379316329956
-0.22480618953704834 -0.9069767594337463 0.25504666566848755
-0.22480618953704834 -0.8914728760719299 0.22434595227241516
-0.22480618953704834 -0.8914729356765747 0.2518901526927948
-0.22480618953704834 -0.8139535188674927 0.25394314527511597
-0.22480620443820953 -0.8139535188674927 0.25815558433532715
-0.22480618953704834 -0.798449695110321 0.24397875368595123
-0.22480618953704834 -0.7984496355056763 0.2670558989048004
-0.22480618953704834 -0.7829457521438599 0.2370660901069641
-0.22480618953704834 -0.7829456925392151 0.27298828959465027
-0.22480620443820953 -0.7674418687820435 0.2282188981771469
-0.22480620443820953 -0.7674418687820435 0.2759368121623993
-0.22480618953704834 -0.751937985420227 0.21874210238456726
-0.22480618953704834 -0.751937985420227 0.2782897651195526
-0.22480618953704834 -0.7364341020584106 0.20809966325759888
-0.22480618953704834 -0.7364341020584106 0.2799263894557953
-0.22480618953704834 -0.7209302186965942 0.20259296894073486
-0.22480618953704834 -0.7209302186965942 0.2810213267803192
-0.22480618953704834 -0.7054263353347778 0.1967916637659073
-0.22480618953704834 -0.7054263353347778 0.28209012746810913
-0.22480618953704834 -0.6899224519729614 0.19238746166229248
-0.22480618953704834 -0.6899224519729614 0.2825189530849457
-0.22480618953704834 -0.674418568611145 0.18955634534358978
-0.22480618953704834 -0.674418568611145 0.281103253364563
-0.22480618953704834 -0.6589146852493286 0.17105375230312347
-0.22480618953704834 -0.6589146852493286 0.2785801291465759
-0.22480617463588715 -0.6434108018875122 -0.2545472979545593
-0.22480618953704834 -0.643410861492157 -0.19305357336997986
-0.22480618953704834 -0.643410861492157 0.11120980978012085
-0.22480618953704834 -0.643410861492157 0.27399352192878723
-0.22480618953704834 -0.6279069781303406 -0.26933422684669495
-0.22480618953704834 -0.6279069781303406 -0.18491750955581665
-0.22480618953704834 -0.6279069781303406 0.09594814479351044
-0.22480618953704834 -0.6279069781303406 0.2657049298286438
-0.22480618953704834 -0.6124030947685242 -0.27984437346458435
-0.22480617463588715 -0.6124030947685242 -0.17818674445152283
-0.22480618953704834 -0.6124030947685242 0.08369043469429016
-0.22480618953704834 -0.6124030351638794 0.2580394446849823
-0.22480618953704834 -0.5968992114067078 -0.28390875458717346
-0.22480618953704834 -0.5968992114067078 -0.17260390520095825
-0.22480618953704834 -0.5968992710113525 0.0766027569770813
-0.22480620443820953 -0.5968992710113525 0.24628499150276184
-0.22480618953704834 -0.5813953876495361 -0.2875004708766937
-0.22480618953704834 -0.5813953876495361 -0.17028722167015076
-0.22480618953704834 -0.5813953876495361 0.06826203316450119
-0.22480618953704834 -0.5813953876495361 0.23210370540618896
-0.22480618953704834 -0.5658915042877197 -0.28720706701278687
-0.22480618953704834 -0.5658915042877197 -0.1736583709716797
-0.22480618953704834 -0.5658915042877197 0.06430285423994064
-0.22480618953704834 -0.5658915042877197 0.21511216461658478
-0.22480618953704834 -0.5503876209259033 -0.2811058759689331
-0.22480618953704834 -0.5503876209259033 -0.1821942776441574
-0.22480618953704834 -0.5503876209259033 0.059359997510910034
-0.22480618953704834 -0.5503876209259033 0.19831028580665588
-0.22480618953704834 -0.5348837375640869 -0.2682362198829651
-0.22480618953704834 -0.5348837375640869 -0.19463422894477844
-0.22480618953704834 -0.5348837375640869 0.054135750979185104
-0.22480618953704834 -0.5348837375640869 0.1822100728750229
-0.22480618953704834 -0.5193798542022705 0.05341186001896858
-0.22480618953704834 -0.5193798542022705 0.1663786917924881
-0.22480620443820953 -0.5038759708404541 0.0543537363409996
-0.22480618953704834 -0.5038759708404541 0.15048429369926453
-0.22480618953704834 -0.4883720874786377 0.05897152051329613
-0.22480618953704834 -0.4883720874786377 0.13451045751571655
-0.22480618953704834 -0.4728682041168213 0.0664432942867279
-0.22480618953704834 -0.4728682041168213 0.115348219871521
-0.22480618953704834 0.007751941680908203 -0.2743196189403534
-0.22480618953704834 0.00775194214656949 -0.22474445402622223
-0.22480618953704834 0.02325582504272461 -0.2889484763145447
-0.22480618953704834 0.02325582690536976 -0.2052106261253357
-0.22480618953704834 0.038759708404541016 -0.2939557433128357
-0.22480618953704834 0.038759708404541016 -0.19633877277374268
-0.22480618953704834 0.05426359176635742 -0.2948872148990631
-0.22480618953704834 0.05426359176635742 -0.1913563758134842
-0.22480618953704834 0.06976747512817383 -0.2955522835254669
-0.22480618953704834 0.06976747512817383 -0.18940667808055878
-0.22480617463588715 0.08527135848999023 -0.29610756039619446
-0.22480618953704834 0.08527135848999023 -0.18821510672569275
-0.22480618953704834 0.10077524185180664 -0.296241819858551
-0.22480618953704834 0.10077524185180664 -0.1880951076745987
-0.22480618953704834 0.11627912521362305 -0.29600149393081665
-0.22480618953704834 0.11627912521362305 -0.18838094174861908
-0.22480618953704834 0.1317828893661499 -0.29582586884498596
-0.22480620443820953 0.1317828893661499 -0.18845677375793457
-0.22480618953704834 0.1472867727279663 -0.2954174280166626
-0.22480618953704834 0.1472867727279663 -0.18899662792682648
-0.22480618953704834 0.16279065608978271 -0.29476481676101685
-0.22480618953704834 0.16279065608978271 -0.1898190975189209
-0.22480618953704834 0.17829453945159912 -0.2939368486404419
-0.22480617463588715 0.17829453945159912 -0.19123199582099915
-0.22480618953704834 0.19379842281341553 -0.2933048605918884
-0.22480618953704834 0.19379842281341553 -0.19383738934993744
-0.22480618953704834 0.20930230617523193 -0.29300740361213684
-0.22480618953704834 0.20930230617523193 -0.19984331727027893
-0.22480618953704834 0.22480618953704834 -0.29293695092201233
-0.22480618953704834 0.22480618953704834 -0.2068757265806198
-0.22480618953704834 0.24031007289886475 -0.2925240397453308
-0.22480620443820953 0.24031007289886475 -0.22147759795188904
-0.22480618953704834 0.25581395626068115 -0.2908657193183899
-0.22480618953704834 0.25581395626068115 -0.23571544885635376
-0.22480618953704834 0.27131783962249756 -0.28984183073043823
-0.22480618953704834 0.27131783962249756 -0.2397107034921646
-0.22480618953704834 0.28682172298431396 -0.29091256856918335
-0.22480618953704834 0.28682172298431396 -0.23188184201717377
-0.22480618953704834 0.30232560634613037 -0.2918136715888977
-0.22480618953704834 0.30232560634613037 -0.21522867679595947
-0.22480618953704834 0.3178294897079468 -0.2921234965324402
-0.22480618953704834 0.3178294897079468 -0.20517981052398682
-0.22480618953704834 0.3333333730697632 -0.29251745343208313
-0.22480618953704834 0.3333333730697632 -0.19946551322937012
-0.22480618953704834 0.3488372564315796 -0.29264163970947266
-0.22480618953704834 0.348837286233902 -0.19378510117530823
-0.22480618953704834 0.364341139793396 -0.29230955243110657
-0.22480618953704834 0.3643411695957184 -0.1913328319787979
-0.22480618953704834 0.37984490394592285 -0.2920941710472107
-0.22480618953704834 0.37984490394592285 -0.19040122628211975
-0.22480618953704834 0.39534878730773926 -0.2919885814189911
-0.22480618953704834 0.39534878730773926 -0.19047990441322327
-0.22480618953704834 0.41085267066955566 -0.2918454706668854
-0.22480620443820953 0.41085267066955566 -0.1909765899181366
-0.22480618953704834 0.42635655403137207 -0.2919089198112488
-0.22480618953704834 0.42635655403137207 -0.19207413494586945
-0.22480618953704834 0.4418604373931885 -0.2922717332839966
-0.22480620443820953 0.44186046719551086 -0.1936105638742447
-0.22480618953704834 0.4573643207550049 -0.2926383912563324
-0.22480618953704834 0.4573643207550049 -0.1975727528333664
-0.22480618953704834 0.4728682041168213 -0.2927793264389038
-0.22480618953704834 0.4728682041168213 -0.2012307196855545
-0.22480618953704834 0.4883720874786377 -0.2929220199584961
-0.22480618953704834 0.4883720874786377 -0.20587365329265594
-0.22480618953704834 0.5038759708404541 -0.29296714067459106
-0.22480618953704834 0.5038759708404541 -0.2142716944217682
-0.22480618953704834 0.5193798542022705 -0.29264533519744873
-0.22480618953704834 0.5193798542022705 -0.22546052932739258
-0.22480618953704834 0.5348837375640869 -0.29127776622772217
-0.22480618953704834 0.5348837375640869 -0.23813563585281372
-0.22480618953704834 0.5503876209259033 -0.28665784001350403
-0.22480618953704834 0.5503876209259033 -0.25486981868743896
-0.22480618953704834 0.7364341020584106 -0.29181355237960815
-0.22480618953704834 0.7364341020584106 -0.21781384944915771
-0.22480618953704834 0.751937985420227 -0.29318422079086304
-0.22480618953704834 0.751937985420227 -0.20085939764976501
-0.22480618953704834 0.7674418687820435 -0.2928147315979004
-0.22480618953704834 0.7674418687820435 -0.1932695358991623
-0.22480618953704834 0.7829457521438599 -0.29246509075164795
-0.22480618953704834 0.7829457521438599 -0.1922954022884369
-0.22480618953704834 0.7984496355056763 -0.29245224595069885
-0.22480618953704834 0.798449695110321 -0.19367258250713348
-0.22480618953704834 0.8139535188674927 -0.29265066981315613
-0.22480618953704834 0.8139535188674927 -0.19855885207653046
-0.22480618953704834 0.8294574022293091 -0.29278209805488586
-0.22480618953704834 0.8294574022293091 -0.2021063268184662
-0.22480618953704834 0.8449612855911255 -0.29050785303115845
-0.22480617463588715 0.8449612855911255 -0.20778539776802063
-0.22480618953704834 0.8604651689529419 -0.2803001403808594
-0.22480618953704834 0.8604651689529419 -0.2216426134109497
-0.20930230617523193 -0.9844961166381836 0.1776234209537506
-0.20930230617523193 -0.9844961166381836 0.24204090237617493
-0.20930230617523193 -0.9689922332763672 0.17817844450473785
-0.20930230617523193 -0.9689922332763672 0.2511458098888397
-0.20930230617523193 -0.9534883499145508 0.18644484877586365
-0.20930230617523193 -0.9534883499145508 0.2542179822921753
-0.20930230617523193 -0.9379844665527344 0.192433699965477
-0.20930230617523193 -0.9379844665527344 0.2576914131641388
-0.20930230617523193 -0.922480583190918 0.20311081409454346
-0.20930229127407074 -0.9224806427955627 0.25830134749412537
-0.20930232107639313 -0.9069768190383911 0.2127433866262436
-0.20930230617523193 -0.9069767594337463 0.2572248578071594
-0.20930230617523193 -0.8914728760719299 0.22725215554237366
-0.20930230617523193 -0.8914729356765747 0.2519463896751404
-0.20930230617523193 -0.7829457521438599 0.24802938103675842
-0.20930232107639313 -0.7829457521438599 0.27249783277511597
-0.20930230617523193 -0.7674418687820435 0.23757454752922058
-0.20930230617523193 -0.7674418687820435 0.27642640471458435
-0.20930230617523193 -0.7519380450248718 0.22523675858974457
-0.20930230617523193 -0.751937985420227 0.2793422341346741
-0.20930230617523193 -0.7364341020584106 0.21841126680374146
-0.20930230617523193 -0.7364341020584106 0.2811166048049927
-0.20930230617523193 -0.7209302186965942 0.2089260071516037
-0.20930230617523193 -0.7209302186965942 0.28280875086784363
-0.20930230617523193 -0.7054263353347778 0.20575973391532898
-0.20930230617523193 -0.7054263353347778 0.28444236516952515
-0.20930230617523193 -0.6899224519729614 0.20306606590747833
-0.20930230617523193 -0.6899224519729614 0.2852698862552643
-0.20930230617523193 -0.674418568611145 0.20148196816444397
-0.20930230617523193 -0.674418568611145 0.2835560739040375
-0.20930230617523193 -0.6589146852493286 0.19851553440093994
-0.20930230617523193 -0.6589146852493286 0.27977484464645386
-0.20930230617523193 -0.643410861492157 -0.25833094120025635
-0.20930230617523193 -0.6434108018875122 -0.19269323348999023
-0.20930230617523193 -0.643410861492157 0.18420526385307312
-0.20930230617523193 -0.643410861492157 0.2749961018562317
-0.20930230617523193 -0.6279069781303406 -0.2724526524543762
-0.20930230617523193 -0.6279069781303406 -0.18595850467681885
-0.20930230617523193 -0.6279069781303406 0.12455399334430695
-0.20930230617523193 -0.6279069781303406 0.2659375071525574
-0.20930230617523193 -0.6124030947685242 -0.2817952334880829
-0.20930230617523193 -0.6124030947685242 -0.18052421510219574
-0.20930230617523193 -0.612403154373169 0.10818968713283539
-0.20930230617523193 -0.612403154373169 0.2569110095500946
-0.20930230617523193 -0.5968992114067078 -0.2867451608181
-0.20930230617523193 -0.5968992114067078 -0.17580841481685638
-0.20930230617523193 -0.5968992114067078 0.09716126322746277
-0.20930230617523193 -0.596899151802063 0.24377357959747314
-0.20930230617523193 -0.5813953876495361 -0.28877750039100647
-0.20930230617523193 -0.5813953876495361 -0.17455601692199707
-0.20930230617523193 -0.5813953876495361 0.08987082540988922
-0.20930230617523193 -0.5813953876495361 0.22704653441905975
-0.20930230617523193 -0.5658915042877197 -0.28803718090057373
-0.20930232107639313 -0.5658915638923645 -0.17727753520011902
-0.20930230617523193 -0.5658915042877197 0.08361051976680756
-0.20930230617523193 -0.5658915042877197 0.20432962477207184
-0.20930230617523193 -0.5503876209259033 -0.2815970182418823
-0.20930230617523193 -0.5503876209259033 -0.1847921907901764
-0.20930230617523193 -0.5503876209259033 0.08064678311347961
-0.20930230617523193 -0.5503876209259033 0.18523496389389038
-0.20930230617523193 -0.5348837375640869 -0.2679915130138397
-0.20930230617523193 -0.5348837375640869 -0.19744154810905457
-0.20930230617523193 -0.5348837375640869 0.07949715852737427
-0.20930230617523193 -0.5348837375640869 0.16836127638816833
-0.20930230617523193 -0.5193798542022705 0.08128117024898529
-0.20930230617523193 -0.5193798542022705 0.15118587017059326
-0.20930230617523193 -0.5038759708404541 0.08775285631418228
-0.20930230617523193 -0.5038759708404541 0.13206230103969574
-0.20930230617523193 0.007751941680908203 -0.2751096487045288
-0.20930230617523193 0.007751941680908203 -0.22688381373882294
-0.20930230617523193 0.02325582504272461 -0.28994321823120117
-0.20930230617523193 0.02325582504272461 -0.20537108182907104
-0.20930230617523193 0.038759708404541016 -0.2941707968711853
-0.20930230617523193 0.038759708404541016 -0.19583958387374878
-0.20930230617523193 0.05426359176635742 -0.2949673533439636
-0.20930230617523193 0.05426359176635742 -0.19043762981891632
-0.20930230617523193 0.06976747512817383 -0.29566460847854614
-0.20930230617523193 0.06976747512817383 -0.18810835480690002
-0.20930230617523193 0.08527135848999023 -0.29624661803245544
-0.20930230617523193 0.08527135848999023 -0.18644669651985168
-0.20930230617523193 0.10077524185180664 -0.2963637709617615
-0.20930230617523193 0.10077524185180664 -0.18593406677246094
-0.20930230617523193 0.11627912521362305 -0.2961055040359497
-0.20930230617523193 0.11627912521362305 -0.1859830617904663
-0.20930230617523193 0.1317828893661499 -0.29592210054397583
-0.20930230617523193 0.1317828893661499 -0.18599466979503632
-0.20930230617523193 0.1472867727279663 -0.29550880193710327
-0.20930230617523193 0.1472867727279663 -0.18677623569965363
-0.20930230617523193 0.16279065608978271 -0.29486703872680664
-0.20930230617523193 0.16279065608978271 -0.18798702955245972
-0.20930230617523193 0.17829453945159912 -0.2939978241920471
-0.20930232107639313 0.17829455435276031 -0.18957513570785522
-0.20930230617523193 0.19379842281341553 -0.29331105947494507
-0.20930230617523193 0.19379842281341553 -0.19227148592472076
-0.20930230617523193 0.20930230617523193 -0.2929721474647522
-0.20930230617523193 0.20930230617523193 -0.19725781679153442
-0.20930230617523193 0.22480618953704834 -0.29291975498199463
-0.20930230617523193 0.22480618953704834 -0.203841894865036
-0.20930230617523193 0.24031007289886475 -0.29290103912353516
-0.20930230617523193 0.24031007289886475 -0.21394209563732147
-0.20930230617523193 0.25581395626068115 -0.29245275259017944
-0.20930230617523193 0.25581395626068115 -0.2255610078573227
-0.20930230617523193 0.27131783962249756 -0.29213109612464905
-0.20930230617523193 0.27131783962249756 -0.22962242364883423
-0.20930230617523193 0.28682172298431396 -0.29229533672332764
-0.20930230617523193 0.28682172298431396 -0.22195935249328613
-0.20930230617523193 0.30232560634613037 -0.29236167669296265
-0.20930230617523193 0.30232560634613037 -0.20931506156921387
-0.20930230617523193 0.3178294897079468 -0.29237252473831177
-0.20930230617523193 0.3178294897079468 -0.20309901237487793
-0.20930230617523193 0.3333333730697632 -0.29265040159225464
-0.20930230617523193 0.3333333730697632 -0.1978042870759964
-0.20930230617523193 0.3488372564315796 -0.2927267551422119
-0.20930232107639313 0.348837286233902 -0.1932350993156433
-0.20930230617523193 0.364341139793396 -0.2923652231693268
-0.20930229127407074 0.3643411099910736 -0.19113221764564514
-0.20930230617523193 0.37984490394592285 -0.29205381870269775
-0.20930230617523193 0.37984490394592285 -0.19042131304740906
-0.20930230617523193 0.39534878730773926 -0.2918201684951782
-0.20930230617523193 0.39534878730773926 -0.19073596596717834
-0.20930230617523193 0.41085267066955566 -0.29159581661224365
-0.20930230617523193 0.41085267066955566 -0.19162872433662415
-0.20930230617523193 0.42635655403137207 -0.2916891872882843
-0.20930230617523193 0.4263565242290497 -0.19328132271766663
-0.20930230617523193 0.4418604373931885 -0.2921576499938965
-0.20930230617523193 0.4418604373931885 -0.19694018363952637
-0.20930230617523193 0.4573643207550049 -0.29259657859802246
-0.20930230617523193 0.4573643207550049 -0.20024898648262024
-0.20930230617523193 0.4728682041168213 -0.29269903898239136
-0.20930230617523193 0.4728682041168213 -0.20330530405044556
-0.20930230617523193 0.4883720874786377 -0.29276371002197266
-0.20930232107639313 0.4883721172809601 -0.2078571915626526
-0.20930230617523193 0.5038759708404541 -0.2926875054836273
-0.20930230617523193 0.5038759708404541 -0.21776166558265686
-0.20930230617523193 0.5193798542022705 -0.29212719202041626
-0.20930230617523193 0.5193798542022705 -0.23046714067459106
-0.20930230617523193 0.5348837375640869 -0.2897942364215851
-0.20930230617523193 0.5348837375640869 -0.24487456679344177
-0.20930230617523193 0.5503876209259033 -0.27547720074653625
-0.20930230617523193 0.5503876209259033 -0.2683921754360199
-0.20930230617523193 0.7364341020584106 -0.2914888560771942
-0.20930230617523193 0.7364341020584106 -0.21616750955581665
-0.20930230617523193 0.751937985420227 -0.29300907254219055
-0.20930230617523193 0.751937985420227 -0.2003471404314041
-0.20930230617523193 0.7674418687820435 -0.2927509546279907
-0.20930232107639313 0.7674418687820435 -0.19304244220256805
-0.20930230617523193 0.7829457521438599 -0.29255789518356323
-0.20930232107639313 0.7829458117485046 -0.1920142024755478
-0.20930230617523193 0.7984496355056763 -0.292572021484375
-0.20930230617523193 0.7984496355056763 -0.19322073459625244
-0.20930230617523193 0.8139535188674927 -0.29266953468322754
-0.20930230617523193 0.8139535188674927 -0.19775205850601196
-0.20930230617523193 0.8294574022293091 -0.2927376329898834
-0.20930230617523193 0.8294574022293091 -0.20133554935455322
-0.20930230617523193 0.8449612855911255 -0.2922772169113159
-0.20930230617523193 0.8449612855911255 -0.20575959980487823
-0.20930230617523193 0.8604651689529419 -0.2849462628364563
-0.20930230617523193 0.8604651689529419 -0.21584376692771912
-0.20930230617523193 0.8759689331054688 -0.2602732479572296
-0.20930230617523193 0.8759689331054688 -0.24045348167419434
-0.19379842281341553 -0.9844961166381836 0.1882263422012329
-0.19379842281341553 -0.9844960570335388 0.24130405485630035
-0.19379842281341553 -0.9689922332763672 0.18781736493110657
-0.19379842281341553 -0.9689922332763672 0.2517389953136444
-0.19379842281341553 -0.9534883499145508 0.19026903808116913
-0.19379842281341553 -0.9534883499145508 0.2558479309082031
-0.19379842281341553 -0.9379844069480896 0.19445061683654785
-0.19379842281341553 -0.9379844665527344 0.2590651214122772
-0.19379842281341553 -0.9224806427955627 0.2039717584848404
-0.19379842281341553 -0.9224806427955627 0.25955820083618164
-0.19379842281341553 -0.9069767594337463 0.2133426070213318
-0.19379842281341553 -0.9069767594337463 0.2580881118774414
-0.19379842281341553 -0.8914728164672852 0.2287515103816986
-0.19379842281341553 -0.8914728760719299 0.2517455816268921
-0.19379842281341553 -0.7829457521438599 0.2538663148880005
-0.19379842281341553 -0.7829457521438599 0.27155232429504395
-0.19379842281341553 -0.7674418687820435 0.24148285388946533
-0.19379842281341553 -0.7674418687820435 0.2769140899181366
-0.19379842281341553 -0.751937985420227 0.23390571773052216
-0.19379842281341553 -0.751937985420227 0.2802983522415161
-0.19379842281341553 -0.7364341020584106 0.22345760464668274
-0.19379842281341553 -0.7364341020584106 0.2827519476413727
-0.19379842281341553 -0.7209302186965942 0.21893712878227234
-0.19379842281341553 -0.7209302186965942 0.28526070713996887
-0.19379842281341553 -0.7054263353347778 0.21382489800453186
-0.19379842281341553 -0.7054263353347778 0.28715723752975464
-0.19379842281341553 -0.6899224519729614 0.20891667902469635
-0.19379842281341553 -0.6899225115776062 0.28755781054496765
-0.19379842281341553 -0.674418568611145 0.2080373466014862
-0.19379842281341553 -0.674418568611145 0.2860850989818573
-0.19379842281341553 -0.6589146852493286 -0.23298269510269165
-0.19379842281341553 -0.6589146852493286 -0.2180090844631195
-0.19379842281341553 -0.6589146852493286 0.2070709615945816
-0.19379842281341553 -0.6589146852493286 0.28053873777389526
-0.19379842281341553 -0.643410861492157 -0.2611834406852722
-0.19379842281341553 -0.6434109210968018 -0.19253204762935638
-0.19379842281341553 -0.643410861492157 0.2041293829679489
-0.19379842281341553 -0.643410861492157 0.2746173143386841
-0.19379842281341553 -0.6279069781303406 -0.2749711275100708
-0.19379842281341553 -0.6279069781303406 -0.18673063814640045
-0.19379842281341553 -0.6279069185256958 0.19605860114097595
-0.19379842281341553 -0.6279069781303406 0.26412075757980347
-0.19379842281341553 -0.6124030947685242 -0.28288328647613525
-0.19379842281341553 -0.6124030947685242 -0.18230675160884857
-0.19379842281341553 -0.6124030947685242 0.1599261611700058
-0.19379842281341553 -0.6124030947685242 0.2528276741504669
-0.19379842281341553 -0.5968992114067078 -0.2879946827888489
-0.19379842281341553 -0.5968992114067078 -0.17781192064285278
-0.19379842281341553 -0.596899151802063 0.13257846236228943
-0.19379842281341553 -0.5968992114067078 0.23723655939102173
-0.19379842281341553 -0.5813953876495361 -0.28960704803466797
-0.19379842281341553 -0.5813954472541809 -0.17688551545143127
-0.19379842281341553 -0.5813953876495361 0.12425285577774048
-0.19379842281341553 -0.5813953876495361 0.20366287231445312
-0.19379842281341553 -0.5658915042877197 -0.2886064052581787
-0.19379842281341553 -0.5658915042877197 -0.1793884038925171
-0.19379842281341553 -0.5658915042877197 0.11972297728061676
-0.19379842281341553 -0.5658915042877197 0.17493431270122528
-0.19379842281341553 -0.5503876209259033 -0.28219014406204224
-0.19379842281341553 -0.5503876209259033 -0.1857679933309555
-0.19379842281341553 -0.5503876209259033 0.12310410290956497
-0.19379842281341553 -0.5503876209259033 0.15153875946998596
-0.19379842281341553 -0.5348837375640869 -0.26864469051361084
-0.19379842281341553 -0.5348837375640869 -0.19779664278030396
-0.19379842281341553 0.007751941680908203 -0.27701860666275024
-0.19379842281341553 0.007751941680908203 -0.22587326169013977
-0.19379842281341553 0.02325582504272461 -0.2909139096736908
-0.19379842281341553 0.02325582504272461 -0.20459434390068054
-0.19379842281341553 0.038759708404541016 -0.2942436933517456
-0.19379842281341553 0.038759708404541016 -0.19453643262386322
-0.19379842281341553 0.05426359176635742 -0.2949756681919098
-0.19379842281341553 0.05426359176635742 -0.1893496811389923
-0.19379842281341553 0.06976747512817383 -0.2957359552383423
-0.19379842281341553 0.06976747512817383 -0.18671192228794098
-0.19379842281341553 0.08527135848999023 -0.29633086919784546
-0.19379842281341553 0.08527135848999023 -0.1844121217727661
-0.19379842281341553 0.10077524185180664 -0.2964257001876831
-0.19379842281341553 0.10077524185180664 -0.18327674269676208
-0.19379842281341553 0.11627912521362305 -0.29616138339042664
-0.19379842281341553 0.11627912521362305 -0.1829616129398346
-0.19379842281341553 0.1317828893661499 -0.29599764943122864
-0.19379842281341553 0.1317828893661499 -0.18296688795089722
-0.19379842281341553 0.1472867727279663 -0.2956113815307617
-0.19379842281341553 0.1472867727279663 -0.18421587347984314
-0.19379842281341553 0.16279065608978271 -0.29497721791267395
-0.19379842281341553 0.16279065608978271 -0.18606674671173096
-0.19379842281341553 0.17829453945159912 -0.29409655928611755
-0.19379842281341553 0.17829453945159912 -0.18805763125419617
-0.19379842281341553 0.19379842281341553 -0.29335951805114746
-0.19379842281341553 0.19379842281341553 -0.19068855047225952
-0.19379842281341553 0.20930230617523193 -0.29296615719795227
-0.19379842281341553 0.20930230617523193 -0.1943705677986145
-0.19379842281341553 0.22480618953704834 -0.2928473651409149
-0.19379842281341553 0.22480618953704834 -0.20089957118034363
-0.19379842281341553 0.24031007289886475 -0.2928714454174042
-0.19379842281341553 0.24031007289886475 -0.20800034701824188
-0.19379842281341553 0.25581395626068115 -0.2928118407726288
-0.19379842281341553 0.25581395626068115 -0.21782457828521729
-0.19379842281341553 0.27131783962249756 -0.292805016040802
-0.19379842281341553 0.27131783962249756 -0.220785453915596
-0.19379842281341553 0.28682172298431396 -0.29272451996803284
-0.19379842281341553 0.28682172298431396 -0.21458807587623596
-0.19379842281341553 0.30232560634613037 -0.29251500964164734
-0.19379842281341553 0.30232560634613037 -0.20647519826889038
-0.19379842281341553 0.3178294897079468 -0.2924262285232544
-0.19379842281341553 0.3178294897079468 -0.2010566145181656
-0.19379842281341553 0.3333333730697632 -0.292693555355072
-0.19379842281341553 0.3333333730697632 -0.1960134357213974
-0.19379842281341553 0.3488372564315796 -0.2928047776222229
-0.19379840791225433 0.3488372266292572 -0.19280223548412323
-0.19379842281341553 0.364341139793396 -0.2924402952194214
-0.19379842281341553 0.3643411695957184 -0.19129090011119843
-0.19379842281341553 0.37984490394592285 -0.2919542193412781
-0.19379840791225433 0.37984490394592285 -0.19100947678089142
-0.19379842281341553 0.39534878730773926 -0.29159823060035706
-0.19379842281341553 0.39534878730773926 -0.19171084463596344
-0.19379842281341553 0.41085267066955566 -0.29143285751342773
-0.19379842281341553 0.41085267066955566 -0.19309289753437042
-0.19379842281341553 0.42635655403137207 -0.29171866178512573
-0.19379842281341553 0.42635655403137207 -0.19686029851436615
-0.19379842281341553 0.4418604373931885 -0.2923439145088196
-0.19379842281341553 0.4418604373931885 -0.20054097473621368
-0.19379842281341553 0.4573643207550049 -0.292743444442749
-0.19379842281341553 0.4573643207550049 -0.20359814167022705
-0.19379842281341553 0.4728682041168213 -0.29266655445098877
-0.19379843771457672 0.4728682041168213 -0.20632077753543854
-0.19379842281341553 0.4883720874786377 -0.29250800609588623
-0.19379842281341553 0.4883720874786377 -0.2121409773826599
-0.19379842281341553 0.5038759708404541 -0.2920219898223877
-0.19379842281341553 0.5038759708404541 -0.2230081558227539
-0.19379842281341553 0.5193798542022705 -0.29024091362953186
-0.19379842281341553 0.5193798542022705 -0.23752820491790771
-0.19379842281341553 0.5348837375640869 -0.28514233231544495
-0.19379843771457672 0.5348837375640869 -0.25518059730529785
-0.19379842281341553 0.7209302186965942 -0.2724303603172302
-0.19379842281341553 0.7209302186965942 -0.25932690501213074
-0.19379842281341553 0.7364341020584106 -0.2907525897026062
-0.19379842281341553 0.7364341020584106 -0.21548131108283997
-0.19379842281341553 0.751937985420227 -0.2927681803703308
-0.19379842281341553 0.751937985420227 -0.2001076340675354
-0.19379842281341553 0.7674418687820435 -0.29262951016426086
-0.19379840791225433 0.7674418687820435 -0.19287215173244476
-0.19379842281341553 0.7829457521438599 -0.29260244965553284
-0.19379840791225433 0.7829457521438599 -0.19174762070178986
-0.19379842281341553 0.7984496355056763 -0.2926514148712158
-0.19379842281341553 0.7984496355056763 -0.1927846521139145
-0.19379842281341553 0.8139535188674927 -0.2926661968231201
-0.19379842281341553 0.8139535188674927 -0.19676309823989868
-0.19379842281341553 0.8294574022293091 -0.2926260828971863
-0.19379842281341553 0.8294574022293091 -0.20064572989940643
-0.19379842281341553 0.8449612855911255 -0.2925933599472046
-0.19379842281341553 0.8449612855911255 -0.2043691724538803
-0.19379842281341553 0.8604651689529419 -0.2898993492126465
-0.19379842281341553 0.8604651689529419 -0.2117440402507782
-0.19379842281341553 0.8759689331054688 -0.2794724702835083
-0.19379842281341553 0.8759689331054688 -0.22594982385635376
-0.1782945990562439 -0.9844961166381836 0.20089274644851685
-0.1782945990562439 -0.9844961166381836 0.23122000694274902
-0.1782945990562439 -0.9689922332763672 0.19134047627449036
-0.1782945990562439 -0.9689922332763672 0.2486017346382141
-0.1782945990562439 -0.9534883499145508 0.19199004769325256
-0.1782945990562439 -0.9534883499145508 0.2539682388305664
-0.1782945990562439 -0.9379844665527344 0.19642643630504608
-0.1782946139574051 -0.9379844665527344 0.2579832077026367
-0.1782945990562439 -0.922480583190918 0.2039646953344345
-0.1782945990562439 -0.9224806427955627 0.25878089666366577
-0.1782945990562439 -0.9069767594337463 0.21242760121822357
-0.1782945990562439 -0.9069767594337463 0.2575378119945526
-0.1782945990562439 -0.8914728760719299 0.22666844725608826
-0.1782945990562439 -0.8914728760719299 0.25216686725616455
-0.1782945990562439 -0.7829457521438599 0.25086653232574463
-0.1782945990562439 -0.7829458117485046 0.2741986811161041
-0.1782945990562439 -0.7674418687820435 0.2396644651889801
