0.7979301810264587 -0.05426359176635742 -0.038759708404541016
0.7907650470733643 -0.05426359176635742 -0.02325582504272461
0.7863249182701111 -0.05426359176635742 -0.007751941680908203
0.7887960076332092 -0.05426359176635742 0.007751941680908203
0.7956312894821167 -0.05426359176635742 0.02325582504272461
0.7879633903503418 -0.038759708404541016 -0.05426359176635742
0.7861899733543396 0.038759708404541016 0.05426359176635742
0.7854717969894409 0.06976747512817383 -0.06976741552352905
0.7847768068313599 0.08527135848999023 0.03875970467925072
0.7935428619384766 0.10077524185180664 -0.05426359176635742
0.7884588241577148 0.10077524185180664 0.02325582504272461
0.7881683111190796 0.11627912521362305 -0.038759708404541016
0.7922712564468384 0.11627912521362305 -0.02325582504272461
0.7904227375984192 0.11627912521362305 -0.007751941680908203
0.8016485571861267 -0.5348837375640869 -0.038759708404541016
0.8076733946800232 -0.5348837375640869 -0.02325582504272461
0.8055970668792725 -0.5348837375640869 -0.007751941680908203
0.8036941289901733 -0.5193798542022705 0.02325582504272461
0.8075193166732788 -0.4418604373931885 -0.05426359176635742
0.8056533336639404 -0.41085273027420044 -0.038759708404541016
0.7989068031311035 -0.41085273027420044 0.02325582504272461
0.8138035535812378 -0.39534884691238403 -0.038759708404541016
0.8041622638702393 -0.39534884691238403 -0.02325582504272461
0.8001676797866821 -0.39534884691238403 0.007751941215246916
0.811023473739624 -0.39534884691238403 0.02325582504272461
0.8108164072036743 -0.3798449635505676 -0.007751941680908203
0.8120924234390259 -0.3798449635505676 0.007751941680908203
0.8125703930854797 -0.06976741552352905 -0.02325582504272461
0.8113779425621033 -0.06976741552352905 -0.007751941680908203
0.8131677508354187 -0.06976741552352905 0.007751941680908203
0.8126031160354614 -0.05426359176635742 -0.05426359176635742
0.8098461031913757 -0.05426359176635742 0.038759708404541016
0.8061895966529846 -0.02325582504272461 -0.06976741552352905
0.8080979585647583 -0.007751941680908203 0.05426359176635742
0.8089043498039246 0.007751941680908203 0.05426359176635742
0.7997633218765259 0.02325582504272461 0.05426359176635742
0.8022390007972717 0.06976747512817383 0.038759708404541016
0.8120994567871094 0.08527135848999023 -0.05426359176635742
0.8054481744766235 0.08527135848999023 0.02325582504272461
0.806223452091217 0.10077524185180664 -0.038759708404541016
0.8094649314880371 0.10077524185180664 -0.02325582504272461
0.8075792789459229 0.10077524185180664 -0.007751941680908203
0.7994474768638611 0.10077524185180664 0.007751941680908203
0.8202810287475586 -0.5193798542022705 -0.038759708404541016
0.8257496953010559 -0.5193798542022705 -0.02325582504272461
0.8239221572875977 -0.5193798542022705 -0.007751941680908203
0.8163581490516663 -0.5193798542022705 0.007751941680908203
0.8186352849006653 -0.5038759708404541 -0.05426359176635742
0.8229433298110962 -0.5038759708404541 0.02325582504272461
0.8144662380218506 -0.42635661363601685 -0.05426359176635742
0.8259066939353943 -0.41085273027420044 -0.05426359176635742
0.8279858827590942 -0.3798449635505676 -0.038759708404541016
0.8140809535980225 -0.3798449635505676 -0.02325582504272461
0.8244012594223022 -0.3798449635505676 0.02325582504272461
0.8265718817710876 -0.3643410801887512 -0.007751941680908203
0.8281013369560242 -0.3643410801887512 0.007751941680908203
0.829014778137207 -0.08527129888534546 -0.02325582504272461
0.8282748460769653 -0.08527129888534546 -0.007751941680908203
0.8271494507789612 -0.06976741552352905 -0.05426359176635742
0.8180174231529236 -0.06976741552352905 -0.038759708404541016
0.8200045824050903 -0.06976741552352905 0.02325582504272461
0.8287447690963745 -0.06976741552352905 0.038759708404541016
0.8169393539428711 0.05426359176635742 -0.06976741552352905
0.8187084794044495 0.05426359176635742 0.038759708404541016
0.8290300965309143 0.06976747512817383 -0.05426359176635742
0.8208096623420715 0.06976747512817383 0.02325582504272461
0.8229639530181885 0.08527135848999023 -0.038759708404541016
0.8252162337303162 0.08527135848999023 -0.02325582504272461
0.823114275932312 0.08527135848999023 -0.007751941680908203
0.8158013820648193 0.08527135848999023 0.007751941680908203
0.8390330076217651 -0.5038759708404541 -0.038759708404541016
0.8434798717498779 -0.5038759708404541 -0.02325582504272461
0.8415766358375549 -0.5038759708404541 -0.007751941680908203
0.8349859118461609 -0.5038759708404541 0.007751941680908203
0.8388535976409912 -0.4883720874786377 -0.05426359176635742
0.8396985530853271 -0.4883720874786377 0.02325582504272461
0.8397344350814819 -0.39534884691238403 -0.05426359176635742
0.8447599411010742 -0.3643410801887512 -0.038759708404541016
0.8308664560317993 -0.3643410801887512 -0.02325582690536976
0.8412160873413086 -0.3643410801887512 0.02325582504272461
0.8424736261367798 -0.08527129888534546 -0.05426359176635742
0.8342472314834595 -0.08527129888534546 -0.038759708404541016
0.8307201862335205 -0.08527129888534546 0.007751941680908203
0.8378250598907471 -0.08527129888534546 0.02325582504272461
0.8409361243247986 -0.05426359176635742 -0.06976741552352905
0.8299527168273926 -0.038759708404541016 -0.06976741552352905
0.8433607220649719 0.02325582504272461 0.038759708404541016
0.8349619507789612 0.038759708404541016 -0.06976741552352905
0.8321883082389832 0.038759708404541016 0.038759708404541016
0.8442636728286743 0.05426359176635742 -0.05426359176635742
0.8425586223602295 0.05426359176635742 0.007751941680908203
0.8345538377761841 0.05426359176635742 0.02325582504272461
0.8377537727355957 0.06976747512817383 -0.038759708404541016
0.8391728401184082 0.06976747512817383 -0.02325582504272461
0.836661696434021 0.06976747512817383 -0.00775194214656949
0.8298158645629883 0.06976747512817383 0.007751941680908203
0.8565529584884644 -0.4883720874786377 -0.038759708404541016
0.8587620258331299 -0.4883720874786377 -0.007751941680908203
0.8517400026321411 -0.4883720874786377 0.007751941680908203
0.855339765548706 -0.4728682041168213 -0.05426359176635742
0.8544394969940186 -0.4728682041168213 0.02325582504272461
0.8542041778564453 -0.3798449635505676 -0.05426359176635742
0.8604271411895752 -0.3488371968269348 -0.038759708404541016
0.8515093326568604 -0.3488371968269348 -0.02325582504272461
0.8472167253494263 -0.3488371968269348 -0.007751941680908203
0.8503216505050659 -0.3488371968269348 0.007751941680908203
0.859782874584198 -0.3488371968269348 0.02325582504272461
0.8532286882400513 -0.10077518224716187 -0.038759708404541016
0.8486354947090149 -0.10077518224716187 -0.02325582504272461
0.8475921154022217 -0.10077518224716187 -0.007751941680908203
0.8517550826072693 -0.10077518224716187 0.007751941680908203
0.8582996129989624 -0.10077518224716187 0.02325582504272461
0.8475911617279053 -0.08527129888534546 0.038759708404541016
0.8514102101325989 -0.06976741552352905 -0.06976741552352905
0.8593446016311646 0.007751941680908203 -0.06976741552352905
0.8543912172317505 0.007751941680908203 0.038759708404541016
0.8491554856300354 0.02325582504272461 -0.06976741552352905
0.8570188283920288 0.02325582504272461 0.02325582504272461
0.8574691414833069 0.038759708404541016 -0.05426359176635742
0.8594498038291931 0.038759708404541016 -0.007751941680908203
0.8544458150863647 0.038759708404541016 0.007751941680908203
0.8462753891944885 0.038759708404541016 0.02325582504272461
0.850763201713562 0.05426359176635742 -0.038759708404541016
0.8515609502792358 0.05426359176635742 -0.02325582504272461
0.8485970497131348 0.05426359176635742 -0.007751941680908203
0.860871434211731 -0.4883721172809601 -0.02325582690536976
0.8720616102218628 -0.4728682041168213 -0.038759708404541016
0.8748957514762878 -0.4728682041168213 -0.007751941680908203
0.8674188852310181 -0.4728682041168213 0.007751941215246916
0.8694025278091431 -0.4573643207550049 -0.05426359176635742
0.8676271438598633 -0.4573643207550049 0.02325582504272461
0.8667804002761841 -0.3643410801887512 -0.05426359176635742
0.8754218816757202 -0.3488371968269348 -0.05426359176635742
0.8732638359069824 -0.3333333134651184 -0.038759708404541016
0.8670488595962524 -0.3333333134651184 -0.02325582504272461
0.864536464214325 -0.3333333134651184 -0.007751941680908203
0.8673378229141235 -0.3333333134651184 0.007751941680908203
0.8748880624771118 -0.3333333134651184 0.02325582504272461
0.8749342560768127 -0.317829430103302 -0.007751941680908203
0.8753477334976196 -0.11627906560897827 -0.038759708404541016
0.8713845610618591 -0.11627906560897827 -0.02325582504272461
0.8709092736244202 -0.11627906560897827 -0.007751941680908203
0.8749274611473083 -0.11627906560897827 0.007751941680908203
0.8619978427886963 -0.10077518969774246 -0.05426359176635742
0.8742286562919617 -0.10077518224716187 0.038759708404541016
0.8682520985603333 -0.08527129888534546 -0.06976741552352905
0.8749901056289673 -0.02325582504272461 0.038759708404541016
0.870529294013977 -0.007751941680908203 -0.06976741552352905
0.8648381233215332 -0.007751941680908203 0.038759708404541016
0.8755245208740234 0.007751941680908203 0.007751941680908203
0.8682713508605957 0.007751941680908203 0.02325582504272461
0.8695104122161865 0.02325582504272461 -0.05426359176635742
0.8734825849533081 0.02325582504272461 -0.038759708404541016
0.873353123664856 0.02325582504272461 -0.02325582504272461
0.8703606128692627 0.02325582504272461 -0.007751941680908203
0.86534583568573 0.02325582504272461 0.007751941680908203
0.8621206283569336 0.038759708404541016 -0.038759708404541016
0.8623331785202026 0.038759712129831314 -0.02325582504272461
0.8765522837638855 -0.4728682041168213 -0.02325582318007946
0.8844899535179138 -0.4573643207550049 -0.038759708404541016
0.8897079825401306 -0.4573643207550049 -0.02325582504272461
0.888363778591156 -0.4573643207550049 -0.007751941680908203
0.881650447845459 -0.4573643207550049 0.007751941680908203
0.8777933120727539 -0.4418604373931885 -0.05426359176635742
0.87857985496521 -0.4418604373931885 0.02325582504272461
0.8866780400276184 -0.42635661363601685 -0.05426359176635742
0.8875674605369568 -0.42635661363601685 0.02325582504272461
0.8863128423690796 -0.3333333134651184 -0.05426359176635742
0.8834280967712402 -0.317829430103302 -0.038759708404541016
0.8765436410903931 -0.317829430103302 -0.02325582504272461
0.8776007890701294 -0.317829430103302 0.007751941680908203
0.8862541317939758 -0.317829430103302 0.02325582504272461
0.8879202008247375 -0.30232560634613037 -0.038759708404541016
0.8819614052772522 -0.30232560634613037 -0.02325582504272461
0.8804893493652344 -0.30232560634613037 -0.007751941680908203
0.8839771151542664 -0.30232560634613037 0.007751941680908203
0.8903713822364807 -0.30232560634613037 0.02325582504272461
0.8896402716636658 -0.28682172298431396 -0.038759708404541016
0.8836489915847778 -0.28682172298431396 -0.02325582504272461
0.8824148178100586 -0.28682172298431396 -0.007751941680908203
0.8860082626342773 -0.28682172298431396 0.007751941680908203
0.8871003985404968 -0.27131783962249756 -0.02325582504272461
0.8860629796981812 -0.27131783962249756 -0.007751941680908203
0.8889906406402588 -0.27131783962249756 0.007751941680908203
0.8891818523406982 -0.25581395626068115 -0.02325582504272461
0.8883811831474304 -0.25581395626068115 -0.007751941680908203
0.8908025622367859 -0.25581395626068115 0.007751941680908203
0.8890955448150635 -0.24031007289886475 -0.02325582504272461
0.8884755969047546 -0.24031007289886475 -0.007751941680908203
0.890663206577301 -0.24031007289886475 0.007751941680908203
0.8910807371139526 -0.22480618953704834 -0.038759708404541016
0.8875411748886108 -0.22480618953704834 -0.02325582504272461
0.8870271444320679 -0.22480618953704834 -0.007751941680908203
0.8890869617462158 -0.22480618953704834 0.007751941680908203
0.8886855840682983 -0.20930230617523193 -0.038759708404541016
0.885106086730957 -0.20930230617523193 -0.02325582504272461
0.8847259283065796 -0.20930230617523193 -0.007751941680908203
0.8869326114654541 -0.20930230617523193 0.007751941680908203
0.8874508738517761 -0.19379842281341553 -0.038759708404541016
0.883721113204956 -0.19379842281341553 -0.02325582504272461
0.8833866119384766 -0.19379842281341553 -0.007751941680908203
0.8858726620674133 -0.19379842281341553 0.007751941680908203
0.8909831047058105 -0.19379842281341553 0.02325582504272461
0.8876859545707703 -0.1782945990562439 -0.038759708404541016
0.8840826749801636 -0.1782945990562439 -0.02325582504272461
0.8837136626243591 -0.1782945990562439 -0.007751941680908203
0.8863635063171387 -0.1782945990562439 0.007751941680908203
0.8895405530929565 -0.1627907156944275 -0.038759708404541016
0.8862030506134033 -0.1627907156944275 -0.02325582504272461
0.8857476711273193 -0.1627907156944275 -0.007751941680908203
0.8882896900177002 -0.1627907156944275 0.007751941680908203
0.8913561105728149 -0.14728683233261108 -0.038759708404541016
0.8879435062408447 -0.14728683233261108 -0.02325582504272461
0.8873980045318604 -0.14728683233261108 -0.007751941680908203
0.8900806903839111 -0.14728683233261108 0.007751941680908203
0.8893527388572693 -0.13178294897079468 -0.038759708404541016
0.8855092525482178 -0.13178294897079468 -0.02325582504272461
0.8849002122879028 -0.13178294897079468 -0.007751941680908203
0.8884232044219971 -0.13178294897079468 0.007751941680908203
0.8859080076217651 -0.11627906560897827 -0.05426359176635742
0.884850263595581 -0.11627906560897827 0.02325582504272461
0.8912656307220459 -0.038759708404541016 -0.06976741552352905
0.8868634700775146 -0.038759708404541016 0.038759708404541016
0.8825691938400269 -0.02325582504272461 -0.06976741552352905
0.8891948461532593 -0.02325582504272461 0.02325582504272461
0.8906632661819458 -0.007751941680908203 -0.05426359176635742
0.8862221837043762 -0.007751941680908203 0.007751941680908203
0.8785006999969482 -0.007751941680908203 0.02325582690536976
0.8796032071113586 0.007751941680908203 -0.05426359176635742
0.8841023445129395 0.007751941680908203 -0.038759708404541016
0.8838415145874023 0.007751941680908203 -0.02325582504272461
0.8809090256690979 0.007751941215246916 -0.007751941215246916
0.8935514688491821 -0.4418604075908661 -0.038759708404541016
0.9009687900543213 -0.4418604373931885 -0.02325582504272461
0.9005652070045471 -0.4418604373931885 -0.007751941680908203
0.8934645652770996 -0.4418604373931885 0.007751941680908203
0.903723955154419 -0.42635661363601685 -0.038759708404541016
0.9030503630638123 -0.42635661363601685 0.007751941680908203
0.8943598866462708 -0.41085273027420044 -0.05426359176635742
0.8959389925003052 -0.41085273027420044 0.02325582504272461
0.9018575549125671 -0.39534884691238403 -0.05426359176635742
0.9031967520713806 -0.39534884691238403 0.02325582504272461
0.8949923515319824 -0.317829430103302 -0.05426358804106712
0.9022082090377808 -0.30232560634613037 -0.05426359176635742
0.9047048091888428 -0.28682172298431396 -0.05426359176635742
0.8935889601707458 -0.28682172298431396 0.02325582504272461
0.9069314002990723 -0.27131783962249756 -0.05426359176635742
0.893029510974884 -0.27131783962249756 -0.03875970467925072
0.8983516693115234 -0.27131783962249756 0.02325582504272461
0.8951919078826904 -0.25581395626068115 -0.038759708404541016
0.9001510143280029 -0.25581395626068115 0.02325582504272461
0.9067845940589905 -0.24031007289886475 -0.05426359176635742
0.8942480683326721 -0.24031007289886475 -0.038759708404541016
0.8995895385742188 -0.24031007289886475 0.02325582504272461
0.904430627822876 -0.22480618953704834 -0.05426359176635742
0.8965247869491577 -0.22480618953704834 0.02325582504272461
0.9006941914558411 -0.20930230617523193 -0.05426359176635742
0.8919876217842102 -0.20930230617523193 0.02325582504272461
0.8984476923942566 -0.19379842281341553 -0.05426359176635742
0.8981009125709534 -0.1782945990562439 -0.05426359176635742
0.8920935988426208 -0.1782945990562439 0.02325582504272461
0.8995649814605713 -0.1627907156944275 -0.05426359176635742
0.896105170249939 -0.1627907156944275 0.02325582504272461
0.9009425640106201 -0.14728683233261108 -0.05426359176635742
0.8989339470863342 -0.14728683233261108 0.02325582504272461
0.8987458348274231 -0.13178294897079468 -0.05426359176635742
0.8974481225013733 -0.13178294897079468 0.02325582504272461
0.9050626158714294 -0.11627906560897827 0.038759708404541016
0.9067910313606262 -0.08527129888534546 -0.06976741552352905
0.9029166102409363 -0.06976741552352905 -0.06976741552352905
0.8993632793426514 -0.05426359176635742 -0.06976741552352905
0.8991866707801819 -0.05426359176635742 0.038759708404541016
0.9010046124458313 -0.038759708404541016 0.02325582504272461
0.9009735584259033 -0.02325582504272461 -0.05426359176635742
0.9044234752655029 -0.02325582504272461 -0.038759708404541016
0.9044381976127625 -0.02325582504272461 -0.02325582504272461
0.9019597768783569 -0.02325582504272461 -0.007751941680908203
0.8972513675689697 -0.02325582504272461 0.007751941680908203
0.8940163850784302 -0.007751941680908203 -0.03875970467925072
0.8939292430877686 -0.007751941680908203 -0.02325582504272461
0.8915795683860779 -0.007751941680908203 -0.007751941680908203
0.9089665412902832 -0.42635661363601685 -0.02325582504272461
0.9089573621749878 -0.42635661363601685 -0.007751941680908203
0.909105658531189 -0.41085273027420044 -0.038759708404541016
0.9179730415344238 -0.41085273027420044 -0.02325582504272461
0.9179174900054932 -0.41085273027420044 -0.007751941680908203
0.9113947153091431 -0.41085273027420044 0.007751941680908203
0.9187968969345093 -0.39534884691238403 -0.038759708404541016
0.9188880920410156 -0.39534884691238403 0.007751941680908203
0.9099928736686707 -0.3798449635505676 -0.05426359176635742
0.9118868708610535 -0.3798449635505676 0.02325582504272461
0.9167345762252808 -0.3643410801887512 -0.05426359176635742
0.9192737936973572 -0.3643410801887512 0.02325582504272461
0.9219538569450378 -0.27131783962249756 0.038759708404541016
0.9081482887268066 -0.25581395626068115 -0.05426359176635742
0.9216867685317993 -0.25581395626068115 0.038759708404541016
0.9211897850036621 -0.24031007289886475 0.038759708404541016
0.9188435077667236 -0.22480618953704834 0.038759708404541016
0.9154049158096313 -0.20930230617523193 0.038759708404541016
0.91357421875 -0.19379842281341553 0.038759708404541016
0.9138778448104858 -0.1782945990562439 0.038759708404541016
0.9156842231750488 -0.1627907156944275 0.038759708404541016
0.9175553321838379 -0.14728683233261108 0.038759708404541016
0.9188815951347351 -0.13178294897079468 0.038759708404541016
0.9154907464981079 -0.11627906560897827 0.038759708404541016
0.9165112972259521 -0.10077518224716187 0.038759708404541016
0.9140043258666992 -0.08527129888534546 0.038759708404541016
0.9192609190940857 -0.06976741552352905 0.02325582504272461
0.9072920083999634 -0.06976742297410965 0.038759708404541016
0.9180766940116882 -0.05426359176635742 -0.05426359176635742
0.9222663640975952 -0.05426359176635742 -0.007751941680908203
0.9176779985427856 -0.05426359176635742 0.007751941680908203
0.9107366800308228 -0.05426359176635742 0.02325582690536976
0.908927857875824 -0.038759708404541016 -0.05426359176635742
0.9138737916946411 -0.038759708404541016 -0.038759708404541016
0.9144591093063354 -0.038759708404541016 -0.02325582504272461
0.9122529029846191 -0.038759708404541016 -0.007751941680908203
0.9075514674186707 -0.038759708404541016 0.007751941680908203
0.9241368770599365 -0.3953488767147064 -0.02325582504272461
0.9236965775489807 -0.39534884691238403 -0.007751941680908203
0.9242671132087708 -0.3798449635505676 -0.03875970467925072
0.9318878650665283 -0.3798449635505676 -0.02325582504272461
0.9320690035820007 -0.3798449635505676 -0.007751941680908203
0.9251443147659302 -0.3798449635505676 0.007751941680908203
0.9335205554962158 -0.3643410801887512 -0.038759708404541016
0.9376552700996399 -0.3643410801887512 -0.007751941680908203
0.9335774183273315 -0.3643410801887512 0.007751941680908203
0.9243603944778442 -0.3488371968269348 -0.05426359176635742
0.9286878705024719 -0.3488371968269348 0.02325582504272461
0.930993914604187 -0.3333333134651184 -0.05426359176635742
0.9352022409439087 -0.3333333134651184 0.02325582504272461
0.9361316561698914 -0.317829430103302 -0.05426359176635742
0.924765944480896 -0.27131783962249756 0.038759708404541016
0.9317899942398071 -0.14728683233261108 0.038759708404541016
0.9248422980308533 -0.13178294897079468 0.038759708404541016
0.9335513114929199 -0.10077518224716187 -0.05426359176635742
0.9320777654647827 -0.10077518224716187 0.02325582504272461
0.9296049475669861 -0.08527129888534546 -0.05426359176635742
0.9358429908752441 -0.08527129888534546 -0.038759708404541016
0.9371123313903809 -0.08527129888534546 -0.007751941680908203
0.9329650402069092 -0.08527129888534546 0.007751941680908203
0.926100492477417 -0.08527129888534546 0.02325582504272461
0.9237549901008606 -0.06976741552352905 -0.05426359176635742
0.9298477172851562 -0.06976741552352905 -0.038759708404541016
0.9311464428901672 -0.06976741552352905 -0.02325582504272461
0.9300990104675293 -0.06976741552352905 -0.007751941680908203
0.9255232214927673 -0.06976741552352905 0.007751941680908203
0.9228672385215759 -0.05426359176635742 -0.038759708404541016
0.9234647750854492 -0.05426359176635742 -0.02325582504272461
0.9386021494865417 -0.3643410801887512 -0.02325582690536976
0.9392240643501282 -0.3488371968269348 -0.038759708404541016
0.9452391862869263 -0.3488371968269348 -0.02325582504272461
0.945183515548706 -0.3488371968269348 -0.00775194214656949
0.9388993382453918 -0.3488371968269348 0.007751941680908203
0.9471309185028076 -0.3333333134651184 -0.038759708404541016
0.9513967633247375 -0.3333333134651184 -0.02325582504272461
0.95074063539505 -0.3333333134651184 -0.007751941680908203
0.9473491907119751 -0.3333333134651184 0.007751941680908203
0.9530017971992493 -0.317829430103302 -0.038759708404541016
0.9519035816192627 -0.317829430103302 0.007751941680908203
0.9433251619338989 -0.317829430103302 0.02325582504272461
0.9446759819984436 -0.30232560634613037 -0.05426359176635742
0.9496365785598755 -0.30232560634613037 0.02325582504272461
0.9482300877571106 -0.28682172298431396 -0.05426359176635742
0.9519293308258057 -0.27131783962249756 -0.05426359176635742
0.9402471780776978 -0.25581395626068115 0.038759708404541016
0.9428197741508484 -0.24031007289886475 0.038759708404541016
0.9454888701438904 -0.22480618953704834 0.038759708404541016
0.9467023611068726 -0.20930230617523193 0.038759708404541016
0.9461510181427002 -0.19379842281341553 0.038759708404541016
0.9445481300354004 -0.1782945990562439 0.038759708404541016
0.9518054723739624 -0.1627907156944275 -0.05426359176635742
0.9413700103759766 -0.1627907007932663 0.038759708404541016
0.9485765695571899 -0.14728683233261108 -0.05426359176635742
0.952711284160614 -0.14728683233261108 0.02325582504272461
0.9436728954315186 -0.13178294897079468 -0.05426359549164772
0.9534804821014404 -0.13178294897079468 -0.038759708404541016
0.9528568983078003 -0.13178294897079468 0.007751941680908203
0.946286141872406 -0.13178294897079468 0.02325582504272461
0.9384570717811584 -0.11627906560897827 -0.05426359176635742
0.9478204250335693 -0.11627906560897827 -0.038759708404541016
0.9501166343688965 -0.11627906560897827 -0.02325582504272461
0.9498643279075623 -0.11627906560897827 -0.007751941680908203
0.9464287757873535 -0.11627906560897827 0.007751941680908203
0.9386710524559021 -0.11627906560897827 0.02325582504272461
0.9417626857757568 -0.10077518224716187 -0.038759708404541016
0.944598913192749 -0.10077518224716187 -0.02325582504272461
0.9437923431396484 -0.10077518969774246 -0.007751941680908203
0.9390887022018433 -0.10077517479658127 0.007751941680908203
0.9382030963897705 -0.08527129888534546 -0.02325582504272461
0.9561622142791748 -0.317829430103302 -0.02325582504272461
0.9555184245109558 -0.317829430103302 -0.007751941680908203
0.9568045139312744 -0.30232560634613037 -0.038759708404541016
0.9610986709594727 -0.30232560634613037 -0.02325582504272461
0.9611383080482483 -0.30232560634613037 -0.007751941680908203
0.9567074179649353 -0.30232560634613037 0.007751941680908203
0.9625244140625 -0.28682172298431396 -0.038759708404541016
0.9656254053115845 -0.28682172298431396 -0.02325582504272461
0.965482234954834 -0.28682172298431396 -0.007751941680908203
0.962584912776947 -0.28682172298431396 0.007751941680908203
0.9539588689804077 -0.28682172298431396 0.02325582690536976
0.9667850136756897 -0.27131783962249756 -0.038759708404541016
0.9663238525390625 -0.27131783962249756 0.007751941680908203
0.9591397643089294 -0.27131783962249756 0.02325582504272461
0.955653727054596 -0.25581395626068115 -0.05426359176635742
0.963623046875 -0.25581395626068115 0.02325582504272461
0.9583529233932495 -0.24031007289886475 -0.05426359176635742
0.965737521648407 -0.24031007289886475 0.02325582504272461
0.95948326587677 -0.22480618953704834 -0.05426359176635742
0.966744065284729 -0.22480618953704834 0.02325582504272461
0.9591350555419922 -0.20930230617523193 -0.05426359176635742
0.9666929841041565 -0.20930230617523193 0.02325582504272461
0.9568566083908081 -0.19379842281341553 -0.05426359176635742
0.9651203155517578 -0.19379842281341553 0.02325582504272461
0.9543827772140503 -0.1782945990562439 -0.05426359176635742
0.9664463996887207 -0.1782945990562439 -0.038759708404541016
0.9677629470825195 -0.1782945990562439 0.007751941680908203
0.9618765115737915 -0.1782945990562439 0.02325582504272461
0.9627668261528015 -0.1627907156944275 -0.038759708404541016
0.9657063484191895 -0.1627907156944275 -0.02325582504272461
0.9663195013999939 -0.1627907156944275 -0.007751941680908203
0.9634706974029541 -0.1627907156944275 0.007751941680908203
0.956814169883728 -0.1627907156944275 0.02325582504272461
0.9578531980514526 -0.14728683233261108 -0.038759708404541016
0.9612678289413452 -0.14728683233261108 -0.02325582504272461
0.9614195823669434 -0.14728683233261108 -0.007751941680908203
0.9579874277114868 -0.14728683233261108 0.007751941215246916
0.9557103514671326 -0.13178294897079468 -0.02325582504272461
0.9553755521774292 -0.13178294897079468 -0.007751941680908203
0.9697816967964172 -0.27131783962249756 -0.02325582504272461
0.9696112871170044 -0.27131783962249756 -0.007751941215246916
0.9697072505950928 -0.25581395626068115 -0.038759708404541016
0.9720590114593506 -0.25581395626068115 -0.02325582690536976
0.972140908241272 -0.25581395626068115 -0.007751941680908203
0.9695982336997986 -0.25581395626068115 0.007751941680908203
0.970849871635437 -0.24031007289886475 -0.038759708404541016
0.9735103845596313 -0.24031007289886475 -0.02325582504272461
0.9739003777503967 -0.24031007289886475 -0.007751941680908203
0.9710137844085693 -0.24031007289886475 0.007751941680908203
0.9711810946464539 -0.22480618953704834 -0.038759708404541016
0.9739301800727844 -0.22480618953704834 -0.02325582504272461
0.9743822813034058 -0.22480618953704834 -0.007751941680908203
0.9714746475219727 -0.22480620443820953 0.007751941680908203
0.9707927107810974 -0.20930230617523193 -0.038759708404541016
0.9735624194145203 -0.20930230617523193 -0.02325582690536976
0.9739468097686768 -0.20930230617523193 -0.007751941680908203
0.9712679386138916 -0.20930229127407074 0.007751941680908203
0.9694892764091492 -0.19379842281341553 -0.038759708404541016
0.972061038017273 -0.19379842281341553 -0.02325582504272461
0.9724023342132568 -0.19379842281341553 -0.007751941680908203
0.9702552556991577 -0.19379842281341553 0.007751941680908203
0.9695450067520142 -0.1782945990562439 -0.02325582504272461
0.9700326919555664 -0.1782945841550827 -0.007751941680908203
-0.9224806427955627 -0.01585811749100685 -0.06976741552352905
-0.9224806427955627 -0.02187417633831501 -0.05426359176635742
-0.922480583190918 0.058789655566215515 -0.06976741552352905
-0.9224806427955627 0.06672434508800507 -0.05426359176635742
-0.9069767594337463 -0.10403771698474884 -0.05426359176635742
-0.9069766998291016 -0.09991969913244247 -0.06976741552352905
-0.9069766998291016 -0.09065542370080948 -0.038759708404541016
-0.9069768190383911 -0.06398137658834457 -0.08527129888534546
-0.9069767594337463 -0.020189618691802025 -0.02325582504272461
-0.9069768190383911 0.0826614499092102 -0.02325582504272461
-0.9069767594337463 0.1190493032336235 -0.08527129888534546
-0.9069766998291016 0.1432758867740631 -0.038759708404541016
-0.9069767594337463 0.15005353093147278 -0.06976741552352905
-0.9069767594337463 0.15392711758613586 -0.05426359176635742
-0.8914729356765747 -0.14201973378658295 -0.06976741552352905
-0.8914728760719299 -0.14608806371688843 -0.05426359176635742
-0.8914728760719299 -0.13993245363235474 -0.038759708404541016
-0.8914728760719299 -0.12543660402297974 -0.08527129888534546
-0.8914728164672852 -0.10663719475269318 -0.02325582504272461
-0.8914728760719299 0.1586921364068985 -0.02325582504272461
-0.8914728164672852 0.1723116636276245 -0.08527129888534546
-0.8914728760719299 0.19043712317943573 -0.038759708404541016
-0.8914728760719299 0.19478276371955872 -0.06976741552352905
-0.8914729356765747 0.19925007224082947 -0.05426359549164772
-0.8759689927101135 -0.16554339230060577 -0.06976741552352905
-0.8759690523147583 -0.16840818524360657 -0.05426359176635742
-0.8759689927101135 -0.16642552614212036 -0.038759708404541016
-0.8759689927101135 -0.15755626559257507 -0.08527129888534546
-0.8759690523147583 -0.14629481732845306 -0.02325582504272461
-0.8759689927101135 0.2087327241897583 -0.08527129888534546
-0.8759689927101135 0.1974850594997406 -0.02325582504272461
-0.8759689927101135 0.23413416743278503 -0.06976741552352905
-0.8759689927101135 0.23879921436309814 -0.05426359176635742
-0.8759689927101135 0.2299065887928009 -0.038759708404541016
-0.8604651093482971 -0.17830052971839905 -0.08527129888534546
-0.8604650497436523 -0.18290118873119354 -0.06976741552352905
-0.8604651093482971 -0.1858116090297699 -0.05426359176635742
-0.8604651093482971 -0.1842648684978485 -0.038759708404541016
-0.8604651093482971 -0.1692252904176712 -0.02325582504272461
-0.8604650497436523 0.2316364049911499 -0.02325582504272461
-0.8604651689529419 0.24534842371940613 -0.08527129888534546
-0.8604651093482971 0.2686942219734192 -0.038759708404541016
-0.8604651093482971 0.27141377329826355 -0.06976741552352905
-0.8604650497436523 0.27544263005256653 -0.05426359176635742
-0.8449611663818359 -0.19882649183273315 -0.06976741552352905
-0.8449612855911255 -0.20173893868923187 -0.05426359176635742
-0.8449612259864807 -0.20005466043949127 -0.038759708404541016
-0.8449612855911255 -0.19300231337547302 -0.08527129888534546
-0.8449612259864807 -0.1858084797859192 -0.02325582504272461
-0.8449612259864807 -0.07875663787126541 -0.02325582504272461
-0.8449612259864807 0.06578702479600906 -0.02325582504272461
-0.8449612259864807 0.2662031948566437 -0.02325582504272461
-0.8449612259864807 0.2841659486293793 -0.08527129888534546
-0.8449612259864807 0.30093294382095337 -0.038759708404541016
-0.8449612259864807 0.3029579520225525 -0.06976741552352905
-0.8449612259864807 0.30594518780708313 -0.05426359176635742
-0.8294573426246643 -0.2132476419210434 -0.06976741552352905
-0.8294573426246643 -0.2162611484527588 -0.05426359176635742
-0.8294574022293091 -0.2141827940940857 -0.038759708404541016
-0.8294573426246643 -0.20614895224571228 -0.08527129888534546
-0.8294573426246643 -0.19922222197055817 -0.02325582504272461
-0.8294572830200195 -0.10068745166063309 -0.02325582504272461
-0.8294573426246643 -0.07686178386211395 -0.08527129888534546
-0.8294574022293091 -0.07345150411128998 -0.038759708404541016
-0.8294573426246643 -0.055660638958215714 -0.06976741552352905
-0.8294573426246643 -0.05433310568332672 -0.05426359176635742
-0.8294572830200195 0.06489023566246033 -0.06976741552352905
-0.8294572830200195 0.05974569544196129 -0.05426358804106712
-0.8294573426246643 0.07181623578071594 -0.038759708404541016
-0.8294573426246643 0.08700694143772125 -0.08527129888534546
-0.8294573426246643 0.10337717831134796 -0.02325582504272461
-0.8294573426246643 0.2977508306503296 -0.02325582504272461
-0.8294573426246643 0.3155365288257599 -0.08527129888534546
-0.8294573426246643 0.3308219611644745 -0.06976741552352905
-0.8294574022293091 0.3288031220436096 -0.038759708404541016
-0.8294573426246643 0.33375313878059387 -0.05426359176635742
-0.8139535188674927 -0.22618119418621063 -0.06976741552352905
-0.8139535188674927 -0.22838012874126434 -0.05426359176635742
-0.8139535188674927 -0.22596344351768494 -0.038759708404541016
-0.8139535188674927 -0.21760514378547668 -0.08527129888534546
-0.8139535188674927 -0.20608875155448914 -0.02325582504272461
-0.8139535188674927 -0.10125212371349335 -0.08527129888534546
-0.8139535188674927 -0.1161954253911972 -0.02325582690536976
-0.8139535188674927 -0.08925525099039078 -0.06976741552352905
-0.8139535188674927 -0.08803068846464157 -0.05426359176635742
-0.8139535188674927 -0.09765639901161194 -0.038759708404541016
-0.8139535188674927 0.11072078347206116 -0.05426359176635742
-0.8139535188674927 0.1153298169374466 -0.038759708404541016
-0.8139535188674927 0.11681570112705231 -0.06976741552352905
-0.8139534592628479 0.13499778509140015 -0.08527129143476486
-0.8139535188674927 0.14766116440296173 -0.02325582504272461
-0.8139535188674927 0.32444143295288086 -0.02325582504272461
-0.8139535188674927 0.34224021434783936 -0.08527129888534546
-0.8139535188674927 0.3551197052001953 -0.06976741552352905
-0.8139535188674927 0.3579537868499756 -0.05426359176635742
-0.8139535188674927 0.35412874817848206 -0.038759708404541016
-0.7984496355056763 -0.22591696679592133 -0.08527129888534546
-0.7984496355056763 -0.2376624047756195 -0.06976741552352905
-0.7984496355056763 -0.23935659229755402 -0.05426359176635742
-0.7984496355056763 -0.234939306974411 -0.038759708404541016
-0.7984496355056763 -0.2074277251958847 -0.02325582504272461
-0.7984496355056763 -0.13449037075042725 -0.02325582504272461
-0.7984496355056763 -0.12160485982894897 -0.08527129888534546
-0.7984496355056763 -0.11030161380767822 -0.06976741552352905
-0.7984496355056763 -0.10898672044277191 -0.05426359176635742
-0.7984496355056763 -0.11543204635381699 -0.038759708404541016
-0.7984496355056763 0.15503659844398499 -0.06976741552352905
-0.7984496355056763 0.14935420453548431 -0.05426359176635742
-0.7984496355056763 0.15683399140834808 -0.038759708404541016
-0.7984496355056763 0.1726110726594925 -0.08527129888534546
-0.798449695110321 0.19818425178527832 -0.02325582690536976
-0.7984496355056763 0.3445490896701813 -0.02325582504272461
-0.7984496355056763 0.36281996965408325 -0.08527129888534546
-0.7984496355056763 0.3767392933368683 -0.06976741552352905
-0.7984496355056763 0.37625035643577576 -0.038759708404541016
-0.7984496355056763 0.3801952302455902 -0.05426359176635742
-0.7829457521438599 -0.24657383561134338 -0.06976741552352905
-0.7829457521438599 -0.24793307483196259 -0.05426359176635742
-0.7829457521438599 -0.24339109659194946 -0.038759708404541016
-0.7829457521438599 -0.23489151895046234 -0.08527129888534546
-0.7829457521438599 -0.2017556130886078 -0.02325582504272461
-0.7829457521438599 -0.15564227104187012 -0.02325582504272461
-0.7829457521438599 -0.13984552025794983 -0.08527129888534546
-0.7829457521438599 -0.13194353878498077 -0.038759708404541016
-0.7829457521438599 -0.12829899787902832 -0.06976741552352905
-0.7829457521438599 -0.1269044429063797 -0.05426358804106712
-0.7829457521438599 0.1904773712158203 -0.06976741552352905
-0.7829457521438599 0.18762004375457764 -0.05426359176635742
-0.7829457521438599 0.20795868337154388 -0.08527129888534546
-0.7829457521438599 0.19901861250400543 -0.038759708404541016
-0.7829457521438599 0.24771353602409363 -0.02325582504272461
-0.7829458117485046 0.3649543523788452 -0.02325582504272461
-0.7829457521438599 0.3827930986881256 -0.08527129888534546
-0.7829457521438599 0.3958565890789032 -0.06976741552352905
-0.7829456925392151 0.3994464874267578 -0.05426359176635742
-0.7829457521438599 0.39564138650894165 -0.038759708404541016
-0.7674418687820435 -0.2560953199863434 -0.05426359176635742
-0.7674418687820435 -0.24538612365722656 -0.08527129888534546
-0.7674418687820435 -0.2551974952220917 -0.06976741552352905
-0.7674418687820435 -0.2496775984764099 -0.038759708404541016
-0.7674418687820435 -0.1576194316148758 -0.08527129888534546
-0.7674418687820435 -0.15069006383419037 -0.038759708404541016
-0.7674418687820435 -0.14551635086536407 -0.06976741552352905
-0.7674418687820435 -0.14432358741760254 -0.05426359176635742
-0.7674418687820435 0.240216463804245 -0.08527129888534546
-0.7674418687820435 0.23139509558677673 -0.06976741552352905
-0.7674418687820435 0.23179921507835388 -0.05426359176635742
-0.7674418687820435 0.24239349365234375 -0.038759708404541016
-0.7674418687820435 0.27950575947761536 -0.02325582504272461
-0.7674418687820435 0.38379955291748047 -0.02325582318007946
-0.7674418687820435 0.40321624279022217 -0.08527129888534546
-0.7674418687820435 0.414318323135376 -0.06976741552352905
-0.7674418687820435 0.4184235632419586 -0.05426359176635742
-0.7674418687820435 0.41413676738739014 -0.038759708404541016
-0.751937985420227 -0.26110371947288513 -0.06976741552352905
-0.751937985420227 -0.261796236038208 -0.05426359176635742
-0.751937985420227 -0.2574988901615143 -0.038759708404541016
-0.751937985420227 -0.25109443068504333 -0.08527129888534546
-0.751937985420227 -0.1723572015762329 -0.08527129888534546
-0.751937985420227 -0.16505584120750427 -0.038759708404541016
-0.751937985420227 -0.1605488359928131 -0.06976741552352905
-0.751937985420227 -0.1595189869403839 -0.05426359176635742
-0.751937985420227 0.26819807291030884 -0.08527129888534546
-0.751937985420227 0.2616068720817566 -0.06976741552352905
-0.751937985420227 0.26317358016967773 -0.05426359176635742
-0.751937985420227 0.27095216512680054 -0.038759708404541016
-0.7519379258155823 0.30293649435043335 -0.02325582504272461
-0.751937985420227 0.4028334319591522 -0.02325582504272461
-0.751937985420227 0.42201679944992065 -0.08527129888534546
-0.751937985420227 0.43242523074150085 -0.06976741552352905
-0.751937985420227 0.43695318698883057 -0.05426359176635742
-0.751937985420227 0.43264275789260864 -0.038759708404541016
-0.7364341020584106 -0.2609090805053711 -0.08527129888534546
-0.7364341020584106 -0.26795119047164917 -0.06976741552352905
-0.7364341020584106 -0.26831620931625366 -0.05426359176635742
-0.7364341020584106 -0.2633705139160156 -0.038759708404541016
-0.7364341020584106 -0.22774100303649902 -0.02325582504272461
-0.7364341020584106 -0.1951041966676712 -0.02325582504272461
-0.7364341020584106 -0.17950572073459625 -0.08527129888534546
-0.7364341020584106 -0.17162659764289856 -0.06976741552352905
-0.7364341020584106 -0.16988176107406616 -0.05426359176635742
-0.7364341020584106 -0.1742115318775177 -0.038759708404541016
-0.7364341020584106 0.28382059931755066 -0.06976741552352905
-0.7364341020584106 0.2839820981025696 -0.05426359176635742
-0.7364341616630554 0.29079264402389526 -0.08527130633592606
-0.7364341020584106 0.29073452949523926 -0.038759708404541016
-0.7364341020584106 0.3126893937587738 -0.02325582504272461
-0.7364341020584106 0.4244321584701538 -0.02325582504272461
-0.7364341020584106 0.44079670310020447 -0.08527129888534546
-0.7364341020584106 0.4513751268386841 -0.06976741552352905
-0.7364341020584106 0.456071138381958 -0.05426359176635742
-0.7364341020584106 0.45191746950149536 -0.038759708404541016
-0.7209302186965942 -0.2744099795818329 -0.06976741552352905
-0.7209302186965942 -0.2749248743057251 -0.05426359176635742
-0.7209302186965942 -0.2718057632446289 -0.038759708404541016
-0.7209302186965942 -0.2660709321498871 -0.08527129888534546
-0.7209302186965942 -0.2470093071460724 -0.02325582504272461
-0.7209302186965942 -0.18785879015922546 -0.08527129888534546
-0.7209302186965942 -0.19300921261310577 -0.02325582504272461
-0.7209302186965942 -0.1770210862159729 -0.06976741552352905
-0.720930278301239 -0.1757839322090149 -0.05426359176635742
-0.7209302186965942 -0.17764624953269958 -0.038759708404541016
-0.7209302186965942 0.2982167601585388 -0.06976741552352905
-0.7209302186965942 0.29734593629837036 -0.05426359176635742
-0.7209302186965942 0.3004332482814789 -0.038759708404541016
-0.7209302186965942 0.3026959300041199 -0.08527129888534546
-0.7209302186965942 0.31654685735702515 -0.02325582504272461
-0.7209302186965942 0.44818025827407837 -0.02325582504272461
-0.7209302186965942 0.46148234605789185 -0.08527129888534546
-0.7209302186965942 0.47192782163619995 -0.06976741552352905
-0.7209302186965942 0.47207286953926086 -0.038759708404541016
-0.7209302186965942 0.475308358669281 -0.05426359549164772
-0.7054263353347778 -0.275123655796051 -0.08527129888534546
-0.7054263353347778 -0.2811245620250702 -0.06976741552352905
-0.7054263353347778 -0.2814103960990906 -0.05426359176635742
-0.7054263353347778 -0.2775131165981293 -0.038759708404541016
-0.7054263353347778 -0.26047730445861816 -0.02325582504272461
-0.7054263353347778 -0.19094344973564148 -0.08527129888534546
-0.7054263353347778 -0.18082229793071747 -0.06976741552352905
-0.7054263353347778 -0.18082702159881592 -0.038759708404541016
-0.7054263353347778 -0.1924756020307541 -0.02325582504272461
-0.7054263353347778 -0.177850604057312 -0.05426359176635742
-0.7054263353347778 0.30227744579315186 -0.05426359176635742
-0.7054263353347778 0.31284257769584656 -0.08527129888534546
-0.7054263353347778 0.3059198260307312 -0.06976741552352905
-0.7054263353347778 0.307608962059021 -0.038759708404541016
-0.7054263353347778 0.31992900371551514 -0.02325582504272461
-0.7054263353347778 0.46959930658340454 -0.02325582504272461
-0.7054263353347778 0.48303699493408203 -0.08527129888534546
-0.7054263353347778 0.49051633477211 -0.06976741552352905
-0.7054263353347778 0.4930068850517273 -0.05426359176635742
-0.7054263353347778 0.48944321274757385 -0.038759708404541016
-0.6899224519729614 -0.28833669424057007 -0.06976741552352905
-0.6899224519729614 -0.28872254490852356 -0.05426359176635742
-0.6899224519729614 -0.2798023819923401 -0.08527129888534546
-0.6899224519729614 -0.28469735383987427 -0.038759708404541016
-0.6899224519729614 -0.27128225564956665 -0.02325582690536976
-0.6899224519729614 -0.19248229265213013 -0.08527129888534546
-0.6899224519729614 -0.1857028305530548 -0.06976741552352905
-0.6899224519729614 -0.1823369860649109 -0.05426359176635742
-0.6899224519729614 -0.18442408740520477 -0.038759708404541016
-0.6899224519729614 -0.1925663948059082 -0.02325582504272461
-0.6899224519729614 0.3159652650356293 -0.08527129888534546
-0.6899224519729614 0.3113102316856384 -0.06976741552352905
-0.6899224519729614 0.30884474515914917 -0.05426359176635742
-0.6899224519729614 0.31137555837631226 -0.038759708404541016
-0.6899224519729614 0.3229420781135559 -0.02325582504272461
-0.6899224519729614 0.4347425103187561 -0.10077518224716187
-0.6899223923683167 0.4582134187221527 -0.10077517479658127
-0.6899224519729614 0.4871455132961273 -0.02325582504272461
-0.6899224519729614 0.5016804337501526 -0.08527129888534546
-0.6899224519729614 0.5067203044891357 -0.06976741552352905
-0.6899224519729614 0.5081074237823486 -0.05426359176635742
-0.6899224519729614 0.5043838024139404 -0.038759708404541016
-0.674418568611145 -0.28695905208587646 -0.08527129888534546
-0.674418568611145 -0.29332834482192993 -0.06976741552352905
-0.674418568611145 -0.2939389944076538 -0.05426359176635742
-0.674418568611145 -0.29044264554977417 -0.038759708404541016
-0.674418568611145 -0.27690285444259644 -0.02325582504272461
-0.674418568611145 -0.1930902898311615 -0.08527129888534546
-0.674418568611145 -0.18815812468528748 -0.06976741552352905
-0.674418568611145 -0.18573148548603058 -0.05426359176635742
-0.674418568611145 -0.18668538331985474 -0.038759708404541016
-0.6744185090065002 -0.19272804260253906 -0.02325582504272461
-0.674418568611145 0.31710752844810486 -0.08527129888534546
-0.674418568611145 0.31312018632888794 -0.06976741552352905
-0.674418568611145 0.31111085414886475 -0.05426359176635742
-0.674418568611145 0.312901109457016 -0.038759708404541016
-0.674418568611145 0.3246830403804779 -0.02325582504272461
-0.674418568611145 0.4431149363517761 -0.10077518224716187
-0.674418568611145 0.47976091504096985 -0.10077518224716187
-0.674418568611145 0.5009362697601318 -0.02325582504272461
-0.674418568611145 0.5164279937744141 -0.08527129888534546
-0.674418568611145 0.5171101689338684 -0.038759708404541016
-0.674418568611145 0.5202236771583557 -0.06976741552352905
-0.674418568611145 0.5207490921020508 -0.05426359176635742
-0.6589146852493286 -0.2900681793689728 -0.08527129888534546
-0.6589146852493286 -0.2979913353919983 -0.06976741552352905
-0.6589146852493286 -0.2991330921649933 -0.05426359176635742
-0.6589146852493286 -0.29523539543151855 -0.038759708404541016
-0.6589146852493286 -0.2807827591896057 -0.02325582504272461
-0.6589146852493286 -0.19326366484165192 -0.08527129888534546
-0.6589146852493286 -0.18902747333049774 -0.06976741552352905
-0.6589146852493286 -0.18715408444404602 -0.05426359176635742
-0.6589146852493286 -0.18755581974983215 -0.038759708404541016
-0.6589146852493286 -0.19254019856452942 -0.02325582690536976
-0.6589146852493286 0.31739968061447144 -0.08527129888534546
-0.6589146852493286 0.31368589401245117 -0.06976741552352905
-0.6589146852493286 0.31181567907333374 -0.05426359176635742
-0.6589146852493286 0.3134908974170685 -0.038759708404541016
-0.6589146852493286 0.3252275586128235 -0.02325582504272461
-0.6589146852493286 0.4467669129371643 -0.10077518224716187
-0.6589146852493286 0.4975860118865967 -0.10077518224716187
-0.6589146852493286 0.5131443738937378 -0.02325582504272461
-0.6589146852493286 0.5279282331466675 -0.08527129888534546
-0.6589146852493286 0.5326904058456421 -0.06976741552352905
-0.6589146852493286 0.5329238176345825 -0.05426359176635742
-0.6589146852493286 0.527882993221283 -0.038759708404541016
-0.643410861492157 -0.30325955152511597 -0.06976741552352905
-0.643410861492157 -0.3042129874229431 -0.05426359176635742
-0.643410861492157 -0.2914466857910156 -0.08527129888534546
-0.643410861492157 -0.299703449010849 -0.038759708404541016
-0.643410861492157 -0.28737562894821167 -0.02325582504272461
-0.643410861492157 -0.19337010383605957 -0.08527129888534546
-0.643410861492157 -0.18915556371212006 -0.06976741552352905
-0.6434108018875122 -0.18752437829971313 -0.05426359176635742
-0.6434109210968018 -0.18763884902000427 -0.038759708404541016
-0.643410861492157 -0.1922120451927185 -0.02325582690536976
-0.643410861492157 0.3169611692428589 -0.08527129888534546
-0.643410861492157 0.31322401762008667 -0.06976741552352905
-0.643410861492157 0.3114628195762634 -0.05426359176635742
-0.643410861492157 0.31325042247772217 -0.038759708404541016
-0.643410861492157 0.32432079315185547 -0.02325582504272461
-0.643410861492157 0.45177018642425537 -0.10077518224716187
-0.643410861492157 0.5121670961380005 -0.10077518224716187
-0.643410861492157 0.5229801535606384 -0.02325582504272461
-0.6434109210968018 0.5376201272010803 -0.08527129888534546
-0.6434109210968018 0.5418799519538879 -0.06976741552352905
-0.643410861492157 0.5417052507400513 -0.05426359176635742
-0.643410861492157 0.5358992218971252 -0.038759708404541016
-0.6279069781303406 -0.3052622377872467 -0.06976741552352905
-0.6279069781303406 -0.30675774812698364 -0.05426359176635742
-0.6279069185256958 -0.30379074811935425 -0.038759708404541016
-0.6279069781303406 -0.2917613089084625 -0.08527129888534546
-0.6279069781303406 -0.29022470116615295 -0.02325582504272461
-0.6279069781303406 -0.1951904296875 -0.08527129888534546
-0.6279069781303406 -0.18987999856472015 -0.06976741552352905
-0.6279070377349854 -0.18833664059638977 -0.05426359549164772
-0.6279069781303406 -0.18826907873153687 -0.038759708404541016
-0.6279069781303406 -0.19257576763629913 -0.02325582504272461
-0.6279069781303406 0.3163520395755768 -0.08527129888534546
-0.6279069781303406 0.31247973442077637 -0.06976741552352905
-0.6279069781303406 0.31084349751472473 -0.05426359176635742
-0.6279069781303406 0.3128396272659302 -0.038759708404541016
-0.6279069781303406 0.32328471541404724 -0.02325582504272461
-0.6279069781303406 0.4601729214191437 -0.10077518969774246
