-0.30232560634613037 -0.28847289085388184 0.7209302186965942
-0.30232560634613037 -0.2848166823387146 0.7209301590919495
-0.30232560634613037 -0.26601892709732056 0.674418568611145
-0.30232560634613037 -0.24817225337028503 0.6899224519729614
-0.30232560634613037 -0.252175897359848 0.7054263353347778
-0.30232560634613037 -0.19471386075019836 0.8294574022293091
-0.30232560634613037 -0.18839281797409058 0.8449612855911255
-0.30232560634613037 -0.16265103220939636 0.8294574022293091
-0.30232560634613037 -0.144255131483078 0.8449612855911255
-0.30232560634613037 0.006514322943985462 0.6434108018875122
-0.30232560634613037 0.006007278338074684 0.6589146852493286
-0.30232560634613037 0.005633008666336536 0.674418568611145
-0.30232560634613037 0.006271721795201302 0.6899224519729614
-0.30232560634613037 0.021374134346842766 0.5968992710113525
-0.30232560634613037 0.01870630867779255 0.612403154373169
-0.30232560634613037 0.008129383437335491 0.6279069185256958
-0.30232560634613037 0.016322026029229164 0.7054263353347778
-0.30232560634613037 0.03791633993387222 0.4418604373931885
-0.30232560634613037 0.03721306845545769 0.4573643207550049
-0.30232560634613037 0.036979351192712784 0.4728682041168213
-0.30232560634613037 0.03707670047879219 0.4883720874786377
-0.30232560634613037 0.0372563898563385 0.5038759708404541
-0.30232560634613037 0.03737526759505272 0.5193798542022705
-0.30232560634613037 0.03759419173002243 0.5348837375640869
-0.30232560634613037 0.037740059196949005 0.5503876209259033
-0.30232560634613037 0.03697646036744118 0.5658915042877197
-0.30232560634613037 0.027193233370780945 0.5813953876495361
-0.30232560634613037 0.05335087701678276 0.39534878730773926
-0.30232560634613037 0.04593983292579651 0.41085267066955566
-0.30232560634613037 0.041645001620054245 0.42635655403137207
-0.30232560634613037 0.05532679706811905 0.39534878730773926
-0.30232560634613037 0.06610627472400665 0.5348837375640869
-0.30232560634613037 0.05865993723273277 0.5503876209259033
-0.30232560634613037 0.05831035226583481 0.5658915042877197
-0.30232560634613037 0.06431669741868973 0.5813953876495361
-0.30232560634613037 0.07074914872646332 0.41085267066955566
-0.30232560634613037 0.07360011339187622 0.42635655403137207
-0.30232560634613037 0.0748368427157402 0.4418604373931885
-0.30232560634613037 0.0744754821062088 0.4573643207550049
-0.30232560634613037 0.07367027550935745 0.4728682041168213
-0.30232560634613037 0.07264187932014465 0.4883720874786377
-0.30232560634613037 0.07183373719453812 0.5038759708404541
-0.30232560634613037 0.07093432545661926 0.5193798542022705
-0.30232560634613037 0.07080378383398056 0.5968992710113525
-0.30232560634613037 0.07477317005395889 0.612403154373169
-0.30232560634613037 0.07122918963432312 0.7054263949394226
-0.30232560634613037 0.0855262354016304 0.6279069185256958
-0.30232560634613037 0.08652950078248978 0.6434107422828674
-0.30232560634613037 0.08792929351329803 0.6589146852493286
-0.30232560634613037 0.09060923755168915 0.674418568611145
-0.30232560634613037 0.08773276954889297 0.6899223923683167
-0.30232560634613037 0.31659767031669617 0.7054263353347778
-0.30232560634613037 0.32993829250335693 0.7209302186965942
-0.30232560634613037 0.334847092628479 0.6899224519729614
-0.30232560634613037 0.35664206743240356 0.674418568611145
-0.30232560634613037 0.37971001863479614 0.6589146852493286
-0.30232560634613037 0.4084491729736328 0.6434108018875122
-0.30232560634613037 0.43408066034317017 0.6434108018875122
-0.30232560634613037 0.4447011649608612 0.7209302186965942
-0.30232560634613037 0.4582095146179199 0.6589146852493286
-0.30232560634613037 0.46549999713897705 0.674418568611145
-0.30232560634613037 0.47519704699516296 0.6899224519729614
-0.30232560634613037 0.4794502258300781 0.7054263353347778
-0.28682172298431396 -0.5203431844711304 0.6279069185256958
-0.28682172298431396 -0.5105841755867004 0.612403154373169
-0.28682172298431396 -0.5174931287765503 0.6434108018875122
-0.28682172298431396 -0.5068639516830444 0.6589146852493286
-0.28682172298431396 -0.4774150848388672 0.5968992710113525
-0.28682172298431396 -0.4796203374862671 0.674418568611145
-0.28682172298431396 -0.4491979777812958 0.5968992710113525
-0.28682172298431396 -0.4154544770717621 0.612403154373169
-0.28682172298431396 -0.38532596826553345 0.6279069185256958
-0.28682172298431396 -0.35166826844215393 0.6899224519729614
-0.28682172298431396 -0.348771870136261 0.6434108018875122
-0.28682172298431396 -0.3254159092903137 0.7054263353347778
-0.28682172298431396 -0.2650439739227295 0.6589146852493286
-0.28682172298431396 -0.2500821053981781 0.7054263353347778
-0.28682172298431396 -0.23820671439170837 0.674418568611145
-0.28682172298431396 -0.2367485612630844 0.6899224519729614
-0.28682172298431396 -0.18671178817749023 0.8449612855911255
-0.28682172298431396 -0.17734575271606445 0.8604651689529419
-0.28682172298431396 -0.15421031415462494 0.8449612855911255
-0.28682172298431396 -0.1563989520072937 0.8604651689529419
-0.28682172298431396 0.007378479465842247 0.612403154373169
-0.28682172298431396 0.00578108336776495 0.6279069185256958
-0.28682172298431396 0.00502451416105032 0.6434108018875122
-0.28682172298431396 0.0035023123491555452 0.6589146852493286
-0.28682172298431396 0.002233016537502408 0.674418568611145
-0.28682172298431396 0.005036435090005398 0.6899224519729614
-0.28682172298431396 0.02234683930873871 0.5813953876495361
-0.28682172298431396 0.02002696506679058 0.5968992710113525
-0.28682172298431396 0.01505304966121912 0.7054263353347778
-0.28682172298431396 0.037732530385255814 0.42635655403137207
-0.28682172298431396 0.03688136115670204 0.4418604373931885
-0.28682172298431396 0.03654375672340393 0.4573643207550049
-0.28682172298431396 0.03647450730204582 0.4728682041168213
-0.28682172298431396 0.03669287636876106 0.4883720874786377
-0.28682172298431396 0.0369209460914135 0.5038759708404541
-0.28682172298431396 0.037150848656892776 0.5193798542022705
-0.28682172298431396 0.037463244050741196 0.5348837375640869
-0.28682172298431396 0.03763231635093689 0.5503876209259033
-0.28682172298431396 0.03632427006959915 0.5658915042877197
-0.28682172298431396 0.04957268387079239 0.39534878730773926
-0.28682172298431396 0.04030832648277283 0.41085267066955566
-0.28682172298431396 0.0595945306122303 0.39534878730773926
-0.28682172298431396 0.06104687228798866 0.5503876209259033
-0.28682172298431396 0.060699738562107086 0.5658915042877197
-0.28682172298431396 0.07221753150224686 0.41085267066955566
-0.28682172298431396 0.07587728649377823 0.42635655403137207
-0.28682172298431396 0.07835151255130768 0.4418604373931885
-0.28682172298431396 0.07785928249359131 0.4573643207550049
-0.28682172298431396 0.07641221582889557 0.4728682041168213
-0.28682172298431396 0.07462525367736816 0.4883720874786377
-0.28682172298431396 0.07331283390522003 0.5038759708404541
-0.28682172298431396 0.07175998389720917 0.5193798542022705
-0.28682172298431396 0.0702042281627655 0.5348837375640869
-0.28682172298431396 0.07003800570964813 0.5813953876495361
-0.28682172298431396 0.07216958701610565 0.5968992114067078
-0.28682172298431396 0.08375903218984604 0.612403154373169
-0.28682172298431396 0.06992168724536896 0.7054263353347778
-0.28682172298431396 0.08660642802715302 0.627906858921051
-0.28682172298431396 0.08790639042854309 0.6434108018875122
-0.28682172298431396 0.09038285911083221 0.6589146852493286
-0.28682172298431396 0.09274278581142426 0.674418568611145
-0.28682172298431396 0.08738540858030319 0.6899224519729614
-0.28682172298431396 0.3145705461502075 0.6899224519729614
-0.28682172298431396 0.309328556060791 0.7054263353347778
-0.28682172298431396 0.3327815532684326 0.7209302186965942
-0.28682172298431396 0.33608847856521606 0.674418568611145
-0.28682172298431396 0.35954195261001587 0.6589146852493286
-0.28682172298431396 0.39394110441207886 0.6434108018875122
-0.28682172298431396 0.41547977924346924 0.6434108018875122
-0.28682172298431396 0.41405630111694336 0.7209302186965942
-0.28682172298431396 0.4352632164955139 0.6589146852493286
-0.28682172298431396 0.4453529119491577 0.674418568611145
-0.28682172298431396 0.4528679847717285 0.6899224519729614
-0.28682172298431396 0.45596379041671753 0.7054263353347778
-0.27131783962249756 -0.4738350212574005 0.6434108018875122
-0.27131783962249756 -0.46528130769729614 0.6589146852493286
-0.27131783962249756 -0.4405163526535034 0.627906858921051
-0.27131783962249756 -0.418096125125885 0.6279069185256958
-0.27131783962249756 -0.3825218081474304 0.6589146852493286
-0.27131783962249756 -0.37483012676239014 0.6434108018875122
-0.27131783962249756 -0.3637489378452301 0.6589146852493286
-0.27131783962249756 -0.35111474990844727 0.674418568611145
-0.27131783962249756 -0.34122952818870544 0.6434108018875122
-0.27131783962249756 -0.3358827233314514 0.6899224519729614
-0.27131783962249756 -0.31413790583610535 0.7054263353347778
-0.27131783962249756 -0.264782190322876 0.6434108018875122
-0.27131783962249756 -0.25441157817840576 0.7054262757301331
-0.27131783962249756 -0.2390056699514389 0.6589146852493286
-0.27131783962249756 -0.2331528663635254 0.674418568611145
-0.27131783962249756 -0.23719137907028198 0.6899224519729614
-0.27131783962249756 -0.17974263429641724 0.8604651689529419
-0.27131783962249756 -0.15852773189544678 0.8604652285575867
-0.27131783962249756 -0.00810964871197939 0.6589146852493286
-0.27131783962249756 -0.008173312060534954 0.674418568611145
-0.27131783962249756 0.0073629943653941154 0.5968992710113525
-0.27131783962249756 0.004760817624628544 0.612403154373169
-0.27131783962249756 0.0017568832263350487 0.6279069185256958
-0.27131783962249756 -0.002218844136223197 0.6434108018875122
-0.27131783962249756 0.0019344959873706102 0.6899224519729614
-0.27131783962249756 0.0206966083496809 0.5813953876495361
-0.27131783962249756 0.011362290009856224 0.7054263353347778
-0.27131783962249756 0.03766923397779465 0.41085267066955566
-0.27131783962249756 0.03680824860930443 0.42635655403137207
-0.27131783962249756 0.03635508194565773 0.4418604373931885
-0.27131783962249756 0.03616558760404587 0.4573643207550049
-0.27131783962249756 0.03610556945204735 0.4728682041168213
-0.27131783962249756 0.03623625263571739 0.4883720874786377
-0.27131783962249756 0.036492008715867996 0.5038759708404541
-0.27131783962249756 0.036926474422216415 0.5193798542022705
-0.27131783962249756 0.03748543560504913 0.5348837375640869
-0.27131783962249756 0.037633590400218964 0.5503876209259033
-0.27131783962249756 0.033796198666095734 0.5658915042877197
-0.27131783962249756 0.04560954123735428 0.39534878730773926
-0.27131783962249756 0.06335624307394028 0.39534878730773926
-0.27131783962249756 0.05966305732727051 0.5503876209259033
-0.27131783962249756 0.06030632555484772 0.5658915042877197
-0.27131783962249756 0.06373772025108337 0.7054263353347778
-0.27131783962249756 0.07295398414134979 0.4108526408672333
-0.27131783962249756 0.0773419588804245 0.42635655403137207
-0.27131783962249756 0.08018643409013748 0.4418604373931885
-0.27131783962249756 0.07929818332195282 0.4573643207550049
-0.27131783962249756 0.07767584919929504 0.4728682041168213
-0.27131783962249756 0.07581155002117157 0.4883720874786377
-0.27131783962249756 0.07417303323745728 0.5038759708404541
-0.27131783962249756 0.07198391854763031 0.5193798542022705
-0.27131783962249756 0.06999456137418747 0.5348837375640869
-0.27131786942481995 0.07018983364105225 0.5813954472541809
-0.27131783962249756 0.07298015058040619 0.5968992710113525
-0.27131783962249756 0.08573676645755768 0.612403154373169
-0.27131783962249756 0.08745143562555313 0.6279069185256958
-0.27131783962249756 0.0894092321395874 0.6434108018875122
-0.27131783962249756 0.09200899302959442 0.6589146852493286
-0.27131783962249756 0.09221672266721725 0.674418568611145
-0.27131783962249756 0.08686351776123047 0.6899224519729614
-0.27131783962249756 0.09262347966432571 0.922480583190918
-0.27131783962249756 0.12478945404291153 0.922480583190918
-0.27131783962249756 0.12482710182666779 0.9379844665527344
-0.27131783962249756 0.13675051927566528 0.9379844665527344
-0.27131783962249756 0.2901087999343872 0.6899224519729614
-0.27131783962249756 0.299579381942749 0.7054263353347778
-0.27131783962249756 0.3070005476474762 0.674418568611145
-0.27131783962249756 0.3359537124633789 0.6589146852493286
-0.27131783962249756 0.41140925884246826 0.6589147448539734
-0.27131783962249756 0.4203118085861206 0.674418568611145
-0.27131783962249756 0.42794808745384216 0.6899224519729614
-0.27131783962249756 0.4279232919216156 0.7054263353347778
-0.25581395626068115 -0.3200203478336334 0.6589146852493286
-0.25581395626068115 -0.32073307037353516 0.674418568611145
-0.25581395626068115 -0.3023647367954254 0.6434108018875122
-0.25581395626068115 -0.31240177154541016 0.6899224519729614
-0.25581395626068115 -0.26372992992401123 0.6434108018875122
-0.25581395626068115 -0.24400082230567932 0.6589146852493286
-0.25581395626068115 -0.25149697065353394 0.6899224519729614
-0.25581395626068115 -0.24003265798091888 0.674418568611145
-0.25581395626068115 -0.011328574270009995 0.6279069185256958
-0.25581395626068115 -0.013651298359036446 0.6434108018875122
-0.25581395626068115 -0.01358368806540966 0.6589146852493286
-0.25581395626068115 -0.010916218161582947 0.674418568611145
-0.25581395626068115 -0.008059890940785408 0.6899224519729614
-0.25581395626068115 0.004112280905246735 0.5968992710113525
-0.25581395626068115 -0.0046066781505942345 0.612403154373169
-0.25581395626068115 0.007314853370189667 0.7054263353347778
-0.25581395626068115 0.02284327521920204 0.5658915042877197
-0.25581395626068115 0.009608501568436623 0.5813953876495361
-0.25581395626068115 0.03708943724632263 0.41085267066955566
-0.25581395626068115 0.03658081591129303 0.42635655403137207
-0.25581395626068115 0.036330729722976685 0.4418604373931885
-0.25581395626068115 0.03629710525274277 0.4573643207550049
-0.25581395626068115 0.03621211275458336 0.4728682041168213
-0.25581395626068115 0.03621058911085129 0.4883720874786377
-0.25581395626068115 0.03647223487496376 0.5038759708404541
-0.25581395626068115 0.03721974790096283 0.5193798542022705
-0.25581395626068115 0.038267578929662704 0.5348837375640869
-0.25581395626068115 0.03813287988305092 0.5503876209259033
-0.25581395626068115 0.05345283821225166 0.37984490394592285
-0.25581395626068115 0.04196775332093239 0.39534878730773926
-0.25581395626068115 0.054967574775218964 0.37984490394592285
-0.25581395626068115 0.06581699103116989 0.39534878730773926
-0.25581395626068115 0.06081715598702431 0.5348837375640869
-0.25581395626068115 0.05581345409154892 0.5503876209259033
-0.25581395626068115 0.058293383568525314 0.5658915042877197
-0.25581395626068115 0.06284765899181366 0.7054263353347778
-0.25581395626068115 0.07291300594806671 0.41085267066955566
-0.25581395626068115 0.07615204155445099 0.42635655403137207
-0.25581395626068115 0.07705823332071304 0.4418604373931885
-0.25581395626068115 0.07595200091600418 0.4573643207550049
-0.25581395626068115 0.07481403648853302 0.4728682041168213
-0.25581395626068115 0.07374130189418793 0.4883720874786377
-0.25581395626068115 0.07274899631738663 0.5038759708404541
-0.25581395626068115 0.07084275037050247 0.5193798542022705
-0.25581395626068115 0.07003103941679001 0.5813953876495361
-0.25581395626068115 0.07300824671983719 0.5968992710113525
-0.25581395626068115 0.08285659551620483 0.9069766998291016
-0.25581395626068115 0.08372127264738083 0.922480583190918
-0.25581395626068115 0.08565369248390198 0.612403154373169
-0.25581395626068115 0.08796605467796326 0.6279069185256958
-0.25581395626068115 0.09006283432245255 0.6434108018875122
-0.25581395626068115 0.09172145277261734 0.6589146852493286
-0.25581395626068115 0.09098652750253677 0.674418568611145
-0.25581395626068115 0.08648678660392761 0.6899224519729614
-0.25581395626068115 0.10163295269012451 0.9069766402244568
-0.25581395626068115 0.12801501154899597 0.9379844665527344
-0.25581395626068115 0.135545015335083 0.922480583190918
-0.25581395626068115 0.14837230741977692 0.9379844665527344
-0.25581395626068115 0.24104256927967072 0.674418568611145
-0.25581395626068115 0.26182061433792114 0.6899224519729614
-0.25581395626068115 0.28175055980682373 0.6589146852493286
-0.25581395626068115 0.2899039089679718 0.7054263353347778
-0.25581395626068115 0.37757787108421326 0.6589146852493286
-0.25581395626068115 0.3851536512374878 0.674418568611145
-0.25581395626068115 0.38888126611709595 0.6899224519729614
-0.25581395626068115 0.38364481925964355 0.7054262757301331
-0.24031007289886475 -0.04403848573565483 0.6279069185256958
-0.24031007289886475 -0.04955742508172989 0.6434108018875122
-0.24031007289886475 -0.044873565435409546 0.6589146852493286
-0.24031007289886475 -0.03305346891283989 0.674418568611145
-0.24031007289886475 -0.00970505177974701 0.5968992710113525
-0.24031007289886475 -0.02140076644718647 0.612403154373169
-0.24031007289886475 -0.01564735174179077 0.6899224519729614
-0.24031007289886475 0.0026341236662119627 0.5813953876495361
-0.24031007289886475 0.004977086558938026 0.7054263353347778
-0.24031007289886475 0.011293018236756325 0.5658915042877197
-0.24031007289886475 0.037295546382665634 0.41085267066955566
-0.24031007289886475 0.03700411692261696 0.42635655403137207
-0.24031007289886475 0.03691728785634041 0.4418604373931885
-0.24031007289886475 0.03708506003022194 0.4573643207550049
-0.24031007289886475 0.03693825379014015 0.4728682041168213
-0.24031007289886475 0.03687281534075737 0.4883720874786377
-0.24031007289886475 0.03719969093799591 0.5038759708404541
-0.24031007289886475 0.03850070759654045 0.5193798542022705
-0.24031007289886475 0.03686218708753586 0.5503876209259033
-0.24031007289886475 0.051363468170166016 0.37984490394592285
-0.24031007289886475 0.04080503061413765 0.39534878730773926
-0.24031007289886475 0.05245107412338257 0.5348837375640869
-0.24031007289886475 0.052606817334890366 0.5503876209259033
-0.24031007289886475 0.056863296777009964 0.37984490394592285
-0.24031007289886475 0.06627211719751358 0.39534878730773926
-0.24031007289886475 0.06227855011820793 0.5193798542022705
-0.24031007289886475 0.05458861216902733 0.5348837375640869
-0.24031007289886475 0.05869264528155327 0.5658915042877197
-0.24031007289886475 0.06368248164653778 0.7054263353347778
-0.24031007289886475 0.06884412467479706 0.9069766998291016
-0.24031005799770355 0.07212329655885696 0.41085267066955566
-0.24031007289886475 0.0737851932644844 0.42635655403137207
-0.24031007289886475 0.07372468709945679 0.4418604373931885
-0.24031007289886475 0.07272720336914062 0.4573643207550049
-0.24031007289886475 0.07205923646688461 0.4728682041168213
-0.24031007289886475 0.07147790491580963 0.4883720874786377
-0.24031007289886475 0.07070421427488327 0.5038759708404541
-0.24031007289886475 0.07034014165401459 0.5813953876495361
-0.24031007289886475 0.07348187267780304 0.5968992710113525
-0.24031007289886475 0.0853329598903656 0.612403154373169
-0.24031007289886475 0.08808964490890503 0.6279069185256958
-0.24031007289886475 0.09004724025726318 0.6434108018875122
-0.24031007289886475 0.09109054505825043 0.6589146852493286
-0.24031007289886475 0.09026943147182465 0.674418568611145
-0.24031007289886475 0.08616504073143005 0.6899224519729614
-0.24031008780002594 0.0862198993563652 0.922480583190918
-0.24031007289886475 0.11897572129964828 0.9069766998291016
-0.24031007289886475 0.1497429758310318 0.922480583190918
-0.24031007289886475 0.17066654562950134 0.674418568611145
-0.24031008780002594 0.19868841767311096 0.6589146852493286
-0.24031007289886475 0.21859349310398102 0.6899224519729614
-0.24031007289886475 0.2314801812171936 0.6434108018875122
-0.24031007289886475 0.28165557980537415 0.7054263353347778
-0.24031007289886475 0.32270509004592896 0.6434108018875122
-0.24031007289886475 0.3458743691444397 0.6589146852493286
-0.24031007289886475 0.3380143344402313 0.7054263353347778
-0.24031007289886475 0.3501055836677551 0.6744186282157898
-0.24031007289886475 0.34903308749198914 0.6899225115776062
-0.22480618953704834 -0.1510130614042282 0.6434108018875122
-0.22480618953704834 -0.15165697038173676 0.6589146852493286
-0.22480618953704834 -0.14440330862998962 0.6434108018875122
-0.22480618953704834 -0.14467792212963104 0.6589146852493286
-0.22480618953704834 -0.08904176205396652 0.8759689331054688
-0.22480618953704834 -0.07220792770385742 0.612403154373169
-0.22480618953704834 -0.07647429406642914 0.6279069185256958
-0.22480618953704834 -0.07577601075172424 0.6434108018875122
-0.22480618953704834 -0.073606476187706 0.6589146852493286
-0.22480618953704834 -0.06985416263341904 0.674418568611145
-0.22480618953704834 -0.08317553997039795 0.875968873500824
-0.22480618953704834 -0.06071675568819046 0.5968992710113525
-0.22480618953704834 -0.05138377472758293 0.6899224519729614
-0.22480618953704834 -0.015911966562271118 0.5813953876495361
-0.22480618953704834 -0.009636741131544113 0.7054263353347778
-0.22480618953704834 7.481523789465427e-05 0.5658915042877197
-0.22480618953704834 0.01145903393626213 0.5503876209259033
-0.22480618953704834 0.03867588937282562 0.41085267066955566
-0.22480618953704834 0.03852514550089836 0.42635655403137207
-0.22480618953704834 0.03860814496874809 0.4418604373931885
-0.22480618953704834 0.038503557443618774 0.4728682041168213
-0.22480618953704834 0.03832627087831497 0.4883720874786377
-0.22480618953704834 0.03856843337416649 0.5038759708404541
-0.22480618953704834 0.052798572927713394 0.37984490394592285
-0.22480618953704834 0.04535767436027527 0.39534878730773926
-0.22480618953704834 0.039245545864105225 0.4573643207550049
-0.22480618953704834 0.047885529696941376 0.5193798542022705
-0.22480618953704834 0.05556769669055939 0.37984490394592285
-0.22480618953704834 0.061669591814279556 0.39534878730773926
-0.22480618953704834 0.06889989227056503 0.41085267066955566
-0.22480618953704834 0.06860663741827011 0.4573643207550049
-0.22480618953704834 0.06757766753435135 0.4728682041168213
-0.22480618953704834 0.06611096858978271 0.4883720874786377
-0.22480618953704834 0.06270605325698853 0.5038759708404541
-0.22480618953704834 0.056157439947128296 0.5193798542022705
-0.22480618953704834 0.05649441108107567 0.5503876209259033
-0.22480618953704834 0.0665167048573494 0.5658915042877197
-0.22480618953704834 0.06352541595697403 0.7054263353347778
-0.22480618953704834 0.06259267032146454 0.8914728164672852
-0.22480618953704834 0.06838135421276093 0.9069766998291016
-0.22480617463588715 0.07035095244646072 0.42635655403137207
-0.22480620443820953 0.070159912109375 0.44186046719551086
-0.22480618953704834 0.0722123384475708 0.5813953876495361
-0.22480618953704834 0.07640402764081955 0.5968992710113525
-0.22480617463588715 0.0858536958694458 0.612403154373169
-0.22480617463588715 0.08878657221794128 0.6279069185256958
-0.22480618953704834 0.09078703820705414 0.6434108018875122
-0.22480618953704834 0.09150238335132599 0.6589146852493286
-0.22480618953704834 0.09034305810928345 0.674418568611145
-0.22480618953704834 0.0855356976389885 0.6899224519729614
-0.22480618953704834 0.10413869470357895 0.8914728760719299
-0.22480618953704834 0.10859419405460358 0.922480583190918
-0.22480618953704834 0.12946005165576935 0.6434108018875122
-0.22480618953704834 0.1277245730161667 0.6589146852493286
-0.22480618953704834 0.13852807879447937 0.674418568611145
-0.22480618953704834 0.16185449063777924 0.6899224519729614
-0.22480617463588715 0.14747169613838196 0.9069766402244568
-0.22480618953704834 0.15344709157943726 0.922480583190918
-0.22480618953704834 0.20664232969284058 0.6279069185256958
-0.22480618953704834 0.28577694296836853 0.6279069185256958
-0.22480618953704834 0.27823710441589355 0.7054263353347778
-0.22480618953704834 0.30661290884017944 0.6434108018875122
-0.22480618953704834 0.31737807393074036 0.6589146852493286
-0.22480618953704834 0.3140946626663208 0.6899224519729614
-0.22480618953704834 0.30484989285469055 0.7054263353347778
-0.22480617463588715 0.31788575649261475 0.674418568611145
-0.20930230617523193 -0.19087956845760345 0.6434108018875122
-0.20930230617523193 -0.17501358687877655 0.6589146852493286
-0.20930230617523193 -0.13604357838630676 0.8759689331054688
-0.20930230617523193 -0.13025274872779846 0.6434108018875122
-0.20930230617523193 -0.13077157735824585 0.6589146852493286
-0.20930230617523193 -0.09362930059432983 0.8604651689529419
-0.20930230617523193 -0.07068783044815063 0.5968992710113525
-0.20930230617523193 -0.07717865705490112 0.612403154373169
-0.20930230617523193 -0.08259116858243942 0.6279069185256958
-0.20930230617523193 -0.08090164512395859 0.6434108018875122
-0.20930230617523193 -0.07658163458108902 0.6589146852493286
-0.20930230617523193 -0.07160599529743195 0.674418568611145
-0.20930230617523193 -0.06115683913230896 0.5813953876495361
-0.20930230617523193 -0.05732760578393936 0.6899224519729614
-0.20930230617523193 -0.05096813663840294 0.8604651689529419
-0.20930230617523193 -0.05386155843734741 0.8759689331054688
-0.20930230617523193 -0.023284627124667168 0.7054263353347778
-0.20930230617523193 -0.019411953166127205 0.5658915042877197
-0.20930230617523193 0.0005242135375738144 0.5503876209259033
-0.20930230617523193 0.014448601752519608 0.5348837375640869
-0.20930230617523193 0.05087268725037575 0.8759689331054688
-0.20930230617523193 0.053923267871141434 0.8914728164672852
-0.20930230617523193 0.05526893585920334 0.5348837375640869
-0.20930230617523193 0.06313591450452805 0.5503876209259033
-0.20930230617523193 0.06277457624673843 0.7054263353347778
-0.20930230617523193 0.07263480126857758 0.5658915042877197
-0.20930230617523193 0.07787284255027771 0.5813953876495361
-0.20930230617523193 0.08267874270677567 0.6899224519729614
-0.20930230617523193 0.08169789612293243 0.9069766998291016
-0.20930230617523193 0.0855875089764595 0.5968992710113525
-0.20930230617523193 0.08833692222833633 0.612403154373169
-0.20930230617523193 0.09158188104629517 0.6279069185256958
-0.20930230617523193 0.09431171417236328 0.6434108018875122
-0.20930230617523193 0.09499034285545349 0.6589146852493286
-0.20930230617523193 0.09203241765499115 0.674418568611145
-0.20930230617523193 0.09549979865550995 0.8759689331054688
-0.20930230617523193 0.10976079851388931 0.6434108018875122
-0.20930230617523193 0.10831610858440399 0.6589146852493286
-0.20930230617523193 0.12341484427452087 0.6279069185256958
-0.20930230617523193 0.1196640282869339 0.6744185090065002
-0.20930230617523193 0.13974504172801971 0.6899224519729614
-0.20930230617523193 0.13905072212219238 0.8914728164672852
-0.20930230617523193 0.15597110986709595 0.9069766998291016
-0.20930230617523193 0.1959415227174759 0.612403154373169
-0.20930230617523193 0.25208622217178345 0.612403154373169
-0.20930230617523193 0.2741568982601166 0.6279069185256958
-0.20930230617523193 0.287520170211792 0.6434107422828674
-0.20930230617523193 0.29117634892463684 0.6589146852493286
-0.20930229127407074 0.2904556393623352 0.674418568611145
-0.20930230617523193 0.28798553347587585 0.6899224519729614
-0.19379842281341553 -0.19551673531532288 0.6434108018875122
-0.19379842281341553 -0.18360325694084167 0.6589146852493286
-0.19379843771457672 -0.16238977015018463 0.674418568611145
-0.19379842281341553 -0.14941856265068054 0.8759689331054688
-0.19379842281341553 -0.1435285210609436 0.674418568611145
-0.19379842281341553 -0.13010823726654053 0.6434108018875122
-0.19379842281341553 -0.12879279255867004 0.6589146852493286
-0.19379842281341553 -0.12478125840425491 0.8604651689529419
-0.19379842281341553 -0.07196781039237976 0.5968992710113525
-0.19379842281341553 -0.07828457653522491 0.612403154373169
-0.19379840791225433 -0.08384589105844498 0.6279069185256958
-0.19379843771457672 -0.0826977863907814 0.643410861492157
-0.19379842281341553 -0.0794702023267746 0.6589146852493286
-0.19379842281341553 -0.07657638192176819 0.674418568611145
-0.19379842281341553 -0.07061979919672012 0.6899224519729614
-0.19379842281341553 -0.06492854654788971 0.5813953876495361
-0.19379842281341553 -0.05701998248696327 0.8449612855911255
-0.19379842281341553 -0.06243576109409332 0.8759689331054688
-0.19379842281341553 -0.05171941593289375 0.5658915042877197
-0.19379842281341553 -0.04161330685019493 0.7054263353347778
-0.19379842281341553 -0.053611721843481064 0.8449612259864807
-0.19379842281341553 -0.03167235851287842 0.8604651689529419
-0.19379842281341553 -0.013820592314004898 0.5503876209259033
-0.19379842281341553 0.0030095812398940325 0.5348837375640869
-0.19379842281341553 0.0006390672642737627 0.7209302186965942
-0.19379842281341553 0.017181862145662308 0.5193798542022705
-0.19379842281341553 0.019892387092113495 0.7209302186965942
-0.19379842281341553 0.03606296330690384 0.8604651689529419
-0.19379842281341553 0.04141019657254219 0.5193798542022705
-0.19379842281341553 0.042781129479408264 0.875968873500824
-0.19379842281341553 0.05835685133934021 0.5348837375640869
-0.19379842281341553 0.06002906709909439 0.7054263353347778
-0.19379842281341553 0.06528910249471664 0.8914728164672852
-0.19379842281341553 0.07136953622102737 0.5503876209259033
-0.19379842281341553 0.08060415089130402 0.5658915042877197
-0.19379842281341553 0.0784006267786026 0.6899224519729614
-0.19379842281341553 0.08783215284347534 0.5813953876495361
-0.19379842281341553 0.09086392819881439 0.5968992710113525
-0.19379842281341553 0.09327799081802368 0.612403154373169
-0.19379842281341553 0.09594008326530457 0.6279069185256958
-0.19379842281341553 0.0978153645992279 0.6434108018875122
-0.19379842281341553 0.09749956429004669 0.6589146852493286
-0.19379842281341553 0.09061568975448608 0.674418568611145
-0.19379842281341553 0.08777908235788345 0.8604651689529419
-0.19379842281341553 0.11062024533748627 0.6279069185256958
-0.19379842281341553 0.10279424488544464 0.6434108018875122
-0.19379842281341553 0.1024101972579956 0.6589146852493286
-0.19379842281341553 0.10929898917675018 0.674418568611145
-0.19379842281341553 0.11381831020116806 0.9069766998291016
-0.19379842281341553 0.12627705931663513 0.6899224519729614
-0.19379842281341553 0.13593193888664246 0.612403154373169
-0.19379842281341553 0.13603521883487701 0.8759689331054688
-0.19379842281341553 0.162772998213768 0.7054263353347778
-0.19379842281341553 0.15351736545562744 0.8914728164672852
-0.19379843771457672 0.15145134925842285 0.9069767594337463
-0.19379842281341553 0.2398863136768341 0.7054263353347778
-0.19379842281341553 0.242145374417305 0.612403154373169
-0.19379842281341553 0.2577820122241974 0.6279069185256958
-0.19379842281341553 0.2652052938938141 0.6434108018875122
-0.19379842281341553 0.26937058568000793 0.6589146852493286
-0.19379842281341553 0.26836004853248596 0.674418568611145
-0.19379842281341553 0.2640727758407593 0.6899224519729614
-0.1782945990562439 -0.17030437290668488 0.6434108018875122
-0.1782945990562439 -0.1744578629732132 0.6589146852493286
-0.1782945990562439 -0.16200608015060425 0.674418568611145
-0.1782945990562439 -0.14206147193908691 0.6434108018875122
-0.1782945990562439 -0.13340961933135986 0.6589146852493286
-0.1782945990562439 -0.14386311173439026 0.674418568611145
-0.1782945990562439 -0.1429322510957718 0.8604651689529419
-0.1782945990562439 -0.11784616112709045 0.8449612855911255
-0.1782945990562439 -0.08788217604160309 0.6279069185256958
-0.1782945990562439 -0.09047158807516098 0.6434108018875122
-0.1782945990562439 -0.0928274393081665 0.6589146852493286
-0.1782945990562439 -0.09486955404281616 0.674418568611145
-0.1782945990562439 -0.09364022314548492 0.6899224519729614
-0.1782945990562439 -0.07080843299627304 0.5813953876495361
-0.1782945990562439 -0.07484717667102814 0.5968992710113525
-0.1782945990562439 -0.08174966275691986 0.612403154373169
-0.1782945990562439 -0.08001742511987686 0.7054263353347778
-0.1782945990562439 -0.060134340077638626 0.5658915042877197
-0.1782945990562439 -0.048318713903427124 0.7209302186965942
-0.1782945990562439 -0.03838774189352989 0.5503876209259033
-0.1782945990562439 -0.0261386726051569 0.8449612855911255
-0.1782945990562439 -0.027864782139658928 0.8604651689529419
-0.1782945990562439 -0.011987841688096523 0.5348837375640869
-0.1782945990562439 0.005874711088836193 0.5038759708404541
-0.1782945990562439 0.0008450832683593035 0.5193798542022705
-0.1782945990562439 0.024722043424844742 0.7209302186965942
-0.1782945990562439 0.02963963896036148 0.8604652285575867
-0.1782945990562439 0.038767457008361816 0.5038759708404541
-0.1782945990562439 0.05080164223909378 0.5193798542022705
-0.1782945990562439 0.04979654401540756 0.8759689331054688
-0.1782945990562439 0.06198694556951523 0.5348837375640869
-0.1782945990562439 0.05526694655418396 0.7054263353347778
-0.1782945990562439 0.07437093555927277 0.5503876209259033
-0.1782945990562439 0.08138702064752579 0.6589146852493286
-0.1782945990562439 0.0791131928563118 0.674418568611145
-0.1782945990562439 0.0728011429309845 0.6899224519729614
-0.1782945990562439 0.08710155636072159 0.5658915042877197
-0.1782945990562439 0.09266383200883865 0.5813953876495361
-0.1782945990562439 0.0967802181839943 0.5968992710113525
-0.1782945990562439 0.09827658534049988 0.612403154373169
-0.1782945990562439 0.09784446656703949 0.6279069185256958
-0.1782945990562439 0.09131249785423279 0.6434108018875122
-0.1782945990562439 0.09251074492931366 0.8914728164672852
-0.1782945990562439 0.10452849417924881 0.6279069185256958
-0.1782945990562439 0.10343218594789505 0.6434108018875122
-0.1782945990562439 0.10365159809589386 0.6589146852493286
-0.1782945990562439 0.10855292528867722 0.674418568611145
-0.1782945990562439 0.12384695559740067 0.612403154373169
-0.1782945841550827 0.12026847898960114 0.6899223923683167
-0.1782945990562439 0.13138942420482635 0.8604651689529419
-0.1782945990562439 0.14350230991840363 0.7054263353347778
-0.1782945990562439 0.15569645166397095 0.5968992710113525
-0.1782945990562439 0.14962652325630188 0.8759689331054688
-0.1782945990562439 0.15293458104133606 0.8914728164672852
-0.1782945990562439 0.20444366335868835 0.5968992710113525
-0.1782945990562439 0.2300320863723755 0.612403154373169
-0.1782945990562439 0.23575539886951447 0.7054263353347778
-0.1782945990562439 0.24284088611602783 0.6279069185256958
-0.1782945990562439 0.24791423976421356 0.6434108018875122
-0.1782945990562439 0.25052547454833984 0.6589146852493286
-0.1782945990562439 0.25055474042892456 0.674418568611145
-0.1782945990562439 0.24777540564537048 0.6899224519729614
-0.1627907156944275 -0.19449011981487274 0.751937985420227
-0.1627907156944275 -0.19429677724838257 0.7674418687820435
-0.1627907156944275 -0.18116198480129242 0.751937985420227
-0.16279073059558868 -0.17729893326759338 0.7674418687820435
-0.1627907156944275 -0.16355448961257935 0.8604651689529419
-0.1627907156944275 -0.14882341027259827 0.8449612855911255
-0.1627907156944275 -0.12950262427330017 0.8294574022293091
-0.1627907156944275 -0.12199797481298447 0.8604651689529419
-0.1627907156944275 -0.1026618629693985 0.6589146852493286
-0.1627907156944275 -0.10616329312324524 0.674418568611145
-0.1627907156944275 -0.10704296827316284 0.6899224519729614
-0.1627907156944275 -0.10293015837669373 0.7054263353347778
-0.1627907156944275 -0.08724131435155869 0.612403154373169
-0.1627907156944275 -0.09192875027656555 0.6279069185256958
-0.1627907156944275 -0.09686630219221115 0.6434108018875122
-0.1627907156944275 -0.08595199882984161 0.7209302186965942
-0.1627907156944275 -0.07155484706163406 0.5658915042877197
-0.1627907156944275 -0.07504857331514359 0.5813953876495361
-0.1627907156944275 -0.07931438088417053 0.5968992710113525
-0.1627907156944275 -0.056658871471881866 0.5193798542022705
-0.1627907156944275 -0.05946963652968407 0.5348837375640869
-0.1627907156944275 -0.06428420543670654 0.5503876209259033
-0.1627907156944275 -0.05607931688427925 0.7364341020584106
-0.1627907156944275 -0.049705132842063904 0.5038759708404541
-0.1627907156944275 -0.04824509471654892 0.8294574022293091
-0.1627907156944275 -0.016968127340078354 0.4883720874786377
-0.1627907156944275 -0.019467217847704887 0.8449612855911255
-0.1627907156944275 4.4121406972408295e-05 0.4728682041168213
-0.1627907156944275 0.018173178657889366 0.4573643207550049
-0.1627907156944275 0.012661920860409737 0.7364341020584106
-0.1627907007932663 0.023794062435626984 0.4573643207550049
-0.1627907156944275 0.03646436333656311 0.4728682041168213
-0.1627907156944275 0.02777089923620224 0.7209302186965942
-0.1627907156944275 0.03369143232703209 0.8449612855911255
-0.1627907156944275 0.03559727221727371 0.8604651689529419
-0.1627907156944275 0.04344475641846657 0.4883720874786377
-0.1627907156944275 0.05208363011479378 0.5038759708404541
-0.1627907156944275 0.04714388772845268 0.7054263353347778
-0.1627907007932663 0.056352660059928894 0.5193798542022705
-0.1627907156944275 0.06363937258720398 0.5348837375640869
-0.1627907156944275 0.06261827796697617 0.6899224519729614
-0.1627907156944275 0.07421144098043442 0.5503876209259033
-0.1627907156944275 0.08508747071027756 0.6434108018875122
-0.1627907156944275 0.07664817571640015 0.6589146852493286
-0.1627907156944275 0.07206543534994125 0.674418568611145
-0.1627907156944275 0.07778415083885193 0.8759689331054688
-0.1627907156944275 0.08717060834169388 0.5658915042877197
-0.1627907156944275 0.09422612190246582 0.5813953876495361
-0.1627907156944275 0.08574462682008743 0.6434108018875122
-0.1627907156944275 0.09661975502967834 0.6589146852493286
-0.1627907156944275 0.10195701569318771 0.5968992710113525
-0.1627907156944275 0.10415571182966232 0.674418568611145
-0.1627907156944275 0.11358467489480972 0.6899224519729614
-0.1627907156944275 0.1314323991537094 0.7054263353347778
-0.1627907156944275 0.11734957993030548 0.8449612855911255
-0.1627907156944275 0.13208329677581787 0.5968992710113525
-0.1627907156944275 0.14111781120300293 0.8604651689529419
-0.1627907156944275 0.15006984770298004 0.8759689331054688
-0.1627907156944275 0.20450326800346375 0.5968992710113525
-0.1627907156944275 0.2214818000793457 0.612403154373169
-0.1627907156944275 0.22826264798641205 0.6279069185256958
-0.1627907156944275 0.23168747127056122 0.6434108018875122
-0.1627907156944275 0.23287561535835266 0.6589146852493286
-0.1627907156944275 0.23249304294586182 0.674418568611145
-0.1627907156944275 0.23050960898399353 0.6899224519729614
-0.16279073059558868 0.22555877268314362 0.7054263353347778
-0.14728683233261108 -0.19605745375156403 0.7364341020584106
-0.14728683233261108 -0.2033899426460266 0.751937985420227
-0.14728683233261108 -0.20598053932189941 0.7674418687820435
-0.14728683233261108 -0.19944170117378235 0.7829457521438599
-0.14728683233261108 -0.1905600130558014 0.7984496355056763
-0.14728683233261108 -0.18045786023139954 0.8449612855911255
-0.14728683233261108 -0.1911596804857254 0.8604651689529419
-0.14728683233261108 -0.1729811429977417 0.7364341020584106
-0.14728683233261108 -0.1725136786699295 0.8139535188674927
-0.14728683233261108 -0.17103604972362518 0.8294574022293091
-0.14728683233261108 -0.15459144115447998 0.751937985420227
-0.14728683233261108 -0.15831449627876282 0.8604651689529419
-0.14728683233261108 -0.1333785057067871 0.7674418687820435
-0.14728683233261108 -0.10503863543272018 0.7829457521438599
-0.14728683233261108 -0.08727061748504639 0.6279069185256958
-0.14728683233261108 -0.08968868851661682 0.6434108018875122
-0.14728683233261108 -0.09220549464225769 0.6589146852493286
-0.14728683233261108 -0.09426216781139374 0.674418568611145
-0.14728683233261108 -0.09569359570741653 0.6899224519729614
-0.14728683233261108 -0.09682612121105194 0.7054263353347778
-0.14728683233261108 -0.0949506163597107 0.7209302186965942
-0.14728683233261108 -0.08594917505979538 0.7364341020584106
-0.14728683233261108 -0.09947869181632996 0.8449612855911255
-0.14728683233261108 -0.07401712238788605 0.5038759708404541
-0.14728683233261108 -0.07625573873519897 0.5193798542022705
-0.14728683233261108 -0.07463330030441284 0.5348837375640869
-0.14728683233261108 -0.07323865592479706 0.5503876209259033
-0.14728683233261108 -0.0737563967704773 0.5658915042877197
-0.14728683233261108 -0.07486308366060257 0.5813953876495361
-0.14728683233261108 -0.0771317183971405 0.5968992710113525
-0.14728683233261108 -0.08277197182178497 0.612403154373169
-0.14728683233261108 -0.07049164175987244 0.751937985420227
-0.14728683233261108 -0.06249503791332245 0.4883720874786377
-0.14728683233261108 -0.0601014718413353 0.7674418687820435
-0.14728683233261108 -0.05772899091243744 0.7829457521438599
-0.14728683233261108 -0.04743475839495659 0.4728682041168213
-0.14728683233261108 -0.050007015466690063 0.7984496355056763
-0.14728683233261108 -0.026608098298311234 0.4573643207550049
-0.14728683233261108 -0.037706512957811356 0.8139535188674927
-0.14728683233261108 -0.02474963106215 0.8294574022293091
-0.14728683233261108 -0.009267549961805344 0.4418604373931885
-0.14728683233261108 0.0069404467940330505 0.41085267066955566
-0.14728683233261108 0.002561774803325534 0.42635655403137207
-0.14728683233261108 0.025025229901075363 0.41085267066955566
-0.14728683233261108 0.0284697487950325 0.42635655403137207
-0.14728683233261108 0.03711333125829697 0.4418604373931885
-0.14728683233261108 0.032375626266002655 0.7209302186965942
-0.14728683233261108 0.029731405898928642 0.7364341020584106
-0.14728683233261108 0.033399879932403564 0.7829457521438599
-0.14728683233261108 0.03476373106241226 0.8449612855911255
-0.14728683233261108 0.04141014814376831 0.4573643207550049
-0.14728683233261108 0.04975776746869087 0.4728682041168213
-0.14728683233261108 0.04337659478187561 0.7054263353347778
-0.1472868174314499 0.039881762117147446 0.7519379258155823
-0.14728683233261108 0.04333728551864624 0.7674419283866882
-0.14728683233261108 0.05597042292356491 0.4883720874786377
-0.14728683233261108 0.057959944009780884 0.5038759708404541
-0.14728683233261108 0.059413935989141464 0.5193798542022705
-0.14728683233261108 0.06394000351428986 0.5348837375640869
-0.14728683233261108 0.06284185498952866 0.674418568611145
-0.14728683233261108 0.056512512266635895 0.6899224519729614
-0.14728683233261108 0.059828732162714005 0.8294574022293091
-0.14728683233261108 0.06381180882453918 0.8604651689529419
-0.14728683233261108 0.07209978997707367 0.5503876209259033
-0.14728683233261108 0.08475853502750397 0.5658915042877197
-0.14728683233261108 0.07024876773357391 0.6589146852493286
-0.14728683233261108 0.09234602004289627 0.5813953876495361
-0.14728683233261108 0.09241638332605362 0.6589146852493286
-0.14728683233261108 0.10042676329612732 0.8294574022293091
-0.14728683233261108 0.10682938992977142 0.5968992710113525
-0.14728683233261108 0.10222145169973373 0.674418568611145
-0.14728683233261108 0.11393659561872482 0.6899224519729614
-0.14728683233261108 0.1154366135597229 0.8759689331054688
-0.14728683233261108 0.12304207682609558 0.5968992710113525
-0.14728683233261108 0.1316448599100113 0.7054263353347778
-0.14728683233261108 0.12869136035442352 0.8449612855911255
-0.14728683233261108 0.1475219875574112 0.8604651689529419
-0.14728683233261108 0.14766472578048706 0.8759689331054688
-0.14728683233261108 0.19538889825344086 0.5968992710113525
-0.14728683233261108 0.2060232162475586 0.612403154373169
-0.14728683233261108 0.20375800132751465 0.7054263353347778
-0.14728683233261108 0.21120183169841766 0.6279069185256958
-0.14728683233261108 0.21287879347801208 0.6434108018875122
-0.14728683233261108 0.2132280468940735 0.6589146852493286
-0.14728683233261108 0.21234774589538574 0.674418568611145
-0.14728683233261108 0.21087011694908142 0.6899224519729614
-0.13178294897079468 -0.2111777812242508 0.751937985420227
-0.13178294897079468 -0.21254228055477142 0.7674418687820435
-0.13178294897079468 -0.2118784338235855 0.7829457521438599
-0.13178294897079468 -0.2139582335948944 0.8604651689529419
-0.13178294897079468 -0.19833645224571228 0.7364341020584106
-0.13178294897079468 -0.20814286172389984 0.7984496355056763
-0.13178294897079468 -0.1981392502784729 0.8139535188674927
-0.13178294897079468 -0.1971636563539505 0.8294574022293091
-0.13178294897079468 -0.20247256755828857 0.8449612855911255
-0.13178294897079468 -0.18067818880081177 0.8604651689529419
-0.13178294897079468 -0.16784702241420746 0.7364341020584106
-0.13178294897079468 -0.14289335906505585 0.8449612855911255
-0.13178294897079468 -0.10268799215555191 0.7364341020584106
-0.13178294897079468 -0.08534203469753265 0.7054263353347778
-0.13178294897079468 -0.08896665275096893 0.7209302186965942
-0.13178294897079468 -0.07093469798564911 0.4883720874786377
-0.13178294897079468 -0.07583426684141159 0.5038759708404541
-0.13178294897079468 -0.07601839303970337 0.5193798542022705
-0.13178294897079468 -0.0733233317732811 0.5348837375640869
-0.13178294897079468 -0.0709361732006073 0.5503876209259033
-0.13178294897079468 -0.07037797570228577 0.5658915042877197
-0.13178294897079468 -0.07061168551445007 0.5813953876495361
-0.13178294897079468 -0.07167012989521027 0.5968992710113525
-0.13178294897079468 -0.07363583892583847 0.612403154373169
-0.13178294897079468 -0.07561963051557541 0.6279069185256958
-0.13178294897079468 -0.07730202376842499 0.6434108018875122
-0.13178294897079468 -0.07929002493619919 0.6589146852493286
-0.13178294897079468 -0.08105149865150452 0.674418568611145
-0.13178294897079468 -0.08241366595029831 0.6899224519729614
-0.13178294897079468 -0.05691288411617279 0.4728682041168213
-0.13178294897079468 -0.0430716872215271 0.4573643207550049
-0.13178294897079468 -0.0279604010283947 -0.9844961166381836
-0.13178294897079468 -0.023397007957100868 0.42635655403137207
-0.13178294897079468 -0.030794966965913773 0.4418604373931885
-0.13178294897079468 -0.01347152516245842 0.41085267066955566
-0.13178294897079468 0.00693836435675621 -0.9689922332763672
-0.13178294897079468 0.005014311522245407 0.37984490394592285
-0.13178294897079468 -0.007469307631254196 0.39534881711006165
-0.13178294897079468 0.000760628841817379 0.8294574022293091
-0.13178294897079468 0.011941089294850826 -0.9689922332763672
-0.13178294897079468 0.01857220195233822 0.8294574022293091
-0.13178294897079468 0.024781208485364914 0.37984490394592285
-0.13178294897079468 0.02875535748898983 0.39534878730773926
-0.13178294897079468 0.03559248894453049 0.41085267066955566
-0.13178294897079468 0.03987827152013779 0.42635655403137207
-0.13178294897079468 0.042550936341285706 0.4418604373931885
-0.13178294897079468 0.050732653588056564 0.4573643207550049
-0.13178294897079468 0.052424512803554535 0.6899224519729614
-0.13178294897079468 0.044153012335300446 0.7054263353347778
-0.13178294897079468 0.047540925443172455 0.7209302186965942
-0.13178294897079468 0.051461562514305115 0.8449612855911255
-0.13178294897079468 0.055439699441194534 -0.9844961166381836
-0.13178294897079468 0.05630030483007431 0.4728681743144989
-0.13178294897079468 0.05948548763990402 0.4883720576763153
-0.13178294897079468 0.06208651512861252 0.5038759708404541
-0.13178294897079468 0.06198503449559212 0.5193798542022705
-0.13178294897079468 0.06346509605646133 0.5348837375640869
-0.13178294897079468 0.06916429847478867 0.6589146852493286
-0.13178294897079468 0.059290312230587006 0.674418568611145
-0.13178294897079468 0.06159306690096855 0.7364341020584106
-0.13178294897079468 0.07042761892080307 0.5503876209259033
-0.13178294897079468 0.07867622375488281 0.5658915042877197
-0.13178294897079468 0.07535529881715775 0.751937985420227
-0.13178294897079468 0.08151981979608536 0.7674418687820435
-0.13178294897079468 0.07973580807447433 0.7829457521438599
-0.13178294897079468 0.07667312026023865 0.7984496355056763
-0.13178294897079468 0.08838959783315659 0.5813953876495361
-0.13178294897079468 0.09582668542861938 0.5968992710113525
-0.13178294897079468 0.08911330997943878 0.6589146852493286
-0.13178294897079468 0.09084715694189072 0.8139534592628479
-0.13178294897079468 0.09606833010911942 0.8604651689529419
-0.13178294897079468 0.10750951617956161 0.674418568611145
-0.13178294897079468 0.12756776809692383 0.6899224519729614
