-0.13178294897079468 -0.03871151804924011 -0.1627907156944275
-0.13178294897079468 -0.03791419044137001 -0.1472868174314499
-0.13178294897079468 -0.03799835965037346 -0.13178294897079468
-0.13178294897079468 -0.036383938044309616 -0.11627906560897827
-0.13178294897079468 -0.03313591703772545 -0.10077518224716187
-0.13178294897079468 -0.028089668601751328 -0.08527129888534546
-0.13178294897079468 -0.02491406537592411 0.24031007289886475
-0.13178294897079468 -0.027026746422052383 0.25581395626068115
-0.13178294897079468 -0.02741999365389347 0.27131783962249756
-0.13178294897079468 -0.025820977985858917 0.28682172298431396
-0.13178294897079468 -0.02358698472380638 0.30232560634613037
-0.13178294897079468 -0.024518076330423355 0.5038759708404541
-0.13178294897079468 -0.033178601413965225 0.5193798542022705
-0.13178294897079468 -0.01165563054382801 -0.9069767594337463
-0.13178294897079468 -0.009001240134239197 -0.24031007289886475
-0.13178294897079468 -0.011022230610251427 -0.22480618953704834
-0.13178294897079468 -0.012292424216866493 -0.20930230617523193
-0.13178294897079468 -0.012640800327062607 -0.19379842281341553
-0.13178294897079468 -0.0135794747620821 -0.1782945990562439
-0.13178294897079468 -0.013004442676901817 -0.1627907156944275
-0.13178294897079468 -0.01377745158970356 -0.14728683233261108
-0.13178294897079468 -0.013878421857953072 -0.13178294897079468
-0.13178294897079468 -0.014764649793505669 -0.11627906560897827
-0.13178294897079468 -0.016658751294016838 -0.10077518224716187
-0.13178294897079468 -0.01991422474384308 -0.08527129888534546
-0.13178294897079468 -0.013224491849541664 0.3178294897079468
-0.13178294897079468 0.005276394076645374 -0.9379844665527344
-0.13178294897079468 -0.0017864387482404709 -0.922480583190918
-0.13178294897079468 0.0077127935364842415 -0.6899224519729614
-0.13178294897079468 0.007414641790091991 -0.674418568611145
-0.13178294897079468 0.00723473634570837 -0.6589146852493286
-0.13178294897079468 0.0069105662405490875 -0.643410861492157
-0.13178294897079468 0.006795436143875122 -0.6279069781303406
-0.13178294897079468 0.00619707815349102 -0.6124030947685242
-0.13178294897079468 0.005964827723801136 -0.5968992114067078
-0.13178294897079468 0.0058672185987234116 -0.5813953876495361
-0.13178294897079468 0.0058710165321826935 -0.5658915042877197
-0.13178294897079468 0.005871901288628578 -0.5503876209259033
-0.13178294897079468 0.006085064262151718 -0.5348837375640869
-0.13178294897079468 0.006486786529421806 -0.5193798542022705
-0.13178294897079468 0.006549284793436527 -0.5038759708404541
-0.13178294897079468 0.006403455510735512 -0.4883720874786377
-0.13178294897079468 0.005912009626626968 -0.4728682041168213
-0.13178294897079468 0.005347260273993015 -0.4573643207550049
-0.13178294897079468 0.004669736139476299 -0.4418604373931885
-0.13178294897079468 0.00377569068223238 -0.42635661363601685
-0.13178294897079468 0.0029183123260736465 -0.41085273027420044
-0.13178294897079468 0.0020468393340706825 -0.39534884691238403
-0.13178294897079468 0.0012802490964531898 -0.3798449635505676
-0.13178294897079468 0.00024256971664726734 -0.3643410801887512
-0.13178294897079468 -0.0007604705169796944 -0.3488371968269348
-0.13178294897079468 -0.001644081436097622 -0.3333333134651184
-0.13178294897079468 -0.0029187342151999474 -0.317829430103302
-0.13178294897079468 -0.003716557053849101 -0.30232560634613037
-0.13178294897079468 -0.005315195769071579 -0.28682172298431396
-0.13178294897079468 -0.006478477269411087 -0.27131783962249756
-0.13178294897079468 -0.00745348259806633 -0.25581395626068115
-0.13178294897079468 -0.007428618147969246 0.24031007289886475
-0.13178294897079468 -0.0018120023887604475 0.25581395626068115
-0.13178294897079468 0.0069117359817028046 0.27131783962249756
-0.13178294897079468 0.0009989992249757051 0.3333333730697632
-0.13178294897079468 -0.002405597595497966 0.5038759708404541
-0.13178294897079468 0.004070788621902466 0.5813953876495361
-0.13178294897079468 0.0013775888364762068 0.5968992710113525
-0.13178294897079468 0.0004929222632199526 0.612403154373169
-0.13178294897079468 0.004367007873952389 0.6279069185256958
-0.13178294897079468 0.017234748229384422 -0.9844961166381836
-0.13178294897079468 0.012499477714300156 -0.953488290309906
-0.13178294897079468 0.020349597558379173 -0.8294573426246643
-0.13178294897079468 0.018450748175382614 -0.8139535188674927
-0.13178294897079468 0.016505373641848564 -0.7984496355056763
-0.13178294897079468 0.013968676328659058 -0.7829457521438599
-0.13178294897079468 0.01170518808066845 -0.7674418687820435
-0.13178294897079468 0.009927846491336823 -0.751937985420227
-0.13178294897079468 0.008908651769161224 -0.7364341020584106
-0.13178293406963348 0.008115855045616627 -0.7209302186965942
-0.13178293406963348 0.007853508926928043 -0.7054263353347778
-0.13178294897079468 0.01096329465508461 0.28682172298431396
-0.13178294897079468 0.018435191363096237 0.30232560634613037
-0.13178294897079468 0.022705795243382454 0.3178294897079468
-0.13178294897079468 0.01824072189629078 0.3333333730697632
-0.13178294897079468 0.0078101144172251225 0.5193798542022705
-0.13178294897079468 0.008543348871171474 0.5348836779594421
-0.13178294897079468 0.008723195642232895 0.5503876209259033
-0.13178294897079468 0.007941610179841518 0.5658915042877197
-0.13178294897079468 0.0096288388594985 0.6434108018875122
-0.13178294897079468 0.01826593652367592 0.6589146852493286
-0.13178294897079468 0.02406439557671547 -0.9689922332763672
-0.13178294897079468 0.03682124242186546 -0.9379844665527344
-0.13178294897079468 0.03400060161948204 -0.9224807024002075
-0.13178294897079468 0.03244548290967941 -0.9069766998291016
-0.13178294897079468 0.030473336577415466 -0.8914728760719299
-0.13178294897079468 0.02829190343618393 -0.8759690523147583
-0.13178294897079468 0.02574216015636921 -0.8604651093482971
-0.13178294897079468 0.023432519286870956 -0.8449611663818359
-0.13178294897079468 0.03842957317829132 0.674418568611145
-0.13178294897079468 0.0457862988114357 -0.9844961166381836
-0.13178294897079468 0.041346512734889984 -0.9689922332763672
-0.13178294897079468 0.039608269929885864 -0.9534884095191956
-0.13178294897079468 0.050433315336704254 0.6899224519729614
-0.13178294897079468 0.056877896189689636 0.7054263353347778
-0.13178294897079468 0.06035520136356354 0.7209302186965942
-0.13178294897079468 0.06484117358922958 0.7364341020584106
-0.13178294897079468 0.05511518567800522 0.8139535188674927
-0.13178294897079468 0.07027760148048401 0.751937985420227
-0.13178294897079468 0.07533003389835358 0.7674418687820435
-0.13178294897079468 0.09749220311641693 0.7829457521438599
-0.13178294897079468 0.09472524374723434 0.8294574022293091
-0.13178294897079468 0.1627519279718399 0.8449612855911255
-0.13178294897079468 0.16861280798912048 0.7984496355056763
-0.13178294897079468 0.20894381403923035 0.8139535188674927
-0.13178294897079468 0.22986122965812683 0.8604651689529419
-0.13178294897079468 0.2640324831008911 0.8604651689529419
-0.13178294897079468 0.31413668394088745 0.8294574022293091
-0.13178294897079468 0.3041904866695404 0.8449612855911255
-0.13178294897079468 0.49882441759109497 0.7674418687820435
-0.13178294897079468 0.5060194730758667 0.751937985420227
-0.13178294897079468 0.5308054685592651 0.7364341020584106
-0.13178294897079468 0.5270490050315857 0.7674418687820435
-0.13178294897079468 0.56135493516922 0.7209302186965942
-0.13178294897079468 0.5789216756820679 0.751937985420227
-0.13178294897079468 0.5943719744682312 0.7054263353347778
-0.13178294897079468 0.6082504391670227 0.7364341020584106
-0.13178294897079468 0.624668538570404 0.6899224519729614
-0.13178294897079468 0.6271600723266602 0.7209302186965942
-0.13178294897079468 0.641836941242218 0.7054263353347778
-0.13178294897079468 0.6450640559196472 0.674418568611145
-0.13178294897079468 0.6542084813117981 0.6899224519729614
-0.13178294897079468 0.6685192584991455 0.6589146852493286
-0.13178294897079468 0.6661804914474487 0.674418568611145
-0.13178294897079468 0.6758999824523926 0.6589146852493286
-0.11627906560897827 -0.2616577446460724 -0.9844961166381836
-0.11627906560897827 -0.24931900203227997 -0.9689922332763672
-0.11627906560897827 -0.2416532039642334 -0.9534883499145508
-0.11627906560897827 -0.23142322897911072 -0.9379844665527344
-0.11627906560897827 -0.22353820502758026 -0.9224806427955627
-0.11627906560897827 -0.21450060606002808 -0.9069766998291016
-0.11627906560897827 -0.19662019610404968 -0.9689922332763672
-0.11627906560897827 -0.2065269500017166 -0.8914728164672852
-0.11627906560897827 -0.1994556039571762 -0.8759689927101135
-0.11627906560897827 -0.19413499534130096 0.7674418687820435
-0.11627906560897827 -0.19291307032108307 -0.8604651093482971
-0.11627906560897827 -0.18546658754348755 -0.8449612259864807
-0.11627906560897827 -0.18071311712265015 -0.8294573426246643
-0.11627906560897827 -0.17920227348804474 0.751937985420227
-0.11627906560897827 -0.18001019954681396 0.7829457521438599
-0.11627906560897827 -0.1705961525440216 -0.9844961166381836
-0.11627906560897827 -0.17371931672096252 -0.8139535188674927
-0.11627906560897827 -0.16882720589637756 -0.7984496355056763
-0.11627906560897827 -0.16553424298763275 -0.7829457521438599
-0.11627906560897827 -0.16087715327739716 -0.7674418687820435
-0.11627906560897827 -0.15545925498008728 -0.751937985420227
-0.11627906560897827 -0.15241679549217224 -0.7364341020584106
-0.11627906560897827 -0.1501448154449463 -0.7209302186965942
-0.11627906560897827 -0.14769817888736725 -0.7054263353347778
-0.11627906560897827 -0.15644364058971405 0.7364341020584106
-0.11627906560897827 -0.14337323606014252 -0.6899224519729614
-0.11627906560897827 -0.14090241491794586 -0.674418568611145
-0.11627906560897827 -0.13867278397083282 -0.6589146852493286
-0.11627906560897827 -0.13622671365737915 -0.643410861492157
-0.11627906560897827 -0.1340693235397339 -0.6279069781303406
-0.11627906560897827 -0.1409641057252884 0.7209302186965942
-0.11627906560897827 -0.11961855739355087 -0.9534883499145508
-0.11627906560897827 -0.13162538409233093 -0.6124030947685242
-0.11627906560897827 -0.1283981055021286 -0.5968992114067078
-0.11627906560897827 -0.126278355717659 -0.5813953876495361
-0.11627906560897827 -0.12418536096811295 -0.5658915042877197
-0.11627906560897827 -0.12137703597545624 -0.5503876209259033
-0.11627906560897827 -0.11880120635032654 -0.5348837375640869
-0.11627906560897827 -0.11644324660301208 -0.5193798542022705
-0.11627906560897827 -0.12794888019561768 0.7054263353347778
-0.11627907305955887 -0.11250102519989014 -0.5038759708404541
-0.11627906560897827 -0.10990116000175476 -0.4883720874786377
-0.11627906560897827 -0.10649320483207703 -0.4728682041168213
-0.11627906560897827 -0.10284480452537537 -0.4573643207550049
-0.11627905815839767 -0.11242111027240753 0.6899224519729614
-0.11627906560897827 -0.09921470284461975 -0.4418604075908661
-0.11627906560897827 -0.09484468400478363 -0.42635661363601685
-0.11627906560897827 -0.09086810052394867 -0.41085273027420044
-0.11627906560897827 -0.08672533929347992 -0.39534884691238403
-0.11627906560897827 -0.0921761617064476 0.674418568611145
-0.11627906560897827 -0.08188110589981079 -0.9379844665527344
-0.11627906560897827 -0.08345109224319458 -0.3798449635505676
-0.11627906560897827 -0.08023780584335327 -0.3643410801887512
-0.11627906560897827 -0.07784707844257355 -0.3488371968269348
-0.11627906560897827 -0.07522163540124893 -0.3333333134651184
-0.11627906560897827 -0.07262349128723145 -0.317829430103302
-0.11627906560897827 -0.07126618921756744 -0.30232560634613037
-0.11627906560897827 -0.0698913037776947 -0.28682172298431396
-0.11627906560897827 -0.07018477469682693 0.6434108018875122
-0.11627906560897827 -0.07642166316509247 0.6589146852493286
-0.11627906560897827 -0.06134301424026489 -0.9224806427955627
-0.11627905815839767 -0.06850717216730118 -0.27131783962249756
-0.11627906560897827 -0.06731085479259491 -0.25581395626068115
-0.11627905815839767 -0.06633994728326797 -0.24031007289886475
-0.11627906560897827 -0.06537041813135147 -0.22480618953704834
-0.11627906560897827 -0.06491123139858246 -0.20930230617523193
-0.11627906560897827 -0.06482590734958649 -0.19379842281341553
-0.11627906560897827 -0.06445776671171188 -0.1782945990562439
-0.11627906560897827 -0.06460916996002197 -0.1627907156944275
-0.11627906560897827 -0.06433285027742386 -0.14728683233261108
-0.11627906560897827 -0.06418031454086304 -0.13178294897079468
-0.11627906560897827 -0.06351494789123535 -0.11627906560897827
-0.11627906560897827 -0.06253118067979813 -0.10077518224716187
-0.11627906560897827 -0.061101172119379044 -0.08527129888534546
-0.11627906560897827 -0.05862948298454285 -0.06976741552352905
-0.11627906560897827 -0.056201279163360596 -0.05426359176635742
-0.11627906560897827 -0.05641670897603035 0.02325582504272461
-0.11627906560897827 -0.058400556445121765 0.038759708404541016
-0.11627906560897827 -0.057121165096759796 0.05426359176635742
-0.11627906560897827 -0.05514346808195114 0.06976747512817383
-0.11627906560897827 -0.05490037053823471 0.08527135848999023
-0.11627906560897827 -0.05488109588623047 0.10077524185180664
-0.11627906560897827 -0.05473725497722626 0.11627912521362305
-0.11627906560897827 -0.05450301244854927 0.1317828893661499
-0.11627906560897827 -0.05431376025080681 0.1472867727279663
-0.11627906560897827 -0.054264750331640244 0.16279065608978271
-0.11627906560897827 -0.05434049293398857 0.19379842281341553
-0.11627906560897827 -0.054497599601745605 0.20930230617523193
-0.11627906560897827 -0.054679036140441895 0.22480618953704834
-0.11627906560897827 -0.05471132695674896 0.24031007289886475
-0.11627906560897827 -0.05464470386505127 0.25581395626068115
-0.11627906560897827 -0.054494500160217285 0.27131783962249756
-0.11627906560897827 -0.05436978489160538 0.5348837375640869
-0.11627906560897827 -0.0549226738512516 0.5503876209259033
-0.11627906560897827 -0.055419810116291046 0.5658915042877197
-0.11627906560897827 -0.05593588575720787 0.5813953876495361
-0.11627906560897827 -0.05672390013933182 0.5968992710113525
-0.11627906560897827 -0.05815564841032028 0.612403154373169
-0.11627906560897827 -0.06153854727745056 0.6279069185256958
-0.11627907305955887 -0.05424383655190468 -0.038759708404541016
-0.11627907305955887 -0.05196129530668259 -0.02325582504272461
-0.11627906560897827 -0.05138043314218521 -0.007751941680908203
-0.11627906560897827 -0.05325472727417946 0.007751941680908203
-0.11627906560897827 -0.05418793857097626 0.17829453945159912
-0.11627906560897827 -0.05387755110859871 0.2868216931819916
-0.11627907305955887 -0.05214817821979523 0.30232560634613037
-0.11627906560897827 -0.0494878888130188 0.3178294897079468
-0.11627906560897827 -0.04585912823677063 0.3333333730697632
-0.11627906560897827 -0.04187450557947159 0.3488372564315796
-0.11627906560897827 -0.03948928043246269 0.364341139793396
-0.11627906560897827 -0.03877082094550133 0.42635655403137207
-0.11627906560897827 -0.03903074562549591 0.4418604373931885
-0.11627906560897827 -0.03973306342959404 0.4573643207550049
-0.11627906560897827 -0.041597913950681686 0.4728682041168213
-0.11627906560897827 -0.0445939339697361 0.4883720874786377
-0.11627906560897827 -0.04747089371085167 0.5038759708404541
-0.11627907305955887 -0.051429808139801025 0.5193798542022705
-0.11627906560897827 -0.0351739376783371 -0.9069767594337463
-0.11627907305955887 -0.03752768412232399 0.37984490394592285
-0.11627906560897827 -0.03563884645700455 0.39534881711006165
-0.11627906560897827 -0.03711191192269325 0.41085267066955566
-0.11627906560897827 -0.03014891967177391 0.7984496355056763
-0.11627905815839767 -0.019390352070331573 -0.9069767594337463
-0.11627906560897827 0.0026342011988162994 -0.9379844665527344
-0.11627906560897827 -0.004585091024637222 -0.9224806427955627
-0.11627906560897827 0.0070451050996780396 -0.27131783962249756
-0.11627906560897827 0.00598544254899025 -0.25581395626068115
-0.11627906560897827 0.005188128910958767 -0.24031007289886475
-0.11627906560897827 0.0045621637254953384 -0.22480618953704834
-0.11627906560897827 0.004202188923954964 -0.20930230617523193
-0.11627906560897827 0.00419600959867239 -0.19379842281341553
-0.11627906560897827 0.004034685902297497 -0.1782945990562439
-0.11627906560897827 0.004028709605336189 -0.1627907156944275
-0.11627906560897827 0.003704475937411189 -0.14728683233261108
-0.11627906560897827 0.003516140626743436 -0.13178294897079468
-0.11627906560897827 0.003051501465961337 -0.11627906560897827
-0.11627906560897827 0.0024157424923032522 -0.10077518224716187
-0.11627906560897827 0.0015695702750235796 -0.08527129888534546
-0.11627906560897827 0.0004147365689277649 -0.06976741552352905
-0.11627906560897827 -0.00105315912514925 -0.05426359176635742
-0.11627906560897827 -0.0025979357305914164 -0.038759708404541016
-0.11627906560897827 -0.003602167358621955 -0.02325582504272461
-0.11627906560897827 -0.0035179697442799807 -0.007751941680908203
-0.11627907305955887 -0.0026479202788323164 0.007751941680908203
-0.11627906560897827 -0.001109581207856536 0.02325582504272461
-0.11627906560897827 0.00044139171950519085 0.038759708404541016
-0.11627906560897827 0.0013433508574962616 0.05426359176635742
-0.11627906560897827 0.002235446125268936 0.06976747512817383
-0.11627906560897827 0.0033791055902838707 0.08527135848999023
-0.11627906560897827 0.004861856810748577 0.10077524185180664
-0.11627906560897827 0.0063431356102228165 0.11627912521362305
-0.11627906560897827 0.012094803154468536 -0.9844961166381836
-0.11627906560897827 0.02141510881483555 -0.9689922332763672
-0.11627905815839767 0.009802121669054031 -0.9534883499145508
-0.11627906560897827 0.020822269842028618 -0.8139535188674927
-0.11627906560897827 0.01903115026652813 -0.7984496355056763
-0.11627906560897827 0.017651673406362534 -0.7829457521438599
-0.11627906560897827 0.015872273594141006 -0.7674418687820435
-0.11627906560897827 0.014203472062945366 -0.751937985420227
-0.11627906560897827 0.013297189027071 -0.7364341020584106
-0.11627906560897827 0.012632256373763084 -0.7209302186965942
-0.11627906560897827 0.012512372806668282 -0.7054263353347778
-0.11627906560897827 0.012582134455442429 -0.6899224519729614
-0.11627906560897827 0.012477753683924675 -0.674418568611145
-0.11627906560897827 0.01232541911303997 -0.6589146852493286
-0.11627906560897827 0.01206635870039463 -0.6434108018875122
-0.11627906560897827 0.012014979496598244 -0.6279069781303406
-0.11627906560897827 0.011462084949016571 -0.6124030947685242
-0.11627906560897827 0.011220455169677734 -0.5968992114067078
-0.11627907305955887 0.011183720082044601 -0.5813953876495361
-0.11627906560897827 0.011245403438806534 -0.5658915042877197
-0.11627906560897827 0.01128729060292244 -0.5503876209259033
-0.11627906560897827 0.011577248573303223 -0.5348837375640869
-0.11627905815839767 0.011957371607422829 -0.5193798542022705
-0.11627906560897827 0.011954812332987785 -0.5038759708404541
-0.11627905815839767 0.011752688325941563 -0.4883720874786377
-0.11627906560897827 0.011195837520062923 -0.4728682041168213
-0.11627906560897827 0.010546153411269188 -0.4573643207550049
-0.11627906560897827 0.00988849252462387 -0.4418604373931885
-0.11627906560897827 0.009200995787978172 -0.42635661363601685
-0.11627906560897827 0.008736147545278072 -0.41085273027420044
-0.11627906560897827 0.008482122793793678 -0.39534884691238403
-0.11627906560897827 0.00841581542044878 -0.3798449635505676
-0.11627906560897827 0.008372844196856022 -0.3643410801887512
-0.11627906560897827 0.008342730812728405 -0.3488371968269348
-0.11627906560897827 0.008328480646014214 -0.3333333134651184
-0.11627906560897827 0.008196077309548855 -0.317829430103302
-0.11627907305955887 0.008120520040392876 -0.30232560634613037
-0.11627906560897827 0.007804566994309425 -0.28682175278663635
-0.11627906560897827 0.007868686690926552 0.1317828744649887
-0.11627905815839767 0.008666849695146084 0.1472867727279663
-0.11627906560897827 0.01041843555867672 0.16279065608978271
-0.11627906560897827 0.013772925361990929 0.17829453945159912
-0.11627906560897827 0.018864672631025314 0.19379842281341553
-0.11627906560897827 0.03759084641933441 -0.9224806427955627
-0.11627906560897827 0.03489041328430176 -0.9069767594337463
-0.11627906560897827 0.03307735547423363 -0.8914728760719299
-0.11627906560897827 0.030733522027730942 -0.8759689331054688
-0.11627906560897827 0.028514111414551735 -0.8604650497436523
-0.11627906560897827 0.025911618024110794 -0.8449612259864807
-0.11627906560897827 0.02355467900633812 -0.8294572830200195
-0.11627906560897827 0.023929651826620102 0.20930230617523193
-0.11627906560897827 0.027097783982753754 0.22480618953704834
-0.11627906560897827 0.032085616141557693 0.24031007289886475
-0.11627906560897827 0.03855118155479431 0.25581395626068115
-0.11627906560897827 0.037968505173921585 0.5658915042877197
-0.11627906560897827 0.03612790256738663 0.5813953876495361
-0.11627906560897827 0.036518387496471405 0.5968992710113525
-0.11627906560897827 0.04803071171045303 -0.9844961166381836
-0.11627906560897827 0.04248059540987015 -0.9689922332763672
-0.11627906560897827 0.04104377329349518 -0.9534883499145508
-0.11627906560897827 0.039720650762319565 -0.9379844665527344
-0.11627906560897827 0.04078468307852745 0.27131783962249756
-0.11627906560897827 0.04425646364688873 0.28682172298431396
-0.11627906560897827 0.049079541116952896 0.30232560634613037
-0.11627906560897827 0.05369073152542114 0.3178294897079468
-0.11627906560897827 0.05161486193537712 0.39534878730773926
-0.11627906560897827 0.049823030829429626 0.41085267066955566
-0.11627906560897827 0.047968894243240356 0.42635655403137207
-0.11627906560897827 0.0467122346162796 0.4418604373931885
-0.11627906560897827 0.04601391404867172 0.4573643207550049
-0.11627906560897827 0.04618922621011734 0.4728682041168213
-0.11627906560897827 0.04749145358800888 0.4883720874786377
-0.11627906560897827 0.04958745464682579 0.5038759708404541
-0.11627906560897827 0.04795021936297417 0.5193798542022705
-0.11627906560897827 0.043690696358680725 0.5348837375640869
-0.11627905815839767 0.039920516312122345 0.5503876209259033
-0.11627906560897827 0.03975009173154831 0.612403154373169
-0.11627906560897827 0.04841205105185509 0.6279069185256958
-0.11627907305955887 0.05496129021048546 0.3333333730697632
-0.11627906560897827 0.055101241916418076 0.3488372564315796
-0.11627906560897827 0.054775483906269073 0.364341139793396
-0.11627906560897827 0.05433399975299835 0.37984490394592285
-0.11627906560897827 0.05756232142448425 0.6434108018875122
-0.11627906560897827 0.066094771027565 0.6589146852493286
-0.11627906560897827 0.06597643345594406 0.8139535188674927
-0.11627906560897827 0.07086929678916931 0.674418568611145
-0.11627906560897827 0.0722062885761261 0.6899224519729614
-0.11627906560897827 0.07432101666927338 0.7054263353347778
-0.11627906560897827 0.0763845443725586 0.7209302186965942
-0.11627906560897827 0.07855261862277985 0.7364341020584106
-0.11627906560897827 0.08419473469257355 0.751937985420227
-0.11627906560897827 0.09009557962417603 0.7674418687820435
-0.11627906560897827 0.1125468909740448 0.8294574022293091
-0.11627906560897827 0.1505470871925354 0.7829457521438599
-0.11627906560897827 0.18053998053073883 0.7984496355056763
-0.11627906560897827 0.18811602890491486 0.8449612855911255
-0.11627906560897827 0.27131664752960205 0.8449612855911255
-0.11627906560897827 0.287126749753952 0.8139535188674927
-0.11627906560897827 0.28951701521873474 0.8294573426246643
-0.11627906560897827 0.5026698112487793 0.751937985420227
-0.11627906560897827 0.5054899454116821 0.7364341020584106
-0.11627906560897827 0.5348261594772339 0.7209302186965942
-0.11627905815839767 0.5507978796958923 0.751937985420227
-0.11627906560897827 0.5765758156776428 0.7054263353347778
-0.11627906560897827 0.5945401787757874 0.7364341020584106
-0.11627906560897827 0.6120339632034302 0.6899224519729614
-0.11627906560897827 0.6202070713043213 0.7209302186965942
-0.11627906560897827 0.6396421194076538 0.674418568611145
-0.11627906560897827 0.637501060962677 0.7054263353347778
-0.11627906560897827 0.6559382677078247 0.6589146852493286
-0.11627906560897827 0.653020977973938 0.6899224519729614
-0.11627906560897827 0.6697050333023071 0.6434108018875122
-0.11627906560897827 0.6688035726547241 0.674418568611145
-0.11627906560897827 0.6842344403266907 0.6279069185256958
-0.11627906560897827 0.6828323602676392 0.6589146852493286
-0.11627906560897827 0.6969943046569824 0.6279069185256958
-0.11627906560897827 0.6920332908630371 0.6434108018875122
-0.10077518224716187 -0.2609013319015503 -0.9844961166381836
-0.10077518224716187 -0.2497430294752121 -0.9689922332763672
-0.10077518224716187 -0.24245581030845642 -0.9534883499145508
-0.10077518224716187 -0.23272711038589478 -0.9379844665527344
-0.10077518224716187 -0.22541901469230652 -0.9224806427955627
-0.10077518224716187 -0.21560657024383545 -0.9069767594337463
-0.10077518224716187 -0.19824938476085663 -0.9689922332763672
-0.10077518224716187 -0.2083311378955841 -0.8914729356765747
-0.10077518224716187 -0.2004583477973938 -0.8759689927101135
-0.10077518224716187 -0.19419895112514496 -0.8604651093482971
-0.10077518224716187 -0.18631714582443237 -0.8449612259864807
-0.10077518224716187 -0.18118596076965332 -0.8294573426246643
-0.10077518224716187 -0.17840805649757385 0.7364341020584106
-0.10077518224716187 -0.18476778268814087 0.751937985420227
-0.10077518224716187 -0.18884791433811188 0.7674418687820435
-0.10077518224716187 -0.17435956001281738 -0.8139535188674927
-0.10077518224716187 -0.16921532154083252 -0.7984496355056763
-0.10077518224716187 -0.16566285490989685 -0.7829457521438599
-0.10077518224716187 -0.16362769901752472 0.7209302186965942
-0.10077518224716187 -0.16106095910072327 -0.7674418687820435
-0.10077518224716187 -0.1558246612548828 -0.751937985420227
-0.10077518224716187 -0.15262071788311005 -0.7364341020584106
-0.10077518224716187 -0.1503276377916336 -0.7209302186965942
-0.10077518224716187 -0.1479404866695404 -0.7054263353347778
-0.10077518224716187 -0.1489102691411972 0.7054263353347778
-0.10077518224716187 -0.14099793136119843 -0.9844961166381836
-0.10077518224716187 -0.14402081072330475 -0.6899224519729614
-0.10077518224716187 -0.14150995016098022 -0.674418568611145
-0.10077518224716187 -0.1394582986831665 -0.6589146852493286
-0.10077518224716187 -0.13701286911964417 -0.643410861492157
-0.10077518224716187 -0.13490355014801025 -0.6279069781303406
-0.10077518224716187 -0.1326269805431366 -0.6124030947685242
-0.10077518224716187 -0.13270364701747894 0.6899224519729614
-0.10077518224716187 -0.14467105269432068 0.7829457521438599
-0.10077518224716187 -0.1297004669904709 -0.5968992114067078
-0.10077517479658127 -0.12729807198047638 -0.5813953876495361
-0.10077518224716187 -0.12534406781196594 -0.5658915042877197
-0.10077518224716187 -0.12292677164077759 -0.5503876209259033
-0.10077518224716187 -0.1203778088092804 -0.5348837375640869
-0.10077518224716187 -0.11803951114416122 -0.5193798542022705
-0.10077518224716187 -0.11698878556489944 0.674418568611145
-0.10077518224716187 -0.11479746550321579 -0.5038759708404541
-0.10077518224716187 -0.11156442761421204 -0.4883720874786377
-0.10077518224716187 -0.10893476009368896 -0.4728682041168213
-0.10077518224716187 -0.1052783653140068 -0.4573643207550049
-0.10077518224716187 -0.10207529366016388 -0.4418604373931885
-0.10077518224716187 -0.09799252450466156 -0.42635661363601685
-0.10077518224716187 -0.09448525309562683 -0.41085273027420044
-0.10077518224716187 -0.09126818925142288 -0.39534884691238403
-0.10077518224716187 -0.08819156885147095 -0.3798449635505676
-0.10077518224716187 -0.08629277348518372 -0.3643410801887512
-0.10077518224716187 -0.08641417324542999 0.6434108018875122
-0.10077518224716187 -0.10012747347354889 0.6589146852493286
-0.10077518224716187 -0.08366689831018448 -0.9534883499145508
-0.10077518224716187 -0.08452578634023666 -0.3488371968269348
-0.10077518969774246 -0.0820896327495575 -0.3333333134651184
-0.10077518224716187 -0.0803825855255127 -0.317829430103302
-0.10077518224716187 -0.07922085374593735 -0.30232560634613037
-0.10077518224716187 -0.0776776522397995 -0.28682172298431396
-0.10077518224716187 -0.07628829032182693 -0.27131783962249756
-0.10077518224716187 -0.074898861348629 -0.25581395626068115
-0.10077518224716187 -0.07389851659536362 -0.24031007289886475
-0.10077518224716187 -0.07322022318840027 -0.22480618953704834
-0.10077518224716187 -0.07298344373703003 -0.20930230617523193
-0.10077518224716187 -0.07308842241764069 -0.19379842281341553
-0.10077518224716187 -0.07307960093021393 -0.1782945990562439
-0.10077518224716187 -0.07338443398475647 -0.1627907156944275
-0.10077518224716187 -0.0732712596654892 -0.14728683233261108
-0.10077518224716187 -0.07312078773975372 -0.13178294897079468
-0.10077518224716187 -0.07234068214893341 -0.11627906560897827
-0.10077518224716187 -0.07151883095502853 -0.10077518224716187
-0.10077518224716187 -0.0707177072763443 -0.08527129888534546
-0.10077518224716187 -0.0698866993188858 -0.06976741552352905
-0.10077518224716187 -0.07074375450611115 0.612403154373169
-0.10077518224716187 -0.07466574013233185 0.6279069185256958
-0.10077518224716187 -0.059486065059900284 -0.9379844665527344
-0.10077518224716187 -0.06839700788259506 -0.05426359549164772
-0.10077518224716187 -0.06703171879053116 -0.038759708404541016
-0.10077518224716187 -0.06602215766906738 -0.02325582504272461
-0.10077518224716187 -0.06568869948387146 -0.007751941680908203
-0.10077518224716187 -0.06612996011972427 0.007751941680908203
-0.10077518224716187 -0.06753595918416977 0.02325582504272461
-0.10077518224716187 -0.06836657226085663 0.038759708404541016
-0.10077518224716187 -0.06833328306674957 0.05426359176635742
-0.10077517479658127 -0.0679745227098465 0.06976747512817383
-0.10077518224716187 -0.06791701912879944 0.08527135848999023
-0.10077518969774246 -0.06735081225633621 0.10077524185180664
-0.10077518224716187 -0.06655486673116684 0.11627912521362305
-0.10077518969774246 -0.06555631756782532 0.1317828893661499
-0.10077518224716187 -0.0643291026353836 0.1472867727279663
-0.10077518224716187 -0.06316497176885605 0.16279065608978271
-0.10077518224716187 -0.062106650322675705 0.17829453945159912
-0.10077518224716187 -0.06173621118068695 0.19379842281341553
-0.10077518224716187 -0.061869844794273376 0.20930230617523193
-0.10077518224716187 -0.062212854623794556 0.22480618953704834
-0.10077518224716187 -0.062239665538072586 0.24031007289886475
-0.10077518224716187 -0.062179915606975555 0.25581395626068115
-0.10077518224716187 -0.06195160001516342 0.27131783962249756
-0.10077518224716187 -0.061046302318573 0.28682172298431396
-0.10077518224716187 -0.05952196195721626 0.30232560634613037
-0.10077518224716187 -0.057187519967556 0.3178294897079468
-0.10077518224716187 -0.055112745612859726 0.3333333730697632
-0.10077518224716187 -0.05448039993643761 0.4883720874786377
-0.10077518224716187 -0.055048368871212006 0.5038759708404541
-0.10077518224716187 -0.05577018857002258 0.5193798542022705
-0.10077518224716187 -0.05659964680671692 0.5348837375640869
-0.10077518224716187 -0.057891301810741425 0.5503876209259033
-0.10077518224716187 -0.05946030840277672 0.5658915042877197
-0.10077518224716187 -0.06150159239768982 0.5813953876495361
-0.10077518224716187 -0.0660724937915802 0.5968992710113525
-0.10077518224716187 -0.052968014031648636 0.3488372266292572
-0.10077518224716187 -0.050482459366321564 0.364341139793396
-0.10077518224716187 -0.048128362745046616 0.37984490394592285
-0.10077518224716187 -0.04683699086308479 0.39534878730773926
-0.10077518224716187 -0.04715510457754135 0.41085267066955566
-0.10077518224716187 -0.04738269001245499 0.42635655403137207
-0.10077518224716187 -0.047002099454402924 0.4418604373931885
-0.10077518224716187 -0.04805172234773636 0.45736435055732727
-0.10077518224716187 -0.0513448566198349 0.4728682041168213
-0.10077518224716187 0.005652759224176407 -0.9844961166381836
-0.10077518224716187 0.002149533247575164 -0.9534883499145508
-0.10077518224716187 -0.006325786467641592 -0.9379845261573792
-0.10077518224716187 0.006665949709713459 -0.08527129888534546
-0.10077518224716187 0.005318609997630119 -0.06976741552352905
-0.10077518224716187 0.004243509843945503 -0.05426359176635742
-0.10077518224716187 0.003373510902747512 -0.038759708404541016
-0.10077518224716187 0.0028945065569132566 -0.02325582504272461
-0.10077518224716187 0.003433393547311425 -0.007751941680908203
-0.10077518224716187 0.0046625519171357155 0.007751941680908203
-0.10077518224716187 0.006466283462941647 0.02325582504272461
-0.10077518224716187 -0.004035560414195061 0.7984496355056763
-0.10077518224716187 0.018359581008553505 -0.9689922332763672
-0.10077518224716187 0.0209594015032053 -0.7984496355056763
-0.10077518224716187 0.01945788972079754 -0.7829457521438599
-0.10077518224716187 0.018205611035227776 -0.7674418687820435
-0.10077518224716187 0.01707061380147934 -0.751937985420227
-0.10077518224716187 0.016214363276958466 -0.7364341020584106
-0.10077518224716187 0.015586319379508495 -0.7209302186965942
-0.10077518224716187 0.015581279993057251 -0.7054263353347778
-0.10077518224716187 0.01579400897026062 -0.6899224519729614
-0.10077518224716187 0.015741601586341858 -0.674418568611145
-0.10077518224716187 0.01554971095174551 -0.6589146852493286
-0.10077518224716187 0.01530615147203207 -0.643410861492157
-0.10077518224716187 0.015217941254377365 -0.6279069185256958
-0.10077518224716187 0.014565123245120049 -0.6124030947685242
-0.10077518224716187 0.014225974678993225 -0.5968992114067078
-0.10077518224716187 0.01411968469619751 -0.5813953876495361
-0.10077518224716187 0.014093780890107155 -0.5658915042877197
-0.10077518224716187 0.013975413516163826 -0.5503876209259033
-0.10077518224716187 0.014074604958295822 -0.5348837375640869
-0.10077518224716187 0.014252927154302597 -0.5193798542022705
-0.10077518224716187 0.014181998558342457 -0.5038759708404541
-0.10077518224716187 0.013967928476631641 -0.4883720576763153
-0.10077518224716187 0.013491280376911163 -0.4728682041168213
-0.10077518224716187 0.01291738636791706 -0.4573643207550049
-0.10077518224716187 0.012243527919054031 -0.4418604373931885
-0.10077518224716187 0.011471799574792385 -0.42635661363601685
-0.10077518224716187 0.010890433564782143 -0.41085273027420044
-0.10077518224716187 0.010647709481418133 -0.39534884691238403
-0.10077518224716187 0.010646900162100792 -0.3798449635505676
-0.10077518224716187 0.010794139467179775 -0.3643410801887512
-0.10077518224716187 0.010895430110394955 -0.3488371968269348
-0.10077518224716187 0.011017045006155968 -0.333333283662796
-0.10077518224716187 0.011022085323929787 -0.317829430103302
-0.10077518224716187 0.010964510031044483 -0.30232560634613037
-0.10077518224716187 0.010475797578692436 -0.28682172298431396
-0.10077518224716187 0.010038057342171669 -0.27131783962249756
-0.10077518224716187 0.009549177251756191 -0.25581395626068115
-0.10077518224716187 0.009162266738712788 -0.24031005799770355
-0.10077518224716187 0.008883855305612087 -0.22480618953704834
-0.10077518224716187 0.008767225779592991 -0.20930230617523193
-0.10077518224716187 0.008872183039784431 -0.19379842281341553
-0.10077518224716187 0.00891277939081192 -0.1782946139574051
-0.10077518224716187 0.008953297510743141 -0.1627907156944275
-0.10077518224716187 0.00884012971073389 -0.14728683233261108
-0.10077518224716187 0.008740737102925777 -0.13178294897079468
-0.10077518224716187 0.008387275040149689 -0.11627906560897827
-0.10077518224716187 0.007939591072499752 -0.10077518224716187
-0.10077518224716187 0.008057229220867157 0.038759708404541016
-0.10077518224716187 0.008865107782185078 0.05426359176635742
-0.10077518224716187 0.01003968808799982 0.06976747512817383
-0.10077518969774246 0.011201862245798111 0.08527135848999023
-0.10077518224716187 0.012563269585371017 0.10077524185180664
-0.10077518224716187 0.01406136155128479 0.11627912521362305
-0.10077518224716187 0.01593238115310669 0.1317828893661499
-0.10077518224716187 0.01817123219370842 0.1472867727279663
-0.10077518224716187 0.021405750885605812 0.16279065608978271
-0.10077518224716187 0.037658918648958206 -0.9069767594337463
-0.10077518224716187 0.034908927977085114 -0.8914728760719299
-0.10077518224716187 0.03287138789892197 -0.8759689331054688
-0.10077518224716187 0.030425582081079483 -0.8604651093482971
-0.10077518224716187 0.028075864538550377 -0.8449612855911255
-0.10077518969774246 0.025385407730937004 -0.8294574022293091
-0.10077518224716187 0.023407526314258575 -0.8139535188674927
-0.10077518224716187 0.024178575724363327 0.17829453945159912
-0.10077518224716187 0.026949767023324966 0.19379842281341553
-0.10077518224716187 0.031476277858018875 0.20930230617523193
-0.10077518224716187 0.036778420209884644 0.22480618953704834
-0.10077518224716187 0.05164124071598053 -0.9844961166381836
-0.10077518224716187 0.04395622760057449 -0.9689921736717224
-0.10077518224716187 0.04248793423175812 -0.9534883499145508
-0.10077517479658127 0.0414077490568161 -0.9379844665527344
-0.10077518969774246 0.03981499373912811 -0.9224807024002075
-0.10077518224716187 0.0400085486471653 0.24031007289886475
-0.10077518224716187 0.043602533638477325 0.25581395626068115
-0.10077518224716187 0.04901354759931564 0.27131783962249756
-0.10077518224716187 0.05341634526848793 0.28682172298431396
-0.10077518224716187 0.05579712614417076 0.30232560634613037
-0.10077518224716187 0.057868003845214844 0.3178294897079468
-0.10077518224716187 0.059964369982481 0.3333333730697632
-0.10077518224716187 0.06118978187441826 0.3488372564315796
-0.10077518224716187 0.061589617282152176 0.364341139793396
-0.10077518224716187 0.06160122901201248 0.37984490394592285
-0.10077518224716187 0.061292603611946106 0.39534878730773926
-0.10077518224716187 0.06132758408784866 0.41085267066955566
-0.10077518224716187 0.06232356280088425 0.42635655403137207
-0.10077518224716187 0.06516754627227783 0.4418604373931885
-0.10077518969774246 0.06989117711782455 0.45736435055732727
-0.10077517479658127 0.07063791155815125 0.4728681743144989
-0.10077518224716187 0.07150082290172577 0.4883720874786377
-0.10077518969774246 0.07245423644781113 0.5038759708404541
-0.10077518224716187 0.07324039191007614 0.5193798542022705
-0.10077518969774246 0.07385280728340149 0.5348837375640869
-0.10077518224716187 0.0738140270113945 0.5503876209259033
-0.10077518224716187 0.07294923067092896 0.5658915042877197
-0.10077518224716187 0.07203217595815659 0.5813953876495361
-0.10077518224716187 0.07160195708274841 0.5968992710113525
-0.10077518224716187 0.07187306135892868 0.612403154373169
-0.10077517479658127 0.0726221576333046 0.6279069185256958
-0.10077518224716187 0.07400180399417877 0.6434108018875122
-0.10077518224716187 0.07636619359254837 0.6589146852493286
-0.10077518224716187 0.08368722349405289 0.674418568611145
-0.10077518224716187 0.08592633157968521 0.6899224519729614
-0.10077518224716187 0.08652262389659882 0.7054263353347778
-0.10077518224716187 0.0871066153049469 0.7209302186965942
-0.10077518224716187 0.08799699693918228 0.7364341020584106
-0.10077518224716187 0.09059879928827286 0.751937985420227
-0.10077518224716187 0.09999867528676987 0.7674418687820435
-0.10077518224716187 0.08575937896966934 0.8139535188674927
-0.10077518224716187 0.1243770569562912 0.7674418687820435
-0.10077518224716187 0.13997533917427063 0.7674418687820435
-0.10077518224716187 0.14281919598579407 0.8294574022293091
-0.10077518224716187 0.16415023803710938 0.7829457521438599
-0.10077518224716187 0.181106835603714 0.7984496355056763
-0.10077518224716187 0.25895604491233826 0.8139535188674927
-0.10077518224716187 0.2570420801639557 0.8294574022293091
-0.10077518224716187 0.4817677140235901 0.7209302186965942
-0.10077518224716187 0.4750199019908905 0.7364341020584106
-0.10077518224716187 0.5358008146286011 0.7054263353347778
-0.10077518224716187 0.5711072087287903 0.7364341020584106
-0.10077518224716187 0.5940253138542175 0.6899224519729614
-0.10077518224716187 0.6061892509460449 0.7209302186965942
-0.10077518224716187 0.6268571019172668 0.674418568611145
-0.10077518224716187 0.6290428638458252 0.7054263353347778
-0.10077518224716187 0.6487536430358887 0.6589146852493286
-0.10077518224716187 0.6483460664749146 0.6899224519729614
-0.10077517479658127 0.6632217764854431 0.6434108018875122
-0.10077518224716187 0.6666393280029297 0.674418568611145
-0.10077518224716187 0.678358256816864 0.6279069185256958
-0.10077518224716187 0.68244469165802 0.6589146852493286
-0.10077518224716187 0.6964346766471863 0.612403154373169
-0.10077518224716187 0.6996179819107056 0.6279069185256958
-0.10077518224716187 0.6942120790481567 0.6434108018875122
-0.10077518224716187 0.7186020016670227 0.5968992710113525
-0.10077517479658127 0.7110450267791748 0.612403154373169
-0.10077518969774246 0.7220642566680908 0.5968993306159973
-0.08527129888534546 -0.2593301236629486 -0.9844961166381836
-0.08527129888534546 -0.24743668735027313 -0.9689922332763672
-0.08527129888534546 -0.24121561646461487 -0.9534883499145508
-0.08527129888534546 -0.23100416362285614 -0.9379844665527344
-0.08527129888534546 -0.2217642217874527 -0.9224806427955627
-0.08527129888534546 -0.21320003271102905 -0.9069767594337463
-0.08527129888534546 -0.1960548609495163 -0.9689922332763672
-0.08527129888534546 -0.20459219813346863 -0.8914728164672852
-0.08527129888534546 -0.19790101051330566 -0.8759689927101135
-0.08527129888534546 -0.19015124440193176 -0.8604651093482971
-0.08527129888534546 -0.18376894295215607 -0.8449612855911255
-0.08527129888534546 -0.17838506400585175 -0.8294573426246643
-0.08527129888534546 -0.1790502369403839 0.7364341020584106
-0.08527129888534546 -0.181547611951828 0.751937985420227
-0.08527129888534546 -0.18083339929580688 0.7674418687820435
-0.08527129888534546 -0.17106571793556213 -0.8139535188674927
-0.08527129888534546 -0.16605806350708008 -0.7984496355056763
-0.08527129888534546 -0.16690240800380707 0.7209302186965942
-0.08527129888534546 -0.16120797395706177 -0.7829457521438599
-0.08527129888534546 -0.15573567152023315 -0.7674418687820435
-0.08527129888534546 -0.15154483914375305 -0.751937985420227
-0.08527129888534546 -0.14853087067604065 -0.7364341020584106
-0.08527129888534546 -0.1596388816833496 0.7054263353347778
-0.08527129888534546 -0.14444942772388458 -0.7209302186965942
-0.08527129888534546 -0.14124196767807007 -0.7054263353347778
-0.08527129888534546 -0.13882365822792053 -0.6899224519729614
-0.08527129888534546 -0.13653002679347992 -0.674418568611145
-0.08527129888534546 -0.13461963832378387 -0.6589146852493286
-0.08527129888534546 -0.13249586522579193 -0.643410861492157
-0.08527129888534546 -0.14324592053890228 0.6899224519729614
-0.08527129888534546 -0.12942418456077576 -0.6279070377349854
-0.08527129888534546 -0.12672170996665955 -0.612403154373169
-0.08527129888534546 -0.12480515241622925 -0.5968992710113525
-0.08527129888534546 -0.12287773936986923 -0.5813953876495361
-0.08527129888534546 -0.12057726085186005 -0.5658915042877197
-0.08527129888534546 -0.11821456253528595 -0.5503876209259033
-0.08527129888534546 -0.1231101006269455 0.674418568611145
-0.08527129888534546 -0.11129862070083618 -0.9844961166381836
-0.08527129888534546 -0.11608429998159409 -0.5348837375640869
-0.08527129888534546 -0.11274854093790054 -0.5193798542022705
-0.08527129888534546 -0.11033760011196136 -0.5038759708404541
-0.08527129888534546 -0.1081317588686943 -0.4883720874786377
-0.08527129888534546 -0.10503564029932022 -0.4728682041168213
-0.08527129888534546 -0.10212315618991852 -0.4573643207550049
-0.08527129888534546 -0.10698626935482025 0.6589146852493286
-0.08527129888534546 -0.10946366935968399 0.7829457521438599
-0.08527129888534546 -0.09846992045640945 -0.4418604373931885
-0.08527129888534546 -0.09471066296100616 -0.42635661363601685
-0.08527129888534546 -0.09163998067378998 -0.41085273027420044
-0.08527129888534546 -0.08850449323654175 -0.39534884691238403
-0.08527129888534546 -0.0866110622882843 -0.3798449635505676
-0.08527129888534546 -0.08548322319984436 -0.3643410801887512
-0.08527129888534546 -0.0942930281162262 0.6434108018875122
-0.08527129888534546 -0.08361989259719849 -0.3488371968269348
-0.08527129888534546 -0.08195049315690994 -0.3333333134651184
-0.08527129888534546 -0.08058628439903259 -0.317829430103302
-0.08527129888534546 -0.07955387979745865 -0.30232560634613037
-0.08527129888534546 -0.07825154811143875 -0.28682172298431396
-0.08527129888534546 -0.07710443437099457 -0.27131783962249756
-0.08527129888534546 -0.07572056353092194 -0.25581395626068115
-0.08527129888534546 -0.07469899207353592 -0.24031007289886475
-0.08527129888534546 -0.074058897793293 -0.22480618953704834
-0.08527129888534546 -0.07387777417898178 -0.20930230617523193
-0.08527129888534546 -0.0741373598575592 -0.19379842281341553
-0.08527129888534546 -0.07442042231559753 -0.1782945990562439
-0.08527129888534546 -0.0750078409910202 -0.1627907156944275
-0.08527129888534546 -0.07523822784423828 -0.14728683233261108
-0.08527129888534546 -0.07539999485015869 -0.13178294897079468
-0.08527129888534546 -0.07483000308275223 -0.11627906560897827
-0.08527129888534546 -0.07404577732086182 -0.10077518224716187
-0.08527129888534546 -0.07302916049957275 -0.08527129888534546
-0.08527129888534546 -0.0717952698469162 -0.06976741552352905
-0.08527129888534546 -0.07088175415992737 -0.05426359176635742
-0.08527129888534546 -0.0701613649725914 -0.038759708404541016
-0.08527129888534546 -0.07005830854177475 0.02325582504272461
-0.08527129888534546 -0.07038980722427368 0.038759708404541016
-0.08527129888534546 -0.07058899104595184 0.05426359176635742
-0.08527129888534546 -0.07049570977687836 0.06976747512817383
-0.08527129888534546 -0.07040347903966904 0.08527135848999023
-0.08527129888534546 -0.06994021683931351 0.10077524185180664
-0.08527129888534546 -0.07272803783416748 0.612403154373169
-0.08527129888534546 -0.08298664540052414 0.6279069185256958
-0.08527129888534546 -0.06962905079126358 -0.02325582504272461
-0.08527129143476486 -0.0692916065454483 -0.007751941680908203
-0.08527129888534546 -0.06955475360155106 0.007751941680908203
-0.08527130633592606 -0.06907003372907639 0.11627913266420364
-0.08527129888534546 -0.06794831156730652 0.1317828893661499
-0.08527129888534546 -0.06691835820674896 0.1472867727279663
-0.08527129888534546 -0.06629350781440735 0.16279065608978271
-0.08527129888534546 -0.06567449122667313 0.17829453945159912
-0.08527129888534546 -0.0653844103217125 0.19379840791225433
-0.08527129888534546 -0.06523909419775009 0.20930230617523193
-0.08527129888534546 -0.06526686251163483 0.22480618953704834
-0.08527129888534546 -0.0652269572019577 0.24031007289886475
-0.08527129888534546 -0.06526815891265869 0.25581395626068115
-0.08527129888534546 -0.06528569757938385 0.27131783962249756
-0.08527129888534546 -0.064890556037426 0.28682172298431396
-0.08527129888534546 -0.06423352658748627 0.30232560634613037
-0.08527129888534546 -0.06288241595029831 0.3178294897079468
-0.08527129888534546 -0.060810476541519165 0.3333333730697632
-0.08527129888534546 -0.05775444954633713 0.3488372564315796
-0.08527129888534546 -0.05552379786968231 0.364341139793396
-0.08527129888534546 -0.05455659329891205 0.37984490394592285
-0.08527129888534546 -0.05428294464945793 0.39534878730773926
-0.08527129888534546 -0.05435720831155777 0.41085267066955566
-0.08527129888534546 -0.05440559983253479 0.42635655403137207
-0.08527129888534546 -0.054324157536029816 0.4418604373931885
-0.08527129888534546 -0.05443589761853218 0.4573643207550049
-0.08527129888534546 -0.054684124886989594 0.4728682041168213
-0.08527129888534546 -0.05499677732586861 0.4883720874786377
-0.08527129888534546 -0.055394332855939865 0.5038759708404541
-0.08527129888534546 -0.05590376257896423 0.5193798542022705
-0.08527129888534546 -0.05655660852789879 0.5348837375640869
-0.08527129888534546 -0.05773381516337395 0.5503876209259033
-0.08527129888534546 -0.05949259549379349 0.5658915042877197
