-0.11627906560897827 -0.25581395626068115 0.9092506170272827
-0.11627906560897827 -0.24031007289886475 0.6883237361907959
-0.11627906560897827 -0.24031007289886475 0.7375720143318176
-0.11627906560897827 -0.24031007289886475 0.8871784806251526
-0.11627906560897827 -0.24031007289886475 0.9058088064193726
-0.11627906560897827 -0.22480618953704834 0.686977744102478
-0.11627906560897827 -0.22480618953704834 0.7383742332458496
-0.11627906560897827 -0.22480618953704834 0.8841001987457275
-0.11627906560897827 -0.22480618953704834 0.8988821506500244
-0.11627906560897827 -0.20930230617523193 0.6853408217430115
-0.11627906560897827 -0.20930232107639313 0.7389529347419739
-0.11627906560897827 -0.20930230617523193 0.8757086992263794
-0.11627906560897827 -0.20930230617523193 0.8969851732254028
-0.11627906560897827 -0.19379842281341553 0.682846188545227
-0.11627906560897827 -0.19379842281341553 0.7394105792045593
-0.11627906560897827 -0.19379842281341553 0.8695477247238159
-0.11627906560897827 -0.19379842281341553 0.8941895961761475
-0.11627906560897827 -0.1782945990562439 0.6799900531768799
-0.11627906560897827 -0.1782945990562439 0.7396166324615479
-0.11627906560897827 -0.1782945990562439 0.8582150936126709
-0.11627906560897827 -0.1782945990562439 0.8862219452857971
-0.11627906560897827 -0.1627907156944275 0.6837116479873657
-0.11627906560897827 -0.1627907156944275 0.7383055090904236
-0.11627905815839767 -0.1627907007932663 0.8449918627738953
-0.11627907305955887 -0.1627907156944275 0.8815904855728149
-0.11627906560897827 -0.14728683233261108 0.8325863480567932
-0.11627906560897827 -0.14728683233261108 0.878332257270813
-0.11627906560897827 -0.13178294897079468 0.8182907104492188
-0.11627906560897827 -0.13178294897079468 0.8694367408752441
-0.11627906560897827 -0.11627906560897827 0.8113572597503662
-0.11627906560897827 -0.11627906560897827 0.8637943267822266
-0.11627906560897827 -0.10077518224716187 0.8089767694473267
-0.11627906560897827 -0.10077518224716187 0.8535724878311157
-0.11627906560897827 -0.06976741552352905 -0.9914430379867554
-0.11627906560897827 -0.06976741552352905 -0.9695979952812195
-0.11627906560897827 -0.05426359176635742 -0.9917398691177368
-0.11627906560897827 -0.05426359176635742 -0.9419480562210083
-0.11627906560897827 -0.038759708404541016 -0.9917668104171753
-0.11627906560897827 -0.038759708404541016 -0.9062349796295166
-0.11627906560897827 -0.02325582504272461 -0.9917297959327698
-0.11627906560897827 -0.02325582504272461 -0.8930842280387878
-0.11627906560897827 -0.007751941680908203 -0.9916290044784546
-0.11627906560897827 -0.007751941680908203 -0.9279710054397583
-0.11627906560897827 -0.007751941680908203 0.6519855260848999
-0.11627906560897827 -0.007751941680908203 0.6740061044692993
-0.11627906560897827 0.007751941680908203 -0.9912385940551758
-0.11627906560897827 0.007751941680908203 -0.9701364040374756
-0.11627906560897827 0.05426359176635742 0.5774216055870056
-0.11627906560897827 0.05426359176635742 0.6597004532814026
-0.11627906560897827 0.06976747512817383 0.5757659077644348
-0.11627905815839767 0.06976747512817383 0.6607950329780579
-0.11627906560897827 0.06976747512817383 0.8435525894165039
-0.11627906560897827 0.06976747512817383 0.8570055961608887
-0.11627906560897827 0.08527135848999023 0.5967925786972046
-0.11627906560897827 0.08527135848999023 0.6340233087539673
-0.11627906560897827 0.08527135848999023 0.8405296802520752
-0.11627906560897827 0.08527135848999023 0.8577535152435303
-0.11627906560897827 0.10077524185180664 0.8292709589004517
-0.11627906560897827 0.10077524185180664 0.857646107673645
-0.11627906560897827 0.11627912521362305 0.8271952867507935
-0.11627906560897827 0.11627912521362305 0.8573400378227234
-0.11627906560897827 0.1317828893661499 0.824931263923645
-0.11627906560897827 0.1317828893661499 0.8565664291381836
-0.11627906560897827 0.1472867727279663 0.8222858905792236
-0.11627906560897827 0.1472867727279663 0.8559131622314453
-0.11627906560897827 0.16279065608978271 0.8219102621078491
-0.11627906560897827 0.16279065608978271 0.8543673753738403
-0.11627906560897827 0.17829453945159912 0.8253123760223389
-0.11627906560897827 0.17829453945159912 0.851649284362793
-0.11627906560897827 0.19379842281341553 0.8320679664611816
-0.11627906560897827 0.19379840791225433 0.8474461436271667
-0.11627906560897827 0.42635655403137207 0.7978755235671997
-0.11627906560897827 0.42635655403137207 0.7997429370880127
-0.11627906560897827 0.4418604373931885 0.7978237271308899
-0.11627906560897827 0.4418604373931885 0.7994022369384766
-0.10077518224716187 -0.5658915042877197 0.7040303945541382
-0.10077518224716187 -0.5658915042877197 0.7233843803405762
-0.10077518224716187 -0.5503876209259033 0.7033250331878662
-0.10077518224716187 -0.5503876209259033 0.7269919514656067
-0.10077518224716187 -0.5348837375640869 0.7036834359169006
-0.10077518224716187 -0.5348837375640869 0.7302554845809937
-0.10077518224716187 -0.5193798542022705 0.7043784260749817
-0.10077518224716187 -0.5193798542022705 0.7355013489723206
-0.10077517479658127 -0.5038759708404541 0.705436646938324
-0.10077518224716187 -0.5038759708404541 0.7376912832260132
-0.10077518224716187 -0.4883721172809601 0.7107418179512024
-0.10077518969774246 -0.4883720874786377 0.7387712001800537
-0.10077518224716187 -0.4728682041168213 0.7126423120498657
-0.10077518224716187 -0.4728682041168213 0.7391752600669861
-0.10077518224716187 -0.4573643207550049 0.7140587568283081
-0.10077518224716187 -0.4573643207550049 0.7391525506973267
-0.10077518224716187 -0.4418604373931885 0.7153335213661194
-0.10077518224716187 -0.4418604373931885 0.7388486266136169
-0.10077518224716187 -0.42635661363601685 0.7158132195472717
-0.10077518969774246 -0.42635664343833923 0.7386945486068726
-0.10077518224716187 -0.41085273027420044 0.7159813642501831
-0.10077518224716187 -0.4108527600765228 0.7385417222976685
-0.10077518224716187 -0.39534884691238403 0.7159324288368225
-0.10077518224716187 -0.39534881711006165 0.738597571849823
-0.10077518224716187 -0.3798449635505676 0.7150366306304932
-0.10077518224716187 -0.3798449635505676 0.7387537360191345
-0.10077518224716187 -0.3643410801887512 0.7135859727859497
-0.10077518224716187 -0.3643410801887512 0.7388626337051392
-0.10077518224716187 -0.3488371968269348 0.7117581963539124
-0.10077518224716187 -0.3488371968269348 0.7388399839401245
-0.10077518224716187 -0.3333333134651184 0.7088111639022827
-0.10077518224716187 -0.3333333134651184 0.7383702993392944
-0.10077518224716187 -0.3333333134651184 0.9041926264762878
-0.10077518224716187 -0.3333333134651184 0.9134037494659424
-0.10077518224716187 -0.317829430103302 0.7050018906593323
-0.10077518224716187 -0.317829430103302 0.7375685572624207
-0.10077518224716187 -0.317829430103302 0.8961290121078491
-0.10077518224716187 -0.317829430103302 0.9137223958969116
-0.10077518224716187 -0.30232560634613037 0.7041077017784119
-0.10077518224716187 -0.30232560634613037 0.7341470718383789
-0.10077518224716187 -0.30232560634613037 0.8898550271987915
-0.10077518224716187 -0.30232560634613037 0.9129593372344971
-0.10077518224716187 -0.28682172298431396 0.7029597759246826
-0.10077518224716187 -0.28682172298431396 0.7264654040336609
-0.10077518224716187 -0.28682172298431396 0.8882397413253784
-0.10077518224716187 -0.28682172298431396 0.9119717478752136
-0.10077518224716187 -0.27131783962249756 0.6985836029052734
-0.10077518969774246 -0.27131783962249756 0.7246789932250977
-0.10077518224716187 -0.27131783962249756 0.8867014646530151
-0.10077518224716187 -0.27131783962249756 0.9101375937461853
-0.10077518224716187 -0.25581395626068115 0.6866292953491211
-0.10077518224716187 -0.25581395626068115 0.7269842624664307
-0.10077518224716187 -0.25581395626068115 0.8842485547065735
-0.10077518224716187 -0.25581395626068115 0.9077091217041016
-0.10077517479658127 -0.24031007289886475 0.675707995891571
-0.10077518224716187 -0.24031007289886475 0.7335274815559387
-0.10077518224716187 -0.24031007289886475 0.8784609436988831
-0.10077518224716187 -0.24031007289886475 0.9002723693847656
-0.10077518224716187 -0.22480618953704834 0.6723948121070862
-0.10077518224716187 -0.22480618953704834 0.7372837066650391
-0.10077518224716187 -0.22480618953704834 0.8708633184432983
-0.10077518224716187 -0.22480618953704834 0.8978781700134277
-0.10077518224716187 -0.20930230617523193 0.6699516773223877
-0.10077518224716187 -0.20930230617523193 0.7376033663749695
-0.10077518224716187 -0.20930230617523193 0.8625688552856445
-0.10077518224716187 -0.20930230617523193 0.8960220217704773
-0.10077518224716187 -0.19379842281341553 0.6664843559265137
-0.10077518224716187 -0.19379842281341553 0.7363952398300171
-0.10077518224716187 -0.19379842281341553 0.8505194187164307
-0.10077518969774246 -0.19379842281341553 0.892661452293396
-0.10077518224716187 -0.1782945990562439 0.6630252599716187
-0.10077518224716187 -0.1782945990562439 0.7230485677719116
-0.10077518224716187 -0.1782945990562439 0.8364324569702148
-0.10077518224716187 -0.1782945990562439 0.8840121626853943
-0.10077518224716187 -0.1627907156944275 0.6723349094390869
-0.10077517479658127 -0.1627907156944275 0.6775791645050049
-0.10077518224716187 -0.1627907007932663 0.8299974799156189
-0.10077517479658127 -0.1627907156944275 0.8810429573059082
-0.10077518224716187 -0.14728683233261108 0.8318917751312256
-0.10077517479658127 -0.14728683233261108 0.8772096037864685
-0.10077518224716187 -0.13178294897079468 0.8291265368461609
-0.10077518224716187 -0.13178294897079468 0.8673955202102661
-0.10077518224716187 -0.11627906560897827 0.826686441898346
-0.10077517479658127 -0.11627905815839767 0.8620405793190002
-0.10077518224716187 -0.10077518224716187 0.8269908428192139
-0.10077518224716187 -0.10077518224716187 0.8492345809936523
-0.10077518224716187 -0.08527129888534546 -0.9918206930160522
-0.10077518224716187 -0.08527129888534546 -0.9404136538505554
-0.10077518224716187 -0.06976741552352905 -0.9917945861816406
-0.10077518224716187 -0.06976741552352905 -0.8158631324768066
-0.10077518224716187 -0.05426359176635742 -0.9917022585868835
-0.10077518224716187 -0.05426359176635742 -0.41991758346557617
-0.10077518224716187 -0.038759708404541016 -0.9916449785232544
-0.10077518224716187 -0.038759708404541016 -0.38174015283584595
-0.10077518224716187 -0.02325582504272461 -0.9915984869003296
-0.10077518224716187 -0.02325582504272461 -0.44434553384780884
-0.10077518224716187 -0.02325582504272461 0.6160349249839783
-0.10077518224716187 -0.02325582504272461 0.6683881282806396
-0.10077518224716187 -0.007751941680908203 -0.991578221321106
-0.10077518224716187 -0.007751941680908203 -0.7685819864273071
-0.10077518224716187 -0.007751941680908203 0.5996071100234985
-0.10077518224716187 -0.007751941680908203 0.6942827701568604
-0.10077518224716187 0.007751941680908203 -0.9916239976882935
-0.10077518224716187 0.007751941680908203 -0.9061815142631531
-0.10077518224716187 0.007751941680908203 0.6019191145896912
-0.10077518224716187 0.007751941215246916 0.7080605626106262
-0.10077518224716187 0.02325582504272461 -0.9891806244850159
-0.10077518224716187 0.02325582504272461 -0.9747673273086548
-0.10077518224716187 0.02325582504272461 0.625674843788147
-0.10077518224716187 0.02325582504272461 0.6895664930343628
-0.10077518224716187 0.038759708404541016 0.6160342693328857
-0.10077518224716187 0.038759708404541016 0.6523244380950928
-0.10077518224716187 0.05426359176635742 0.5806686878204346
-0.10077518224716187 0.05426359549164772 0.663105309009552
-0.10077518224716187 0.06976747512817383 0.5793114900588989
-0.10077518224716187 0.06976747512817383 0.6611697673797607
-0.10077518224716187 0.06976747512817383 0.8448064923286438
-0.10077518224716187 0.06976747512817383 0.8453819751739502
-0.10077518224716187 0.08527135848999023 0.8421415090560913
-0.10077518224716187 0.08527135848999023 0.8481444120407104
-0.10077518224716187 0.10077524185180664 0.8326386213302612
-0.10077518224716187 0.10077524185180664 0.8491200804710388
-0.10077518224716187 0.11627912521362305 0.8280652761459351
-0.10077518224716187 0.11627912521362305 0.8494179248809814
-0.10077518224716187 0.1317828893661499 0.8269004821777344
-0.10077518224716187 0.1317828893661499 0.8489782214164734
-0.10077518224716187 0.1472867727279663 0.8262420892715454
-0.10077518224716187 0.1472867727279663 0.8482787609100342
-0.10077518224716187 0.16279065608978271 0.8270542025566101
-0.10077517479658127 0.16279065608978271 0.8469768762588501
-0.10077518224716187 0.41085267066955566 0.7976633310317993
-0.10077518224716187 0.41085267066955566 0.8012365698814392
-0.10077518224716187 0.42635655403137207 0.7949857115745544
-0.10077518224716187 0.42635655403137207 0.8057073354721069
-0.10077518224716187 0.4418604373931885 0.7921903133392334
-0.10077518224716187 0.4418604373931885 0.8056061267852783
-0.10077518224716187 0.4573643207550049 0.7884164452552795
-0.10077518224716187 0.4573643207550049 0.8046512603759766
-0.10077518224716187 0.4728682041168213 0.7825877666473389
-0.10077518224716187 0.4728682041168213 0.8028169274330139
-0.10077518224716187 0.4883720874786377 0.7812590003013611
-0.10077518224716187 0.4883720576763153 0.7998606562614441
-0.10077518224716187 0.5038759708404541 0.7777973413467407
-0.10077518224716187 0.5038759708404541 0.7913522720336914
-0.10077518224716187 0.5193798542022705 0.7649390697479248
-0.10077518224716187 0.5193798542022705 0.787124514579773
-0.10077518224716187 0.5348837375640869 0.7494739294052124
-0.10077518224716187 0.5348837375640869 0.7834092378616333
-0.10077518224716187 0.5503876209259033 0.7356276512145996
-0.10077518224716187 0.5503876209259033 0.7763938903808594
-0.10077518224716187 0.5658915042877197 0.7292471528053284
-0.10077518224716187 0.5658915042877197 0.7712037563323975
-0.10077518224716187 0.5813953876495361 0.7199915647506714
-0.10077518224716187 0.5813953876495361 0.7631441354751587
-0.10077518224716187 0.5968992710113525 0.7172931432723999
-0.10077518224716187 0.5968992710113525 0.7553249001502991
-0.10077518224716187 0.612403154373169 0.7145416736602783
-0.10077518224716187 0.612403154373169 0.7450278997421265
-0.10077518224716187 0.6279069185256958 0.7129923105239868
-0.10077518224716187 0.6279069185256958 0.7342619299888611
-0.10077518224716187 0.6434108018875122 0.7145237922668457
-0.10077518224716187 0.6434108018875122 0.7244970798492432
-0.08527129888534546 -0.5968992114067078 0.705342710018158
-0.08527129888534546 -0.5968992114067078 0.7079610228538513
-0.08527129888534546 -0.5813953876495361 0.7017645239830017
-0.08527129888534546 -0.5813953876495361 0.726172149181366
-0.08527129888534546 -0.5658915042877197 0.7010683417320251
-0.08527129888534546 -0.5658915042877197 0.7299453616142273
-0.08527129888534546 -0.5503876209259033 0.7024502754211426
-0.08527129888534546 -0.5503876209259033 0.7366051077842712
-0.08527129888534546 -0.5348837375640869 0.7040090560913086
-0.08527129888534546 -0.5348837375640869 0.7381914854049683
-0.08527129888534546 -0.5193798542022705 0.7058007717132568
-0.08527129888534546 -0.5193798542022705 0.7394697070121765
-0.08527129888534546 -0.5038759708404541 0.7110026478767395
-0.08527129888534546 -0.5038759708404541 0.7406729459762573
-0.08527129888534546 -0.4883720874786377 0.7136297821998596
-0.08527129888534546 -0.4883720874786377 0.7415012121200562
-0.08527129888534546 -0.4728682041168213 0.714606523513794
-0.08527129888534546 -0.4728682041168213 0.7415961027145386
-0.08527129888534546 -0.4573643207550049 0.7154066562652588
-0.08527129888534546 -0.4573643207550049 0.7412484288215637
-0.08527129888534546 -0.4418604373931885 0.716270923614502
-0.08527129888534546 -0.4418604373931885 0.7405738830566406
-0.08527129888534546 -0.42635661363601685 0.7166088819503784
-0.08527129888534546 -0.42635661363601685 0.7401219010353088
-0.08527129888534546 -0.41085273027420044 0.7166669964790344
-0.08527129888534546 -0.41085273027420044 0.7396465539932251
-0.08527129888534546 -0.39534884691238403 0.7166361212730408
-0.08527129888534546 -0.39534884691238403 0.7393662929534912
-0.08527129888534546 -0.3798449635505676 0.7161170244216919
-0.08527129143476486 -0.37984493374824524 0.7392544150352478
-0.08527129888534546 -0.3643410801887512 0.7152850031852722
-0.08527129888534546 -0.3643410801887512 0.7391057014465332
-0.08527129888534546 -0.3488371968269348 0.7143219709396362
-0.08527129888534546 -0.3488371968269348 0.7387518882751465
-0.08527129888534546 -0.3488371968269348 0.906702995300293
-0.08527129888534546 -0.3488371968269348 0.9083945751190186
-0.08527129888534546 -0.3333333134651184 0.7125439643859863
-0.08527129888534546 -0.3333333134651184 0.7379587292671204
-0.08527129888534546 -0.3333333134651184 0.9020979404449463
-0.08527129888534546 -0.3333333134651184 0.9153307676315308
-0.08527129888534546 -0.317829430103302 0.7087967991828918
-0.08527129888534546 -0.317829430103302 0.7368385791778564
-0.08527129888534546 -0.317829430103302 0.89177405834198
-0.08527129888534546 -0.317829430103302 0.9145529270172119
-0.08527129888534546 -0.30232560634613037 0.7052291631698608
-0.08527129888534546 -0.30232560634613037 0.7273721098899841
-0.08527129888534546 -0.30232560634613037 0.8882414698600769
-0.08527129888534546 -0.30232560634613037 0.9134440422058105
-0.08527129888534546 -0.28682172298431396 0.7044997215270996
-0.08527129888534546 -0.28682172298431396 0.7227155566215515
-0.08527129888534546 -0.28682172298431396 0.8857084512710571
-0.08527129888534546 -0.28682172298431396 0.9120004177093506
-0.08527129888534546 -0.27131783962249756 0.6950845718383789
-0.08527129888534546 -0.27131783962249756 0.7218987941741943
-0.08527129888534546 -0.27131783962249756 0.8827931880950928
-0.08527129888534546 -0.27131783962249756 0.9094778299331665
-0.08527129888534546 -0.25581395626068115 0.6693206429481506
-0.08527129888534546 -0.25581395626068115 0.7245773673057556
-0.08527129888534546 -0.25581395626068115 0.8759634494781494
-0.08527129888534546 -0.25581395626068115 0.9053243398666382
-0.08527129888534546 -0.24031007289886475 0.656937837600708
-0.08527129888534546 -0.24031007289886475 0.7297282218933105
-0.08527129888534546 -0.24031005799770355 0.8672462701797485
-0.08527129888534546 -0.24031007289886475 0.8989441990852356
-0.08527129888534546 -0.22480618953704834 0.6542704105377197
-0.08527129888534546 -0.22480618953704834 0.7365662455558777
-0.08527129888534546 -0.22480618953704834 0.8577736616134644
-0.08527129888534546 -0.22480618953704834 0.8971061706542969
-0.08527129888534546 -0.20930230617523193 0.6517013311386108
-0.08527129888534546 -0.20930230617523193 0.7362662553787231
-0.08527129888534546 -0.20930230617523193 0.8441096544265747
-0.08527130633592606 -0.20930232107639313 0.8946765661239624
-0.08527129143476486 -0.19379842281341553 0.6468395590782166
-0.08527129888534546 -0.19379842281341553 0.7256405353546143
-0.08527129888534546 -0.19379842281341553 0.8283593058586121
-0.08527129888534546 -0.19379842281341553 0.8889268636703491
-0.08527129888534546 -0.1782945990562439 0.6428934335708618
-0.08527129888534546 -0.1782945990562439 0.7027965188026428
-0.08527129888534546 -0.1782945990562439 0.8176772594451904
-0.08527129888534546 -0.1782945990562439 0.8827823400497437
-0.08527129888534546 -0.1627907156944275 0.645478367805481
-0.08527129888534546 -0.1627907156944275 0.6713967323303223
-0.08527129888534546 -0.1627907156944275 0.8236019611358643
-0.08527129888534546 -0.1627907156944275 0.8801305294036865
-0.08527129888534546 -0.14728683233261108 0.8315828442573547
-0.08527129888534546 -0.14728683233261108 0.8749674558639526
-0.08527129888534546 -0.13178294897079468 0.8326702117919922
-0.08527129888534546 -0.13178294897079468 0.865944504737854
-0.08527129888534546 -0.11627906560897827 0.8313719630241394
-0.08527129888534546 -0.11627906560897827 0.8564088344573975
-0.08527129888534546 -0.10077518224716187 -0.9912683367729187
-0.08527129888534546 -0.10077518224716187 -0.9705241918563843
-0.08527129888534546 -0.10077518224716187 0.8408752083778381
-0.08527129888534546 -0.10077518224716187 0.845626175403595
-0.08527129888534546 -0.08527129888534546 -0.9918438196182251
-0.08527129888534546 -0.08527129888534546 -0.8166766166687012
-0.08527129888534546 -0.08527129888534546 -0.5266884565353394
-0.08527129888534546 -0.08527129888534546 -0.26195576786994934
-0.08527129888534546 -0.08527129888534546 -0.14487940073013306
-0.08527129888534546 -0.08527129888534546 -0.011129705235362053
-0.08527129888534546 -0.06976741552352905 -0.9916670322418213
-0.08527129888534546 -0.06976741552352905 0.08442036062479019
-0.08527129888534546 -0.05426359176635742 -0.991574764251709
-0.08527129888534546 -0.05426359176635742 0.10297366976737976
-0.08527129888534546 -0.038759708404541016 -0.9915285706520081
-0.08527129888534546 -0.038759708404541016 0.10806641727685928
-0.08527129888534546 -0.038759708404541016 0.6008061766624451
-0.08527129888534546 -0.038759708404541016 0.6518200635910034
-0.08527129888534546 -0.02325582504272461 -0.9914901256561279
-0.08527129888534546 -0.02325582504272461 -0.0793161690235138
-0.08527129888534546 -0.02325582504272461 0.5620119571685791
-0.08527129888534546 -0.02325582504272461 0.6820042133331299
-0.08527129888534546 -0.007751941680908203 -0.9915038347244263
-0.08527129888534546 -0.007751941680908203 -0.42404139041900635
-0.08527129888534546 -0.007751941680908203 0.5399699807167053
-0.08527129888534546 -0.007751941215246916 0.7116800546646118
-0.08527129888534546 0.007751941680908203 -0.9916253089904785
-0.08527129888534546 0.007751941215246916 -0.8291420340538025
-0.08527129888534546 0.007751941680908203 0.5418888330459595
-0.08527129888534546 0.007751941680908203 0.7279417514801025
-0.08527129888534546 0.02325582504272461 -0.9911199808120728
-0.08527129888534546 0.02325582504272461 -0.9700087308883667
-0.08527129888534546 0.02325582504272461 0.5818167924880981
-0.08527129888534546 0.02325582504272461 0.7231747508049011
-0.08527129888534546 0.038759708404541016 0.6102503538131714
-0.08527129888534546 0.038759708404541016 0.6993297934532166
-0.08527129888534546 0.05426359176635742 0.6013368368148804
-0.08527129888534546 0.05426359176635742 0.6770201325416565
-0.08527130633592606 0.06976747512817383 0.6007614135742188
-0.08527129888534546 0.06976747512817383 0.6624898910522461
-0.08527129888534546 0.1317828893661499 0.8286179900169373
-0.08527129888534546 0.1317828893661499 0.8356285095214844
-0.08527129888534546 0.1472867727279663 0.8287367820739746
-0.08527129888534546 0.1472867727279663 0.8326483368873596
-0.08527129888534546 0.41085267066955566 0.7954654693603516
-0.08527129888534546 0.41085267066955566 0.8033008575439453
-0.08527129888534546 0.42635655403137207 0.7922508716583252
-0.08527129888534546 0.42635658383369446 0.8045384287834167
-0.08527129888534546 0.4418604373931885 0.7872359752655029
-0.08527129888534546 0.4418604373931885 0.8044989109039307
-0.08527129888534546 0.4573643207550049 0.7823798656463623
-0.08527129888534546 0.4573643207550049 0.804232120513916
-0.08527129888534546 0.4728682041168213 0.7808404564857483
-0.08527129888534546 0.4728682041168213 0.8035445809364319
-0.08527129888534546 0.4883720874786377 0.7780253887176514
-0.08527129888534546 0.4883720874786377 0.8021973371505737
-0.08527129888534546 0.5038759708404541 0.7666223645210266
-0.08527129888534546 0.5038759708404541 0.7995821833610535
-0.08527129888534546 0.5193798542022705 0.7551840543746948
-0.08527129888534546 0.5193798542022705 0.7928671836853027
-0.08527129888534546 0.5348837375640869 0.7443662881851196
-0.08527129888534546 0.5348837375640869 0.7898781895637512
-0.08527129888534546 0.5503876209259033 0.7336428165435791
-0.08527129888534546 0.5503876209259033 0.786312460899353
-0.08527129888534546 0.5658915042877197 0.7220454812049866
-0.08527129888534546 0.5658915042877197 0.7795988917350769
-0.08527129888534546 0.5813953876495361 0.7153051495552063
-0.08527129888534546 0.5813953876495361 0.7746281623840332
-0.08527129888534546 0.5968992710113525 0.7050568461418152
-0.08527129888534546 0.5968992710113525 0.7676631212234497
-0.08527129888534546 0.612403154373169 0.7026119232177734
-0.08527129888534546 0.612403154373169 0.7595494985580444
-0.08527129888534546 0.6279069185256958 0.7003265023231506
-0.08527129888534546 0.6279069185256958 0.7507290244102478
-0.08527129888534546 0.6434108018875122 0.6977279186248779
-0.08527129888534546 0.6434108018875122 0.7426932454109192
-0.08527129888534546 0.6589146852493286 0.6923075318336487
-0.08527129888534546 0.6589146852493286 0.7326833009719849
-0.08527129888534546 0.674418568611145 0.6888625621795654
-0.08527129888534546 0.674418568611145 0.7261281609535217
-0.08527129888534546 0.6899224519729614 0.6870047450065613
-0.08527129888534546 0.6899224519729614 0.7162193059921265
-0.08527129888534546 0.7054263353347778 0.6840240359306335
-0.08527129888534546 0.7054263353347778 0.7078925371170044
-0.08527129888534546 0.7209302186965942 0.6811394691467285
-0.08527129888534546 0.7209302186965942 0.6954272985458374
-0.06976741552352905 -0.6124030947685242 0.7033067345619202
-0.06976741552352905 -0.6124030947685242 0.722724437713623
-0.06976741552352905 -0.5968992114067078 0.6988059282302856
-0.06976741552352905 -0.5968992114067078 0.7282399535179138
-0.06976741552352905 -0.5813953876495361 0.6973233222961426
-0.06976741552352905 -0.5813953876495361 0.7343030571937561
-0.06976741552352905 -0.5658915042877197 0.69971764087677
-0.06976741552352905 -0.5658915042877197 0.7381672263145447
-0.06976741552352905 -0.5503876209259033 0.7026788592338562
-0.06976741552352905 -0.5503876209259033 0.7400128841400146
-0.06976741552352905 -0.5348837375640869 0.7052472829818726
-0.06976741552352905 -0.5348837375640869 0.7413640022277832
-0.06976741552352905 -0.5193798542022705 0.7108464241027832
-0.06976741552352905 -0.5193798542022705 0.7427562475204468
-0.06976741552352905 -0.5038759708404541 0.7134867906570435
-0.06976741552352905 -0.5038759708404541 0.7443880438804626
-0.06976741552352905 -0.4883720874786377 0.7151949405670166
-0.06976741552352905 -0.4883720874786377 0.7454632520675659
-0.06976741552352905 -0.4728682041168213 0.7159482836723328
-0.06976741552352905 -0.4728682041168213 0.7450050711631775
-0.06976741552352905 -0.4573643207550049 0.7166374325752258
-0.06976741552352905 -0.4573643207550049 0.743970513343811
-0.06976741552352905 -0.4418604373931885 0.7174124121665955
-0.06976741552352905 -0.4418604373931885 0.7426165342330933
-0.06976741552352905 -0.42635661363601685 0.7175936698913574
-0.06976741552352905 -0.42635661363601685 0.7417863011360168
-0.06976741552352905 -0.41085273027420044 0.7174221277236938
-0.06976741552352905 -0.41085273027420044 0.7409602999687195
-0.06976741552352905 -0.39534884691238403 0.7171974182128906
-0.06976741552352905 -0.39534884691238403 0.740339994430542
-0.06976741552352905 -0.3798449635505676 0.7168226838111877
-0.06976741552352905 -0.3798449635505676 0.7399733066558838
-0.06976741552352905 -0.3643410801887512 0.7164082527160645
-0.06976741552352905 -0.3643411099910736 0.7395654916763306
-0.06976741552352905 -0.3488371968269348 0.7160578370094299
-0.06976741552352905 -0.3488372266292572 0.7388520836830139
-0.06976741552352905 -0.3488371968269348 0.9050113558769226
-0.06976741552352905 -0.3488371968269348 0.9187928438186646
-0.06976741552352905 -0.3333333134651184 0.7153099179267883
-0.06976741552352905 -0.3333333134651184 0.7377408146858215
-0.06976741552352905 -0.3333333134651184 0.8996139168739319
-0.06976741552352905 -0.3333333134651184 0.9186112880706787
-0.06976741552352905 -0.317829430103302 0.7142466306686401
-0.06976741552352905 -0.317829430103302 0.7351754307746887
-0.06976741552352905 -0.317829430103302 0.8908472657203674
-0.06976741552352905 -0.317829430103302 0.9158433675765991
-0.06976741552352905 -0.30232560634613037 0.7149934768676758
-0.06976741552352905 -0.30232560634613037 0.7238730788230896
-0.06976741552352905 -0.30232560634613037 0.8864961862564087
-0.06976741552352905 -0.30232560634613037 0.9141438007354736
-0.06976741552352905 -0.28682172298431396 0.8827062249183655
-0.06976741552352905 -0.28682172298431396 0.9122579097747803
-0.06976741552352905 -0.27131783962249756 0.689893901348114
-0.06976741552352905 -0.27131783962249756 0.7155423164367676
-0.06976741552352905 -0.27131783962249756 0.8777027130126953
-0.06976741552352905 -0.27131783962249756 0.9091283679008484
-0.06976741552352905 -0.25581395626068115 0.6524366140365601
-0.06976741552352905 -0.25581395626068115 0.7233548164367676
-0.06976741552352905 -0.25581395626068115 0.8665578365325928
-0.06976741552352905 -0.25581395626068115 0.9030638933181763
-0.06976741552352905 -0.24031007289886475 0.6409437656402588
-0.06976741552352905 -0.24031007289886475 0.7284957766532898
-0.06976741552352905 -0.24031007289886475 0.853346586227417
-0.06976741552352905 -0.24031008780002594 0.8985186815261841
-0.06976741552352905 -0.22480618953704834 0.6376000642776489
-0.06976741552352905 -0.22480618953704834 0.7357216477394104
-0.06976741552352905 -0.22480618953704834 0.8407400250434875
-0.06976741552352905 -0.22480618953704834 0.8963834047317505
-0.06976741552352905 -0.20930230617523193 0.6345416307449341
-0.06976741552352905 -0.20930230617523193 0.7351744174957275
-0.06976741552352905 -0.20930230617523193 0.8208953142166138
-0.06976741552352905 -0.20930230617523193 0.8931491374969482
-0.06976741552352905 -0.19379842281341553 0.6298753619194031
-0.06976741552352905 -0.19379842281341553 0.7244284152984619
-0.06976741552352905 -0.19379842281341553 0.8004477620124817
-0.06976741552352905 -0.19379842281341553 0.8851281404495239
-0.06976741552352905 -0.1782945990562439 0.627500057220459
-0.06976741552352905 -0.1782945990562439 0.6985833048820496
-0.06976741552352905 -0.1782945990562439 0.8011384606361389
-0.06976741552352905 -0.1782945990562439 0.8818581700325012
-0.06976741552352905 -0.1627907156944275 0.6296612024307251
-0.06976741552352905 -0.1627907156944275 0.6716378927230835
-0.06976741552352905 -0.1627907156944275 0.8113263249397278
-0.06976741552352905 -0.1627907156944275 0.8790953159332275
-0.06976741552352905 -0.14728683233261108 0.8243767023086548
-0.06976741552352905 -0.14728683233261108 0.8715386390686035
-0.06976741552352905 -0.13178294897079468 0.827788233757019
-0.06976741552352905 -0.13178294897079468 0.8655123114585876
-0.06976741552352905 -0.11627906560897827 0.8278936147689819
-0.06976741552352905 -0.11627906560897827 0.855277419090271
-0.06976741552352905 -0.10077518224716187 -0.9917926788330078
-0.06976741552352905 -0.10077518224716187 -0.950445830821991
-0.06976741552352905 -0.10077518224716187 -0.30253922939300537
-0.06976741552352905 -0.10077518224716187 0.2793976962566376
-0.06976741552352905 -0.10077518224716187 0.8293091058731079
-0.06976741552352905 -0.10077518224716187 0.8460578918457031
-0.06976741552352905 -0.08527129888534546 -0.9917582273483276
-0.06976741552352905 -0.08527129888534546 0.3332255184650421
-0.06976741552352905 -0.06976741552352905 -0.9915798306465149
-0.06976741552352905 -0.06976741552352905 0.42319780588150024
-0.06976741552352905 -0.05426359176635742 -0.9915112853050232
-0.06976741552352905 -0.05426359176635742 0.4805908501148224
-0.06976741552352905 -0.05426359176635742 0.5879600048065186
-0.06976741552352905 -0.05426359176635742 0.640977680683136
-0.06976741552352905 -0.038759708404541016 -0.9914788007736206
-0.06976741552352905 -0.038759708404541016 0.6704123020172119
-0.06976741552352905 -0.02325582504272461 -0.9914442896842957
-0.06976741552352905 -0.02325582504272461 0.7021487355232239
-0.06976741552352905 -0.007751941680908203 -0.9914674758911133
-0.06976741552352905 -0.007751941680908203 -0.15508046746253967
-0.06976741552352905 -0.007751941680908203 0.19696436822414398
-0.06976741552352905 -0.00775194214656949 0.7388578653335571
-0.06976741552352905 0.007751941680908203 -0.9915995001792908
-0.06976741552352905 0.007751941680908203 -0.6671760082244873
-0.06976741552352905 0.007751941680908203 0.4394693076610565
-0.06976741552352905 0.007751941680908203 0.7470574975013733
-0.06976741552352905 0.02325582504272461 -0.991510272026062
-0.06976741552352905 0.02325582504272461 -0.9541599750518799
-0.06976741552352905 0.02325582504272461 0.5085111260414124
-0.06976741552352905 0.02325582504272461 0.7449080348014832
-0.06976741552352905 0.038759708404541016 0.592021107673645
-0.06976742297410965 0.038759712129831314 0.7364522814750671
-0.06976741552352905 0.05426359176635742 0.6174213886260986
-0.06976741552352905 0.05426359176635742 0.7188712358474731
-0.06976741552352905 0.06976747512817383 0.6341439485549927
-0.06976741552352905 0.06976747512817383 0.7023625373840332
-0.06976741552352905 0.17829453945159912 0.7981722950935364
-0.06976741552352905 0.17829453945159912 0.7988033294677734
-0.06976741552352905 0.19379842281341553 0.7835756540298462
-0.06976741552352905 0.19379842281341553 0.8088062405586243
-0.06976741552352905 0.20930230617523193 0.7801625728607178
-0.06976741552352905 0.20930230617523193 0.8129995465278625
-0.06976741552352905 0.22480618953704834 0.7786802649497986
-0.06976741552352905 0.22480618953704834 0.812736451625824
-0.06976741552352905 0.24031007289886475 0.7797914743423462
-0.06976741552352905 0.24031007289886475 0.8077084422111511
-0.06976741552352905 0.25581395626068115 0.7827745676040649
-0.06976741552352905 0.25581395626068115 0.8017880916595459
-0.06976741552352905 0.39534878730773926 0.7962263226509094
-0.06976741552352905 0.39534878730773926 0.8019277453422546
-0.06976741552352905 0.41085267066955566 0.7934751510620117
-0.06976741552352905 0.41085267066955566 0.8043522834777832
-0.06976741552352905 0.42635655403137207 0.7908010482788086
-0.06976741552352905 0.42635655403137207 0.8044081926345825
-0.06976741552352905 0.4418604373931885 0.7866080403327942
-0.06976741552352905 0.4418604373931885 0.8041326999664307
-0.06976741552352905 0.4573643207550049 0.782256543636322
-0.06976741552352905 0.4573643207550049 0.8039143681526184
-0.06976741552352905 0.4728682041168213 0.780432939529419
-0.06976741552352905 0.4728682041168213 0.8036448359489441
-0.06976741552352905 0.4883720874786377 0.778018057346344
-0.06976741552352905 0.4883720874786377 0.8031683564186096
-0.06976741552352905 0.5038759708404541 0.7676078081130981
-0.06976741552352905 0.5038759708404541 0.8016561269760132
-0.06976741552352905 0.5193798542022705 0.7590281963348389
-0.06976741552352905 0.5193798542022705 0.7984539270401001
-0.06976741552352905 0.5348837375640869 0.7473052144050598
-0.06976741552352905 0.5348837375640869 0.7934759855270386
-0.06976741552352905 0.5503876209259033 0.7354108095169067
-0.06976741552352905 0.5503876209259033 0.7910033464431763
-0.06976741552352905 0.5658915042877197 0.728522539138794
-0.06976741552352905 0.5658915042877197 0.787114679813385
-0.06976741552352905 0.5813953876495361 0.7182902097702026
-0.06976741552352905 0.5813953876495361 0.7797302007675171
-0.06976741552352905 0.5968992710113525 0.7106382846832275
-0.06976741552352905 0.5968992710113525 0.774591326713562
-0.06976741552352905 0.612403154373169 0.7039995789527893
-0.06976741552352905 0.612403154373169 0.7664543986320496
-0.06976741552352905 0.6279069185256958 0.701693058013916
-0.06976741552352905 0.6279069185256958 0.7592954635620117
-0.06976741552352905 0.6434108018875122 0.6994473934173584
-0.06976741552352905 0.6434108018875122 0.7506012916564941
-0.06976741552352905 0.6589146852493286 0.6941749453544617
-0.06976741552352905 0.6589146852493286 0.7433065176010132
-0.06976741552352905 0.674418568611145 0.6885082125663757
-0.06976741552352905 0.674418568611145 0.7339007258415222
-0.06976741552352905 0.6899224519729614 0.68511962890625
-0.06976741552352905 0.6899224519729614 0.7278933525085449
-0.06976741552352905 0.7054263353347778 0.677586555480957
-0.06976741552352905 0.7054263353347778 0.718402087688446
-0.06976741552352905 0.7209302186965942 0.6718671917915344
-0.06976741552352905 0.7209302186965942 0.7121182680130005
-0.06976741552352905 0.7364341020584106 0.6633452773094177
-0.06976741552352905 0.7364341020584106 0.7013386487960815
-0.06976741552352905 0.751937985420227 0.6554018259048462
-0.06976741552352905 0.751937985420227 0.689393162727356
-0.06976741552352905 0.7674418687820435 0.6488524079322815
-0.06976741552352905 0.7674418687820435 0.6728272438049316
-0.05426359176635742 -0.643410861492157 0.7044075727462769
-0.05426359176635742 -0.643410861492157 0.7111635804176331
-0.05426359176635742 -0.6279069781303406 0.7010802030563354
-0.05426359176635742 -0.6279069185256958 0.7249065041542053
-0.05426359176635742 -0.6124030947685242 0.6978331804275513
-0.05426359176635742 -0.6124030947685242 0.7294749021530151
-0.05426359176635742 -0.5968992114067078 0.6960301399230957
-0.05426359176635742 -0.5968992114067078 0.7370167970657349
-0.05426359176635742 -0.5813953876495361 0.6980783939361572
-0.05426359176635742 -0.5813953876495361 0.7397292852401733
-0.05426359176635742 -0.5658915042877197 0.701012372970581
-0.05426359549164772 -0.5658915042877197 0.7419254183769226
-0.05426359176635742 -0.5503876209259033 0.704174816608429
-0.05426359176635742 -0.5503876209259033 0.7443107962608337
-0.05426359176635742 -0.5348837375640869 0.7099594473838806
-0.05426359176635742 -0.5348837375640869 0.7471333742141724
-0.05426359176635742 -0.5193798542022705 0.713284969329834
-0.05426359176635742 -0.5193798542022705 0.7504124641418457
-0.05426359176635742 -0.5038759708404541 0.7151879072189331
-0.05426359176635742 -0.5038759708404541 0.7520788311958313
-0.05426359176635742 -0.4883720874786377 0.7167960405349731
-0.05426359176635742 -0.4883720874786377 0.7521607875823975
-0.05426359176635742 -0.4728682041168213 0.7175995111465454
-0.05426359176635742 -0.4728682041168213 0.7515680193901062
-0.05426359176635742 -0.4573643207550049 0.7183278203010559
-0.05426359176635742 -0.4573643207550049 0.7484527230262756
-0.05426359176635742 -0.4418604373931885 0.719078004360199
-0.05426359176635742 -0.4418604373931885 0.7452762126922607
-0.05426359176635742 -0.42635661363601685 0.7191023826599121
-0.05426359176635742 -0.42635661363601685 0.7435306906700134
-0.05426359176635742 -0.41085273027420044 0.718654215335846
-0.05426359176635742 -0.41085273027420044 0.7420676946640015
-0.05426359176635742 -0.39534884691238403 0.7181860208511353
-0.05426359176635742 -0.39534884691238403 0.7409940958023071
-0.05426359176635742 -0.3798449635505676 0.7177935242652893
-0.05426359176635742 -0.3798449635505676 0.740337610244751
-0.05426359176635742 -0.3643410801887512 0.7176149487495422
-0.05426359176635742 -0.3643410801887512 0.739700198173523
-0.05426359176635742 -0.3643410801887512 0.9181435704231262
-0.05426359176635742 -0.36434105038642883 0.9240217208862305
-0.05426359176635742 -0.3488371968269348 0.7176463007926941
-0.05426359176635742 -0.3488371968269348 0.7387283444404602
-0.05426359176635742 -0.3488371968269348 0.9040811061859131
-0.05426359176635742 -0.3488371968269348 0.9254319667816162
-0.05426359176635742 -0.3333333134651184 0.7174688577651978
-0.05426359176635742 -0.3333333134651184 0.7374820113182068
-0.05426359176635742 -0.3333333134651184 0.8989505767822266
-0.05426359176635742 -0.3333333134651184 0.9239473342895508
-0.05426359176635742 -0.317829430103302 0.7175536155700684
-0.05426359176635742 -0.317829430103302 0.7297760248184204
-0.05426359176635742 -0.317829430103302 0.8910269737243652
-0.05426359176635742 -0.317829430103302 0.9182531833648682
-0.05426359176635742 -0.30232560634613037 0.7199994325637817
-0.05426359176635742 -0.30232560634613037 0.7216055989265442
-0.05426359176635742 -0.30232560634613037 0.8854043483734131
-0.05426359176635742 -0.30232560634613037 0.9149088859558105
-0.05426359176635742 -0.28682172298431396 0.8805235624313354
-0.05426359176635742 -0.28682172298431396 0.9124249219894409
-0.05426359176635742 -0.27131783962249756 0.8728570938110352
-0.05426359176635742 -0.27131783962249756 0.9085808992385864
-0.05426359176635742 -0.25581395626068115 0.6499238014221191
-0.05426359176635742 -0.25581395626068115 0.7165425419807434
-0.05426359176635742 -0.25581395626068115 0.8582548499107361
-0.05426359176635742 -0.25581395626068115 0.9014493823051453
-0.05426359176635742 -0.24031007289886475 0.6351783275604248
-0.05426359176635742 -0.24031007289886475 0.7237605452537537
-0.05426359176635742 -0.24031007289886475 0.8425965309143066
-0.05426359176635742 -0.24031007289886475 0.897976815700531
-0.05426359176635742 -0.22480618953704834 0.6264140009880066
-0.05426359176635742 -0.22480618953704834 0.7273918390274048
-0.05426359176635742 -0.22480618953704834 0.8273563385009766
-0.05426359176635742 -0.22480618953704834 0.8951287269592285
-0.05426359176635742 -0.20930230617523193 0.6248739957809448
-0.05426359176635742 -0.20930230617523193 0.7284728288650513
-0.05426359176635742 -0.20930230617523193 0.8036658763885498
-0.05426359176635742 -0.20930230617523193 0.8902184367179871
-0.05426359176635742 -0.19379842281341553 0.6240074038505554
-0.05426359176635742 -0.19379842281341553 0.723542332649231
-0.05426359176635742 -0.19379842281341553 0.7884069681167603
-0.05426359176635742 -0.19379842281341553 0.8834378719329834
-0.05426359176635742 -0.1782945990562439 0.6243411302566528
-0.05426359176635742 -0.1782945990562439 0.7031641602516174
-0.05426359176635742 -0.1782945990562439 0.790461003780365
-0.05426359176635742 -0.1782945990562439 0.8808284401893616
-0.05426359176635742 -0.1627907156944275 0.6257685422897339
-0.05426359176635742 -0.1627907156944275 0.6761221885681152
-0.05426359176635742 -0.1627907156944275 0.7996819019317627
-0.05426359176635742 -0.1627907156944275 0.8775372505187988
-0.05426359176635742 -0.14728683233261108 0.6418213248252869
-0.05426359176635742 -0.14728683233261108 0.6461920738220215
-0.05426359176635742 -0.14728683233261108 0.8113489151000977
-0.05426359176635742 -0.14728683233261108 0.869670033454895
-0.05426359176635742 -0.13178294897079468 0.8190429210662842
-0.05426359176635742 -0.13178294897079468 0.8652904033660889
-0.05426359176635742 -0.11627906560897827 -0.12532983720302582
-0.05426359176635742 -0.11627906560897827 0.30578458309173584
-0.05426359176635742 -0.11627906560897827 0.8213120698928833
-0.05426359176635742 -0.11627906560897827 0.8567225337028503
-0.05426359176635742 -0.10077518224716187 -0.9918606281280518
-0.05426359176635742 -0.10077518224716187 -0.9270304441452026
-0.05426359176635742 -0.10077518224716187 -0.3512263298034668
-0.05426359176635742 -0.10077518224716187 0.4377552270889282
-0.05426359176635742 -0.10077518224716187 0.8220726251602173
-0.05426359176635742 -0.10077518969774246 0.848318874835968
-0.05426359176635742 -0.08527129888534546 -0.9916961789131165
-0.05426359176635742 -0.08527129888534546 0.48898831009864807
-0.05426359176635742 -0.08527129888534546 0.8259097337722778
-0.05426359176635742 -0.08527129888534546 0.8339075446128845
-0.05426359176635742 -0.06976741552352905 -0.9915429949760437
-0.05426359176635742 -0.06976741552352905 0.528937816619873
-0.05426359176635742 -0.06976741552352905 0.5593428611755371
-0.05426359176635742 -0.06976741552352905 0.6378840208053589
-0.05426359176635742 -0.05426359176635742 -0.9915006160736084
-0.05426359176635742 -0.05426359176635742 0.6608121395111084
-0.05426359176635742 -0.038759708404541016 -0.9914777278900146
-0.05426359176635742 -0.038759708404541016 0.6900625824928284
-0.05426359176635742 -0.02325582504272461 -0.9914488196372986
-0.05426359176635742 -0.02325582504272461 0.7409485578536987
-0.05426359176635742 -0.007751941680908203 -0.9914724230766296
-0.05426359176635742 -0.007751941680908203 0.7568869590759277
-0.05426359176635742 0.007751941680908203 -0.9915889501571655
-0.05426359176635742 0.007751941680908203 -0.47843432426452637
-0.05426359176635742 0.007751941680908203 0.26073065400123596
-0.05426359176635742 0.007751941680908203 0.7607194185256958
-0.05426359176635742 0.02325582504272461 -0.9916015863418579
-0.05426359176635742 0.02325582504272461 -0.9183855056762695
-0.05426359176635742 0.02325582504272461 0.4514012336730957
-0.05426359176635742 0.02325582504272461 0.76409912109375
-0.05426359176635742 0.038759708404541016 0.5463770627975464
-0.05426359176635742 0.038759708404541016 0.765383243560791
-0.05426359176635742 0.05426359176635742 0.608870804309845
-0.05426359176635742 0.05426359176635742 0.764643669128418
-0.05426359176635742 0.06976747512817383 0.6257911920547485
-0.05426359176635742 0.06976747512817383 0.7584136724472046
-0.05426359549164772 0.08527135848999023 0.6467588543891907
-0.05426359176635742 0.08527135848999023 0.7424485087394714
-0.05426359176635742 0.1472867727279663 0.8089472055435181
-0.05426359176635742 0.1472867727279663 0.8193951845169067
-0.05426359176635742 0.16279065608978271 0.7855030298233032
-0.05426359176635742 0.16279065608978271 0.8220222592353821
-0.05426359176635742 0.17829453945159912 0.7799465656280518
-0.05426359176635742 0.17829453945159912 0.8205815553665161
-0.05426359176635742 0.19379842281341553 0.7763382792472839
-0.05426359176635742 0.19379842281341553 0.820365846157074
-0.05426359176635742 0.20930230617523193 0.7724746465682983
-0.05426359176635742 0.20930230617523193 0.8200358748435974
-0.05426359176635742 0.22480617463588715 0.770075798034668
-0.05426359176635742 0.22480618953704834 0.8190693855285645
-0.05426359176635742 0.24031007289886475 0.7722306251525879
-0.05426359176635742 0.24031007289886475 0.8169326186180115
-0.05426359176635742 0.25581395626068115 0.7770605087280273
-0.05426359176635742 0.25581395626068115 0.8145178556442261
-0.05426359176635742 0.27131783962249756 0.7811705470085144
-0.05426359176635742 0.27131783962249756 0.8074591755867004
-0.05426359176635742 0.28682172298431396 0.794455349445343
-0.05426359176635742 0.28682172298431396 0.8003641366958618
-0.05426359176635742 0.364341139793396 0.7983623147010803
-0.05426359176635742 0.3643411695957184 0.7986045479774475
-0.05426359176635742 0.37984490394592285 0.7954905033111572
-0.05426359176635742 0.37984490394592285 0.8054254055023193
-0.05426359176635742 0.39534878730773926 0.7935059666633606
-0.05426359176635742 0.39534878730773926 0.8079319000244141
-0.05426359176635742 0.41085267066955566 0.7917819023132324
-0.05426359176635742 0.41085267066955566 0.8078223466873169
-0.05426359176635742 0.42635655403137207 0.7898743152618408
-0.05426359176635742 0.42635655403137207 0.8067100048065186
-0.05426359176635742 0.4418604373931885 0.7870344519615173
-0.05426359176635742 0.4418604373931885 0.8059033155441284
-0.05426359176635742 0.4573643207550049 0.7826544046401978
-0.05426359176635742 0.4573643207550049 0.8052957653999329
-0.05426359176635742 0.4728682041168213 0.7806861400604248
-0.05426359176635742 0.4728682041168213 0.8048850297927856
-0.05426359176635742 0.4883720874786377 0.7785910367965698
-0.05426359176635742 0.4883720874786377 0.8047943115234375
-0.05426359176635742 0.5038759708404541 0.7729520797729492
-0.05426359176635742 0.5038759708404541 0.8041579723358154
-0.05426359176635742 0.5193798542022705 0.7624925971031189
-0.05426359176635742 0.5193798542022705 0.8021544218063354
-0.05426359176635742 0.5348837375640869 0.750481128692627
-0.05426359176635742 0.5348837375640869 0.7991176247596741
-0.05426359176635742 0.5503876209259033 0.7413420677185059
-0.05426359176635742 0.5503876209259033 0.7943170666694641
-0.05426359176635742 0.5658915042877197 0.7320471405982971
-0.05426359176635742 0.5658915042877197 0.7913517951965332
-0.05426359176635742 0.5813953876495361 0.7227355241775513
-0.05426359549164772 0.5813953876495361 0.7864668965339661
-0.05426359176635742 0.5968992710113525 0.7166187763214111
-0.05426359176635742 0.5968992710113525 0.7790896892547607
-0.05426359549164772 0.612403154373169 0.7108293175697327
-0.05426359176635742 0.612403154373169 0.7734723091125488
-0.05426359176635742 0.6279069185256958 0.7048299908638
-0.05426359176635742 0.6279069185256958 0.7645403146743774
-0.05426359176635742 0.6434108018875122 0.7029719352722168
-0.05426359176635742 0.6434108018875122 0.758293628692627
-0.05426359176635742 0.6589146852493286 0.7002905607223511
-0.05426359176635742 0.6589146852493286 0.748999834060669
