0.04888353496789932 -0.02325582504272461 -0.4728682041168213
0.04803025722503662 -0.02325582504272461 -0.4573643207550049
0.04733622819185257 -0.02325582504272461 -0.4418604373931885
0.04666907340288162 -0.02325582504272461 -0.42635661363601685
0.04609762877225876 -0.02325582504272461 -0.41085273027420044
0.045721814036369324 -0.02325582504272461 -0.39534884691238403
0.04541849344968796 -0.02325582504272461 -0.3798449635505676
0.04516763240098953 -0.02325582504272461 -0.3643410801887512
0.04482237622141838 -0.02325582504272461 -0.3488371968269348
0.04440286010503769 -0.02325582504272461 -0.3333333134651184
0.04407358914613724 -0.02325582504272461 -0.317829430103302
0.04367513209581375 -0.02325582504272461 -0.30232560634613037
0.043294936418533325 -0.02325582504272461 -0.28682172298431396
0.04288027808070183 -0.02325582504272461 -0.27131783962249756
0.04243743047118187 -0.02325582504272461 -0.25581395626068115
0.041939880698919296 -0.02325582504272461 -0.24031007289886475
0.04171977937221527 -0.02325582504272461 -0.22480618953704834
0.041505035012960434 -0.02325582504272461 -0.20930230617523193
0.041421741247177124 -0.02325582504272461 -0.19379842281341553
0.04144154116511345 -0.02325582504272461 -0.1782945841550827
0.041447754949331284 -0.02325582504272461 -0.1627907156944275
0.041490375995635986 -0.02325582504272461 -0.14728683233261108
0.0413244292140007 -0.02325582504272461 -0.13178294897079468
0.040972497314214706 -0.02325582504272461 -0.11627906560897827
0.04056335985660553 -0.02325582504272461 -0.10077518224716187
0.04016640782356262 -0.02325582504272461 -0.08527129888534546
0.03972165659070015 -0.02325582504272461 -0.06976741552352905
0.03950807824730873 -0.02325582690536976 -0.05426359549164772
0.039620913565158844 -0.02325582504272461 -0.038759708404541016
0.03981927037239075 -0.02325582504272461 -0.02325582504272461
0.04023924469947815 -0.02325582504272461 -0.007751941215246916
0.04086881875991821 -0.02325582504272461 0.007751941215246916
0.041632652282714844 -0.02325582504272461 0.02325582504272461
0.04226716235280037 -0.02325582504272461 0.038759708404541016
0.042617782950401306 -0.02325582504272461 0.05426359176635742
0.042859479784965515 -0.02325582504272461 0.06976747512817383
0.04282388091087341 -0.02325582504272461 0.08527135848999023
0.04263373464345932 -0.02325582504272461 0.10077524185180664
0.04237045347690582 -0.02325582504272461 0.11627911776304245
0.042166486382484436 -0.02325582504272461 0.1317828893661499
0.04196034371852875 -0.02325582504272461 0.1472867727279663
0.04211074486374855 -0.02325582504272461 0.16279065608978271
0.042338818311691284 -0.02325582504272461 0.17829453945159912
0.04255116358399391 -0.02325582504272461 0.19379842281341553
0.042900942265987396 -0.02325582504272461 0.20930229127407074
0.043051619082689285 -0.02325582504272461 0.22480618953704834
0.04284565895795822 -0.02325582504272461 0.24031005799770355
0.04238174110651016 -0.02325582504272461 0.25581395626068115
0.04165155068039894 -0.02325582504272461 0.27131783962249756
0.04074624925851822 -0.02325582318007946 0.28682172298431396
0.03991595283150673 -0.02325582504272461 0.30232560634613037
0.03935493528842926 -0.02325582504272461 0.3178294897079468
0.039141666144132614 -0.02325582504272461 0.3333333730697632
0.039257243275642395 -0.02325582504272461 0.3488372564315796
0.03966980800032616 -0.02325582318007946 0.364341139793396
0.04029291123151779 -0.02325582504272461 0.37984490394592285
0.04096725955605507 -0.02325582504272461 0.39534878730773926
0.041488826274871826 -0.02325582504272461 0.41085267066955566
0.0416642427444458 -0.02325582504272461 0.42635655403137207
0.041089609265327454 -0.02325582504272461 0.4418604373931885
0.040304966270923615 -0.02325582504272461 0.4573643207550049
0.03958118334412575 -0.02325582504272461 0.4728682041168213
0.03882725536823273 -0.02325582504272461 0.4883720874786377
0.05392161011695862 -0.007751941680908203 -0.5193798542022705
0.05293497443199158 -0.007751941680908203 -0.5038759708404541
0.05206487700343132 -0.007751941680908203 -0.4883720874786377
0.0510973185300827 -0.007751941680908203 -0.4728682041168213
0.05002577602863312 -0.007751941680908203 -0.4573643207550049
0.04910282418131828 -0.007751941680908203 -0.4418604373931885
0.048339009284973145 -0.007751941680908203 -0.42635661363601685
0.04769476130604744 -0.007751941680908203 -0.41085273027420044
0.04703891649842262 -0.007751941680908203 -0.39534884691238403
0.046343788504600525 -0.007751941680908203 -0.3798449635505676
0.045664507895708084 -0.007751941680908203 -0.3643410801887512
0.04493701457977295 -0.007751941680908203 -0.3488371968269348
0.044198229908943176 -0.007751941680908203 -0.3333333134651184
0.04346800222992897 -0.007751941680908203 -0.317829430103302
0.04250216484069824 -0.007751941680908203 -0.30232560634613037
0.0414544939994812 -0.007751941680908203 -0.28682172298431396
0.04059215635061264 -0.00775194214656949 -0.27131783962249756
0.039954520761966705 -0.007751941680908203 -0.25581395626068115
0.03950813040137291 -0.007751941680908203 -0.24031007289886475
0.03937448933720589 -0.007751941680908203 -0.22480618953704834
0.03921961039304733 -0.007751941680908203 -0.20930229127407074
0.03917274624109268 -0.007751941680908203 -0.19379842281341553
0.03914938494563103 -0.00775194214656949 -0.1782945990562439
0.039029888808727264 -0.007751941215246916 -0.1627907156944275
0.03896969184279442 -0.007751941680908203 -0.14728683233261108
0.03941759094595909 -0.007751941215246916 0.02325582504272461
0.04011567309498787 -0.007751941680908203 0.038759708404541016
0.04071639105677605 -0.007751941680908203 0.05426359176635742
0.04135078191757202 -0.007751941680908203 0.06976747512817383
0.04172381013631821 -0.007751941680908203 0.08527135848999023
0.04190206155180931 -0.007751941680908203 0.10077524185180664
0.04194636270403862 -0.007751941680908203 0.11627912521362305
0.04204115644097328 -0.007751941680908203 0.1317828893661499
0.04207788407802582 -0.007751941680908203 0.1472867727279663
0.04241636395454407 -0.007751941215246916 0.16279065608978271
0.04284130036830902 -0.007751941680908203 0.17829453945159912
0.043229103088378906 -0.00775194214656949 0.19379843771457672
0.04367300868034363 -0.007751941680908203 0.20930230617523193
0.04392551630735397 -0.007751941680908203 0.22480618953704834
0.04383711516857147 -0.007751941680908203 0.24031007289886475
0.043476611375808716 -0.007751941680908203 0.25581395626068115
0.04278280586004257 -0.007751941680908203 0.27131783962249756
0.041822995990514755 -0.007751941680908203 0.28682172298431396
0.04086870700120926 -0.007751941215246916 0.30232560634613037
0.04021748527884483 -0.007751941680908203 0.3178294897079468
0.039928946644067764 -0.00775194214656949 0.33333340287208557
0.04001658037304878 -0.007751941680908203 0.348837286233902
0.04047238081693649 -0.007751941680908203 0.364341139793396
0.0411948636174202 -0.007751941680908203 0.37984490394592285
0.042061179876327515 -0.007751941680908203 0.39534878730773926
0.042718905955553055 -0.007751941680908203 0.41085267066955566
0.04292724281549454 -0.007751941680908203 0.42635655403137207
0.042094357311725616 -0.007751941215246916 0.4418604373931885
0.040931522846221924 -0.007751941215246916 0.4573643207550049
0.039964668452739716 -0.007751941680908203 0.4728682041168213
0.03918302059173584 -0.007751941680908203 0.4883720576763153
0.053877606987953186 0.007751941680908203 -0.6279069781303406
0.05277147889137268 0.007751941680908203 -0.6124030947685242
0.05161874368786812 0.007751941680908203 -0.5968992114067078
0.05052990838885307 0.007751941680908203 -0.5813953876495361
0.04983629286289215 0.007751941680908203 -0.5658915042877197
0.04920157417654991 0.007751941680908203 -0.5503876209259033
0.048872947692871094 0.007751941680908203 -0.5348837375640869
0.04835183918476105 0.007751941680908203 -0.5193798542022705
0.04790053516626358 0.007751941680908203 -0.5038759708404541
0.04736193269491196 0.007751941680908203 -0.4883720874786377
0.04668363183736801 0.007751941680908203 -0.4728682041168213
0.04563702642917633 0.007751941680908203 -0.4573643207550049
0.04448099434375763 0.007751941680908203 -0.4418604373931885
0.04303921014070511 0.007751941680908203 -0.42635661363601685
0.04123211279511452 0.007751941680908203 -0.41085273027420044
0.03967216610908508 0.007751941680908203 -0.39534884691238403
0.039000123739242554 0.00775194214656949 0.17829453945159912
0.039482761174440384 0.007751941680908203 0.19379842281341553
0.039951372891664505 0.007751941680908203 0.20930230617523193
0.04024073854088783 0.007751941680908203 0.22480618953704834
0.0402807891368866 0.007751941680908203 0.24031007289886475
0.04010285437107086 0.007751941215246916 0.25581395626068115
0.03965003043413162 0.007751941680908203 0.27131783962249756
0.03903701901435852 0.007751941680908203 0.28682172298431396
0.03891673684120178 0.007751941680908203 0.3643411695957184
0.03971851244568825 0.00775194214656949 0.37984490394592285
0.04055003076791763 0.007751941215246916 0.39534878730773926
0.041087470948696136 0.007751941215246916 0.41085267066955566
0.041167937219142914 0.007751941680908203 0.42635655403137207
0.04049825295805931 0.007751941680908203 0.4418604373931885
0.03970746323466301 0.007751941680908203 0.4573643207550049
0.03893560171127319 0.007751941215246916 0.4728682041168213
0.05307234823703766 0.02325582504272461 -0.7209302186965942
0.05138562619686127 0.02325582504272461 -0.7054263353347778
0.04985511302947998 0.02325582504272461 -0.6899224519729614
0.04850172623991966 0.02325582504272461 -0.674418568611145
0.04685485363006592 0.02325582504272461 -0.6589146852493286
0.04522557556629181 0.02325582504272461 -0.643410861492157
0.04333733022212982 0.02325582504272461 -0.6279069781303406
0.04225526377558708 0.02325582504272461 -0.6124030947685242
0.04083925858139992 0.02325582504272461 -0.5968992114067078
0.0395822636783123 0.02325582504272461 -0.5813953876495361
0.038891907781362534 0.02325582504272461 -0.5658915042877197
0.053777795284986496 0.02325582504272461 0.7054263353347778
0.053741682320833206 0.038759708404541016 -0.8139535188674927
0.05140228196978569 0.038759708404541016 -0.7984496355056763
0.049454815685749054 0.038759708404541016 -0.7829457521438599
0.04775327444076538 0.038759708404541016 -0.7674418687820435
0.045890145003795624 0.038759708404541016 -0.751937985420227
0.04393772780895233 0.038759708404541016 -0.7364341020584106
0.04178199544548988 0.038759708404541016 -0.7209302186965942
0.039929475635290146 0.038759708404541016 -0.7054263353347778
0.050455935299396515 0.038759708404541016 0.7209302186965942
0.05235084518790245 0.05426359176635742 -0.8914728760719299
0.04986312985420227 0.05426359176635742 -0.8759689927101135
0.04813659191131592 0.05426359176635742 -0.8604651093482971
0.04628380388021469 0.05426359176635742 -0.8449612855911255
0.04395090416073799 0.05426359176635742 -0.8294572830200195
0.04118126630783081 0.05426359176635742 -0.8139535188674927
0.03889056667685509 0.05426359549164772 -0.7984496355056763
0.046106208115816116 0.06976747512817383 -0.9689922332763672
0.045249905437231064 0.06976747512817383 -0.953488290309906
0.04378410428762436 0.06976747512817383 -0.9379844665527344
0.04199253022670746 0.06976747512817383 -0.9224807024002075
0.040315091609954834 0.06976748257875443 -0.9069768190383911
0.03886978328227997 0.06976747512817383 -0.8914728760719299
0.043977364897727966 0.08527135848999023 -0.9844961166381836
0.04623199999332428 0.08527135848999023 0.751937985420227
0.042685166001319885 0.10077524185180664 0.5658915042877197
0.04007020592689514 0.1317828893661499 0.5813953876495361
0.043642882257699966 0.1317828893661499 0.6434108018875122
0.04703894257545471 0.1317828893661499 0.6589146852493286
0.05146641656756401 0.1317828893661499 0.674418568611145
0.04273398593068123 0.1317828893661499 0.7984496355056763
0.050686899572610855 0.1472867727279663 0.5813953876495361
0.04454779624938965 0.1472867727279663 0.5968992710113525
0.046501025557518005 0.1472867727279663 0.612403154373169
0.04913175851106644 0.1472867727279663 0.6279069185256958
0.05184811353683472 0.1472867727279663 0.6434108018875122
0.052197907119989395 0.16279065608978271 0.27131783962249756
0.04629652202129364 0.16279065608978271 0.28682172298431396
0.03943822160363197 0.16279065608978271 0.30232560634613037
0.05369003489613533 0.16279065608978271 0.612403154373169
0.05415046215057373 0.16279065608978271 0.6279069185256958
0.052445776760578156 0.16279065608978271 0.7364341020584106
0.050628114491701126 0.17829453945159912 0.27131783962249756
0.05121995881199837 0.17829453945159912 0.4573643207550049
0.040052205324172974 0.17829453945159912 0.7364341020584106
0.05272018536925316 0.19379842281341553 0.30232560634613037
0.044885069131851196 0.19379842281341553 0.3178294897079468
0.04445609822869301 0.19379842281341553 0.42635658383369446
0.04965430125594139 0.19379842281341553 0.7364341020584106
0.045911215245723724 0.20930230617523193 0.7209302186965942
0.041440147906541824 0.27131783962249756 0.7829457521438599
0.053205475211143494 0.28682172298431396 0.751937985420227
0.0645357072353363 -0.751937985420227 0.5193798542022705
0.0630943775177002 -0.674418568611145 0.5348837375640869
0.0622817799448967 -0.674418568611145 0.5503876209259033
0.06382212042808533 -0.643410861492157 0.5503876209259033
0.05751339718699455 -0.6279069781303406 0.22480618953704834
0.06068906933069229 -0.6279069781303406 0.24031007289886475
0.06227709352970123 -0.6124030947685242 0.5658915042877197
0.0682017058134079 -0.5658915042877197 0.612403154373169
0.06686890125274658 -0.5038759708404541 0.6434108018875122
0.0692676305770874 -0.19379842281341553 0.7209302186965942
0.06884518265724182 -0.19379842281341553 0.7364341020584106
0.0633806511759758 -0.19379842281341553 0.8139535188674927
0.06873603910207748 -0.1782945990562439 0.674418568611145
0.06454954296350479 -0.1782945990562439 0.6899224519729614
0.06805036962032318 -0.1782945990562439 0.8139535188674927
0.06657829880714417 -0.1627907156944275 0.6589146852493286
0.060278575867414474 -0.1627907156944275 0.674418568611145
0.0690140351653099 -0.14728683233261108 0.6279069185256958
0.06688079982995987 -0.14728683233261108 0.6434108018875122
0.06397971510887146 -0.14728683233261108 0.6589146852493286
0.057579755783081055 -0.14728683233261108 0.674418568611145
0.06363646686077118 -0.14728683233261108 0.7984496355056763
0.06926179677248001 -0.13178294897079468 0.6279069185256958
0.06762293726205826 -0.13178294897079468 0.6434108018875122
0.06603045761585236 -0.13178294897079468 0.6589146852493286
0.06314754486083984 -0.13178294897079468 0.674418568611145
0.0556340366601944 -0.13178294897079468 0.6899224519729614
0.0681048035621643 -0.11627906560897827 0.674418568611145
0.06300745904445648 -0.11627906560897827 0.6899224519729614
0.05556279048323631 -0.11627906560897827 0.7674418687820435
0.06907270848751068 -0.11627906560897827 0.7829457521438599
0.05838414281606674 -0.10077518224716187 0.7054263353347778
0.05694805458188057 -0.10077518224716187 0.7364341020584106
0.0639934316277504 -0.10077518224716187 0.751937985420227
0.0695544183254242 -0.10077518224716187 0.7674418687820435
0.058873798698186874 -0.08527129888534546 -0.9844961166381836
0.06548942625522614 -0.08527129888534546 0.7209302186965942
0.06820391863584518 -0.08527129888534546 0.7364341020584106
0.061051998287439346 -0.06976741552352905 -0.9689922332763672
0.060048237442970276 -0.06976741552352905 -0.9534884095191956
0.05859457701444626 -0.06976741552352905 -0.9379844665527344
0.05730302259325981 -0.06976741552352905 -0.9224806427955627
0.0562802217900753 -0.06976741552352905 -0.9069768190383911
0.05504278466105461 -0.06976741552352905 -0.8914728760719299
0.06878268718719482 -0.05426359176635742 -0.9069767594337463
0.06698186695575714 -0.05426359176635742 -0.8914728760719299
0.06534990668296814 -0.05426359176635742 -0.8759689927101135
0.0640905350446701 -0.05426359176635742 -0.8604651093482971
0.06297856569290161 -0.05426359176635742 -0.8449612259864807
0.06191926449537277 -0.05426359176635742 -0.8294574022293091
0.060649722814559937 -0.05426359176635742 -0.8139535188674927
0.059292495250701904 -0.05426359176635742 -0.7984496355056763
0.0574457086622715 -0.05426359176635742 -0.7829457521438599
0.055332958698272705 -0.05426359549164772 -0.7674418687820435
0.06974098831415176 -0.038759708404541016 -0.8139535188674927
0.06756230443716049 -0.038759708404541016 -0.7984496355056763
0.06580687314271927 -0.038759708404541016 -0.7829457521438599
0.0643078088760376 -0.038759708404541016 -0.7674418687820435
0.0632268637418747 -0.038759708404541016 -0.751937985420227
0.06202597916126251 -0.038759708404541016 -0.7364341020584106
0.06087880581617355 -0.038759708404541016 -0.7209302186965942
0.06003168225288391 -0.038759708404541016 -0.7054263353347778
0.05897892639040947 -0.038759708404541016 -0.6899224519729614
0.05759114772081375 -0.038759708404541016 -0.674418568611145
0.05568234622478485 -0.038759708404541016 -0.6589146852493286
0.0543050654232502 -0.038759708404541016 -0.643410861492157
0.0680772215127945 -0.02325582504272461 -0.751937985420227
0.06644339114427567 -0.02325582504272461 -0.7364341020584106
0.0651167780160904 -0.02325582504272461 -0.7209302186965942
0.06414609402418137 -0.02325582504272461 -0.7054263353347778
0.06299509108066559 -0.02325582504272461 -0.6899224519729614
0.06164354830980301 -0.02325582504272461 -0.674418568611145
0.06019417941570282 -0.02325582504272461 -0.6589146852493286
0.059238992631435394 -0.02325582504272461 -0.643410861492157
0.058027904480695724 -0.02325582504272461 -0.6279069185256958
0.05702154338359833 -0.02325582504272461 -0.6124030947685242
0.05593676492571831 -0.02325582504272461 -0.5968992114067078
0.054982662200927734 -0.02325582318007946 -0.5813953876495361
0.05443427339196205 -0.02325582504272461 -0.5658915042877197
0.06833965331315994 -0.007751941680908203 -0.751937985420227
0.06658915430307388 -0.007751941680908203 -0.7364341020584106
0.06523072719573975 -0.007751941680908203 -0.7209302186965942
0.06425902992486954 -0.007751941680908203 -0.7054263353347778
0.06307566165924072 -0.007751941680908203 -0.6899224519729614
0.06173175200819969 -0.007751941680908203 -0.674418568611145
0.0602923184633255 -0.007751941680908203 -0.6589146852493286
0.05939030647277832 -0.007751941215246916 -0.643410861492157
0.05835012346506119 -0.007751941680908203 -0.6279069781303406
0.05763433873653412 -0.007751941680908203 -0.6124030947685242
0.05678149312734604 -0.007751941680908203 -0.5968992114067078
0.05584300681948662 -0.007751941680908203 -0.5813953876495361
0.05527011677622795 -0.007751941680908203 -0.5658915042877197
0.05479249730706215 -0.007751941680908203 -0.5503876209259033
0.054520782083272934 -0.007751941215246916 -0.5348837375640869
0.06925837695598602 0.007751941680908203 -0.7984496355056763
0.06701656430959702 0.007751941680908203 -0.7829457521438599
0.06508538126945496 0.007751941680908203 -0.7674418687820435
0.06374809890985489 0.007751941680908203 -0.751937985420227
0.06225382164120674 0.007751941680908203 -0.7364341020584106
0.0610249787569046 0.007751941680908203 -0.7209302186965942
0.06025433540344238 0.007751941680908203 -0.7054263353347778
0.059302814304828644 0.007751941680908203 -0.6899224519729614
0.05798319727182388 0.007751941215246916 -0.674418568611145
0.056212060153484344 0.007751941680908203 -0.6589146852493286
0.05507100000977516 0.007751941680908203 -0.6434108018875122
0.06876219809055328 0.007751941680908203 0.7054263353347778
0.06866378337144852 0.02325582504272461 -0.8604651689529419
0.06619662046432495 0.02325582504272461 -0.8449612259864807
0.06459495425224304 0.02325582504272461 -0.8294573426246643
0.06306517124176025 0.02325582504272461 -0.8139535188674927
0.061564795672893524 0.02325582504272461 -0.7984496355056763
0.06019841879606247 0.02325582504272461 -0.7829457521438599
0.05784884840250015 0.02325582504272461 -0.7674418687820435
0.05594533681869507 0.02325582504272461 -0.7519379258155823
0.05464308708906174 0.02325582504272461 -0.7364341020584106
0.06752514094114304 0.02325582504272461 0.5968992710113525
0.05682256072759628 0.02325582504272461 0.6899224519729614
0.06378345936536789 0.02325582504272461 0.7209302186965942
0.06772015988826752 0.038759708404541016 -0.9379844665527344
0.06566274911165237 0.038759708404541016 -0.9224806427955627
0.06418327242136002 0.038759708404541016 -0.9069767594337463
0.06280889362096786 0.038759708404541016 -0.8914728760719299
0.061208248138427734 0.038759708404541016 -0.8759690523147583
0.05972026661038399 0.038759708404541016 -0.8604650497436523
0.05731389671564102 0.038759708404541016 -0.8449612259864807
0.05537455156445503 0.038759712129831314 -0.8294573426246643
0.05469415336847305 0.038759708404541016 0.5813954472541809
0.06826711446046829 0.038759708404541016 0.7364341020584106
0.06965427100658417 0.05426359176635742 -0.9844961166381836
0.05892898514866829 0.05426359176635742 -0.968992292881012
0.058381088078022 0.05426358804106712 -0.9534883499145508
0.05701122432947159 0.05426359176635742 -0.9379844665527344
0.055682551115751266 0.05426359176635742 -0.9224806427955627
0.05460827797651291 0.05426359176635742 -0.9069767594337463
0.05771610885858536 0.05426359176635742 0.7364341020584106
0.059553321450948715 0.06976747512817383 -0.9844961166381836
0.0658881738781929 0.06976747512817383 0.751937985420227
0.06616747379302979 0.08527135848999023 0.7674418687820435
0.060143642127513885 0.10077524185180664 0.5658915042877197
0.06715766340494156 0.10077524185180664 0.7829457521438599
0.06328897178173065 0.11627912521362305 0.5658915042877197
0.06463339179754257 0.1317828893661499 0.5658915042877197
0.054964616894721985 0.1317828893661499 0.6899224519729614
0.06963536143302917 0.1472867727279663 0.27131783962249756
0.0682191401720047 0.1472867727279663 0.28682172298431396
0.0687650740146637 0.1472867727279663 0.30232560634613037
0.055282484740018845 0.1472867876291275 0.6589146852493286
0.06321145594120026 0.1472867727279663 0.674418568611145
0.06602085381746292 0.1472867727279663 0.6899224519729614
0.06780775636434555 0.1472867727279663 0.7054263353347778
0.06666556000709534 0.1472867727279663 0.8139535188674927
0.06916619092226028 0.16279065608978271 0.25581395626068115
0.06635424494743347 0.16279065608978271 0.5813953876495361
0.05510833114385605 0.16279065608978271 0.5968992710113525
0.06128820404410362 0.16279065608978271 0.6434108018875122
0.06533604860305786 0.16279065608978271 0.6589146852493286
0.06759920716285706 0.16279065608978271 0.674418568611145
0.06972050666809082 0.16279065608978271 0.6899224519729614
0.055736243724823 0.17829453945159912 0.45736435055732727
0.06825831532478333 0.17829453945159912 0.612403154373169
0.06811373680830002 0.17829453945159912 0.6279069185256958
0.06909459084272385 0.17829453945159912 0.6434108018875122
0.05490289255976677 0.17829452455043793 0.751937985420227
0.06411658227443695 0.17829453945159912 0.7674418687820435
0.06432873010635376 0.17829453945159912 0.8294574022293091
0.06919951736927032 0.19379842281341553 0.37984490394592285
0.06514404714107513 0.19379842281341553 0.39534878730773926
0.06332141906023026 0.19379842281341553 0.41085267066955566
0.058731839060783386 0.19379842281341553 0.42635655403137207
0.06791098415851593 0.19379842281341553 0.751937985420227
0.06451526284217834 0.25581395626068115 0.6899224519729614
0.05996154993772507 0.27131783962249756 0.6899224519729614
0.06323011219501495 0.27131783962249756 0.7674418687820435
0.061793871223926544 0.28682172298431396 0.6899224519729614
0.0648554116487503 0.30232560634613037 0.6899224519729614
0.05510848015546799 0.30232560634613037 0.7054263353347778
0.05769283324480057 0.30232560634613037 0.7209302186965942
0.0663619339466095 0.3178294897079468 0.6899224519729614
0.06721685826778412 0.3178294897079468 0.7054263353347778
0.07123538851737976 -0.751937985420227 0.5193798542022705
0.07058974355459213 -0.7364341020584106 0.5193798542022705
0.07241833955049515 -0.6279069781303406 0.22480618953704834
0.07746075093746185 -0.5813953876495361 0.5813953876495361
0.08278430998325348 -0.28682172298431396 0.8449612855911255
0.08074867725372314 -0.27131783962249756 0.8449612855911255
0.08121398836374283 -0.25581395626068115 0.8449612855911255
0.08478537201881409 -0.24031007289886475 0.8294574022293091
0.08453992009162903 -0.24031007289886475 0.8449612855911255
0.08081924915313721 -0.22480618953704834 0.8294574022293091
0.0743810385465622 -0.20930230617523193 0.8139535188674927
0.0804266706109047 -0.20930230617523193 0.8294574022293091
0.08397909998893738 -0.19379842281341553 0.674418568611145
0.08158452808856964 -0.19379842281341553 0.6899224519729614
0.07663051784038544 -0.19379842281341553 0.7054263353347778
0.07783642411231995 -0.19379842281341553 0.7829457521438599
0.08341304957866669 -0.1782945990562439 0.6434108018875122
0.0795845165848732 -0.1782945990562439 0.6589146852493286
0.08077576756477356 -0.1627907156944275 0.6279069185256958
0.07055982947349548 -0.1627907156944275 0.6434108018875122
0.08063843101263046 -0.14728683233261108 0.612403154373169
0.07929383963346481 -0.13178294897079468 0.612403154373169
0.0817602127790451 -0.13178294897079468 0.7984496355056763
0.08013157546520233 -0.11627906560897827 0.6279069185256958
0.0763777419924736 -0.11627906560897827 0.6434108018875122
0.07181160151958466 -0.11627905815839767 0.6589146256446838
0.08420451730489731 -0.10077518224716187 0.6434108018875122
0.08111537247896194 -0.10077518224716187 0.6589146852493286
0.07809227705001831 -0.10077518224716187 0.674418568611145
0.07304330915212631 -0.10077518224716187 0.6899224519729614
0.0833272784948349 -0.10077518224716187 0.7829457521438599
0.07909953594207764 -0.08527129888534546 0.7054263353347778
0.0762544572353363 -0.08527129888534546 0.751937985420227
0.08228226006031036 -0.08527129888534546 0.7674418687820435
0.0732206404209137 -0.06976741552352905 -0.9844961166381836
0.07936067879199982 -0.06976741552352905 0.7209302186965942
0.07818469405174255 -0.06976741552352905 0.7364341020584106
0.0838656798005104 -0.06976741552352905 0.751937985420227
0.08218459039926529 -0.05426359176635742 -0.9844961166381836
0.07453634589910507 -0.05426359176635742 -0.968992292881012
0.07316459715366364 -0.05426359176635742 -0.9534883499145508
0.07161425799131393 -0.05426359176635742 -0.9379844665527344
0.07026631385087967 -0.05426359176635742 -0.9224806427955627
0.08430834859609604 -0.05426359176635742 0.7209302186965942
0.08232973515987396 -0.05426359176635742 0.7364341020584106
0.08413644880056381 -0.038759708404541016 -0.9689922332763672
0.08127329498529434 -0.038759708404541016 -0.9534883499145508
0.07947394996881485 -0.038759708404541016 -0.9379844665527344
0.07824088633060455 -0.038759708404541016 -0.9224806427955627
0.07714696228504181 -0.038759708404541016 -0.9069766998291016
0.07613840699195862 -0.038759708404541016 -0.8914728760719299
0.07528498768806458 -0.038759708404541016 -0.8759689927101135
0.07439781725406647 -0.038759708404541016 -0.8604651093482971
0.07259837538003922 -0.038759708404541016 -0.8449611663818359
0.07094117254018784 -0.038759708404541016 -0.8294573426246643
0.08420265465974808 -0.038759708404541016 0.7209302186965942
0.0830901563167572 -0.038759708404541016 0.7364341020584106
0.08289021253585815 -0.02325582504272461 -0.9224806427955627
0.08127397298812866 -0.02325582504272461 -0.9069767594337463
0.07995215803384781 -0.02325582504272461 -0.8914728760719299
0.07853934913873672 -0.02325582504272461 -0.8759689927101135
0.07723678648471832 -0.02325582504272461 -0.8604651689529419
0.07618540525436401 -0.02325582504272461 -0.8449612855911255
0.07564311474561691 -0.02325582504272461 -0.8294573426246643
0.0747469812631607 -0.02325582504272461 -0.8139535188674927
0.07315301150083542 -0.02325582504272461 -0.7984496355056763
0.0714259222149849 -0.02325582318007946 -0.7829457521438599
0.06995143741369247 -0.02325582690536976 -0.7674418687820435
0.08054406195878983 -0.02325582504272461 0.7209302186965942
0.08243364840745926 -0.02325582504272461 0.7364341020584106
0.08355491608381271 -0.007751941680908203 -0.922480583190918
0.08174116909503937 -0.007751941680908203 -0.9069767594337463
0.08027428388595581 -0.007751941680908203 -0.8914728164672852
0.07872504740953445 -0.007751941680908203 -0.8759689331054688
0.0773032084107399 -0.007751941680908203 -0.8604651689529419
0.07624921947717667 -0.007751941215246916 -0.8449611663818359
0.07566225528717041 -0.007751941680908203 -0.8294573426246643
0.07467765361070633 -0.007751941680908203 -0.8139535188674927
0.07313208281993866 -0.007751941680908203 -0.7984496355056763
0.07154025137424469 -0.007751941680908203 -0.7829457521438599
0.07009827345609665 -0.007751941680908203 -0.7674419283866882
0.07685285806655884 -0.007751941680908203 0.7209302186965942
0.08183953166007996 -0.007751941680908203 0.7364341020584106
0.08409726619720459 0.007751941680908203 -0.9534883499145508
0.08151765912771225 0.007751941680908203 -0.9379844665527344
0.07991033047437668 0.007751941680908203 -0.922480583190918
0.07866264879703522 0.007751941680908203 -0.9069767594337463
0.07721900939941406 0.007751941680908203 -0.8914728760719299
0.07623088359832764 0.007751941680908203 -0.8759689331054688
0.07548068463802338 0.007751941680908203 -0.8604651689529419
0.0737714022397995 0.007751941680908203 -0.8449612855911255
0.07200552523136139 0.007751941680908203 -0.8294573426246643
0.07061446458101273 0.00775194214656949 -0.8139535188674927
0.06977589428424835 0.00775194214656949 0.7209302186965942
0.08010291308164597 0.007751941680908203 0.7364341020584106
0.07825446128845215 0.02325582504272461 -0.9689922332763672
0.07707030326128006 0.02325582504272461 -0.9534883499145508
0.07578811049461365 0.02325582504272461 -0.9379844665527344
0.07481028884649277 0.02325582504272461 -0.9224807024002075
0.07362611591815948 0.02325582318007946 -0.9069767594337463
0.07199026644229889 0.02325582504272461 -0.8914728164672852
0.07038307934999466 0.02325582504272461 -0.8759689927101135
0.07288563251495361 0.02325582504272461 0.5968992710113525
0.0767948180437088 0.02325582504272461 0.7364341020584106
0.07808630168437958 0.038759708404541016 -0.9844961166381836
0.07160414755344391 0.038759708404541016 -0.9689922332763672
0.07011577486991882 0.038759708404541016 -0.9534883499145508
0.08441535383462906 0.038759708404541016 0.751937985420227
0.07727286964654922 0.05426359176635742 0.751937985420227
0.07964354753494263 0.06976747512817383 0.7674418687820435
0.08317139744758606 0.08527135848999023 0.7829457521438599
0.07351092994213104 0.11627912521362305 0.7984496355056763
0.07176639884710312 0.16279064118862152 0.25581395626068115
0.07674720883369446 0.16279065608978271 0.42635655403137207
0.07009125500917435 0.16279065608978271 0.4418604075908661
0.07884327322244644 0.16279065608978271 0.7054263353347778
0.08200028538703918 0.16279065608978271 0.7209302186965942
0.07881017029285431 0.16279065608978271 0.7364341020584106
0.07868270576000214 0.17829453945159912 0.27131783962249756
0.08405512571334839 0.17829453945159912 0.41085267066955566
0.0782986506819725 0.17829453945159912 0.42635655403137207
0.07195930182933807 0.17829453945159912 0.4418604373931885
0.07438252121210098 0.17829453945159912 0.5968992710113525
0.07455896586179733 0.17829453945159912 0.6589146852493286
0.07981668412685394 0.17829453945159912 0.674418568611145
0.08278078585863113 0.17829453945159912 0.6899224519729614
0.07004065811634064 0.19379842281341553 0.30232560634613037
0.07609359920024872 0.19379842281341553 0.3178294897079468
0.07650609314441681 0.19379842281341553 0.3333333730697632
0.07434287667274475 0.19379843771457672 0.3488372564315796
0.071134053170681 0.19379842281341553 0.3643411099910736
0.08520598709583282 0.19379842281341553 0.6434108018875122
0.07455208152532578 0.19379842281341553 0.7674418687820435
0.0733407735824585 0.20930230617523193 0.7209302186965942
0.07642368227243423 0.22480618953704834 0.7054263353347778
0.07684534788131714 0.22480618953704834 0.8449612855911255
0.08029642701148987 0.24031007289886475 0.6899224519729614
0.08133113384246826 0.25581395626068115 0.674418568611145
0.07930180430412292 0.25581395626068115 0.7984496355056763
0.07025039196014404 0.25581395626068115 0.8139535188674927
0.07732035219669342 0.27131783962249756 0.674418568611145
0.07526347041130066 0.28682172298431396 0.674418568611145
0.07508082687854767 0.30232560634613037 0.674418568611145
0.07754874229431152 0.3178294897079468 0.674418568611145
0.09052568674087524 -0.7364341020584106 0.5193798542022705
0.08930628001689911 -0.7209302186965942 0.5193798542022705
0.0910729318857193 -0.6589146852493286 0.5658915042877197
0.08831710368394852 -0.6279069781303406 0.5658915042877197
0.0900484025478363 -0.6279069185256958 0.5813953876495361
0.0879988968372345 -0.5968992114067078 0.5968992710113525
0.09603407233953476 -0.5503876209259033 0.5968992710113525
0.09286803007125854 -0.5503876209259033 0.6279069185256958
0.0971716046333313 -0.5038759708404541 0.6589146852493286
0.09857314079999924 -0.317829430103302 0.8604651689529419
0.09682820737361908 -0.30232560634613037 0.8604651689529419
0.09644968807697296 -0.28682172298431396 0.8604651689529419
0.08797620981931686 -0.24031008780002594 0.8294574022293091
0.09951929748058319 -0.22480618953704834 0.8449612855911255
0.09989515691995621 -0.20930230617523193 0.674418568611145
0.09814930707216263 -0.20930230617523193 0.6899224519729614
0.09827892482280731 -0.20930230617523193 0.7054263353347778
0.09841416776180267 -0.19379842281341553 0.6434108018875122
0.09296610206365585 -0.19379842281341553 0.6589146852493286
0.0917617678642273 -0.19379842281341553 0.8294574022293091
0.09344398975372314 -0.1782945990562439 0.6279069185256958
0.09399423748254776 -0.1627907156944275 0.612403154373169
0.08911391347646713 -0.1627907156944275 0.8139535188674927
0.09656229615211487 -0.14728683233261108 0.5968992710113525
0.08560862392187119 -0.13178296387195587 0.5968992710113525
0.0990917757153511 -0.11627906560897827 0.5968992710113525
0.0864812582731247 -0.11627905815839767 0.612403154373169
0.09974031895399094 -0.11627906560897827 0.7984496355056763
0.09962153434753418 -0.10077518224716187 0.612403154373169
0.09129295498132706 -0.10077518224716187 0.6279069185256958
0.09738026559352875 -0.08527129888534546 0.6589146852493286
0.0945795327425003 -0.08527129888534546 0.674418568611145
0.09094299376010895 -0.08527129888534546 0.6899224519729614
0.09634742885828018 -0.08527129888534546 0.7829457521438599
0.09253757447004318 -0.06976741552352905 0.7674418687820435
0.09079170227050781 -0.05426359176635742 0.751937985420227
0.09853450953960419 -0.05426359176635742 0.7674418687820435
0.09222719073295593 -0.038759708404541016 -0.9844961166381836
0.0939583033323288 -0.038759708404541016 0.751937985420227
0.09343446046113968 -0.02325582504272461 -0.9844961166381836
0.08781275898218155 -0.02325582504272461 -0.9689921736717224
0.08645845949649811 -0.02325582504272461 -0.9534883499145508
0.08532795310020447 -0.02325582504272461 -0.9379844665527344
0.0949721485376358 -0.02325582504272461 0.751937985420227
0.09360446035861969 -0.007751941680908203 -0.9844961166381836
0.08803801983594894 -0.007751941680908203 -0.968992292881012
0.08675375580787659 -0.007751941680908203 -0.9534884095191956
0.08561669290065765 -0.007751941680908203 -0.9379844665527344
0.09515571594238281 -0.007751941680908203 0.751937985420227
0.09272719919681549 0.007751941680908203 -0.9844961166381836
0.08619130402803421 0.007751941680908203 -0.9689922332763672
0.09059716761112213 0.007751941680908203 0.7054263353347778
0.09417633712291718 0.007751941680908203 0.751937985420227
0.08995833992958069 0.02325582504272461 -0.9844961166381836
0.08587822318077087 0.02325582504272461 0.6899224519729614
0.0969778448343277 0.02325582504272461 0.7054263353347778
0.09154940396547318 0.02325582504272461 0.751937985420227
0.08594240248203278 0.038759708404541016 0.5813953876495361
0.08972075581550598 0.038759708404541016 0.5968992710113525
0.08964989334344864 0.038759708404541016 0.612403154373169
0.08773116767406464 0.038759708404541016 0.6279069185256958
0.08607708662748337 0.038759708404541016 0.6434108018875122
0.08605469018220901 0.038759708404541016 0.6589146852493286
0.08786806464195251 0.038759708404541016 0.674418568611145
0.09329164773225784 0.038759708404541016 0.6899224519729614
0.09838750958442688 0.038759708404541016 0.7674418687820435
0.09071814268827438 0.05426359176635742 0.5813953876495361
0.09950675815343857 0.05426359176635742 0.5968992710113525
0.10070396959781647 0.05426359176635742 0.6279069185256958
0.09679439663887024 0.05426359176635742 0.6434108018875122
0.09503665566444397 0.05426359176635742 0.6589146852493286
0.09703898429870605 0.05426359176635742 0.674418568611145
0.09014222025871277 0.05426359176635742 0.7674418687820435
0.0854821503162384 0.06976748257875443 0.5658915042877197
0.10024324804544449 0.06976747512817383 0.5813953876495361
0.09622833132743835 0.06976747512817383 0.7829457521438599
0.08843602240085602 0.08527135848999023 0.5658915042877197
0.09001567214727402 0.10077523440122604 0.7984495759010315
0.09785626828670502 0.1317828893661499 0.5658915042877197
0.08903604745864868 0.1317828893661499 0.8139535188674927
0.08630252629518509 0.1472867727279663 0.27131783962249756
0.08825147151947021 0.1472867727279663 0.28682172298431396
0.08653388917446136 0.1472867727279663 0.30232560634613037
0.09168066084384918 0.16279065608978271 0.27131783962249756
0.09607774019241333 0.16279065608978271 0.3333333730697632
0.08954093605279922 0.16279065608978271 0.3488372564315796
0.08742596209049225 0.16279065608978271 0.364341139793396
0.08674471080303192 0.16279065608978271 0.37984490394592285
0.08631014823913574 0.16279065608978271 0.39534881711006165
0.08559389412403107 0.16279065608978271 0.41085267066955566
0.09300103783607483 0.16279065608978271 0.5813953876495361
0.08820387721061707 0.16279065608978271 0.7364341020584106
0.09354957938194275 0.16279065608978271 0.751937985420227
0.09214213490486145 0.16279065608978271 0.8294574022293091
0.08992400765419006 0.17829453945159912 0.28682172298431396
0.09635071456432343 0.17829453945159912 0.30232560634613037
0.09917835146188736 0.17829453945159912 0.3178294897079468
0.09648165851831436 0.17829453945159912 0.3333333730697632
0.09218653291463852 0.17829453945159912 0.3488372564315796
0.08808853477239609 0.17829453945159912 0.364341139793396
0.08635310083627701 0.17829453945159912 0.37984490394592285
0.08554420620203018 0.17829452455043793 0.39534875750541687
0.09017588198184967 0.17829453945159912 0.7054263353347778
0.08655203133821487 0.19379842281341553 0.6279069185256958
0.08833108097314835 0.19379842281341553 0.6589146852493286
0.09277307987213135 0.19379842281341553 0.674418568611145
0.09633044898509979 0.19379842281341553 0.6899224519729614
0.10042034089565277 0.19379842281341553 0.7054263353347778
0.09897157549858093 0.20930230617523193 0.6434108018875122
0.09855432063341141 0.20930230617523193 0.6589146852493286
0.09953251481056213 0.20930230617523193 0.674418568611145
0.1006557047367096 0.20930230617523193 0.6899224519729614
0.0998627245426178 0.20930230617523193 0.7054263353347778
0.08651560544967651 0.20930230617523193 0.8449612855911255
0.0998193547129631 0.22480618953704834 0.6434108018875122
0.0982978567481041 0.22480618953704834 0.6589146852493286
0.09843742102384567 0.22480618953704834 0.674418568611145
0.0973135232925415 0.22480618953704834 0.6899224519729614
0.09931571781635284 0.24031007289886475 0.6434108018875122
0.09403501451015472 0.24031007289886475 0.6589146852493286
0.09013350307941437 0.24031007289886475 0.674418568611145
0.09014692902565002 0.25581395626068115 0.6589146852493286
0.09117546677589417 0.25581395626068115 0.7829457521438599
0.09107265621423721 0.27131783962249756 0.6589146852493286
0.09697914123535156 0.28682172298431396 0.6589146852493286
0.10430382192134857 -0.7209302186965942 0.5193798542022705
0.11264508962631226 -0.7054263353347778 0.5348837375640869
0.10427587479352951 -0.6589146852493286 0.5503876209259033
0.10583473742008209 -0.5968992114067078 0.5813953876495361
0.11058107763528824 -0.4883720874786377 0.6589146852493286
0.10162633657455444 -0.28682172298431396 0.8449612855911255
0.11242935806512833 -0.27131783962249756 0.8449612855911255
0.10224521905183792 -0.27131783962249756 0.8604651689529419
0.11142580956220627 -0.25581395626068115 0.8604651689529419
0.11319635808467865 -0.20930230617523193 0.6589146852493286
0.10136331617832184 -0.20930230617523193 0.8139535188674927
0.10969046503305435 -0.19379842281341553 0.7984496355056763
0.11576997488737106 -0.14728683233261108 0.8139535188674927
0.11359037458896637 -0.10077518224716187 0.5968992710113525
0.11151902377605438 -0.10077518224716187 0.7984496355056763
0.115990549325943 -0.08527129888534546 0.612403154373169
0.10924097895622253 -0.08527129888534546 0.6279069185256958
0.10107135027647018 -0.08527129888534546 0.6434108018875122
0.11620872467756271 -0.06976741552352905 0.4573643207550049
0.11535803228616714 -0.06976741552352905 0.4728682041168213
0.11507244408130646 -0.06976741552352905 0.4883720874786377
0.11555568128824234 -0.06976741552352905 0.5038759708404541
0.11153177917003632 -0.06976741552352905 0.7209302186965942
0.10666589438915253 -0.06976741552352905 0.7829457521438599
0.11524412035942078 -0.05426359176635742 0.4418604373931885
0.11397285759449005 -0.05426359176635742 0.4573643207550049
0.11327057331800461 -0.05426359176635742 0.4728682041168213
0.113655686378479 -0.05426359176635742 0.4883720874786377
0.11467573791742325 -0.05426359176635742 0.5038759708404541
0.10505549609661102 -0.05426359176635742 0.720930278301239
0.11303861439228058 -0.05426359176635742 0.7829457521438599
0.11407835781574249 -0.038759708404541016 0.4418604373931885
0.11277233809232712 -0.038759708404541016 0.4573643207550049
0.11260607093572617 -0.038759708404541016 0.4728682041168213
0.11362092941999435 -0.038759708404541016 0.4883720874786377
0.11501701921224594 -0.038759708404541016 0.5038759708404541
0.10476414114236832 -0.038759708404541016 0.7209302186965942
0.10336437821388245 -0.038759708404541016 0.7674418687820435
0.11578358709812164 -0.02325582504272461 0.4418604373931885
0.11459356546401978 -0.02325582504272461 0.4573643207550049
0.11455227434635162 -0.02325582504272461 0.4728682041168213
0.11530286073684692 -0.02325582504272461 0.4883720874786377
0.10703270137310028 -0.02325582504272461 0.7209302186965942
0.10598407685756683 -0.02325582504272461 0.7674418687820435
0.10923538357019424 -0.007751941680908203 0.7209302186965942
0.10670064389705658 -0.007751941680908203 0.7674418687820435
0.10754388570785522 0.007751941680908203 0.7209302186965942
0.10576815158128738 0.007751941680908203 0.7674418687820435
0.10611821711063385 0.02325582504272461 0.7209302186965942
0.10354357957839966 0.02325582504272461 0.7674418687820435
0.1025228425860405 0.038759708404541016 0.7054263353347778
0.10910536348819733 0.038759708404541016 0.7209302186965942
0.11485785245895386 0.038759708404541016 0.7829457521438599
0.10134230554103851 0.05426359176635742 0.612403154373169
0.1020364910364151 0.05426359176635742 0.6899224519729614
0.10515330731868744 0.05426359176635742 0.7054263353347778
0.10774123668670654 0.05426359176635742 0.7829457521438599
0.10487674921751022 0.06976747512817383 0.5968992710113525
0.10675095021724701 0.06976747512817383 0.612403154373169
0.10666273534297943 0.06976747512817383 0.6279069185256958
0.10525087267160416 0.06976747512817383 0.6434108018875122
0.10395199805498123 0.06976747512817383 0.6589146852493286
0.10365750640630722 0.06976747512817383 0.674418568611145
0.10503442585468292 0.06976747512817383 0.6899225115776062
0.10936376452445984 0.06976747512817383 0.7054263353347778
0.11535196751356125 0.06976747512817383 0.7984496355056763
0.11209434270858765 0.08527135848999023 0.5813953876495361
0.10450683534145355 0.08527135848999023 0.7984496355056763
0.10162494331598282 0.10077524185180664 0.5658915042877197
0.10745714604854584 0.11627912521362305 0.5658915042877197
0.10721597075462341 0.11627912521362305 0.8139535188674927
0.11032984405755997 0.1472867727279663 0.5813953876495361
0.11315064132213593 0.1472867727279663 0.7209302186965942
0.10613502562046051 0.1472867727279663 0.7364341020584106
0.10784503817558289 0.1472867727279663 0.751937985420227
0.11293986439704895 0.1472867727279663 0.7674418687820435
0.11194305121898651 0.1472867727279663 0.8294574022293091
0.10139099508523941 0.16279065608978271 0.28682172298431396
0.10192520171403885 0.16279065608978271 0.30232560634613037
0.10154658555984497 0.16279065608978271 0.3178294897079468
0.10562644898891449 0.16279065608978271 0.7209302186965942
0.10130301117897034 0.16279065608978271 0.7674418687820435
0.1156870648264885 0.16279065608978271 0.7829457521438599
0.10127227008342743 0.17829453945159912 0.5968992710113525
0.10782158374786377 0.19379842281341553 0.7054263353347778
0.1054709181189537 0.19379842281341553 0.8449612855911255
0.11404330283403397 0.20930230617523193 0.7209302186965942
0.10678929090499878 0.24031007289886475 0.6434108018875122
0.11312353610992432 0.25581395626068115 0.7829457521438599
0.11070408672094345 0.28682172298431396 0.6589146852493286
0.10923472791910172 0.3178294897079468 0.674418568611145
0.12681952118873596 -0.6899224519729614 0.5348837375640869
0.12778224050998688 -0.674418568611145 0.5348837375640869
0.12067995965480804 -0.6589146852493286 0.5503876209259033
0.12588593363761902 -0.4883720874786377 0.6434108018875122
0.12777933478355408 -0.3333333134651184 0.8759689331054688
0.11836591362953186 -0.317829430103302 0.8604651689529419
0.12589991092681885 -0.317829430103302 0.8759689331054688
0.12102676928043365 -0.30232560634613037 0.8604651689529419
0.12644240260124207 -0.30232560634613037 0.8759689331054688
0.1283625066280365 -0.28682172298431396 0.8759689331054688
0.12130355089902878 -0.25581395626068115 0.8449612855911255
0.1263945996761322 -0.24031007289886475 0.8604651689529419
0.1259315460920334 -0.22480618953704834 0.674418568611145
0.11700477451086044 -0.22480618953704834 0.6899224519729614
0.12841472029685974 -0.22480618953704834 0.7054263353347778
0.12047086656093597 -0.22480618953704834 0.8294574618339539
0.12135928869247437 -0.20930230617523193 0.8449612855911255
0.1197802796959877 -0.19379842281341553 0.7364341616630554
0.1261460930109024 -0.1782945990562439 0.6279069185256958
0.1313086450099945 -0.1782945990562439 0.751937985420227
0.12045785784721375 -0.1782945990562439 0.7674418687820435
0.12709978222846985 -0.1782945990562439 0.7829457521438599
0.11934108287096024 -0.1782945990562439 0.8294574022293091
0.12688803672790527 -0.1627907156944275 0.612403154373169
0.11976486444473267 -0.14728683233261108 0.5968992710113525
0.13004782795906067 -0.13178294897079468 0.8139535188674927
0.11903787404298782 -0.11627905815839767 0.5813953876495361
0.12464975565671921 -0.10077518224716187 0.5813953876495361
0.13021017611026764 -0.08527129888534546 0.4728682041168213
0.12781856954097748 -0.08527129888534546 0.4883720874786377
0.12845870852470398 -0.08527129888534546 0.5038759708404541
0.13108167052268982 -0.08527129888534546 0.5193798542022705
0.13102233409881592 -0.08527129888534546 0.5813953876495361
0.12622645497322083 -0.08527129888534546 0.5968992710113525
0.12466257810592651 -0.08527129888534546 0.7054263353347778
0.1257568597793579 -0.08527129888534546 0.7209302186965942
0.1304316520690918 -0.08527129888534546 0.7364341020584106
0.12148606777191162 -0.08527129888534546 0.7984496355056763
0.12706346809864044 -0.06976741552352905 0.4418604373931885
0.12575416266918182 -0.06976741552352905 0.5193798542022705
0.1270570456981659 -0.06976741552352905 0.7364341020584106
0.12874990701675415 -0.06976741552352905 0.7984496355056763
0.13142651319503784 -0.05426359176635742 0.41085267066955566
0.12408994138240814 -0.05426359176635742 0.42635655403137207
0.12168239057064056 -0.05426359176635742 0.5193798542022705
