-0.3699270784854889 0.22480618953704834 0.24031007289886475
-0.37749794125556946 0.22480618953704834 0.612403154373169
-0.37335509061813354 0.22480618953704834 0.6279069185256958
-0.3675454556941986 0.22480618953704834 0.6434108018875122
-0.3716655969619751 0.24031007289886475 0.25581395626068115
-0.37636417150497437 0.24031007289886475 0.5813953876495361
-0.37112611532211304 0.24031007289886475 0.5968992710113525
-0.3657475709915161 0.24031007289886475 0.612403154373169
-0.3694882094860077 0.25581395626068115 0.27131783962249756
-0.3768605589866638 0.25581395626068115 0.28682172298431396
-0.37818101048469543 0.25581395626068115 0.5348837375640869
-0.37413519620895386 0.25581395626068115 0.5503876209259033
-0.36795762181282043 0.25581395626068115 0.5658915042877197
-0.36671191453933716 0.27131783962249756 0.30232560634613037
-0.36987847089767456 0.27131783962249756 0.3178294897079468
-0.3726719617843628 0.27131783962249756 0.3333333730697632
-0.3749714195728302 0.27131783962249756 0.3488372564315796
-0.37663277983665466 0.27131783962249756 0.364341139793396
-0.3782750964164734 0.27131783962249756 0.37984493374824524
-0.3789466619491577 0.27131783962249756 0.39534878730773926
-0.37923651933670044 0.27131783962249756 0.41085267066955566
-0.3792383670806885 0.27131783962249756 0.42635655403137207
-0.37915560603141785 0.27131786942481995 0.4418604373931885
-0.37873420119285583 0.27131783962249756 0.4573643207550049
-0.3781071603298187 0.27131783962249756 0.4728682041168213
-0.3765203058719635 0.27131783962249756 0.4883720874786377
-0.37388160824775696 0.27131783962249756 0.5038759708404541
-0.3691362738609314 0.27131783962249756 0.5193798542022705
-0.36490678787231445 0.27131783962249756 0.5348837375640869
-0.3646133840084076 0.28682172298431396 0.37984490394592285
-0.36540353298187256 0.28682172298431396 0.39534878730773926
-0.3657960295677185 0.28682172298431396 0.41085267066955566
-0.365826278924942 0.28682172298431396 0.42635655403137207
-0.3656899034976959 0.28682172298431396 0.4418604373931885
-0.36507388949394226 0.28682172298431396 0.4573643207550049
-0.3505065143108368 -0.30232560634613037 0.3333333730697632
-0.35258811712265015 -0.30232560634613037 0.3488372564315796
-0.35431337356567383 -0.30232560634613037 0.364341139793396
-0.3563374876976013 -0.30232560634613037 0.37984490394592285
-0.3579557240009308 -0.30232560634613037 0.39534878730773926
-0.3595789074897766 -0.30232560634613037 0.41085267066955566
-0.3607344329357147 -0.30232560634613037 0.42635655403137207
-0.36135733127593994 -0.30232560634613037 0.4418604373931885
-0.3605788052082062 -0.30232560634613037 0.4573643207550049
-0.3588769733905792 -0.30232560634613037 0.4728682041168213
-0.3562975823879242 -0.30232560634613037 0.4883720874786377
-0.3528231978416443 -0.30232560634613037 0.5038759708404541
-0.34899941086769104 -0.30232560634613037 0.5193798542022705
-0.3505863547325134 -0.28682172298431396 0.28682172298431396
-0.3561769723892212 -0.28682172298431396 0.30232560634613037
-0.36004579067230225 -0.28682172298431396 0.3178294897079468
-0.3640638291835785 -0.28682172298431396 0.3333333730697632
-0.3631117045879364 -0.28682172298431396 0.5193798542022705
-0.3577662408351898 -0.28682172298431396 0.5348837375640869
-0.3536255359649658 -0.28682172298431396 0.5503876209259033
-0.3494924306869507 -0.28682172298431396 0.5658915042877197
-0.3512069880962372 -0.27131783962249756 0.27131783962249756
-0.3615952730178833 -0.27131783962249756 0.28682172298431396
-0.3631168305873871 -0.27131783962249756 0.5658915042877197
-0.3587629199028015 -0.27131783962249756 0.5813953876495361
-0.35538333654403687 -0.27131783962249756 0.5968992710113525
-0.35203900933265686 -0.27131783962249756 0.612403154373169
-0.361452579498291 -0.25581395626068115 0.27131783962249756
-0.3601045608520508 -0.25581395626068115 0.6279069185256958
-0.3561908006668091 -0.25581395626068115 0.6434108018875122
-0.3505682349205017 -0.25581395626068115 0.6589146852493286
-0.35279935598373413 -0.24031007289886475 0.25581395626068115
-0.36221227049827576 -0.24031005799770355 0.6589146852493286
-0.35701337456703186 -0.24031007289886475 0.674418568611145
-0.3491174578666687 -0.24031007289886475 0.6899224519729614
-0.3605741262435913 -0.22480618953704834 0.6899224519729614
-0.35363876819610596 -0.22480618953704834 0.7054263353347778
-0.36264047026634216 -0.20930230617523193 0.7054263353347778
-0.3563838005065918 -0.20930230617523193 0.7209302186965942
-0.3642098605632782 -0.19379842281341553 0.7209301590919495
-0.3570641875267029 -0.19379842281341553 0.7364341020584106
-0.3616897165775299 -0.1782945990562439 0.22480618953704834
-0.3637208342552185 -0.1782945990562439 0.7364341020584106
-0.35598665475845337 -0.1782945990562439 0.751937985420227
-0.3623419404029846 -0.16279073059558868 0.751937985420227
-0.3530547618865967 -0.1627907156944275 0.7674418687820435
-0.34904319047927856 -0.14728683233261108 -0.5658915042877197
-0.3498297333717346 -0.14728683233261108 -0.5503876209259033
-0.3502890467643738 -0.14728683233261108 -0.5348837375640869
-0.35072851181030273 -0.14728683233261108 -0.5193798542022705
-0.3510870039463043 -0.14728683233261108 -0.5038759708404541
-0.35147398710250854 -0.14728683233261108 -0.4883720874786377
-0.35165634751319885 -0.14728683233261108 -0.4728682041168213
-0.35168927907943726 -0.14728683233261108 -0.4573643207550049
-0.35159873962402344 -0.14728683233261108 -0.4418604373931885
-0.3512282073497772 -0.14728683233261108 -0.42635661363601685
-0.35079148411750793 -0.14728683233261108 -0.41085273027420044
-0.3503652811050415 -0.14728683233261108 -0.39534884691238403
-0.3499681055545807 -0.14728683233261108 -0.3798449635505676
-0.3495822250843048 -0.14728683233261108 -0.3643410801887512
-0.3494535982608795 -0.14728683233261108 -0.3488371968269348
-0.3494023382663727 -0.14728683233261108 -0.3333333134651184
-0.34950533509254456 -0.14728683233261108 -0.317829430103302
-0.3496301770210266 -0.14728683233261108 -0.30232560634613037
-0.3494884967803955 -0.14728683233261108 -0.28682172298431396
-0.34939444065093994 -0.14728683233261108 -0.27131783962249756
-0.3490215539932251 -0.14728683233261108 -0.25581395626068115
-0.3572448492050171 -0.14728683233261108 0.20930230617523193
-0.36040741205215454 -0.14728683233261108 0.7674418687820435
-0.3493700921535492 -0.13178294897079468 -0.6279069781303406
-0.35073167085647583 -0.13178294897079468 -0.6124030947685242
-0.3515353202819824 -0.13178294897079468 -0.5968992114067078
-0.3519274890422821 -0.13178294897079468 -0.5813953876495361
-0.35215502977371216 -0.13178294897079468 -0.5658915042877197
-0.3523039221763611 -0.13178294897079468 -0.5503876209259033
-0.35234516859054565 -0.13178294897079468 -0.5348837375640869
-0.3520694375038147 -0.13178294897079468 -0.5193798542022705
-0.3509705066680908 -0.13178294897079468 -0.5038759708404541
-0.34922000765800476 -0.13178294897079468 -0.42635661363601685
-0.3505774438381195 -0.13178294897079468 -0.41085273027420044
-0.35085663199424744 -0.13178294897079468 -0.39534884691238403
-0.35105395317077637 -0.13178294897079468 -0.3798449635505676
-0.35112202167510986 -0.13178294897079468 -0.3643410801887512
-0.3512415885925293 -0.13178294897079468 -0.3488371968269348
-0.35134440660476685 -0.13178294897079468 -0.3333333134651184
-0.3514975607395172 -0.13178294897079468 -0.317829430103302
-0.3516213893890381 -0.13178294897079468 -0.30232560634613037
-0.35159122943878174 -0.13178294897079468 -0.28682172298431396
-0.35156112909317017 -0.13178294897079468 -0.27131783962249756
-0.3513925075531006 -0.13178294897079468 -0.25581395626068115
-0.3511609435081482 -0.13178294897079468 -0.24031007289886475
-0.35092592239379883 -0.13178294897079468 -0.22480618953704834
-0.35051557421684265 -0.13178294897079468 -0.20930230617523193
-0.35010966658592224 -0.13178294897079468 -0.19379842281341553
-0.3497335612773895 -0.13178294897079468 -0.1782945990562439
-0.34942299127578735 -0.13178294897079468 -0.1627907156944275
-0.3491608202457428 -0.13178294897079468 -0.14728683233261108
-0.34908416867256165 -0.13178294897079468 -0.13178294897079468
-0.34890633821487427 -0.13178294897079468 -0.11627906560897827
-0.3545446991920471 -0.13178294897079468 0.20930230617523193
-0.35688450932502747 -0.13178294897079468 0.7829457521438599
-0.3499285578727722 -0.11627906560897827 -0.1782945990562439
-0.3506423830986023 -0.11627906560897827 -0.1627907156944275
-0.3509101867675781 -0.11627906560897827 -0.14728683233261108
-0.35097628831863403 -0.11627906560897827 -0.13178294897079468
-0.35072416067123413 -0.11627906560897827 -0.11627906560897827
-0.3499991297721863 -0.11627906560897827 -0.10077518224716187
-0.36043837666511536 -0.11627906560897827 0.19379842281341553
-0.3506685197353363 -0.11627906560897827 0.20930230617523193
-0.3622494339942932 -0.11627905815839767 0.7829457521438599
-0.35055533051490784 -0.11627906560897827 0.7984496355056763
-0.35267460346221924 -0.10077518224716187 0.19379842281341553
-0.3577388525009155 -0.10077518224716187 0.7984496355056763
-0.3615333139896393 -0.08527129143476486 0.7984496355056763
-0.3614359200000763 -0.06976741552352905 0.17829453945159912
-0.3636656701564789 -0.06976741552352905 0.7984496355056763
-0.35327666997909546 -0.06976741552352905 0.8139535188674927
-0.35534679889678955 -0.05426359176635742 0.17829453945159912
-0.35748791694641113 -0.05426359176635742 0.8139535188674927
-0.3509761095046997 -0.038759708404541016 0.17829453945159912
-0.3597894310951233 -0.038759708404541016 0.8139535188674927
-0.3505116105079651 -0.02325582504272461 0.17829453945159912
-0.3605736792087555 -0.02325582504272461 0.8139535188674927
-0.35632723569869995 -0.007751941680908203 0.17829453945159912
-0.3603641390800476 -0.007751941680908203 0.8139535188674927
-0.35857316851615906 0.007751941680908203 0.8139535188674927
-0.3548773527145386 0.02325582504272461 0.8139535188674927
-0.35588517785072327 0.038759708404541016 0.19379842281341553
-0.36249834299087524 0.038759708404541016 0.798449695110321
-0.35129979252815247 0.038759708404541016 0.8139535188674927
-0.359514981508255 0.05426359176635742 0.19379842281341553
-0.3601568639278412 0.05426359549164772 0.7984496355056763
-0.35808491706848145 0.06976747512817383 0.19379842281341553
-0.3587583303451538 0.06976747512817383 0.7984496355056763
-0.35583627223968506 0.08527135848999023 0.19379842281341553
-0.35536929965019226 0.08527135848999023 0.7984496355056763
-0.3545020818710327 0.10077524185180664 0.19379842281341553
-0.36101436614990234 0.10077524185180664 0.7829457521438599
-0.3501676321029663 0.10077524185180664 0.7984496355056763
-0.3527417778968811 0.11627912521362305 0.19379842281341553
-0.3571248948574066 0.11627912521362305 0.7829457521438599
-0.35123518109321594 0.1317828893661499 0.19379842281341553
-0.36041998863220215 0.1317828893661499 0.7674418687820435
-0.34960317611694336 0.1317828893661499 0.7829457521438599
-0.3541542887687683 0.1472867727279663 0.19379842281341553
-0.3630381226539612 0.1472867727279663 0.7519380450248718
-0.3545174300670624 0.1472867727279663 0.7674418687820435
-0.3583231270313263 0.16279065608978271 0.751937985420227
-0.3595108389854431 0.17829453945159912 0.7364341020584106
-0.34921854734420776 0.17829453945159912 0.751937985420227
-0.35877156257629395 0.19379842281341553 0.20930230617523193
-0.3588349223136902 0.19379842281341553 0.7209302186965942
-0.3494471311569214 0.19379842281341553 0.7364341020584106
-0.36247071623802185 0.20930230617523193 0.6899224519729614
-0.3562716245651245 0.20930230617523193 0.7054263353347778
-0.3630819022655487 0.22480618953704834 0.6589146852493286
-0.35855093598365784 0.22480618953704834 0.674418568611145
-0.35169634222984314 0.22480618953704834 0.6899224519729614
-0.3501596450805664 0.24031007289886475 0.24031007289886475
-0.3615983724594116 0.24031007289886475 0.6279069185256958
-0.35744500160217285 0.24031007289886475 0.6434108018875122
-0.3514860272407532 0.24031007289886475 0.6589146852493286
-0.3545399606227875 0.25581395626068115 0.25581395626068115
-0.36393898725509644 0.25581395626068115 0.5813953876495361
-0.3598683774471283 0.25581395626068115 0.5968992710113525
-0.3543975353240967 0.25581395626068115 0.612403154373169
-0.3493425250053406 0.25581395626068115 0.6279069185256958
-0.35327574610710144 0.27131783962249756 0.27131783962249756
-0.362393856048584 0.27131783962249756 0.28682172298431396
-0.36095401644706726 0.27131783962249756 0.5503876209259033
-0.3562503457069397 0.27131783962249756 0.5658915042877197
-0.3511200249195099 0.27131783962249756 0.5813953876495361
-0.3511151075363159 0.28682172298431396 0.30232560634613037
-0.3550998270511627 0.28682172298431396 0.3178294897079468
-0.35833561420440674 0.28682172298431396 0.3333333730697632
-0.3613124489784241 0.28682172298431396 0.3488372564315796
-0.36304664611816406 0.28682172298431396 0.364341139793396
-0.3642800748348236 0.28682172298431396 0.4728682041168213
-0.3628389835357666 0.28682172298431396 0.4883720874786377
-0.3599065840244293 0.28682172298431396 0.5038759708404541
-0.3558902144432068 0.28682172298431396 0.5193798542022705
-0.3510107100009918 0.28682172298431396 0.5348837375640869
-0.3502037525177002 0.30232560634613037 0.37984490394592285
-0.3511826694011688 0.30232560634613037 0.39534878730773926
-0.3517230153083801 0.30232560634613037 0.41085267066955566
-0.3518866300582886 0.30232560634613037 0.42635655403137207
-0.3517264127731323 0.30232560634613037 0.4418604373931885
-0.3509286940097809 0.30232560634613037 0.4573643207550049
-0.3499070703983307 0.30232560634613037 0.4728682041168213
-0.33363091945648193 -0.317829430103302 0.3178294897079468
-0.3360210061073303 -0.317829430103302 0.3333333730697632
-0.33806997537612915 -0.317829430103302 0.3488372564315796
-0.3396821618080139 -0.317829430103302 0.364341139793396
-0.3415239453315735 -0.317829430103302 0.37984490394592285
-0.3431878685951233 -0.317829430103302 0.39534878730773926
-0.3448881506919861 -0.317829430103302 0.41085267066955566
-0.3459964096546173 -0.317829430103302 0.42635655403137207
-0.34660273790359497 -0.317829430103302 0.4418604373931885
-0.34573790431022644 -0.317829430103302 0.4573643207550049
-0.3437312841415405 -0.317829430103302 0.4728681743144989
-0.3410412073135376 -0.317829430103302 0.4883720874786377
-0.33748936653137207 -0.317829430103302 0.5038759708404541
-0.33382663130760193 -0.317829430103302 0.5193798542022705
-0.3388659954071045 -0.30232560634613037 0.28682172298431396
-0.34364140033721924 -0.30232560634613037 0.30232560634613037
-0.3473306894302368 -0.30232560634613037 0.3178294897079468
-0.34280306100845337 -0.30232560634613037 0.5348837375640869
-0.3386624753475189 -0.30232560634613037 0.5503876209259033
-0.3349980115890503 -0.30232560634613037 0.5658915042877197
-0.34120893478393555 -0.28682172298431396 0.27131783962249756
-0.3444111943244934 -0.28682172298431396 0.5813953876495361
-0.3410724997520447 -0.28682172298431396 0.5968992710113525
-0.33827969431877136 -0.28682172298431396 0.612403154373169
-0.33398571610450745 -0.28682172298431396 0.6279069185256958
-0.3344382643699646 -0.27131783962249756 0.25581395626068115
-0.34687092900276184 -0.27131783962249756 0.6279069185256958
-0.3424537181854248 -0.27131783962249756 0.6434108018875122
-0.33801406621932983 -0.27131783962249756 0.6589146852493286
-0.3422151207923889 -0.25581395626068115 0.25581395626068115
-0.3436627984046936 -0.25581395626068115 0.674418568611145
-0.33766961097717285 -0.25581395626068115 0.6899224519729614
-0.3421213626861572 -0.24031007289886475 0.7054263353347778
-0.34465306997299194 -0.22480618953704834 0.7209302186965942
-0.3353871703147888 -0.22480618953704834 0.7364341020584106
-0.34589940309524536 -0.20930230617523193 0.7364341020584106
-0.33675751090049744 -0.20930230617523193 0.751937985420227
-0.34622707962989807 -0.19379842281341553 0.751937985420227
-0.3361949920654297 -0.19379842281341553 0.7674418687820435
-0.33346104621887207 -0.1782945990562439 -0.3643410801887512
-0.3338189423084259 -0.1782945990562439 -0.3488371968269348
-0.334065705537796 -0.1782945990562439 -0.3333333134651184
-0.33420369029045105 -0.1782945990562439 -0.317829430103302
-0.3342422842979431 -0.1782945990562439 -0.30232560634613037
-0.33387890458106995 -0.1782945990562439 -0.28682172298431396
-0.3334217965602875 -0.1782945990562439 -0.27131783962249756
-0.3338596522808075 -0.1782945990562439 0.24031007289886475
-0.34547483921051025 -0.1782945990562439 0.7674418687820435
-0.3338373303413391 -0.1782945990562439 0.7829457521438599
-0.33501309156417847 -0.1627907156944275 -0.5348837375640869
-0.3357539772987366 -0.1627907156944275 -0.5193798542022705
-0.33493536710739136 -0.1627907156944275 -0.5038759708404541
-0.33465588092803955 -0.1627907156944275 -0.39534884691238403
-0.33612579107284546 -0.1627907156944275 -0.3798449635505676
-0.3372817039489746 -0.1627907156944275 -0.3643410801887512
-0.33790022134780884 -0.1627907156944275 -0.3488371968269348
-0.3382274806499481 -0.1627907156944275 -0.3333333134651184
-0.3385060429573059 -0.1627907156944275 -0.317829430103302
-0.3385045826435089 -0.1627907156944275 -0.30232560634613037
-0.33861321210861206 -0.1627907156944275 -0.28682172298431396
-0.33844244480133057 -0.1627907156944275 -0.27131783962249756
-0.33846038579940796 -0.1627907156944275 -0.25581395626068115
-0.33846980333328247 -0.1627907156944275 -0.24031007289886475
-0.33842259645462036 -0.1627907156944275 -0.22480618953704834
-0.3381991982460022 -0.1627907156944275 -0.20930230617523193
-0.3380271792411804 -0.1627907156944275 -0.19379842281341553
-0.33779212832450867 -0.1627907156944275 -0.1782945990562439
-0.33757340908050537 -0.1627907156944275 -0.1627907156944275
-0.3373093605041504 -0.1627907156944275 -0.14728683233261108
-0.33705323934555054 -0.1627907156944275 -0.13178294897079468
-0.33632326126098633 -0.1627907156944275 -0.11627906560897827
-0.33539527654647827 -0.1627907156944275 -0.10077518224716187
-0.3343762159347534 -0.1627907156944275 -0.08527129888534546
-0.3483086824417114 -0.1627907007932663 0.22480618953704834
-0.3356401026248932 -0.1627907156944275 0.24031007289886475
-0.343677282333374 -0.1627907156944275 0.7829457521438599
-0.3484976291656494 -0.14728683233261108 -0.5658915042877197
-0.34725984930992126 -0.14728684723377228 -0.5503876209259033
-0.34678781032562256 -0.14728683233261108 -0.5348837375640869
-0.3467113673686981 -0.14728683233261108 -0.5193798542022705
-0.34673818945884705 -0.14728683233261108 -0.5038759708404541
-0.3467540740966797 -0.14728683233261108 -0.4883720874786377
-0.3467978537082672 -0.14728683233261108 -0.4728682339191437
-0.3468872308731079 -0.14728683233261108 -0.4573643207550049
-0.346951425075531 -0.14728683233261108 -0.4418604373931885
-0.3469834327697754 -0.14728683233261108 -0.42635661363601685
-0.3470175862312317 -0.14728683233261108 -0.41085273027420044
-0.34716346859931946 -0.14728683233261108 -0.39534884691238403
-0.3473632037639618 -0.14728683233261108 -0.3798449635505676
-0.3476518392562866 -0.14728683233261108 -0.3643411099910736
-0.3477439284324646 -0.14728683233261108 -0.3488371968269348
-0.34777960181236267 -0.14728683233261108 -0.3333333134651184
-0.347624272108078 -0.14728683233261108 -0.317829430103302
-0.3474884033203125 -0.14728683233261108 -0.30232563614845276
-0.3476501405239105 -0.1472868174314499 -0.28682172298431396
-0.3478124141693115 -0.14728683233261108 -0.27131783962249756
-0.3484077453613281 -0.14728683233261108 -0.25581395626068115
-0.3383104205131531 -0.14728683233261108 -0.19379842281341553
-0.340711772441864 -0.14728683233261108 -0.1782945990562439
-0.3415639400482178 -0.14728683233261108 -0.1627907156944275
-0.3420703411102295 -0.14728683233261108 -0.14728683233261108
-0.3424692153930664 -0.14728683233261108 -0.13178294897079468
-0.3423389196395874 -0.14728683233261108 -0.11627906560897827
-0.3413850665092468 -0.14728683233261108 -0.10077518224716187
-0.33942747116088867 -0.14728683233261108 -0.08527129888534546
-0.3371378779411316 -0.14728683233261108 -0.06976741552352905
-0.3351544737815857 -0.14728683233261108 -0.05426359176635742
-0.3474646806716919 -0.14728683233261108 0.22480618953704834
-0.33562546968460083 -0.14728683233261108 0.24031007289886475
-0.34882640838623047 -0.1472868174314499 0.7829457521438599
-0.3386040925979614 -0.14728683233261108 0.7984496355056763
-0.3485585153102875 -0.13178294897079468 -0.6279069781303406
-0.34793102741241455 -0.13178294897079468 -0.6124030947685242
-0.34770071506500244 -0.13178294897079468 -0.5968992114067078
-0.3477060794830322 -0.13178294897079468 -0.5813953876495361
-0.3477681279182434 -0.13178294897079468 -0.5658915042877197
-0.34785720705986023 -0.13178294897079468 -0.5503876209259033
-0.34798675775527954 -0.13178294897079468 -0.5348837375640869
-0.3482245206832886 -0.13178294897079468 -0.5193798542022705
-0.34853595495224 -0.13178294897079468 -0.5038759708404541
-0.3487662672996521 -0.13178293406963348 -0.42635661363601685
-0.34838101267814636 -0.13178294897079468 -0.4108527600765228
-0.34818974137306213 -0.13178294897079468 -0.39534884691238403
-0.34802109003067017 -0.13178294897079468 -0.3798449635505676
-0.3479091227054596 -0.13178294897079468 -0.3643410801887512
-0.3478269577026367 -0.13178294897079468 -0.3488371968269348
-0.34777185320854187 -0.13178294897079468 -0.3333333134651184
-0.347739040851593 -0.13178294897079468 -0.3178294599056244
-0.34772324562072754 -0.13178294897079468 -0.302325576543808
-0.347719669342041 -0.13178294897079468 -0.28682172298431396
-0.34772711992263794 -0.13178294897079468 -0.27131783962249756
-0.34772035479545593 -0.13178294897079468 -0.25581395626068115
-0.3476928174495697 -0.13178294897079468 -0.24031007289886475
-0.3476297855377197 -0.13178294897079468 -0.22480618953704834
-0.3475283980369568 -0.13178294897079468 -0.20930230617523193
-0.3473972678184509 -0.13178294897079468 -0.19379842281341553
-0.3473345935344696 -0.13178294897079468 -0.1782945990562439
-0.34728267788887024 -0.13178294897079468 -0.1627907156944275
-0.3472690284252167 -0.13178294897079468 -0.14728683233261108
-0.34630918502807617 -0.13178294897079468 -0.13178294897079468
-0.34594205021858215 -0.13178294897079468 -0.10077518969774246
-0.34324684739112854 -0.13178294897079468 -0.08527129888534546
-0.3402959108352661 -0.13178294897079468 -0.06976741552352905
-0.3377532958984375 -0.13178294897079468 -0.05426359176635742
-0.33548158407211304 -0.13178294897079468 -0.038759708404541016
-0.3471994400024414 -0.13178294897079468 0.22480618953704834
-0.33362871408462524 -0.13178294897079468 0.24031007289886475
-0.34553778171539307 -0.13178294897079468 0.7984496355056763
-0.34826675057411194 -0.11627906560897827 -0.1782945990562439
-0.3478608727455139 -0.11627907305955887 -0.1627907156944275
-0.34766802191734314 -0.11627906560897827 -0.14728684723377228
-0.3475571274757385 -0.11627906560897827 -0.13178294897079468
-0.3475486934185028 -0.11627906560897827 -0.11627906560897827
-0.3477981388568878 -0.11627906560897827 -0.10077518224716187
-0.333489328622818 -0.11627906560897827 -0.05426359176635742
-0.3335404098033905 -0.11627906560897827 -0.038759708404541016
-0.34418153762817383 -0.11627906560897827 0.22480620443820953
-0.3404076099395752 -0.11627906560897827 0.8139535188674927
-0.34548792243003845 -0.10077518224716187 0.20930230617523193
-0.33763670921325684 -0.10077518224716187 0.22480618953704834
-0.3458648920059204 -0.10077518224716187 0.8139535188674927
-0.3468797206878662 -0.08527129888534546 0.19379842281341553
-0.3396126329898834 -0.08527129888534546 0.20930230617523193
-0.34874600172042847 -0.08527129888534546 0.8139535188674927
-0.33726006746292114 -0.08527129888534546 0.8294574022293091
-0.34387558698654175 -0.06976741552352905 0.19379842281341553
-0.33528628945350647 -0.06976741552352905 0.20930230617523193
-0.3426295220851898 -0.06976741552352905 0.8294574022293091
-0.34055274724960327 -0.05426359176635742 0.19379842281341553
-0.3453724980354309 -0.05426359176635742 0.8294574022293091
-0.3365698456764221 -0.038759708404541016 0.19379842281341553
-0.34683284163475037 -0.038759708404541016 0.8294574022293091
-0.34733641147613525 -0.02325582504272461 0.8294574022293091
-0.33487728238105774 -0.02325582504272461 0.8449612855911255
-0.34718233346939087 -0.007751941680908203 0.8294574022293091
-0.33506110310554504 -0.007751941680908203 0.8449612855911255
-0.3387414813041687 0.007751941680908203 0.19379842281341553
-0.3457435369491577 0.007751941680908203 0.8294574022293091
-0.3474378287792206 0.02325582504272461 0.19379842281341553
-0.3430074453353882 0.02325582504272461 0.8294574022293091
-0.3399087190628052 0.038759708404541016 0.20930230617523193
-0.33985766768455505 0.038759708404541016 0.8294574022293091
-0.3445935547351837 0.05426359176635742 0.20930230617523193
-0.3487223982810974 0.05426359176635742 0.8139535188674927
-0.3377763330936432 0.05426359176635742 0.8294574022293091
-0.3458588719367981 0.06976747512817383 0.20930230617523193
-0.3362274169921875 0.06976747512817383 0.22480618953704834
-0.3464432656764984 0.06976747512817383 0.8139535188674927
-0.3351045250892639 0.06976747512817383 0.8294574022293091
-0.34663546085357666 0.08527135848999023 0.20930230617523193
-0.3396599292755127 0.08527135848999023 0.22480618953704834
-0.3444240689277649 0.08527135848999023 0.8139535188674927
-0.3462602198123932 0.10077524185180664 0.20930230617523193
-0.34017515182495117 0.10077524185180664 0.22480618953704834
-0.34025564789772034 0.10077524185180664 0.8139535188674927
-0.34397125244140625 0.11627912521362305 0.20930230617523193
-0.3377994894981384 0.11627912521362305 0.22480618953704834
-0.345369815826416 0.11627911776304245 0.7984496355056763
-0.340128630399704 0.1317828893661499 0.20930230617523193
-0.3337590992450714 0.1317828893661499 0.22480618953704834
-0.34000611305236816 0.1317828893661499 0.7984496355056763
-0.34800463914871216 0.1472867727279663 0.19379842281341553
-0.33411431312561035 0.1472867727279663 0.20930230617523193
-0.3444873094558716 0.1472867727279663 0.7829457521438599
-0.3468557596206665 0.16279065608978271 0.7674418687820435
-0.3373936414718628 0.16279065608978271 0.7829457521438599
-0.34086310863494873 0.17829453945159912 0.7674418687820435
-0.3414681553840637 0.19379842281341553 0.751937985420227
-0.3379737138748169 0.20930230617523193 0.20930230617523193
-0.34768787026405334 0.20930230617523193 0.7209302186965942
-0.3401740789413452 0.20930230617523193 0.7364341020584106
-0.34622400999069214 0.22480618953704834 0.22480618953704834
-0.34460872411727905 0.22480618953704834 0.7054263353347778
-0.3368075489997864 0.22480618953704834 0.7209302186965942
-0.34625929594039917 0.24031007289886475 0.6744185090065002
-0.3409261703491211 0.24031007289886475 0.6899224519729614
-0.3451717495918274 0.25581395626068115 0.6434108018875122
-0.3403627872467041 0.25581395626068115 0.6589146852493286
-0.33426234126091003 0.25581395626068115 0.674418568611145
-0.33499675989151 0.27131783962249756 0.25581395626068115
-0.3470041751861572 0.27131783962249756 0.5968992710113525
-0.3429819345474243 0.27131783962249756 0.612403154373169
-0.3370929956436157 0.27131783962249756 0.6279069185256958
-0.33591267466545105 0.28682172298431396 0.27131783962249756
-0.34577107429504395 0.28682172298431396 0.28682172298431396
-0.34708109498023987 0.28682172298431396 0.5503876209259033
-0.3428794741630554 0.28682172298431396 0.5658915042877197
-0.33781465888023376 0.28682172298431396 0.5813953876495361
-0.33347317576408386 0.28682172298431396 0.5968992710113525
-0.33467555046081543 0.30232560634613037 0.30232560634613037
-0.3390622138977051 0.30232560634613037 0.3178294897079468
-0.34298184514045715 0.30232560634613037 0.3333333730697632
-0.34650924801826477 0.30232560634613037 0.3488372564315796
-0.34843629598617554 0.30232560634613037 0.364341139793396
-0.3482111692428589 0.30232560634613037 0.4883720874786377
-0.34501996636390686 0.30232560634613037 0.5038759708404541
-0.3411974012851715 0.30232560634613037 0.5193798542022705
-0.33637017011642456 0.30232560634613037 0.5348837375640869
-0.3349805474281311 0.3178294897079468 0.37984490394592285
-0.3360733687877655 0.3178294897079468 0.39534878730773926
-0.3366956412792206 0.3178294897079468 0.41085267066955566
-0.3369801938533783 0.3178294897079468 0.42635655403137207
-0.33680468797683716 0.3178294897079468 0.4418604373931885
-0.3359094262123108 0.3178294897079468 0.4573643207550049
-0.3347472846508026 0.3178294897079468 0.4728682041168213
-0.3180575370788574 -0.3333333134651184 0.3178294897079468
-0.32022425532341003 -0.3333333134651184 0.3333333730697632
-0.3221660256385803 -0.3333333134651184 0.3488372564315796
-0.3236755132675171 -0.3333333134651184 0.364341139793396
-0.3255767524242401 -0.3333333134651184 0.37984490394592285
-0.3273274004459381 -0.3333333134651184 0.39534878730773926
-0.3290114998817444 -0.3333333134651184 0.41085270047187805
-0.33002400398254395 -0.3333333134651184 0.42635655403137207
-0.33055275678634644 -0.3333333134651184 0.4418604373931885
-0.3294832110404968 -0.3333333134651184 0.4573643207550049
-0.32726141810417175 -0.3333333134651184 0.4728682041168213
-0.32436463236808777 -0.3333333134651184 0.4883720874786377
-0.3208961486816406 -0.3333333134651184 0.5038759708404541
-0.31891053915023804 -0.317829430103302 0.27131783962249756
-0.32579779624938965 -0.317829430103302 0.28682172298431396
-0.3303934335708618 -0.317829430103302 0.30232560634613037
-0.32698848843574524 -0.317829430103302 0.5348837375640869
-0.3226679563522339 -0.317829430103302 0.5503876209259033
-0.31879284977912903 -0.317829430103302 0.5658915042877197
-0.33055540919303894 -0.30232560634613037 0.27131783962249756
-0.3298881947994232 -0.30232560634613037 0.5813953876495361
-0.32601380348205566 -0.30232560634613037 0.5968992710113525
-0.3233146369457245 -0.30232560634613037 0.612403154373169
-0.3191370964050293 -0.30232560634613037 0.6279069185256958
-0.3251899480819702 -0.28682172298431396 0.25581395626068115
-0.3283638060092926 -0.28682172298431396 0.6434108018875122
-0.3242272436618805 -0.28682172298431396 0.6589146852493286
-0.3302653133869171 -0.27131783962249756 0.674418568611145
-0.3248139023780823 -0.27131783962249756 0.6899224519729614
-0.32862234115600586 -0.25581395626068115 0.7054263353347778
-0.3209865093231201 -0.25581395626068115 0.7209302186965942
-0.33232370018959045 -0.24031007289886475 0.7209302186965942
-0.32469427585601807 -0.24031007289886475 0.7364341020584106
-0.32665932178497314 -0.22480618953704834 0.751937985420227
-0.3272252678871155 -0.20930230617523193 0.7674418687820435
-0.3241637349128723 -0.19379842281341553 0.24031007289886475
-0.3265640139579773 -0.19379842281341553 0.7829457521438599
-0.3332304358482361 -0.1782945990562439 -0.3643410801887512
-0.3329487442970276 -0.1782945990562439 -0.3488371968269348
-0.33277180790901184 -0.1782945990562439 -0.3333333134651184
-0.33266618847846985 -0.1782945990562439 -0.317829430103302
-0.3326587378978729 -0.1782945990562439 -0.30232560634613037
-0.33289337158203125 -0.1782945990562439 -0.28682172298431396
-0.33325663208961487 -0.1782945990562439 -0.27131783962249756
-0.31897836923599243 -0.1782945990562439 -0.1627907156944275
-0.3198222517967224 -0.1782945990562439 -0.14728683233261108
-0.32015711069107056 -0.1782945990562439 -0.13178294897079468
-0.3202478289604187 -0.1782945990562439 -0.11627906560897827
-0.3200134038925171 -0.1782945990562439 -0.10077518224716187
-0.31920209527015686 -0.1782945990562439 -0.08527129888534546
-0.3230552673339844 -0.1782945990562439 0.7984496355056763
-0.3328441381454468 -0.1627907156944275 -0.5348837375640869
-0.33275046944618225 -0.1627907156944275 -0.5193798542022705
-0.33304086327552795 -0.1627907156944275 -0.5038759708404541
-0.3331654965877533 -0.1627907156944275 -0.39534884691238403
-0.3329380452632904 -0.1627907156944275 -0.3798449635505676
-0.33271026611328125 -0.1627907156944275 -0.3643410801887512
-0.3326152563095093 -0.1627907156944275 -0.3488371670246124
-0.3325903117656708 -0.1627907007932663 -0.3333333134651184
-0.3325877785682678 -0.1627907156944275 -0.3178294599056244
-0.33263739943504333 -0.1627907156944275 -0.30232560634613037
-0.33256107568740845 -0.1627907156944275 -0.2868216931819916
-0.33253613114356995 -0.1627907007932663 -0.27131783962249756
-0.3323976695537567 -0.1627907007932663 -0.25581395626068115
-0.3322577178478241 -0.1627907156944275 -0.24031007289886475
-0.33211764693260193 -0.1627907007932663 -0.22480618953704834
-0.33197933435440063 -0.1627907156944275 -0.20930230617523193
-0.3318336009979248 -0.1627907156944275 -0.19379842281341553
-0.3316151797771454 -0.1627907156944275 -0.1782945990562439
-0.3312909007072449 -0.1627907156944275 -0.1627907156944275
-0.3307479918003082 -0.1627907156944275 -0.14728683233261108
-0.33027446269989014 -0.1627907156944275 -0.13178294897079468
-0.3297090530395508 -0.1627907156944275 -0.11627906560897827
-0.327878475189209 -0.1627907156944275 -0.10077518224716187
-0.32956600189208984 -0.1627907156944275 -0.06976741552352905
-0.3233735263347626 -0.1627907156944275 -0.05426359176635742
-0.31979453563690186 -0.1627907156944275 -0.038759708404541016
-0.3311100900173187 -0.1627907156944275 0.7984495759010315
-0.31811967492103577 -0.1627907156944275 0.8139535188674927
-0.33303892612457275 -0.14728683233261108 -0.19379842281341553
-0.3326316773891449 -0.14728683233261108 -0.1782945990562439
-0.33231407403945923 -0.14728683233261108 -0.1627907156944275
-0.33196917176246643 -0.14728683233261108 -0.14728683233261108
-0.33162277936935425 -0.14728683233261108 -0.13178294897079468
-0.33092451095581055 -0.14728683233261108 -0.11627906560897827
-0.32951170206069946 -0.14728683233261108 -0.10077518224716187
-0.3251965641975403 -0.14728683233261108 -0.08527129888534546
-0.33169418573379517 -0.14728683233261108 -0.038759708404541016
-0.32450413703918457 -0.14728683233261108 -0.02325582504272461
-0.3200210928916931 -0.14728683233261108 -0.007751941680908203
-0.32745814323425293 -0.14728683233261108 0.8139535188674927
-0.33309561014175415 -0.13178294897079468 -0.11627905815839767
-0.3322072923183441 -0.13178294897079468 -0.10077518224716187
-0.3305424153804779 -0.13178294897079468 -0.08527129143476486
-0.3243356943130493 -0.13178294897079468 -0.06976741552352905
-0.33178189396858215 -0.13178294897079468 -0.02325582690536976
-0.3247258961200714 -0.13178294897079468 -0.007751941680908203
-0.32006147503852844 -0.13178294897079468 0.007751941680908203
-0.33258163928985596 -0.13178296387195587 0.8139535188674927
-0.3197486996650696 -0.13178294897079468 0.8294574022293091
-0.3331616222858429 -0.11627907305955887 -0.05426359176635742
-0.3243541717529297 -0.11627906560897827 -0.02325582504272461
-0.3212527930736542 -0.11627906560897827 -0.007751941680908203
-0.3190782964229584 -0.11627906560897827 0.007751941680908203
-0.32846903800964355 -0.11627906560897827 0.8294574022293091
-0.33235782384872437 -0.10077518224716187 0.8294574022293091
-0.3187468349933624 -0.10077518224716187 0.8449612855911255
-0.331439733505249 -0.08527129888534546 0.22480618953704834
-0.32566627860069275 -0.08527129888534546 0.8449612855911255
-0.32716745138168335 -0.06976741552352905 0.22480618953704834
-0.32966750860214233 -0.06976741552352905 0.8449612855911255
-0.33152320981025696 -0.05426359176635742 0.20930230617523193
-0.32273104786872864 -0.05426359176635742 0.22480618953704834
-0.33167698979377747 -0.05426359176635742 0.8449612855911255
-0.3270801901817322 -0.038759708404541016 0.20930230617523193
-0.3332759737968445 -0.038759708404541016 0.8449613451957703
-0.31984230875968933 -0.038759708404541016 0.8604651689529419
-0.33273494243621826 -0.02325582504272461 0.19379842281341553
-0.3208109736442566 -0.02325582504272461 0.20930230617523193
-0.32223770022392273 -0.02325582504272461 0.8604651689529419
-0.33239489793777466 -0.007751941680908203 0.19379842281341553
-0.3228505849838257 -0.007751941680908203 0.8604651689529419
-0.3203922212123871 0.007751941680908203 0.20930230617523193
-0.3329724371433258 0.007751941215246916 0.8449612259864807
-0.3210901618003845 0.007751941680908203 0.8604651689529419
-0.3312601149082184 0.02325582504272461 0.20930230617523193
-0.33041027188301086 0.02325582504272461 0.8449612855911255
-0.3247719407081604 0.038759708404541016 0.22480618953704834
-0.328119695186615 0.038759708404541016 0.8449612855911255
-0.33230412006378174 0.05426359176635742 0.22480617463588715
-0.3263061046600342 0.05426359176635742 0.8449612855911255
-0.32401934266090393 0.06976747512817383 0.8449612855911255
-0.331361323595047 0.08527135848999023 0.8294574022293091
-0.31938472390174866 0.08527135848999023 0.8449612855911255
-0.32831794023513794 0.10077524185180664 0.8294574022293091
-0.3190152645111084 0.11627912521362305 0.1472867727279663
-0.3333216905593872 0.11627912521362305 0.8139534592628479
-0.3220028579235077 0.11627912521362305 0.8294574022293091
-0.31878212094306946 0.1317828893661499 0.1472867727279663
-0.32841765880584717 0.1317828893661499 0.8139535188674927
-0.3264908194541931 0.1472867727279663 0.22480618953704834
-0.3320249915122986 0.1472867727279663 0.7984496355056763
-0.32102829217910767 0.1472867727279663 0.8139535188674927
-0.3259815573692322 0.16279065608978271 0.20930230617523193
-0.3180875778198242 0.16279065608978271 0.22480618953704834
-0.3269895315170288 0.16279065608978271 0.7984496355056763
-0.31804540753364563 0.17829453945159912 0.20930230617523193
-0.3295547664165497 0.17829453945159912 0.7829457521438599
-0.33013293147087097 0.19379840791225433 0.7674418687820435
-0.31998538970947266 0.19379842281341553 0.7829457521438599
-0.32949116826057434 0.20930230617523193 0.751937985420227
-0.31942829489707947 0.20930230617523193 0.7674418687820435
-0.3279309868812561 0.22480618953704834 0.7364341020584106
-0.3325220048427582 0.24031007289886475 0.7054262757301331
-0.3253991901874542 0.24031007289886475 0.7209302186965942
-0.3219655752182007 0.25581395626068115 0.24031007289886475
-0.3286059498786926 0.25581395626068115 0.6899224519729614
-0.32091760635375977 0.25581395626068115 0.7054263353347778
-0.33271607756614685 0.27131783962249756 0.6434108018875122
-0.3280920386314392 0.27131783962249756 0.6589146852493286
-0.3222455084323883 0.27131783962249756 0.674418568611145
-0.328999400138855 0.28682172298431396 0.612403154373169
-0.3238886594772339 0.28682172298431396 0.6279069185256958
-0.31910356879234314 0.28682172298431396 0.6434108018875122
-0.3186948597431183 0.30232560634613037 0.27131783962249756
-0.327813059091568 0.30232560634613037 0.28682172298431396
-0.332472562789917 0.30232560634613037 0.5503876209259033
-0.3276674747467041 0.30232560634613037 0.5658915042877197
-0.3231334984302521 0.30232560634613037 0.5813953876495361
-0.31884950399398804 0.30232560634613037 0.5968992710113525
-0.31783854961395264 0.3178294897079468 0.30232560634613037
-0.32235899567604065 0.3178294897079468 0.3178294897079468
-0.3265160918235779 0.3178294897079468 0.3333333730697632
-0.3307013511657715 0.3178294897079468 0.3488372564315796
-0.3330586552619934 0.3178294897079468 0.364341139793396
-0.33286723494529724 0.3178294599056244 0.4883720874786377
-0.3290959596633911 0.3178294897079468 0.5038759708404541
-0.3248491883277893 0.3178294897079468 0.5193798542022705
-0.3205484449863434 0.3178294897079468 0.5348837375640869
-0.3191823959350586 0.3333333730697632 0.37984490394592285
-0.32031068205833435 0.3333333730697632 0.39534878730773926
-0.3209087550640106 0.3333333730697632 0.41085267066955566
-0.3212186098098755 0.3333333730697632 0.42635655403137207
-0.3210006356239319 0.3333333730697632 0.4418604373931885
-0.32010385394096375 0.3333333730697632 0.4573643207550049
-0.31884482502937317 0.3333333730697632 0.4728682041168213
-0.30245620012283325 -0.3488371968269348 0.3333333730697632
-0.30434808135032654 -0.3488371968269348 0.3488372564315796
-0.30564114451408386 -0.3488371968269348 0.364341139793396
-0.30750560760498047 -0.3488371968269348 0.37984490394592285
-0.3091575801372528 -0.3488371968269348 0.39534878730773926
-0.31050601601600647 -0.3488371968269348 0.41085267066955566
-0.3112470507621765 -0.3488371968269348 0.42635655403137207
-0.31158262491226196 -0.3488371968269348 0.4418604373931885
-0.3103918433189392 -0.3488371968269348 0.4573643207550049
-0.3085058927536011 -0.3488371968269348 0.4728682041168213
-0.30582302808761597 -0.3488371968269348 0.4883720874786377
-0.30233871936798096 -0.3488371968269348 0.5038759708404541
-0.30529600381851196 -0.3333333134651184 0.27131783962249756
-0.3113267719745636 -0.3333333134651184 0.28682172298431396
-0.3153496980667114 -0.3333333134651184 0.30232560634613037
-0.31611913442611694 -0.3333333134651184 0.5193798542022705
-0.30944061279296875 -0.3333333134651184 0.5348837375640869
-0.3052557110786438 -0.3333333134651184 0.5503876209259033
-0.3050256371498108 -0.317829430103302 0.25581395626068115
-0.313090980052948 -0.317829430103302 0.5813953876495361
-0.3093622326850891 -0.317829430103302 0.5968992710113525
-0.30677497386932373 -0.317829430103302 0.612403154373169
-0.3157126307487488 -0.30232560634613037 0.25581395626068115
-0.31305134296417236 -0.30232560634613037 0.6434108018875122
-0.30864882469177246 -0.30232560634613037 0.6589146852493286
-0.3167380690574646 -0.28682172298431396 0.674418568611145
-0.31006094813346863 -0.28682172298431396 0.6899224519729614
-0.31499403715133667 -0.27131783962249756 0.7054263353347778
-0.30804502964019775 -0.27131783962249756 0.7209302186965942
-0.31160685420036316 -0.25581395626068115 0.7364341020584106
-0.31347766518592834 -0.24031007289886475 0.751937985420227
-0.3146868050098419 -0.22480618953704834 0.7674418687820435
-0.3027217388153076 -0.22480618953704834 0.7829457521438599
-0.31496113538742065 -0.20930230617523193 0.7829457521438599
-0.304380863904953 -0.19379842281341553 -0.11627906560897827
-0.30426403880119324 -0.19379842281341553 -0.10077518224716187
-0.3037087917327881 -0.19379842281341553 -0.08527129888534546
-0.30243512988090515 -0.19379842281341553 -0.06976741552352905
-0.3140178918838501 -0.19379842281341553 0.7984496355056763
-0.31763511896133423 -0.1782945990562439 -0.16279073059558868
-0.31742459535598755 -0.1782945990562439 -0.14728683233261108
-0.31725800037384033 -0.1782945990562439 -0.13178294897079468
-0.3169673979282379 -0.1782945990562439 -0.11627906560897827
-0.3162379264831543 -0.1782945990562439 -0.10077518224716187
-0.313052237033844 -0.1782945990562439 -0.08527129888534546
-0.30952388048171997 -0.1782945990562439 -0.06976741552352905
-0.30618560314178467 -0.1782945990562439 -0.05426359176635742
-0.30456075072288513 -0.1782945990562439 -0.038759708404541016
-0.3027161657810211 -0.1782945990562439 -0.02325582504272461
-0.31143873929977417 -0.1782945990562439 0.8139535188674927
-0.31711602210998535 -0.1627907156944275 -0.08527130633592606
-0.3088648319244385 -0.1627907156944275 -0.06976741552352905
-0.31546860933303833 -0.1627907156944275 -0.02325582504272461
-0.30972883105278015 -0.1627907156944275 -0.007751941680908203
-0.30534881353378296 -0.1627907156944275 0.007751941680908203
-0.30257704854011536 -0.1627907156944275 0.02325582504272461
-0.303134560585022 -0.1627907156944275 0.1472867727279663
-0.3024878203868866 -0.1627907156944275 0.16279065608978271
-0.3055686950683594 -0.1627907156944275 0.8294574022293091
-0.31222280859947205 -0.14728683233261108 -0.06976741552352905
-0.31610119342803955 -0.14728683233261108 0.007751941680908203
-0.3106880187988281 -0.14728683233261108 0.02325582504272461
-0.30683183670043945 -0.14728683233261108 0.038759708404541016
-0.30424371361732483 -0.14728683233261108 0.05426359176635742
-0.3032231032848358 -0.14728683233261108 0.06976747512817383
-0.3029431402683258 -0.14728683233261108 0.08527135848999023
-0.30325841903686523 -0.14728683233261108 0.10077524185180664
-0.3039437234401703 -0.14728683233261108 0.11627912521362305
-0.30413421988487244 -0.14728683233261108 0.1317828893661499
-0.30297380685806274 -0.14728683233261108 0.1472867727279663
-0.3143458962440491 -0.14728683233261108 0.8294574022293091
-0.30629587173461914 -0.13178294897079468 -0.05426359176635742
-0.3161235451698303 -0.13178294897079468 0.02325582504272461
-0.31145429611206055 -0.13178294897079468 0.038759708404541016
-0.3077877163887024 -0.13178294897079468 0.05426359176635742
-0.3057892322540283 -0.13178294897079468 0.06976747512817383
-0.3049474060535431 -0.13178294897079468 0.08527135848999023
-0.30468159914016724 -0.13178294897079468 0.10077524185180664
-0.30379000306129456 -0.13178294897079468 0.11627912521362305
-0.3073309063911438 -0.13178294897079468 0.24031007289886475
-0.3072968125343323 -0.13178294897079468 0.8449612855911255
-0.3162839412689209 -0.11627907305955887 -0.038759712129831314
-0.31378111243247986 -0.11627907305955887 0.02325582504272461
-0.3083915114402771 -0.11627906560897827 0.038759708404541016
-0.3054307699203491 -0.11627906560897827 0.05426359176635742
-0.30364951491355896 -0.11627906560897827 0.06976747512817383
-0.3148301839828491 -0.11627906560897827 0.8449612855911255
-0.3044246435165405 -0.10077518224716187 0.8604651689529419
-0.3062470257282257 -0.08527129888534546 0.24031007289886475
-0.31168946623802185 -0.08527129888534546 0.8604651689529419
-0.30752503871917725 -0.06976741552352905 0.24031007289886475
-0.3150615096092224 -0.06976741552352905 0.8604651689529419
-0.3049734830856323 -0.05426359176635742 0.24031007289886475
-0.31703120470046997 -0.05426359176635742 0.8604651093482971
-0.317142516374588 -0.038759708404541016 0.22480618953704834
-0.30509230494499207 -0.038759708404541016 0.8759689331054688
-0.3110262155532837 -0.02325582504272461 0.22480620443820953
-0.307921826839447 -0.02325582504272461 0.8759689331054688
-0.31681981682777405 -0.007751941680908203 0.20930230617523193
-0.3054385185241699 -0.007751941680908203 0.22480618953704834
-0.309013307094574 -0.007751941680908203 0.8759689331054688
-0.30613064765930176 0.007751941680908203 0.22480618953704834
-0.30802011489868164 0.007751941680908203 0.8759689331054688
-0.3142111599445343 0.02325582504272461 0.22480618953704834
-0.31761443614959717 0.02325582690536976 0.8604652285575867
-0.3050748109817505 0.02325582504272461 0.8759689331054688
-0.31527501344680786 0.038759708404541016 0.8604652285575867
-0.31365302205085754 0.05426359176635742 0.8604651689529419
-0.3112081289291382 0.06976747512817383 0.8604651689529419
-0.30428773164749146 0.08527135848999023 0.24031007289886475
-0.3063031733036041 0.08527135848999023 0.8604651689529419
-0.30390045046806335 0.10077524185180664 0.1317828893661499
-0.30434173345565796 0.10077524185180664 0.1472867727279663
-0.30461880564689636 0.10077524185180664 0.24031007289886475
-0.3147885799407959 0.10077523440122604 0.8449612855911255
-0.3046979606151581 0.11627912521362305 0.10077524185180664
-0.3088233470916748 0.11627912521362305 0.11627912521362305
-0.31612834334373474 0.11627912521362305 0.1317828893661499
-0.31332212686538696 0.11627912521362305 0.16279065608978271
-0.30496713519096375 0.11627912521362305 0.24031007289886475
-0.30984973907470703 0.11627912521362305 0.8449612855911255
-0.30267423391342163 0.1317828893661499 0.08527135848999023
-0.30440038442611694 0.1317828893661499 0.10077524185180664
-0.3075881600379944 0.1317828893661499 0.11627912521362305
-0.31347399950027466 0.1317828893661499 0.1317828893661499
-0.31180310249328613 0.1317828893661499 0.16279065608978271
-0.3072689175605774 0.1317828893661499 0.24031007289886475
-0.31487295031547546 0.1317828893661499 0.8294574022293091
-0.3030868172645569 0.1472867727279663 0.11627912521362305
-0.30417564511299133 0.1472867727279663 0.1317828893661499
-0.3038942217826843 0.1472867727279663 0.1472867727279663
-0.30919039249420166 0.1472867727279663 0.8294574022293091
-0.3141055703163147 0.16279065608978271 0.8139535188674927
-0.30795472860336304 0.17829453945159912 0.22480618953704834
-0.31750932335853577 0.17829453945159912 0.7984496355056763
-0.3062233626842499 0.17829453945159912 0.8139535188674927
-0.3109593093395233 0.19379842281341553 0.20930230617523193
-0.3091331124305725 0.19379842281341553 0.7984496355056763
