-0.28682172298431396 -0.1627907156944275 0.49876144528388977
-0.28682172298431396 -0.1627907156944275 0.8676536083221436
-0.28682172298431396 -0.14728683233261108 0.48803436756134033
-0.28682172298431396 -0.14728683233261108 0.8746193647384644
-0.28682172298431396 -0.13178294897079468 0.48814502358436584
-0.28682172298431396 -0.13178294897079468 0.8775336146354675
-0.28682172298431396 -0.11627906560897827 0.5004222393035889
-0.28682172298431396 -0.11627906560897827 0.8843380212783813
-0.28682172298431396 -0.10077518224716187 0.5000413060188293
-0.28682172298431396 -0.10077518224716187 0.8895902633666992
-0.28682172298431396 -0.08527129888534546 0.4945372939109802
-0.28682172298431396 -0.08527129888534546 0.8918160796165466
-0.28682172298431396 -0.06976741552352905 0.4864288568496704
-0.28682172298431396 -0.06976741552352905 0.8943924307823181
-0.28682172298431396 -0.05426359176635742 0.4799095392227173
-0.28682172298431396 -0.05426359176635742 0.8973723649978638
-0.28682172298431396 -0.038759708404541016 0.47225967049598694
-0.28682172298431396 -0.038759708404541016 0.9007432460784912
-0.28682172298431396 -0.02325582318007946 0.18033026158809662
-0.28682172298431396 -0.02325582504272461 0.25808092951774597
-0.28682172298431396 -0.02325582504272461 0.4662327170372009
-0.28682172298431396 -0.02325582504272461 0.9023915529251099
-0.28682172298431396 -0.007751941680908203 0.15718024969100952
-0.28682172298431396 -0.007751941680908203 0.25625208020210266
-0.28682172298431396 -0.007751941680908203 0.4624578356742859
-0.28682172298431396 -0.007751941680908203 0.9028850793838501
-0.28682172298431396 0.007751941680908203 0.1756366491317749
-0.28682172298431396 0.007751941680908203 0.1995212286710739
-0.28682172298431396 0.007751941680908203 0.4631362557411194
-0.28682172298431396 0.007751941680908203 0.9027062654495239
-0.28682172298431396 0.02325582504272461 0.4708883762359619
-0.28682172298431396 0.02325582504272461 0.9015414714813232
-0.28682172298431396 0.038759708404541016 0.48486757278442383
-0.28682172298431396 0.038759708404541016 0.8992069959640503
-0.28682172298431396 0.05426359176635742 0.5001976490020752
-0.28682172298431396 0.05426359176635742 0.8960838317871094
-0.28682172298431396 0.06976747512817383 0.5050641894340515
-0.28682172298431396 0.06976746767759323 0.8929819464683533
-0.28682172298431396 0.08527135848999023 0.49892300367355347
-0.28682172298431396 0.08527135848999023 0.8904690742492676
-0.28682172298431396 0.10077524185180664 0.4881468117237091
-0.28682172298431396 0.10077524185180664 0.8880623579025269
-0.28682172298431396 0.11627912521362305 0.4847201704978943
-0.28682172298431396 0.11627913266420364 0.882311224937439
-0.28682172298431396 0.1317828893661499 0.48426228761672974
-0.28682172298431396 0.1317828893661499 0.8754823803901672
-0.28682172298431396 0.1472867727279663 0.48520979285240173
-0.28682172298431396 0.1472867727279663 0.8713337182998657
-0.28682172298431396 0.16279065608978271 0.48676711320877075
-0.2868216931819916 0.16279064118862152 0.8622706532478333
-0.28682172298431396 0.17829455435276031 0.49106770753860474
-0.28682172298431396 0.17829453945159912 0.8558173775672913
-0.28682172298431396 0.19379842281341553 0.5002749562263489
-0.28682172298431396 0.19379842281341553 0.8430150747299194
-0.28682172298431396 0.20930230617523193 0.5144325494766235
-0.28682172298431396 0.20930230617523193 0.8292684555053711
-0.28682172298431396 0.22480618953704834 0.5326390266418457
-0.28682172298431396 0.22480618953704834 0.8149896860122681
-0.28682172298431396 0.24031007289886475 0.5521904230117798
-0.28682172298431396 0.24031007289886475 0.7975244522094727
-0.28682172298431396 0.25581395626068115 0.5733346939086914
-0.28682172298431396 0.25581395626068115 0.7761448621749878
-0.28682172298431396 0.27131783962249756 0.5947242379188538
-0.28682172298431396 0.27131783962249756 0.7494433522224426
-0.28682172298431396 0.28682172298431396 0.6261391639709473
-0.28682172298431396 0.28682172298431396 0.7083756327629089
-0.27131783962249756 -0.30232560634613037 0.6276367902755737
-0.27131783962249756 -0.30232560634613037 0.7302627563476562
-0.27131783962249756 -0.28682172298431396 0.5991799831390381
-0.27131783962249756 -0.28682172298431396 0.7627072334289551
-0.27131783962249756 -0.27131783962249756 0.5782467126846313
-0.27131783962249756 -0.27131783962249756 0.7902282476425171
-0.27131783962249756 -0.25581395626068115 0.5618431568145752
-0.27131783962249756 -0.25581395626068115 0.8084953427314758
-0.27131783962249756 -0.24031007289886475 0.5484907031059265
-0.27131783962249756 -0.24031007289886475 0.8246560096740723
-0.27131783962249756 -0.22480618953704834 0.5374607443809509
-0.27131783962249756 -0.22480618953704834 0.8396704196929932
-0.27131783962249756 -0.20930230617523193 0.5275567770004272
-0.27131783962249756 -0.20930230617523193 0.8521733283996582
-0.27131783962249756 -0.19379842281341553 0.5156152248382568
-0.27131780982017517 -0.19379842281341553 0.8611456751823425
-0.27131783962249756 -0.1782945990562439 0.4987684488296509
-0.27131783962249756 -0.1782945990562439 0.8738901615142822
-0.27131783962249756 -0.1627907156944275 0.48375606536865234
-0.27131783962249756 -0.1627907156944275 0.880135178565979
-0.27131783962249756 -0.14728683233261108 0.4755716919898987
-0.27131783962249756 -0.14728683233261108 0.8884209394454956
-0.27131783962249756 -0.13178294897079468 0.4738059341907501
-0.27131783962249756 -0.13178294897079468 0.891305685043335
-0.27131783962249756 -0.11627906560897827 0.48033779859542847
-0.27131783962249756 -0.11627906560897827 0.8943555355072021
-0.27131783962249756 -0.10077518224716187 0.4782605469226837
-0.27131783962249756 -0.10077518224716187 0.9008495807647705
-0.27131783962249756 -0.08527129888534546 0.4714318513870239
-0.27131783962249756 -0.08527129888534546 0.9049112796783447
-0.27131783962249756 -0.06976741552352905 0.46455487608909607
-0.27131783962249756 -0.06976741552352905 0.906723141670227
-0.27131783962249756 -0.05426359176635742 0.45875298976898193
-0.27131783962249756 -0.05426359176635742 0.907791256904602
-0.27131783962249756 -0.038759708404541016 0.4538731873035431
-0.27131783962249756 -0.038759708404541016 0.9099628925323486
-0.27131783962249756 -0.02325582504272461 0.17766697704792023
-0.27131783962249756 -0.02325582504272461 0.27183985710144043
-0.27131783962249756 -0.02325582504272461 0.4505852162837982
-0.27131783962249756 -0.02325582504272461 0.9118891954421997
-0.27131783962249756 -0.007751941680908203 0.16799423098564148
-0.27131783962249756 -0.007751941680908203 0.27444836497306824
-0.27131783962249756 -0.007751941215246916 0.4486895501613617
-0.27131783962249756 -0.00775194214656949 0.9129388332366943
-0.27131783962249756 0.007751941680908203 0.19477669894695282
-0.27131783962249756 0.007751941680908203 0.24068620800971985
-0.27131783962249756 0.007751941680908203 0.4498554468154907
-0.27131783962249756 0.007751941680908203 0.9127849340438843
-0.27131783962249756 0.02325582504272461 0.45646199584007263
-0.27131783962249756 0.02325582504272461 0.9114046096801758
-0.27131783962249756 0.038759708404541016 0.46824508905410767
-0.27131783962249756 0.038759708404541016 0.9094541668891907
-0.27131783962249756 0.05426359176635742 0.4817521572113037
-0.27131780982017517 0.05426358804106712 0.9074112772941589
-0.27131783962249756 0.06976747512817383 0.48708146810531616
-0.27131783962249756 0.06976747512817383 0.9055849313735962
-0.27131783962249756 0.08527135848999023 0.48265206813812256
-0.27131783962249756 0.08527135848999023 0.903378963470459
-0.27131783962249756 0.10077524185180664 0.4722626209259033
-0.27131783962249756 0.10077524185180664 0.8992165923118591
-0.27131783962249756 0.11627912521362305 0.4685280919075012
-0.27131783962249756 0.11627912521362305 0.8927286267280579
-0.27131783962249756 0.1317828893661499 -0.5587359666824341
-0.27131783962249756 0.1317828893661499 -0.5144580602645874
-0.27131783962249756 0.1317828893661499 0.4690658748149872
-0.27131783962249756 0.1317828893661499 0.8888077139854431
-0.27131783962249756 0.1472867727279663 0.4712291955947876
-0.27131783962249756 0.1472867727279663 0.8832939863204956
-0.27131780982017517 0.16279065608978271 0.4735378324985504
-0.27131783962249756 0.16279065608978271 0.8755057454109192
-0.27131783962249756 0.17829453945159912 0.47939878702163696
-0.27131783962249756 0.17829453945159912 0.8700860142707825
-0.27131783962249756 0.19379842281341553 0.4860435724258423
-0.27131783962249756 0.19379842281341553 0.8582932949066162
-0.27131783962249756 0.20930230617523193 0.49861353635787964
-0.27131783962249756 0.20930230617523193 0.8451271057128906
-0.27131783962249756 0.22480618953704834 0.5153764486312866
-0.27131783962249756 0.22480617463588715 0.83167564868927
-0.27131783962249756 0.24031007289886475 0.53443443775177
-0.27131783962249756 0.24031007289886475 0.8158806562423706
-0.27131783962249756 0.25581395626068115 0.5531867146492004
-0.27131783962249756 0.25581395626068115 0.7971395254135132
-0.27131783962249756 0.27131783962249756 0.5705472826957703
-0.27131783962249756 0.27131783962249756 0.7760762572288513
-0.27131783962249756 0.28682172298431396 0.5918644666671753
-0.27131783962249756 0.28682172298431396 0.7487272024154663
-0.27131783962249756 0.30232560634613037 0.6267781853675842
-0.27131783962249756 0.30232560634613037 0.7068164944648743
-0.25581395626068115 -0.317829430103302 0.6368097066879272
-0.25581395626068115 -0.317829430103302 0.719185471534729
-0.25581395626068115 -0.302325576543808 0.5990853905677795
-0.25581395626068115 -0.30232560634613037 0.759074330329895
-0.25581395626068115 -0.28682172298431396 0.576553463935852
-0.25581395626068115 -0.2868216931819916 0.7848806977272034
-0.25581395626068115 -0.27131783962249756 0.5582278370857239
-0.25581395626068115 -0.27131783962249756 0.8074084520339966
-0.25581395626068115 -0.25581395626068115 0.5442436337471008
-0.25581395626068115 -0.25581395626068115 0.8245017528533936
-0.25581395626068115 -0.24031007289886475 0.532667338848114
-0.25581395626068115 -0.24031007289886475 0.8401087522506714
-0.25581395626068115 -0.22480620443820953 0.5215581655502319
-0.25581395626068115 -0.22480618953704834 0.8545092344284058
-0.25581395626068115 -0.20930230617523193 0.5111120343208313
-0.25581395626068115 -0.20930229127407074 0.8643444776535034
-0.25581395626068115 -0.19379842281341553 0.49854838848114014
-0.25581395626068115 -0.19379842281341553 0.8754451274871826
-0.25581395626068115 -0.1782945990562439 -0.7654788494110107
-0.25581395626068115 -0.1782945990562439 -0.6895838379859924
-0.25581395626068115 -0.1782945990562439 0.48309028148651123
-0.25581395626068115 -0.1782945990562439 0.8873127698898315
-0.25581395626068115 -0.1627907156944275 0.4703427255153656
-0.25581395626068115 -0.1627907156944275 0.8920593857765198
-0.25581395626068115 -0.14728683233261108 0.46342530846595764
-0.25581395626068115 -0.14728683233261108 0.8977372050285339
-0.25581395626068115 -0.13178294897079468 0.4607606828212738
-0.25581395626068115 -0.13178294897079468 0.9036475419998169
-0.25581395626068115 -0.11627906560897827 0.46114403009414673
-0.25581395626068115 -0.11627906560897827 0.9069875478744507
-0.25581395626068115 -0.10077518224716187 0.4554080665111542
-0.25581395626068115 -0.10077518224716187 0.909407377243042
-0.25581395626068115 -0.08527129888534546 0.4461984932422638
-0.25581395626068115 -0.08527129888534546 0.914630115032196
-0.25581395626068115 -0.06976741552352905 0.4295784831047058
-0.25581395626068115 -0.06976741552352905 0.9187595844268799
-0.25581395626068115 -0.05426359176635742 0.4142192304134369
-0.25581395626068115 -0.05426359176635742 0.9206639528274536
-0.25581395626068115 -0.038759708404541016 0.41126760840415955
-0.25581395626068115 -0.038759708404541016 0.9222820997238159
-0.25581395626068115 -0.02325582504272461 0.435485303401947
-0.25581395626068115 -0.02325582504272461 0.9228684902191162
-0.25581395626068115 -0.007751941680908203 0.19182950258255005
-0.25581395626068115 -0.007751941680908203 0.2660977244377136
-0.25581395626068115 -0.007751941680908203 0.4398423731327057
-0.25581395626068115 -0.00775194214656949 0.9232538938522339
-0.25581395626068115 0.007751941680908203 0.4408406913280487
-0.25581395626068115 0.007751941680908203 0.9231342673301697
-0.25581395626068115 0.02325582504272461 0.44658392667770386
-0.25581395626068115 0.02325582504272461 0.9224821925163269
-0.25581395626068115 0.038759708404541016 0.45562347769737244
-0.25581395626068115 0.038759708404541016 0.9213433265686035
-0.25581395626068115 0.05426359176635742 0.46670952439308167
-0.25581395626068115 0.05426359176635742 0.9196561574935913
-0.25581395626068115 0.06976747512817383 0.4710128903388977
-0.25581395626068115 0.06976747512817383 0.9172021150588989
-0.25581395626068115 0.08527135848999023 0.46723538637161255
-0.25581395626068115 0.08527135848999023 0.9128589630126953
-0.25581395626068115 0.10077524185180664 0.45714622735977173
-0.25581395626068115 0.10077524185180664 0.9082459807395935
-0.25581395626068115 0.11627912521362305 0.45294326543807983
-0.25581395626068115 0.11627912521362305 0.9047009348869324
-0.25581395626068115 0.1317828893661499 0.038160502910614014
-0.25581395626068115 0.1317828893661499 0.07115914672613144
-0.25581395626068115 0.1317828893661499 0.4540916085243225
-0.25581395626068115 0.1317828893661499 0.8998986482620239
-0.25581395626068115 0.1472867727279663 0.45710352063179016
-0.25581395626068115 0.1472867876291275 0.8925830125808716
-0.25581395626068115 0.16279065608978271 0.4632178544998169
-0.25581395626068115 0.16279065608978271 0.88834547996521
-0.25581395626068115 0.17829453945159912 0.11861009895801544
-0.25581395626068115 0.17829453945159912 0.13627007603645325
-0.25581395626068115 0.17829453945159912 0.4681832790374756
-0.25581395626068115 0.17829453945159912 0.8804563283920288
-0.25581395626068115 0.19379842281341553 0.11289408057928085
-0.25581395626068115 0.19379842281341553 0.1255984604358673
-0.25581395626068115 0.19379842281341553 0.47237640619277954
-0.25581395626068115 0.19379842281341553 0.8725368976593018
-0.25581395626068115 0.20930230617523193 0.4841892123222351
-0.25581395626068115 0.20930230617523193 0.8594939708709717
-0.25581395626068115 0.22480618953704834 0.49782663583755493
-0.25581395626068115 0.22480618953704834 0.8461968898773193
-0.25581395626068115 0.24031007289886475 0.5160934329032898
-0.25581395626068115 0.24031005799770355 0.8313449621200562
-0.25581395626068115 0.25581395626068115 0.5338781476020813
-0.25581395626068115 0.25581395626068115 0.8145285248756409
-0.25581395626068115 0.27131783962249756 0.5495865941047668
-0.25581395626068115 0.27131783962249756 0.7962589263916016
-0.25581395626068115 0.28682172298431396 0.5657273530960083
-0.25581395626068115 0.28682172298431396 0.7748125791549683
-0.25581395626068115 0.30232560634613037 0.5895959734916687
-0.25581395626068115 0.30232560634613037 0.7449650764465332
-0.25581395626068115 0.3178294897079468 0.6373792886734009
-0.25581395626068115 0.3178294897079468 0.6960472464561462
-0.24031008780002594 -0.317829430103302 0.6036968231201172
-0.24031007289886475 -0.317829430103302 0.7474275231361389
-0.24031007289886475 -0.30232560634613037 0.5768172740936279
-0.24031007289886475 -0.30232560634613037 0.7778412699699402
-0.24031007289886475 -0.28682172298431396 0.5565026998519897
-0.24031007289886475 -0.28682172298431396 0.8006752133369446
-0.24031007289886475 -0.27131783962249756 0.5405046939849854
-0.24031007289886475 -0.27131783962249756 0.8221734762191772
-0.24031007289886475 -0.25581395626068115 0.5280926823616028
-0.24031007289886475 -0.25581395626068115 0.8390446901321411
-0.24031007289886475 -0.24031007289886475 0.5168176293373108
-0.24031007289886475 -0.24031007289886475 0.8540437817573547
-0.24031008780002594 -0.22480618953704834 0.504338264465332
-0.24031007289886475 -0.22480620443820953 0.8654261827468872
-0.24031007289886475 -0.20930230617523193 0.49473100900650024
-0.24031007289886475 -0.20930230617523193 0.8758566379547119
-0.24031007289886475 -0.19379842281341553 0.4840537905693054
-0.24031007289886475 -0.19379842281341553 0.889363169670105
-0.24031007289886475 -0.1782945990562439 0.47122544050216675
-0.24031007289886475 -0.1782945990562439 0.8958897590637207
-0.24031007289886475 -0.1627907156944275 0.4607863426208496
-0.24031007289886475 -0.1627907156944275 0.9052397012710571
-0.24031007289886475 -0.14728683233261108 0.45421910285949707
-0.24031007289886475 -0.14728684723377228 0.9077243208885193
-0.24031007289886475 -0.13178294897079468 0.4519733190536499
-0.24031007289886475 -0.13178294897079468 0.9114631414413452
-0.24031007289886475 -0.11627906560897827 0.28331756591796875
-0.24031007289886475 -0.11627906560897827 0.31739965081214905
-0.24031007289886475 -0.11627906560897827 0.44816654920578003
-0.24031007289886475 -0.11627906560897827 0.9182842969894409
-0.24031007289886475 -0.10077518224716187 0.44076666235923767
-0.24031007289886475 -0.10077518224716187 0.9219869375228882
-0.24031007289886475 -0.08527129888534546 -0.6014167070388794
-0.24031007289886475 -0.08527129888534546 -0.513687252998352
-0.24031007289886475 -0.08527129888534546 0.42376217246055603
-0.24031007289886475 -0.08527129888534546 0.9236477613449097
-0.24031007289886475 -0.06976741552352905 -0.6397682428359985
-0.24031007289886475 -0.06976741552352905 -0.5185133814811707
-0.24031007289886475 -0.06976741552352905 0.3908945918083191
-0.24031005799770355 -0.06976741552352905 0.9264016151428223
-0.24031007289886475 -0.05426359176635742 -0.6134288311004639
-0.24031007289886475 -0.05426359176635742 -0.5635010600090027
-0.24031007289886475 -0.05426359176635742 0.37647366523742676
-0.24031007289886475 -0.05426359176635742 0.9295191764831543
-0.24031007289886475 -0.038759708404541016 0.37745726108551025
-0.24031007289886475 -0.038759708404541016 0.9331142902374268
-0.24031007289886475 -0.02325582504272461 0.3940252363681793
-0.24031007289886475 -0.02325582504272461 0.9349483251571655
-0.24031007289886475 -0.007751941680908203 0.4345288574695587
-0.24031007289886475 -0.007751941680908203 0.9354829788208008
-0.24031007289886475 0.007751941680908203 0.005317536182701588
-0.24031007289886475 0.007751941680908203 0.09045901149511337
-0.24031007289886475 0.007751941680908203 0.43765902519226074
-0.24031007289886475 0.007751941680908203 0.9352672100067139
-0.24031007289886475 0.02325582504272461 0.44101083278656006
-0.24031007289886475 0.02325582504272461 0.9342409372329712
-0.24031007289886475 0.038759708404541016 0.4495714604854584
-0.24031007289886475 0.038759708404541016 0.9321355819702148
-0.24031005799770355 0.05426359176635742 0.4576001465320587
-0.24031007289886475 0.05426359176635742 0.9281207919120789
-0.24031007289886475 0.06976747512817383 0.4630168080329895
-0.24031007289886475 0.06976747512817383 0.924299955368042
-0.24031007289886475 0.08527135848999023 0.4570232927799225
-0.24031007289886475 0.08527135848999023 0.921741247177124
-0.24031007289886475 0.10077524185180664 0.4486880302429199
-0.24031007289886475 0.10077524185180664 0.9195233583450317
-0.24031007289886475 0.11627912521362305 0.44146254658699036
-0.24031007289886475 0.11627912521362305 0.9150129556655884
-0.24031007289886475 0.1317828893661499 0.013547778129577637
-0.24031007289886475 0.1317828893661499 0.0876418799161911
-0.24031007289886475 0.1317828893661499 0.4414408504962921
-0.24031007289886475 0.1317828893661499 0.9081715941429138
-0.24031007289886475 0.1472867727279663 0.033634450286626816
-0.24031007289886475 0.1472867727279663 0.06711077690124512
-0.24031007289886475 0.1472867727279663 0.44812971353530884
-0.24031007289886475 0.1472867727279663 0.9042367339134216
-0.24031007289886475 0.16279065608978271 0.1615791767835617
-0.24031008780002594 0.16279065608978271 0.16377586126327515
-0.24031007289886475 0.16279065608978271 0.45408329367637634
-0.24031007289886475 0.16279065608978271 0.8981913328170776
-0.24031007289886475 0.17829453945159912 0.1308148205280304
-0.24031007289886475 0.17829453945159912 0.16917401552200317
-0.24031007289886475 0.17829453945159912 0.45676448941230774
-0.24031007289886475 0.17829453945159912 0.8901352882385254
-0.24031007289886475 0.19379842281341553 0.115988589823246
-0.24031007289886475 0.19379842281341553 0.15707844495773315
-0.24031007289886475 0.19379842281341553 0.463966429233551
-0.24031007289886475 0.19379842281341553 0.8846550583839417
-0.24031007289886475 0.20930230617523193 0.10717456787824631
-0.24031007289886475 0.20930230617523193 0.1345469057559967
-0.24031007289886475 0.20930230617523193 0.47170767188072205
-0.24031007289886475 0.20930230617523193 0.873589038848877
-0.24031007289886475 0.22480618953704834 0.4836772084236145
-0.24031007289886475 0.22480618953704834 0.8594495058059692
-0.24031007289886475 0.24031007289886475 0.4982650578022003
-0.24031007289886475 0.24031007289886475 0.8446518778800964
-0.24031007289886475 0.25581395626068115 0.5149694085121155
-0.24031007289886475 0.25581395626068115 0.829050600528717
-0.24031007289886475 0.27131783962249756 0.529554009437561
-0.24031007289886475 0.27131783962249756 0.8125557899475098
-0.24031007289886475 0.28682172298431396 -0.3363683223724365
-0.24031007289886475 0.28682172298431396 -0.31572583317756653
-0.24031007289886475 0.28682172298431396 0.5450541377067566
-0.24031007289886475 0.28682172298431396 0.7937591075897217
-0.24031007289886475 0.30232560634613037 -0.3202263414859772
-0.24031007289886475 0.30232560634613037 -0.28521454334259033
-0.24031007289886475 0.30232560634613037 0.56441730260849
-0.24031007289886475 0.30232560634613037 0.7711054086685181
-0.24031007289886475 0.3178294897079468 -0.29233038425445557
-0.24031007289886475 0.3178294897079468 -0.2535994052886963
-0.24031007289886475 0.3178294897079468 0.5934450626373291
-0.24031007289886475 0.3178294897079468 0.739836573600769
-0.24031007289886475 0.3333333730697632 -0.2571484446525574
-0.24031007289886475 0.3333333730697632 -0.19944101572036743
-0.24031007289886475 0.3333333730697632 0.6717856526374817
-0.24031005799770355 0.3333333730697632 0.674909770488739
-0.24031007289886475 0.3488372564315796 -0.20358380675315857
-0.24031007289886475 0.3488372564315796 -0.11192643642425537
-0.22480618953704834 -0.3333333134651184 0.6176092624664307
-0.22480618953704834 -0.3333333134651184 0.7298489809036255
-0.22480618953704834 -0.317829430103302 0.5818498730659485
-0.22480618953704834 -0.317829430103302 0.7694768905639648
-0.22480618953704834 -0.30232560634613037 0.5580308437347412
-0.22480618953704834 -0.30232560634613037 0.7940647602081299
-0.22480618953704834 -0.28682172298431396 0.5400353670120239
-0.22480618953704834 -0.28682172298431396 0.8131309747695923
-0.22480618953704834 -0.27131783962249756 0.525111198425293
-0.22480618953704834 -0.27131783962249756 0.8334417343139648
-0.22480618953704834 -0.25581395626068115 0.5127092599868774
-0.22480620443820953 -0.25581395626068115 0.8511072397232056
-0.22480618953704834 -0.24031007289886475 0.5006590485572815
-0.22480618953704834 -0.24031007289886475 0.8639746308326721
-0.22480618953704834 -0.22480618953704834 0.48803994059562683
-0.22480618953704834 -0.22480618953704834 0.8757103681564331
-0.22480618953704834 -0.20930230617523193 0.48010343313217163
-0.22480618953704834 -0.20930230617523193 0.8894087672233582
-0.22480618953704834 -0.19379842281341553 0.4710598587989807
-0.22480618953704834 -0.19379842281341553 0.8983593583106995
-0.22480618953704834 -0.1782945990562439 0.4636511206626892
-0.22480618953704834 -0.1782945990562439 0.9067187309265137
-0.22480618953704834 -0.1627907156944275 0.4546893537044525
-0.22480618953704834 -0.1627907156944275 0.912636399269104
-0.22480618953704834 -0.14728683233261108 0.4488730728626251
-0.22480618953704834 -0.14728683233261108 0.9197860360145569
-0.22480617463588715 -0.13178294897079468 0.444252073764801
-0.22480618953704834 -0.13178294897079468 0.9226310849189758
-0.22480618953704834 -0.11627906560897827 0.4407215714454651
-0.22480618953704834 -0.11627906560897827 0.9251114726066589
-0.22480617463588715 -0.10077517479658127 -0.6875191330909729
-0.22480618953704834 -0.10077518224716187 -0.5392654538154602
-0.22480618953704834 -0.10077518224716187 0.434845507144928
-0.22480618953704834 -0.10077518224716187 0.9305163621902466
-0.22480617463588715 -0.08527129143476486 -0.7516396641731262
-0.22480618953704834 -0.08527129888534546 -0.4953794479370117
-0.22480618953704834 -0.08527129888534546 0.4107041358947754
-0.22480618953704834 -0.08527129888534546 0.9355709552764893
-0.22480618953704834 -0.06976741552352905 -0.7714805603027344
-0.22480618953704834 -0.06976741552352905 -0.49307703971862793
-0.22480618953704834 -0.06976741552352905 0.38074997067451477
-0.22480618953704834 -0.06976741552352905 0.937813937664032
-0.22480618953704834 -0.05426359176635742 -0.7367208003997803
-0.22480618953704834 -0.05426359176635742 -0.5304553508758545
-0.22480618953704834 -0.05426359176635742 0.3704187870025635
-0.22480618953704834 -0.05426359176635742 0.9387645125389099
-0.22480618953704834 -0.038759708404541016 -0.6110438704490662
-0.22480620443820953 -0.038759708404541016 -0.5788171291351318
-0.22480618953704834 -0.038759708404541016 0.3773532807826996
-0.22480618953704834 -0.03875970467925072 0.9401905536651611
-0.22480618953704834 -0.02325582504272461 -0.17361754179000854
-0.22480618953704834 -0.02325582504272461 -0.02739628218114376
-0.22480620443820953 -0.02325582504272461 0.39912158250808716
-0.22480618953704834 -0.02325582504272461 0.9417831301689148
-0.22480618953704834 -0.00775194214656949 -0.2530864179134369
-0.22480618953704834 -0.00775194214656949 0.11814326792955399
-0.22480618953704834 -0.007751941680908203 0.43021243810653687
-0.22480618953704834 -0.007751941680908203 0.9426347017288208
-0.22480618953704834 0.007751941680908203 -0.13679146766662598
-0.22480618953704834 0.007751941680908203 0.10505625605583191
-0.22480618953704834 0.007751941680908203 0.43440425395965576
-0.22480618953704834 0.00775194214656949 0.9425215721130371
-0.22480618953704834 0.02325582504272461 0.021357398480176926
-0.22480618953704834 0.02325582504272461 0.04047784209251404
-0.22480618953704834 0.02325582504272461 0.43909788131713867
-0.22480618953704834 0.02325582504272461 0.9411073923110962
-0.22480618953704834 0.038759708404541016 0.446211576461792
-0.22480618953704834 0.038759708404541016 0.9386170506477356
-0.22480618953704834 0.05426359176635742 0.4548516273498535
-0.22480618953704834 0.05426359176635742 0.9357789754867554
-0.22480618953704834 0.06976747512817383 0.4596330523490906
-0.22480618953704834 0.06976747512817383 0.9321608543395996
-0.22480618953704834 0.08527135848999023 0.45450037717819214
-0.22480620443820953 0.08527135848999023 0.9285922050476074
-0.22480618953704834 0.10077524185180664 0.44480928778648376
-0.22480618953704834 0.10077524185180664 0.9258283972740173
-0.22480618953704834 0.11627912521362305 0.43874508142471313
-0.22480618953704834 0.11627912521362305 0.922592282295227
-0.22480618953704834 0.1317828893661499 0.015456128865480423
-0.22480618953704834 0.1317828893661499 0.07435033470392227
-0.22480618953704834 0.1317828893661499 0.43834662437438965
-0.22480618953704834 0.1317828893661499 0.9193010330200195
-0.22480618953704834 0.1472867727279663 0.4405834972858429
-0.22480618953704834 0.1472867727279663 0.9138503074645996
-0.22480617463588715 0.16279065608978271 0.4442681670188904
-0.22480618953704834 0.16279065608978271 0.9062240719795227
-0.22480618953704834 0.17829453945159912 0.16405092179775238
-0.22480618953704834 0.17829453945159912 0.21381938457489014
-0.22480618953704834 0.17829452455043793 0.2577025592327118
-0.22480618953704834 0.17829453945159912 0.29210060834884644
-0.22480618953704834 0.17829453945159912 0.45112940669059753
-0.22480618953704834 0.17829453945159912 0.9018536806106567
-0.22480618953704834 0.19379842281341553 0.14920029044151306
-0.22480618953704834 0.19379842281341553 0.18822148442268372
-0.22480618953704834 0.19379842281341553 0.45551931858062744
-0.22480618953704834 0.19379842281341553 0.892274796962738
-0.22480618953704834 0.20930230617523193 0.1295626014471054
-0.22480618953704834 0.20930230617523193 0.14900745451450348
-0.22480618953704834 0.20930230617523193 0.4628240764141083
-0.22480618953704834 0.20930230617523193 0.8861182332038879
-0.22480618953704834 0.22480618953704834 0.47166311740875244
-0.22480618953704834 0.22480618953704834 0.8731732368469238
-0.22480618953704834 0.24031007289886475 0.4836167097091675
-0.22480618953704834 0.24031007289886475 0.858176589012146
-0.22480618953704834 0.25581395626068115 -0.6140595078468323
-0.22480618953704834 0.25581395626068115 -0.5507509112358093
-0.22480618953704834 0.25581395626068115 0.49655258655548096
-0.22480618953704834 0.25581395626068115 0.8429070711135864
-0.22480618953704834 0.27131783962249756 0.5094785094261169
-0.22480618953704834 0.27131783962249756 0.8270555734634399
-0.22480620443820953 0.28682172298431396 0.5243290662765503
-0.22480618953704834 0.28682172298431396 0.8095940351486206
-0.22480618953704834 0.30232560634613037 0.5436029434204102
-0.22480618953704834 0.30232560634613037 0.789394736289978
-0.22480618953704834 0.3178294897079468 0.5670815110206604
-0.22480618953704834 0.3178294897079468 0.7636631727218628
-0.22480618953704834 0.3333333730697632 -0.27253204584121704
-0.22480618953704834 0.3333333730697632 -0.2521059215068817
-0.22480618953704834 0.3333333730697632 -0.04632297903299332
-0.22480618953704834 0.3333333730697632 -0.027264058589935303
-0.22480618953704834 0.3333333730697632 0.602525532245636
-0.22480618953704834 0.3333333730697632 0.7292454838752747
-0.22480618953704834 0.3488372564315796 -0.2448655366897583
-0.22480618953704834 0.3488372564315796 -0.19220922887325287
-0.22480618953704834 0.3488372564315796 -0.09987754374742508
-0.22480618953704834 0.3488372564315796 -0.05092804133892059
-0.22480618953704834 0.364341139793396 -0.1972309648990631
-0.22480618953704834 0.364341139793396 -0.09098370373249054
-0.20930230617523193 -0.3488371968269348 0.6538046598434448
-0.20930230617523193 -0.3488371670246124 0.6922326683998108
-0.20930230617523193 -0.3333333134651184 0.5927695035934448
-0.20930232107639313 -0.3333333134651184 0.7546267509460449
-0.20930230617523193 -0.317829430103302 0.5642343759536743
-0.20930230617523193 -0.317829430103302 0.7852038145065308
-0.20930230617523193 -0.30232560634613037 0.5428805351257324
-0.20930230617523193 -0.30232560634613037 0.8084388375282288
-0.20930230617523193 -0.28682172298431396 0.5266927480697632
-0.20930230617523193 -0.28682172298431396 0.8264449834823608
-0.20930230617523193 -0.27131783962249756 0.5120987296104431
-0.20930230617523193 -0.27131783962249756 0.8435533046722412
-0.20930230617523193 -0.25581395626068115 0.499017596244812
-0.20930230617523193 -0.25581395626068115 0.8596569299697876
-0.20930230617523193 -0.24031007289886475 0.48658430576324463
-0.20930230617523193 -0.24031007289886475 0.8745934367179871
-0.20930230617523193 -0.22480618953704834 0.47605666518211365
-0.20930230617523193 -0.22480618953704834 0.8885522484779358
-0.20930230617523193 -0.20930230617523193 0.4681527018547058
-0.20930230617523193 -0.20930230617523193 0.8964048624038696
-0.20930230617523193 -0.19379842281341553 0.46133893728256226
-0.20930230617523193 -0.19379842281341553 0.9062358736991882
-0.20930230617523193 -0.1782945990562439 0.45591944456100464
-0.20930230617523193 -0.1782945990562439 0.9144203066825867
-0.20930230617523193 -0.1627907156944275 0.4509393572807312
-0.20930230617523193 -0.1627907156944275 0.9215883612632751
-0.20930230617523193 -0.14728683233261108 0.44612473249435425
-0.20930230617523193 -0.14728683233261108 0.9246212244033813
-0.20930230617523193 -0.13178294897079468 0.4416983723640442
-0.20930230617523193 -0.13178294897079468 0.9302274584770203
-0.20930230617523193 -0.11627906560897827 0.43977323174476624
-0.20930230617523193 -0.11627906560897827 0.9360333681106567
-0.20930230617523193 -0.10077518224716187 -0.6952818036079407
-0.20930230617523193 -0.10077518224716187 -0.5986490249633789
-0.20930230617523193 -0.10077518224716187 0.4347984790802002
-0.20930230617523193 -0.10077518224716187 0.9384258985519409
-0.20930230617523193 -0.08527129888534546 -0.8568313717842102
-0.20930230617523193 -0.08527129888534546 -0.5314325094223022
-0.20930230617523193 -0.08527129888534546 0.42490309476852417
-0.20930230617523193 -0.08527129143476486 0.940695583820343
-0.20930230617523193 -0.06976741552352905 -0.8339946269989014
-0.20930230617523193 -0.06976741552352905 -0.5297730565071106
-0.20930230617523193 -0.06976741552352905 0.40509307384490967
-0.20930230617523193 -0.06976741552352905 0.9441378116607666
-0.20930230617523193 -0.05426359176635742 -0.7683591246604919
-0.20930230617523193 -0.05426359176635742 -0.5617058277130127
-0.20930230617523193 -0.05426359176635742 0.39271998405456543
-0.20930230617523193 -0.05426359176635742 0.9475162029266357
-0.20930230617523193 -0.038759708404541016 -0.6922860145568848
-0.20930230617523193 -0.038759708404541016 -0.5954487919807434
-0.20930230617523193 -0.038759708404541016 0.40006646513938904
-0.20930230617523193 -0.038759708404541016 0.950531005859375
-0.20930230617523193 -0.02325582504272461 -0.21663323044776917
-0.20930229127407074 -0.02325582504272461 0.08705194294452667
-0.20930230617523193 -0.02325582504272461 0.42377668619155884
-0.20930230617523193 -0.02325582504272461 0.951783299446106
-0.20930230617523193 -0.007751941680908203 -0.27621471881866455
-0.20930232107639313 -0.007751941680908203 0.12060151994228363
-0.20930230617523193 -0.007751941680908203 0.4280981421470642
-0.20930230617523193 -0.007751941680908203 0.9520163536071777
-0.20930230617523193 0.007751941680908203 -0.24158212542533875
-0.20930230617523193 0.007751941680908203 0.09562261402606964
-0.20930230617523193 0.007751941680908203 0.4317750632762909
-0.20930230617523193 0.007751941680908203 0.9515911340713501
-0.20930230617523193 0.02325582504272461 -0.031245365738868713
-0.20930230617523193 0.02325582504272461 0.03306347131729126
-0.20930230617523193 0.02325582504272461 0.4374970495700836
-0.20930230617523193 0.02325582504272461 0.9500438570976257
-0.20930230617523193 0.038759708404541016 0.4451559782028198
-0.20930230617523193 0.038759708404541016 0.9451413154602051
-0.20930230617523193 0.05426359176635742 0.4548720717430115
-0.20930230617523193 0.05426359176635742 0.9388606548309326
-0.20930230617523193 0.06976747512817383 0.4608643651008606
-0.20930230617523193 0.06976747512817383 0.9353941679000854
-0.20930230617523193 0.08527135848999023 0.4555622339248657
-0.20930230617523193 0.08527135848999023 0.933564305305481
-0.20930230617523193 0.10077524185180664 0.44604477286338806
-0.20930230617523193 0.10077524185180664 0.9333130121231079
-0.20930230617523193 0.11627912521362305 0.4396533668041229
-0.20930230617523193 0.11627912521362305 0.9307125210762024
-0.20930230617523193 0.1317828893661499 0.43915992975234985
-0.20930230617523193 0.1317828893661499 0.9253954887390137
-0.20930230617523193 0.1472867727279663 0.43986672163009644
-0.20930230617523193 0.1472867727279663 0.9211810827255249
-0.20930230617523193 0.16279065608978271 0.44094914197921753
-0.20930230617523193 0.16279065608978271 0.9171329140663147
-0.20930230617523193 0.17829453945159912 0.24654778838157654
-0.20930230617523193 0.17829453945159912 0.2899234890937805
-0.20930230617523193 0.17829453945159912 0.4439421594142914
-0.20930230617523193 0.17829453945159912 0.9080399870872498
-0.20930230617523193 0.19379842281341553 0.26380079984664917
-0.20930230617523193 0.19379842281341553 0.2826651930809021
-0.20930230617523193 0.19379842281341553 0.45155608654022217
-0.20930230617523193 0.19379842281341553 0.9028127789497375
-0.20930230617523193 0.20930230617523193 0.45617708563804626
-0.20930230617523193 0.20930230617523193 0.8915371298789978
-0.20930230617523193 0.22480618953704834 0.46496933698654175
-0.20930230617523193 0.22480618953704834 0.8825228810310364
-0.20930230617523193 0.24031007289886475 0.4718383848667145
-0.20930230617523193 0.24031007289886475 0.8703780174255371
-0.20930230617523193 0.25581395626068115 -0.6854336261749268
-0.20930232107639313 0.25581395626068115 -0.5630911588668823
-0.20930230617523193 0.25581395626068115 0.4817618727684021
-0.20930230617523193 0.25581395626068115 0.8560861349105835
-0.20930230617523193 0.27131783962249756 -0.5682372450828552
-0.20930230617523193 0.27131783962249756 -0.5317366123199463
-0.20930230617523193 0.27131783962249756 0.4914207458496094
-0.20930230617523193 0.27131783962249756 0.8406486511230469
-0.20930232107639313 0.28682172298431396 0.5057798027992249
-0.20930230617523193 0.28682172298431396 0.8234678506851196
-0.20930230617523193 0.30232560634613037 0.5251120924949646
-0.20930230617523193 0.30232560634613037 0.8036218881607056
-0.20930230617523193 0.3178294897079468 0.5495637059211731
-0.20930230617523193 0.3178294897079468 0.7810837626457214
-0.20930230617523193 0.3333333730697632 -0.02603938616812229
-0.20930230617523193 0.3333333730697632 -0.0054241749458014965
-0.20930230617523193 0.3333333730697632 0.5789884328842163
-0.20930230617523193 0.3333333730697632 0.7544183731079102
-0.20930230617523193 0.3488372564315796 -0.054718341678380966
-0.20930230617523193 0.3488372564315796 -0.028743309900164604
-0.20930230617523193 0.3488372564315796 0.6243900060653687
-0.20930230617523193 0.3488372564315796 0.7116180658340454
-0.20930230617523193 0.364341139793396 -0.09839648753404617
-0.20930230617523193 0.364341139793396 -0.0575089305639267
-0.19379843771457672 -0.3488372266292572 0.6129124760627747
-0.19379842281341553 -0.3488371968269348 0.7288188934326172
-0.19379842281341553 -0.3333333134651184 0.5740043520927429
-0.19379842281341553 -0.3333333134651184 0.7717821002006531
-0.19379842281341553 -0.317829430103302 0.5489852428436279
-0.19379842281341553 -0.317829430103302 0.7969532608985901
-0.19379842281341553 -0.30232560634613037 0.5305692553520203
-0.19379842281341553 -0.30232560634613037 0.8207307457923889
-0.19379842281341553 -0.28682172298431396 0.5152584314346313
-0.19379842281341553 -0.28682172298431396 0.8395459055900574
-0.19379842281341553 -0.27131783962249756 0.500642716884613
-0.19379842281341553 -0.27131783962249756 0.8567503690719604
-0.19379842281341553 -0.25581395626068115 0.4872867166996002
-0.19379842281341553 -0.25581395626068115 0.872665286064148
-0.19379842281341553 -0.24031007289886475 0.4762387275695801
-0.19379842281341553 -0.24031007289886475 0.8865203857421875
-0.19379842281341553 -0.22480618953704834 0.4665195941925049
-0.19379842281341553 -0.22480618953704834 0.8939869999885559
-0.19379842281341553 -0.20930230617523193 0.45802345871925354
-0.19379842281341553 -0.20930230617523193 0.9053629636764526
-0.19379842281341553 -0.19379842281341553 0.45374003052711487
-0.19379842281341553 -0.19379842281341553 0.9134774208068848
-0.19379842281341553 -0.1782945990562439 0.4507179260253906
-0.19379842281341553 -0.1782945990562439 0.9215520620346069
-0.19379842281341553 -0.1627907156944275 0.44759130477905273
-0.19379842281341553 -0.1627907156944275 0.9263767600059509
-0.19379842281341553 -0.14728683233261108 0.4445748031139374
-0.19379842281341553 -0.14728683233261108 0.9346421957015991
-0.19379842281341553 -0.13178294897079468 0.44157519936561584
-0.19379843771457672 -0.13178294897079468 0.9382663369178772
-0.19379842281341553 -0.11627906560897827 0.439574271440506
-0.19379842281341553 -0.11627906560897827 0.9408966898918152
-0.19379842281341553 -0.10077518224716187 0.43480733036994934
-0.19379842281341553 -0.10077518224716187 0.9453788995742798
-0.19379842281341553 -0.08527129888534546 -0.8855612874031067
-0.19379842281341553 -0.08527129888534546 -0.8259741067886353
-0.19379842281341553 -0.08527129888534546 0.42820534110069275
-0.19379842281341553 -0.08527129888534546 0.9505108594894409
-0.19379842281341553 -0.06976741552352905 0.42415446043014526
-0.19379842281341553 -0.06976741552352905 0.9530898332595825
-0.19379842281341553 -0.05426359176635742 0.4190291166305542
-0.19379842281341553 -0.05426359549164772 0.9542199373245239
-0.19379842281341553 -0.038759708404541016 0.423200786113739
-0.19379840791225433 -0.038759708404541016 0.9552983641624451
-0.19379842281341553 -0.02325582504272461 -0.19545572996139526
-0.19379842281341553 -0.02325582504272461 0.061901386827230453
-0.19379842281341553 -0.02325582504272461 0.4255808889865875
-0.19379842281341553 -0.02325582504272461 0.9565329551696777
-0.19379842281341553 -0.007751941680908203 -0.22980688512325287
-0.19379842281341553 -0.007751941680908203 0.09363637864589691
-0.19379842281341553 -0.007751941680908203 0.42618173360824585
-0.19379842281341553 -0.007751941680908203 0.9570751190185547
-0.19379842281341553 0.007751941680908203 -0.19591878354549408
-0.19379842281341553 0.007751941680908203 0.07232920080423355
-0.19379842281341553 0.007751941680908203 0.4288361072540283
-0.19379842281341553 0.007751941680908203 0.9567859172821045
-0.19379842281341553 0.02325582504272461 0.4349995255470276
-0.19379842281341553 0.02325582504272461 0.9551419019699097
-0.19379842281341553 0.038759708404541016 0.44259944558143616
-0.19379842281341553 0.038759708404541016 0.9520249962806702
-0.19379842281341553 0.05426359176635742 0.45329663157463074
-0.19379842281341553 0.05426359176635742 0.9446574449539185
-0.19379842281341553 0.06976747512817383 0.45839422941207886
-0.19379842281341553 0.06976747512817383 0.9391864538192749
-0.19379842281341553 0.08527135848999023 0.4544163644313812
-0.19379842281341553 0.08527135848999023 0.9379616975784302
-0.19379842281341553 0.10077524185180664 0.4455850124359131
-0.19379842281341553 0.10077523440122604 0.9380568861961365
-0.19379842281341553 0.11627912521362305 0.4396424889564514
-0.19379842281341553 0.11627912521362305 0.9368804097175598
-0.19379842281341553 0.1317828893661499 0.4390384554862976
-0.19379842281341553 0.1317828893661499 0.9345141649246216
-0.19379842281341553 0.1472867727279663 0.43961381912231445
-0.19379842281341553 0.1472867727279663 0.9293832182884216
-0.19379842281341553 0.16279065608978271 0.44045981764793396
-0.19379842281341553 0.16279065608978271 0.9228631854057312
-0.19379842281341553 0.17829453945159912 0.4413386583328247
-0.19379842281341553 0.17829453945159912 0.9182125329971313
-0.19379842281341553 0.19379842281341553 0.44685059785842896
-0.19379842281341553 0.19379842281341553 0.9079400897026062
-0.19379842281341553 0.20930230617523193 0.4523974657058716
-0.19379842281341553 0.20930230617523193 0.9014585018157959
-0.19379842281341553 0.22480618953704834 0.32744669914245605
-0.19379842281341553 0.22480618953704834 0.33659571409225464
-0.19379842281341553 0.22480618953704834 0.45630791783332825
-0.19379842281341553 0.22480618953704834 0.8897050619125366
-0.19379842281341553 0.24031007289886475 0.4642789959907532
-0.19379840791225433 0.24031007289886475 0.8773662447929382
-0.19379842281341553 0.25581395626068115 0.46962881088256836
-0.19379842281341553 0.25581395626068115 0.8659011125564575
-0.19379842281341553 0.27131783962249756 0.47575536370277405
-0.19379842281341553 0.27131783962249756 0.8520272970199585
-0.19379842281341553 0.28682172298431396 0.488508939743042
-0.19379842281341553 0.28682172298431396 0.8349380493164062
-0.19379842281341553 0.30232560634613037 0.5080944895744324
-0.19379842281341553 0.30232560634613037 0.8152823448181152
-0.19379842281341553 0.3178294897079468 0.5329300761222839
-0.19379842281341553 0.3178294897079468 0.7948026657104492
-0.19379842281341553 0.3333333730697632 0.5609663724899292
-0.19379842281341553 0.3333333730697632 0.771323561668396
-0.19379842281341553 0.3488372564315796 -0.038781166076660156
-0.19379842281341553 0.3488372266292572 -0.019113434478640556
-0.19379842281341553 0.3488372564315796 0.5948444604873657
-0.19379842281341553 0.3488372564315796 0.7394274473190308
-0.19379842281341553 0.364341139793396 -0.07039821147918701
-0.19379842281341553 0.364341139793396 -0.04487674683332443
-0.1782945990562439 -0.3643410801887512 0.6587124466896057
-0.1782945990562439 -0.3643410801887512 0.677103579044342
-0.1782945990562439 -0.3488371968269348 0.5899927616119385
-0.1782945990562439 -0.3488371968269348 0.7489984035491943
-0.1782945990562439 -0.3333333134651184 0.5600981116294861
-0.1782945990562439 -0.3333333134651184 0.7842493057250977
-0.1782945990562439 -0.3178294599056244 0.5381096601486206
-0.1782945990562439 -0.317829430103302 0.809910774230957
-0.1782945990562439 -0.30232560634613037 0.5209415555000305
-0.1782945990562439 -0.30232560634613037 0.8288190364837646
-0.1782945990562439 -0.28682172298431396 0.5062978863716125
-0.1782945990562439 -0.28682172298431396 0.84925776720047
-0.1782945990562439 -0.27131783962249756 0.493299663066864
-0.1782945990562439 -0.27131783962249756 0.8672356605529785
-0.1782945990562439 -0.25581395626068115 0.48136380314826965
-0.1782945990562439 -0.25581395626068115 0.880861759185791
-0.1782945990562439 -0.24031007289886475 0.4693470299243927
-0.1782945990562439 -0.24031007289886475 0.8912262916564941
-0.1782945990562439 -0.22480618953704834 0.45857885479927063
-0.1782945990562439 -0.22480618953704834 0.9043523669242859
-0.1782945990562439 -0.20930230617523193 0.4530507028102875
-0.1782945990562439 -0.20930230617523193 0.9113146662712097
-0.1782945990562439 -0.19379842281341553 0.44888681173324585
-0.1782945990562439 -0.19379842281341553 0.9211191534996033
-0.1782945990562439 -0.1782945990562439 0.4471086263656616
-0.1782945990562439 -0.1782945990562439 0.927180826663971
-0.1782945990562439 -0.1627907156944275 0.44573208689689636
-0.1782945990562439 -0.1627907156944275 0.9361438751220703
-0.1782945990562439 -0.14728683233261108 0.4437711238861084
-0.1782945990562439 -0.1472868174314499 0.9393877387046814
-0.1782945990562439 -0.13178294897079468 0.44142386317253113
-0.1782945990562439 -0.13178294897079468 0.9452952742576599
-0.1782945990562439 -0.11627906560897827 0.43911027908325195
-0.1782945990562439 -0.11627906560897827 0.951347291469574
-0.1782945990562439 -0.10077518224716187 0.43385809659957886
-0.1782945990562439 -0.10077518224716187 0.9539088606834412
-0.1782945990562439 -0.08527129888534546 0.42882901430130005
-0.1782945990562439 -0.08527129888534546 0.9553893804550171
-0.1782945990562439 -0.06976741552352905 0.42566943168640137
-0.1782945990562439 -0.06976741552352905 0.958080530166626
-0.1782945990562439 -0.05426359176635742 0.4244216978549957
-0.1782945990562439 -0.05426359176635742 0.9608887434005737
-0.1782945990562439 -0.038759708404541016 0.42493799328804016
-0.1782945990562439 -0.038759708404541016 0.9637265205383301
-0.1782945990562439 -0.02325582504272461 -0.1486223191022873
-0.1782946139574051 -0.02325582504272461 -0.02020348608493805
-0.1782945990562439 -0.02325582504272461 0.4253196716308594
-0.1782945990562439 -0.02325582504272461 0.965389609336853
-0.1782945990562439 -0.007751941680908203 -0.16813501715660095
-0.1782945990562439 -0.007751941680908203 0.031670697033405304
-0.1782945990562439 -0.007751941680908203 0.4256420135498047
-0.1782945990562439 -0.007751941680908203 0.965753436088562
-0.1782945990562439 0.007751941680908203 -0.1203283965587616
-0.1782945990562439 0.007751941680908203 0.013654367066919804
-0.1782945990562439 0.007751941680908203 0.42624714970588684
-0.1782945990562439 0.007751941680908203 0.965385377407074
-0.1782945990562439 0.02325582504272461 0.43151792883872986
-0.1782945990562439 0.02325582504272461 0.9637435674667358
-0.1782945990562439 0.038759708404541016 0.43955346941947937
-0.1782945990562439 0.038759708404541016 0.9587146043777466
-0.1782945990562439 0.05426359176635742 0.44927024841308594
-0.1782945990562439 0.05426359176635742 0.9535588026046753
-0.1782945990562439 0.06976747512817383 0.45348745584487915
-0.1782945990562439 0.06976747512817383 0.9485702514648438
-0.1782945990562439 0.08527135848999023 0.45093515515327454
-0.1782945990562439 0.08527135848999023 0.9467566013336182
-0.1782945841550827 0.10077523440122604 0.44259536266326904
-0.1782945990562439 0.10077524185180664 0.9470313191413879
