0.3488372564315796 0.3333333730697632 0.7667810320854187
0.3488372564315796 0.3488372564315796 0.3440702557563782
0.3488372564315796 0.3488372564315796 0.7549142837524414
0.3488372564315796 0.364341139793396 0.3371448516845703
0.3488372564315796 0.364341139793396 0.744780421257019
0.3488372564315796 0.37984490394592285 0.3320581018924713
0.3488372564315796 0.37984490394592285 0.7316104173660278
0.3488372564315796 0.39534878730773926 0.3293458819389343
0.3488372564315796 0.39534878730773926 0.7154115438461304
0.3488372564315796 0.41085267066955566 0.32357871532440186
0.3488372564315796 0.41085267066955566 0.6945193409919739
0.3488372564315796 0.42635655403137207 0.31761419773101807
0.3488372564315796 0.42635655403137207 0.6676983833312988
0.3488372564315796 0.4418604373931885 0.3296504020690918
0.3488372564315796 0.4418604373931885 0.6305508613586426
0.3488372564315796 0.4573643207550049 0.3587263226509094
0.3488372564315796 0.4573643207550049 0.5868014693260193
0.3488372564315796 0.4728682041168213 0.3883644938468933
0.3488372564315796 0.4728682041168213 0.5322049260139465
0.364341139793396 -0.4573643207550049 0.42262712121009827
0.364341139793396 -0.4573643207550049 0.5184289216995239
0.364341139793396 -0.4418604373931885 0.380236953496933
0.364341139793396 -0.4418604373931885 0.5711550116539001
0.364341139793396 -0.42635661363601685 0.3572220206260681
0.364341139793396 -0.42635661363601685 0.6176728010177612
0.364341139793396 -0.41085273027420044 0.3461288809776306
0.364341139793396 -0.41085273027420044 0.6548334360122681
0.364341139793396 -0.39534884691238403 0.34779471158981323
0.364341139793396 -0.39534884691238403 0.6825917959213257
0.364341139793396 -0.3798449635505676 0.35689669847488403
0.364341139793396 -0.3798449635505676 0.7027813792228699
0.364341139793396 -0.3643410801887512 0.36355575919151306
0.364341139793396 -0.3643410801887512 0.7185401916503906
0.364341139793396 -0.3488371968269348 0.36582526564598083
0.364341139793396 -0.3488371968269348 0.7333065271377563
0.364341139793396 -0.3333333134651184 0.3619847893714905
0.364341139793396 -0.3333333134651184 0.7481156587600708
0.364341139793396 -0.317829430103302 0.35438257455825806
0.364341139793396 -0.317829430103302 0.7626309394836426
0.364341139793396 -0.30232560634613037 0.34308362007141113
0.364341139793396 -0.30232560634613037 0.7742449045181274
0.364341139793396 -0.28682172298431396 0.3200591206550598
0.364341139793396 -0.28682172298431396 0.7825102210044861
0.364341139793396 -0.27131783962249756 0.2785441279411316
0.364341139793396 -0.27131783962249756 0.7937004566192627
0.364341139793396 -0.25581395626068115 0.25721246004104614
0.3643411695957184 -0.25581398606300354 0.7986292839050293
0.364341139793396 -0.24031007289886475 0.2464730143547058
0.364341139793396 -0.24031007289886475 0.8083841800689697
0.364341139793396 -0.22480618953704834 0.23811101913452148
0.364341139793396 -0.22480618953704834 0.8132560849189758
0.3643411695957184 -0.20930230617523193 0.2294698804616928
0.364341139793396 -0.20930230617523193 0.8219585418701172
0.364341139793396 -0.19379842281341553 0.21654072403907776
0.364341139793396 -0.19379842281341553 0.8275891542434692
0.364341139793396 -0.1782945990562439 0.19729113578796387
0.364341139793396 -0.1782946139574051 0.8333827257156372
0.364341139793396 -0.1627907156944275 0.16850319504737854
0.364341139793396 -0.1627907156944275 0.8411308526992798
0.364341139793396 -0.14728683233261108 0.14300519227981567
0.364341139793396 -0.14728683233261108 0.8447166085243225
0.364341139793396 -0.13178294897079468 0.12401404231786728
0.364341139793396 -0.13178294897079468 0.849456250667572
0.364341139793396 -0.11627906560897827 0.10487011075019836
0.364341139793396 -0.11627906560897827 0.8552500605583191
0.364341139793396 -0.10077518224716187 0.0803990289568901
0.364341139793396 -0.10077518224716187 0.8580264449119568
0.364341139793396 -0.08527129888534546 0.05997125059366226
0.364341139793396 -0.08527129888534546 0.8598880171775818
0.364341139793396 -0.06976741552352905 0.04874532297253609
0.364341139793396 -0.06976741552352905 0.861997127532959
0.364341139793396 -0.05426359176635742 0.05394844338297844
0.364341139793396 -0.05426359176635742 0.8651033639907837
0.364341139793396 -0.038759708404541016 0.13032646477222443
0.364341139793396 -0.038759708404541016 0.13656435906887054
0.364341139793396 -0.038759708404541016 0.2315046489238739
0.364341139793396 -0.038759708404541016 0.8682122230529785
0.364341139793396 -0.02325582504272461 0.2396828532218933
0.364341139793396 -0.02325582504272461 0.8699319362640381
0.364341139793396 -0.007751941680908203 0.23969420790672302
0.364341139793396 -0.007751941680908203 0.8707249760627747
0.364341139793396 0.007751941680908203 0.23838350176811218
0.364341139793396 0.007751941680908203 0.8703173398971558
0.364341139793396 0.02325582504272461 0.23521855473518372
0.364341139793396 0.02325582504272461 0.8687343597412109
0.364341139793396 0.038759708404541016 0.2308785319328308
0.364341139793396 0.038759708404541016 0.8655910491943359
0.364341139793396 0.05426359176635742 0.22517848014831543
0.364341139793396 0.05426359176635742 0.8619576096534729
0.364341139793396 0.06976747512817383 0.21720361709594727
0.364341139793396 0.06976747512817383 0.8598686456680298
0.364341139793396 0.08527135848999023 0.06600697338581085
0.364341139793396 0.08527135848999023 0.08541879802942276
0.364341139793396 0.08527135848999023 0.1988740861415863
0.364341139793396 0.08527135848999023 0.8581150770187378
0.364341139793396 0.10077524185180664 0.021647026762366295
0.364341139793396 0.10077524185180664 0.13092917203903198
0.364341139793396 0.10077524185180664 0.16900020837783813
0.364341139793396 0.10077524185180664 0.8554443120956421
0.364341139793396 0.11627912521362305 -0.0012376995291560888
0.364341139793396 0.11627912521362305 0.8502291440963745
0.364341139793396 0.1317828893661499 -0.014203324913978577
0.364341139793396 0.1317828893661499 0.8450518250465393
0.364341139793396 0.1472867727279663 -0.013326987624168396
0.364341139793396 0.1472867727279663 0.842883825302124
0.364341139793396 0.16279065608978271 -0.005968732759356499
0.364341139793396 0.16279065608978271 0.8384323716163635
0.364341139793396 0.17829453945159912 0.007419419474899769
0.364341139793396 0.17829453945159912 0.09553664922714233
0.364341139793396 0.17829453945159912 0.20375314354896545
0.364341139793396 0.17829453945159912 0.830554723739624
0.364341139793396 0.19379842281341553 0.23277315497398376
0.364341139793396 0.19379842281341553 0.8272094130516052
0.364341139793396 0.20930230617523193 0.2541651427745819
0.364341139793396 0.20930230617523193 0.8215104341506958
0.364341139793396 0.22480618953704834 0.2701224982738495
0.364341139793396 0.22480618953704834 0.813815176486969
0.364341139793396 0.24031007289886475 0.28532034158706665
0.364341139793396 0.24031007289886475 0.8101136088371277
0.364341139793396 0.25581395626068115 0.3015267848968506
0.364341139793396 0.25581395626068115 0.800137996673584
0.364341139793396 0.27131783962249756 0.318664014339447
0.364341139793396 0.27131783962249756 0.7955102324485779
0.364341139793396 0.28682172298431396 0.3324170708656311
0.364341139793396 0.28682172298431396 0.7840200662612915
0.364341139793396 0.30232560634613037 0.34105217456817627
0.364341139793396 0.30232560634613037 0.7769487500190735
0.364341139793396 0.3178294897079468 0.345493882894516
0.364341139793396 0.3178294897079468 0.7657244205474854
0.364341139793396 0.3333333730697632 0.34558361768722534
0.364341139793396 0.3333333730697632 0.7528514266014099
0.364341139793396 0.3488372564315796 0.3406301438808441
0.364341139793396 0.3488372564315796 0.743109941482544
0.364341139793396 0.364341139793396 0.3332158625125885
0.364341139793396 0.364341139793396 0.7313209772109985
0.364341139793396 0.37984490394592285 0.32861340045928955
0.364341139793396 0.37984490394592285 0.7162094116210938
0.364341139793396 0.39534878730773926 0.32536205649375916
0.364341139793396 0.39534878730773926 0.6976313591003418
0.364341139793396 0.41085267066955566 0.323025643825531
0.364341139793396 0.41085267066955566 0.6725977659225464
0.364341139793396 0.42635655403137207 0.3294823467731476
0.364341139793396 0.42635655403137207 0.6411944627761841
0.364341139793396 0.4418604373931885 0.35020577907562256
0.364341139793396 0.4418604373931885 0.6006428003311157
0.364341139793396 0.4573643207550049 0.37811100482940674
0.364341139793396 0.4573643207550049 0.5492768287658691
0.364341139793396 0.4728682041168213 0.43745729327201843
0.364341139793396 0.4728682041168213 0.48112356662750244
0.37984490394592285 -0.4418604373931885 0.41857296228408813
0.37984490394592285 -0.4418604373931885 0.5174102783203125
0.37984490394592285 -0.42635661363601685 0.37818822264671326
0.37984490394592285 -0.42635661363601685 0.568041205406189
0.37984490394592285 -0.41085273027420044 0.3586660623550415
0.37984490394592285 -0.41085273027420044 0.6136969327926636
0.37984490394592285 -0.39534884691238403 0.35235780477523804
0.37984490394592285 -0.39534884691238403 0.6483439803123474
0.37984490394592285 -0.3798449635505676 0.3558509349822998
0.37984490394592285 -0.3798449635505676 0.6753016710281372
0.37984490394592285 -0.3643410801887512 0.36094850301742554
0.37984490394592285 -0.3643410801887512 0.6968709230422974
0.37984490394592285 -0.3488371968269348 0.3626585006713867
0.37984490394592285 -0.3488371968269348 0.714641809463501
0.37984490394592285 -0.3333333134651184 0.35970330238342285
0.37984490394592285 -0.3333333134651184 0.7311379313468933
0.37984490394592285 -0.317829430103302 0.352223664522171
0.37984490394592285 -0.317829430103302 0.7465770244598389
0.37984490394592285 -0.30232560634613037 0.3417198061943054
0.37984490394592285 -0.30232560634613037 0.75958651304245
0.37984490394592285 -0.28682172298431396 0.31804683804512024
0.37984493374824524 -0.28682172298431396 0.7682163715362549
0.37984490394592285 -0.27131783962249756 0.2781022787094116
0.37984490394592285 -0.27131783962249756 0.7796323299407959
0.37984490394592285 -0.25581395626068115 0.254425972700119
0.37984490394592285 -0.25581395626068115 0.786392092704773
0.37984490394592285 -0.24031007289886475 0.24023449420928955
0.37984490394592285 -0.24031007289886475 0.794917106628418
0.37984490394592285 -0.22480618953704834 0.23133566975593567
0.37984490394592285 -0.22480618953704834 0.7999099493026733
0.37984490394592285 -0.20930230617523193 0.22246146202087402
0.37984490394592285 -0.20930230617523193 0.8093939423561096
0.37984490394592285 -0.19379842281341553 0.2104375958442688
0.37984490394592285 -0.19379842281341553 0.8138933181762695
0.37984490394592285 -0.1782945990562439 0.19996729493141174
0.37984490394592285 -0.1782945990562439 0.8228142857551575
0.37984490394592285 -0.1627907156944275 0.18887121975421906
0.37984490394592285 -0.1627907156944275 0.8279134035110474
0.37984490394592285 -0.14728683233261108 0.17748135328292847
0.37984490394592285 -0.14728683233261108 0.8331228494644165
0.37984490394592285 -0.13178294897079468 0.17314714193344116
0.37984490394592285 -0.13178294897079468 0.8398485779762268
0.37984490394592285 -0.11627906560897827 0.17555725574493408
0.37984490394592285 -0.11627906560897827 0.8431481122970581
0.37984493374824524 -0.10077518224716187 0.13472789525985718
0.37984487414360046 -0.10077518224716187 0.8452672362327576
0.37984490394592285 -0.08527129888534546 0.10053838789463043
0.37984490394592285 -0.08527129888534546 0.8491368889808655
0.37984490394592285 -0.06976741552352905 0.09068559855222702
0.37984490394592285 -0.06976741552352905 0.8532730340957642
0.37984490394592285 -0.05426359176635742 0.10294872522354126
0.37984490394592285 -0.05426359176635742 0.8557539582252502
0.37984490394592285 -0.038759708404541016 0.23506583273410797
0.37984490394592285 -0.038759708404541016 0.8573845624923706
0.37984490394592285 -0.02325582504272461 0.2395734339952469
0.37984490394592285 -0.02325582504272461 0.8583049178123474
0.37984490394592285 -0.007751941680908203 0.23870982229709625
0.37984490394592285 -0.007751941680908203 0.8587844967842102
0.37984490394592285 0.007751941680908203 0.23657485842704773
0.37984490394592285 0.007751941680908203 0.8586159944534302
0.37984490394592285 0.02325582504272461 0.23234841227531433
0.37984490394592285 0.02325582504272461 0.8578096628189087
0.37984490394592285 0.038759708404541016 0.22789251804351807
0.37984490394592285 0.038759708404541016 0.8561745285987854
0.37984490394592285 0.05426359176635742 0.22393280267715454
0.37984490394592285 0.05426359176635742 0.8533445596694946
0.37984490394592285 0.06976747512817383 0.21853595972061157
0.37984490394592285 0.06976747512817383 0.8488885760307312
0.37984490394592285 0.08527135848999023 0.20508334040641785
0.37984490394592285 0.08527135848999023 0.8450404405593872
0.37984490394592285 0.10077524185180664 0.06664250791072845
0.37984490394592285 0.10077524185180664 0.12365160882472992
0.37984490394592285 0.10077524185180664 0.18029490113258362
0.37984490394592285 0.10077524185180664 0.8431689739227295
0.37984490394592285 0.11627912521362305 0.04031241312623024
0.37984490394592285 0.11627912521362305 0.8399920463562012
0.37984490394592285 0.1317828893661499 0.03150349482893944
0.37984487414360046 0.1317828893661499 0.8339670300483704
0.37984490394592285 0.1472867727279663 0.0329129658639431
0.37984490394592285 0.1472867727279663 0.8287923336029053
0.37984487414360046 0.16279065608978271 0.04276234656572342
0.37984490394592285 0.16279065608978271 0.8254611492156982
0.37984490394592285 0.17829453945159912 0.20646212995052338
0.37984490394592285 0.17829453945159912 0.8183742761611938
0.37984490394592285 0.19379842281341553 0.23389920592308044
0.37984490394592285 0.19379842281341553 0.8130273222923279
0.37984490394592285 0.20930230617523193 0.25225740671157837
0.37984490394592285 0.20930230617523193 0.80918288230896
0.37984490394592285 0.22480618953704834 0.26599207520484924
0.37984493374824524 0.22480620443820953 0.800370991230011
0.37984490394592285 0.24031007289886475 0.27903813123703003
0.37984490394592285 0.24031007289886475 0.796454668045044
0.37984490394592285 0.25581395626068115 0.2925356328487396
0.37984490394592285 0.25581395626068115 0.7884472608566284
0.37984490394592285 0.27131783962249756 0.3080228567123413
0.37984490394592285 0.27131783962249756 0.7814459800720215
0.37984490394592285 0.28682172298431396 0.322340726852417
0.37984490394592285 0.28682172298431396 0.7711191773414612
0.37984490394592285 0.30232560634613037 0.33184731006622314
0.37984490394592285 0.30232560634613037 0.7634620666503906
0.37984493374824524 0.3178294897079468 0.33764922618865967
0.37984490394592285 0.3178294897079468 0.7510802149772644
0.37984490394592285 0.3333333730697632 0.33844298124313354
0.37984490394592285 0.33333340287208557 0.7392274737358093
0.37984490394592285 0.3488372564315796 0.3332976996898651
0.37984490394592285 0.3488372564315796 0.7290042042732239
0.37984490394592285 0.364341139793396 0.32789450883865356
0.37984490394592285 0.364341139793396 0.7150352001190186
0.37984490394592285 0.37984490394592285 0.32415518164634705
0.37984490394592285 0.37984490394592285 0.6976823806762695
0.37984490394592285 0.39534878730773926 0.32559049129486084
0.37984490394592285 0.39534878730773926 0.6740930080413818
0.37984490394592285 0.41085267066955566 0.33176910877227783
0.37984493374824524 0.41085270047187805 0.6455584764480591
0.37984490394592285 0.42635655403137207 0.3481115400791168
0.37984490394592285 0.42635655403137207 0.608416736125946
0.37984490394592285 0.4418604373931885 0.37371188402175903
0.37984490394592285 0.4418604373931885 0.5615206956863403
0.37984490394592285 0.4573643207550049 0.4204086363315582
0.37984490394592285 0.4573643207550049 0.4994472861289978
0.39534878730773926 -0.42635661363601685 0.4157159924507141
0.39534878730773926 -0.42635661363601685 0.5172754526138306
0.39534878730773926 -0.41085273027420044 0.37875235080718994
0.39534878730773926 -0.41085273027420044 0.5654009580612183
0.39534878730773926 -0.39534884691238403 0.364093542098999
0.39534878730773926 -0.39534884691238403 0.608090341091156
0.39534878730773926 -0.3798449635505676 0.36087486147880554
0.39534878730773926 -0.3798449635505676 0.6394274234771729
0.39534878730773926 -0.3643410801887512 0.3629451394081116
0.39534878730773926 -0.3643410801887512 0.6661393642425537
0.39534878730773926 -0.3488371968269348 0.3640950322151184
0.39534878730773926 -0.3488371968269348 0.6889926195144653
0.39534878730773926 -0.3333333134651184 0.3616340160369873
0.39534878730773926 -0.3333333134651184 0.7094581127166748
0.39534878730773926 -0.317829430103302 0.3554733395576477
0.39534878730773926 -0.317829430103302 0.7279619574546814
0.39534878730773926 -0.30232560634613037 0.3454616069793701
0.39534878730773926 -0.30232560634613037 0.7415304183959961
0.39534878730773926 -0.28682172298431396 0.3251239061355591
0.39534878730773926 -0.28682172298431396 0.7522901296615601
0.39534878730773926 -0.27131783962249756 0.2861911654472351
0.39534878730773926 -0.27131783962249756 0.7644485235214233
0.39534878730773926 -0.25581395626068115 0.2605539858341217
0.39534878730773926 -0.25581395626068115 0.7728792428970337
0.39534875750541687 -0.24031007289886475 0.24182578921318054
0.39534878730773926 -0.24031007289886475 0.780363142490387
0.39534878730773926 -0.22480618953704834 0.22988007962703705
0.39534878730773926 -0.22480617463588715 0.7870879769325256
0.39534878730773926 -0.20930230617523193 0.22225543856620789
0.39534878730773926 -0.20930230617523193 0.7951430678367615
0.39534878730773926 -0.19379842281341553 0.21273915469646454
0.39534881711006165 -0.19379843771457672 0.800436794757843
0.39534878730773926 -0.1782945990562439 0.2076566070318222
0.39534878730773926 -0.1782945990562439 0.8095811009407043
0.39534878730773926 -0.1627907156944275 0.20407399535179138
0.39534875750541687 -0.1627907156944275 0.8142364025115967
0.39534878730773926 -0.14728683233261108 0.1984037607908249
0.39534878730773926 -0.14728683233261108 0.8229199647903442
0.39534878730773926 -0.13178294897079468 0.19500382244586945
0.39534878730773926 -0.13178294897079468 0.8272192478179932
0.39534878730773926 -0.11627906560897827 0.20057758688926697
0.39534878730773926 -0.11627906560897827 0.8302634358406067
0.39534878730773926 -0.10077518224716187 0.20802615582942963
0.39534878730773926 -0.10077518224716187 0.8355578184127808
0.39534878730773926 -0.08527129888534546 0.16876761615276337
0.39534878730773926 -0.08527129888534546 0.8399118185043335
0.39534878730773926 -0.06976741552352905 0.14638106524944305
0.39534878730773926 -0.06976741552352905 0.8420159816741943
0.39534878730773926 -0.05426359176635742 0.2220899760723114
0.39534878730773926 -0.05426359176635742 0.843508243560791
0.39534878730773926 -0.038759708404541016 0.23652277886867523
0.39534878730773926 -0.038759708404541016 0.8446226119995117
0.39534878730773926 -0.02325582504272461 0.23821207880973816
0.39534878730773926 -0.02325582504272461 0.8456441760063171
0.39534878730773926 -0.007751941680908203 0.2360578328371048
0.39534878730773926 -0.007751941680908203 0.8465083241462708
0.39534878730773926 0.007751941680908203 0.23277530074119568
0.39534878730773926 0.007751941680908203 0.8461683988571167
0.39534878730773926 0.02325582690536976 0.22739316523075104
0.39534878730773926 0.02325582504272461 0.8450855016708374
0.39534878730773926 0.038759708404541016 0.22383883595466614
0.39534878730773926 0.038759708404541016 0.8439655303955078
0.39534878730773926 0.05426359176635742 0.22143125534057617
0.39534878730773926 0.05426359176635742 0.8422974944114685
0.39534878730773926 0.06976747512817383 0.21720893681049347
0.39534878730773926 0.06976747512817383 0.8395267128944397
0.39534878730773926 0.08527135848999023 0.2079235166311264
0.39534878730773926 0.08527135848999023 0.8346102237701416
0.39534878730773926 0.10077524185180664 0.19212935864925385
0.39534878730773926 0.10077524185180664 0.8296448588371277
0.39534878730773926 0.11627913266420364 0.10166974365711212
0.39534878730773926 0.11627912521362305 0.8271057605743408
0.39534878730773926 0.1317828893661499 0.08798479288816452
0.39534878730773926 0.1317828893661499 0.8226150274276733
0.39534878730773926 0.1472867727279663 0.09081874787807465
0.39534878730773926 0.14728675782680511 0.8147135376930237
0.39534878730773926 0.16279065608978271 0.11963915824890137
0.39534878730773926 0.16279065608978271 0.13650473952293396
0.39534878730773926 0.16279065608978271 0.17109987139701843
0.39534878730773926 0.16279065608978271 0.8112978339195251
0.39534878730773926 0.17829453945159912 0.20897327363491058
0.39534878730773926 0.17829453945159912 0.8057177662849426
0.39534878730773926 0.19379842281341553 0.23405051231384277
0.39534878730773926 0.19379842281341553 0.7982746958732605
0.39534878730773926 0.20930230617523193 0.2505244016647339
0.39534878730773926 0.20930230617523193 0.7952932715415955
0.39534878730773926 0.22480618953704834 0.26257768273353577
0.39534878730773926 0.22480618953704834 0.7877153158187866
0.39534878730773926 0.24031007289886475 0.27325040102005005
0.39534878730773926 0.24031007289886475 0.7819771766662598
0.39534878730773926 0.25581395626068115 0.2844717800617218
0.39534878730773926 0.25581395626068115 0.7757312059402466
0.39534878730773926 0.27131783962249756 0.2972610294818878
0.39534878730773926 0.27131783962249756 0.766674280166626
0.39534878730773926 0.28682172298431396 0.3111145794391632
0.39534878730773926 0.28682172298431396 0.7578370571136475
0.39534878730773926 0.30232560634613037 0.3215375542640686
0.39534878730773926 0.30232560634613037 0.7488749623298645
0.39534878730773926 0.3178294897079468 0.32901090383529663
0.39534878730773926 0.3178294897079468 0.7359781265258789
0.39534878730773926 0.3333333730697632 0.331037312746048
0.39534878730773926 0.3333333730697632 0.7240252494812012
0.39534878730773926 0.3488372564315796 0.3284304141998291
0.39534878730773926 0.3488372564315796 0.711169421672821
0.39534878730773926 0.364341139793396 0.3264603018760681
0.39534878730773926 0.364341139793396 0.6949303150177002
0.39534878730773926 0.37984490394592285 0.32936081290245056
0.39534878730773926 0.37984490394592285 0.6730754375457764
0.39534878730773926 0.39534878730773926 0.3378300666809082
0.39534878730773926 0.39534878730773926 0.6455808877944946
0.39534878730773926 0.41085267066955566 0.3524113893508911
0.39534878730773926 0.41085267066955566 0.6107472777366638
0.39534878730773926 0.42635655403137207 0.3739497661590576
0.39534878730773926 0.42635655403137207 0.5686057209968567
0.39534878730773926 0.4418604373931885 0.4158312678337097
0.39534878730773926 0.4418604075908661 0.510006308555603
0.41085267066955566 -0.41085273027420044 0.4178588092327118
0.41085267066955566 -0.41085273027420044 0.5169847011566162
0.41085267066955566 -0.39534884691238403 0.3860691785812378
0.41085267066955566 -0.39534884691238403 0.5596478581428528
0.41085267066955566 -0.3798449635505676 0.3747265934944153
0.41085267066955566 -0.3798449635505676 0.5966188907623291
0.41085267066955566 -0.3643410801887512 0.3733425736427307
0.41085267066955566 -0.3643410801887512 0.6259901523590088
0.41085267066955566 -0.3488371968269348 0.3734162151813507
0.41085267066955566 -0.3488371968269348 0.6562007069587708
0.41085267066955566 -0.3333333134651184 0.3706550598144531
0.41085267066955566 -0.3333333134651184 0.6834548711776733
0.41085267066955566 -0.317829430103302 0.3641149699687958
0.41085267066955566 -0.317829430103302 0.7043684720993042
0.41085267066955566 -0.30232560634613037 0.3562317490577698
0.41085267066955566 -0.30232560634613037 0.7207479476928711
0.41085267066955566 -0.28682172298431396 0.3402867913246155
0.41085267066955566 -0.28682172298431396 0.7353246212005615
0.41085267066955566 -0.27131783962249756 0.30681565403938293
0.41085267066955566 -0.27131783962249756 0.7483307719230652
0.41085267066955566 -0.25581395626068115 0.27882805466651917
0.41085267066955566 -0.25581395626068115 0.7572942972183228
0.41085267066955566 -0.24031008780002594 0.25635793805122375
0.41085267066955566 -0.24031007289886475 0.7650485634803772
0.41085267066955566 -0.22480620443820953 0.24063847959041595
0.41085270047187805 -0.22480618953704834 0.7728015184402466
0.41085267066955566 -0.20930230617523193 0.23122406005859375
0.41085267066955566 -0.20930230617523193 0.7802640795707703
0.41085267066955566 -0.19379842281341553 0.22402332723140717
0.41085267066955566 -0.19379842281341553 0.7869101762771606
0.41085267066955566 -0.1782945990562439 0.22171878814697266
0.41085267066955566 -0.1782945990562439 0.7950799465179443
0.41085267066955566 -0.1627907156944275 0.21863853931427002
0.41085267066955566 -0.1627907156944275 0.8011423349380493
0.41085267066955566 -0.14728683233261108 0.21427758038043976
0.41085267066955566 -0.14728683233261108 0.8099452257156372
0.41085270047187805 -0.13178294897079468 0.209808349609375
0.41085267066955566 -0.13178294897079468 0.8138492703437805
0.41085267066955566 -0.11627906560897827 0.2107914686203003
0.41085267066955566 -0.11627906560897827 0.8203154802322388
0.41085267066955566 -0.10077518224716187 0.21681034564971924
0.41085267066955566 -0.10077518224716187 0.8252503871917725
0.41085267066955566 -0.08527129888534546 0.2189798653125763
0.41085267066955566 -0.08527129888534546 0.827589213848114
0.41085267066955566 -0.06976741552352905 0.22108379006385803
0.41085267066955566 -0.06976741552352905 0.8290165066719055
0.41085267066955566 -0.05426359176635742 0.23018303513526917
0.41085270047187805 -0.05426359176635742 0.8309547901153564
0.41085267066955566 -0.038759708404541016 0.23632892966270447
0.41085270047187805 -0.038759708404541016 0.833931028842926
0.41085267066955566 -0.02325582504272461 0.23655468225479126
0.41085267066955566 -0.02325582504272461 0.8361873626708984
0.41085267066955566 -0.007751941680908203 0.23494693636894226
0.41085267066955566 -0.007751941680908203 0.837394118309021
0.41085267066955566 0.007751941680908203 0.23311705887317657
0.41085267066955566 0.007751941680908203 0.8369053602218628
0.41085267066955566 0.02325582504272461 0.22870464622974396
0.41085270047187805 0.02325582504272461 0.8348305225372314
0.41085267066955566 0.038759708404541016 0.22440388798713684
0.41085267066955566 0.038759708404541016 0.8316137194633484
0.41085267066955566 0.05426359176635742 0.22237412631511688
0.41085267066955566 0.05426359176635742 0.8291481733322144
0.41085267066955566 0.06976747512817383 0.21902373433113098
0.41085267066955566 0.06976747512817383 0.8273010849952698
0.41085267066955566 0.08527135848999023 0.2120165377855301
0.41085267066955566 0.08527135848999023 0.8240330219268799
0.41085267066955566 0.10077524185180664 0.20242738723754883
0.41085267066955566 0.10077524185180664 0.8183770179748535
0.41085267066955566 0.11627912521362305 0.1882639080286026
0.41085267066955566 0.11627912521362305 0.8130782842636108
0.41085267066955566 0.1317828893661499 0.17482230067253113
0.41085267066955566 0.1317828893661499 0.809425413608551
0.41085267066955566 0.1472867727279663 0.1753707230091095
0.41085267066955566 0.1472867727279663 0.8015807271003723
0.41085267066955566 0.16279065608978271 0.1935615986585617
0.41085267066955566 0.16279065608978271 0.7968505024909973
0.41085267066955566 0.17829453945159912 0.2152363806962967
0.41085267066955566 0.17829453945159912 0.7926742434501648
0.41085267066955566 0.19379842281341553 0.23568224906921387
0.41085267066955566 0.19379842281341553 0.7844099402427673
0.41085267066955566 0.20930230617523193 0.2509227693080902
0.41085267066955566 0.20930230617523193 0.780999481678009
0.41085267066955566 0.22480618953704834 0.2625347971916199
0.41085267066955566 0.22480618953704834 0.7749674320220947
0.41085267066955566 0.24031007289886475 0.2722410559654236
0.41085267066955566 0.24031007289886475 0.7670956254005432
0.41085267066955566 0.25581395626068115 0.282622367143631
0.41085267066955566 0.25581395626068115 0.7621930837631226
0.41085267066955566 0.27131783962249756 0.2924286723136902
0.41085267066955566 0.27131783962249756 0.7517778873443604
0.41085267066955566 0.28682172298431396 0.30360227823257446
0.41085267066955566 0.28682172298431396 0.7439954280853271
0.41085267066955566 0.30232560634613037 0.3142271339893341
0.41085267066955566 0.30232560634613037 0.7337614297866821
0.41085267066955566 0.3178294897079468 0.32213094830513
0.41085267066955566 0.3178294897079468 0.7203572392463684
0.41085267066955566 0.3333333730697632 0.3271702527999878
0.4108526408672333 0.3333333432674408 0.7061312794685364
0.41085267066955566 0.3488372564315796 0.3301504850387573
0.41085267066955566 0.3488372564315796 0.690223753452301
0.41085267066955566 0.364341139793396 0.3346194922924042
0.41085267066955566 0.364341139793396 0.6701685190200806
0.41085267066955566 0.37984490394592285 0.3445872664451599
0.41085267066955566 0.37984490394592285 0.6425303220748901
0.41085267066955566 0.39534878730773926 0.35982030630111694
0.41085267066955566 0.39534878730773926 0.6081406474113464
0.41085267066955566 0.41085267066955566 0.3799070417881012
0.41085267066955566 0.41085267066955566 0.5671786665916443
0.41085267066955566 0.42635655403137207 0.4222232401371002
0.41085267066955566 0.42635655403137207 0.5099585652351379
0.42635655403137207 -0.39534884691238403 0.4350273609161377
0.42635655403137207 -0.39534884691238403 0.5080617666244507
0.42635655403137207 -0.3798449635505676 0.40138500928878784
0.42635655403137207 -0.3798449635505676 0.5442294478416443
0.42635655403137207 -0.3643410801887512 0.39066237211227417
0.42635655403137207 -0.3643410801887512 0.5777382850646973
0.42635655403137207 -0.3488371968269348 0.3873019218444824
0.42635655403137207 -0.3488371968269348 0.6117403507232666
0.42635655403137207 -0.3333333134651184 0.3825143873691559
0.42635655403137207 -0.3333333134651184 0.6458759903907776
0.42635655403137207 -0.317829430103302 0.37634676694869995
0.42635655403137207 -0.3178294599056244 0.6770044565200806
0.4263565242290497 -0.30232560634613037 0.36879903078079224
0.42635655403137207 -0.30232560634613037 0.699924111366272
0.42635655403137207 -0.28682172298431396 0.3562791347503662
0.42635655403137207 -0.28682172298431396 0.7168224453926086
0.42635658383369446 -0.27131783962249756 0.3345435857772827
0.42635655403137207 -0.27131783962249756 0.7306294441223145
0.42635655403137207 -0.25581395626068115 0.30282995104789734
0.42635658383369446 -0.25581395626068115 0.7383875250816345
0.42635655403137207 -0.24031007289886475 0.2801876962184906
0.42635655403137207 -0.24031007289886475 0.7485889196395874
0.42635655403137207 -0.22480618953704834 0.2617572546005249
0.42635655403137207 -0.22480618953704834 0.7556394934654236
0.42635655403137207 -0.20930230617523193 0.24899299442768097
0.42635655403137207 -0.20930230617523193 0.7639683485031128
0.42635655403137207 -0.19379842281341553 0.24205534160137177
0.42635658383369446 -0.19379842281341553 0.7700936794281006
0.42635655403137207 -0.1782945990562439 0.23786810040473938
0.42635655403137207 -0.1782945990562439 0.7791849374771118
0.42635655403137207 -0.1627907156944275 0.2341073453426361
0.42635655403137207 -0.1627907156944275 0.7861098051071167
0.42635655403137207 -0.14728683233261108 0.22951315343379974
0.42635655403137207 -0.14728683233261108 0.7950440645217896
0.42635655403137207 -0.13178294897079468 0.22425712645053864
0.42635655403137207 -0.13178294897079468 0.8000280261039734
0.42635655403137207 -0.11627906560897827 0.22290056943893433
0.42635655403137207 -0.11627906560897827 0.8081964254379272
0.42635655403137207 -0.10077518224716187 0.22381776571273804
0.42635655403137207 -0.10077518224716187 0.8119090795516968
0.42635655403137207 -0.08527129888534546 0.22547367215156555
0.42635655403137207 -0.08527129888534546 0.8139075040817261
0.42635655403137207 -0.06976741552352905 0.22972218692302704
0.42635655403137207 -0.06976741552352905 0.816609799861908
0.42635655403137207 -0.05426359176635742 0.2347792387008667
0.42635655403137207 -0.05426359176635742 0.8201478123664856
0.42635655403137207 -0.038759708404541016 0.237052783370018
0.42635655403137207 -0.038759708404541016 0.8228262662887573
0.42635655403137207 -0.02325582504272461 0.2374034970998764
0.42635655403137207 -0.02325582504272461 0.8241394758224487
0.42635655403137207 -0.007751941680908203 0.23749111592769623
0.42635655403137207 -0.007751941680908203 0.8247979879379272
0.42635655403137207 0.007751941680908203 0.23720860481262207
0.42635655403137207 0.007751941680908203 0.8244961500167847
0.42635655403137207 0.02325582504272461 0.23437586426734924
0.42635655403137207 0.02325582504272461 0.8231173157691956
0.42635655403137207 0.038759708404541016 0.2305578589439392
0.42635655403137207 0.038759708404541016 0.8203887343406677
0.4263565242290497 0.05426359176635742 0.22634050250053406
0.42635655403137207 0.05426359176635742 0.8161893486976624
0.42635655403137207 0.06976747512817383 0.22370019555091858
0.42635655403137207 0.06976747512817383 0.8132652044296265
0.42635655403137207 0.08527135848999023 0.2203352153301239
0.42635655403137207 0.08527135848999023 0.8105571269989014
0.42635655403137207 0.10077524185180664 0.21227598190307617
0.42635655403137207 0.10077524185180664 0.8056768178939819
0.42635655403137207 0.11627912521362305 0.20393773913383484
0.42635655403137207 0.11627912521362305 0.7982433438301086
0.42635655403137207 0.1317828893661499 0.1976340413093567
0.42635655403137207 0.1317828893661499 0.7948065996170044
0.42635655403137207 0.1472867727279663 0.20044711232185364
0.42635655403137207 0.1472867727279663 0.7875896692276001
0.42635655403137207 0.16279065608978271 0.20919892191886902
0.42635655403137207 0.16279065608978271 0.7817665934562683
0.42635655403137207 0.17829453945159912 0.22439979016780853
0.42635655403137207 0.17829453945159912 0.7780027389526367
0.42635655403137207 0.19379842281341553 0.24010159075260162
0.42635655403137207 0.19379842281341553 0.7698245048522949
0.42635655403137207 0.20930230617523193 0.25417205691337585
0.42635655403137207 0.20930230617523193 0.765856921672821
0.42635655403137207 0.22480618953704834 0.2662161588668823
0.42635655403137207 0.22480618953704834 0.7603064775466919
0.42635655403137207 0.24031007289886475 0.27652275562286377
0.42635655403137207 0.24031007289886475 0.7517973184585571
0.42635655403137207 0.25581395626068115 0.285172700881958
0.42635655403137207 0.25581395626068115 0.7468639016151428
0.42635655403137207 0.27131783962249756 0.2945842146873474
0.42635655403137207 0.27131783962249756 0.7362481355667114
0.42635655403137207 0.28682172298431396 0.3039500415325165
0.42635655403137207 0.28682172298431396 0.7274730205535889
0.42635655403137207 0.30232560634613037 0.31397363543510437
0.42635655403137207 0.30232560634613037 0.7166624069213867
0.42635655403137207 0.3178294897079468 0.3233601450920105
0.42635655403137207 0.3178294897079468 0.7025359869003296
0.42635655403137207 0.3333333730697632 0.33240807056427
0.42635655403137207 0.3333333730697632 0.6860175132751465
0.42635655403137207 0.3488372564315796 0.3420330286026001
0.42635655403137207 0.3488372564315796 0.6637478470802307
0.4263565242290497 0.364341139793396 0.3525761663913727
0.42635655403137207 0.364341139793396 0.6369194984436035
0.42635655403137207 0.37984490394592285 0.36819565296173096
0.42635655403137207 0.37984490394592285 0.6030758023262024
0.42635655403137207 0.39534878730773926 0.38992929458618164
0.42635655403137207 0.39534878730773926 0.5593620538711548
0.42635655403137207 0.41085267066955566 0.43994465470314026
0.42635655403137207 0.41085267066955566 0.49690067768096924
0.4418604373931885 -0.3643411099910736 0.4275522828102112
0.4418604373931885 -0.3643410801887512 0.5235528349876404
0.4418604373931885 -0.3488371968269348 0.4095837473869324
0.4418604373931885 -0.3488371968269348 0.5582675337791443
0.4418604373931885 -0.3333333134651184 0.3991607427597046
0.4418604373931885 -0.3333333134651184 0.5993614792823792
0.4418604373931885 -0.317829430103302 0.38994884490966797
0.4418604373931885 -0.317829430103302 0.6389791965484619
0.4418604373931885 -0.30232560634613037 0.37985116243362427
0.4418604373931885 -0.30232560634613037 0.6709816455841064
0.4418604373931885 -0.28682172298431396 0.3698284924030304
0.4418604373931885 -0.28682172298431396 0.694157600402832
0.4418604373931885 -0.27131783962249756 0.3546251058578491
0.4418604373931885 -0.27131783962249756 0.709369957447052
0.4418604373931885 -0.25581395626068115 0.33246177434921265
0.4418604373931885 -0.25581395626068115 0.7199574708938599
0.4418604373931885 -0.24031008780002594 0.30330073833465576
0.4418604373931885 -0.24031007289886475 0.7312718033790588
0.4418604373931885 -0.22480618953704834 0.28315258026123047
0.4418604373931885 -0.22480618953704834 0.7367852926254272
0.4418604373931885 -0.20930230617523193 0.2691018879413605
0.4418604373931885 -0.20930230617523193 0.746513843536377
0.44186046719551086 -0.19379842281341553 0.2608906030654907
0.4418604373931885 -0.19379842281341553 0.7513642907142639
0.4418604373931885 -0.1782945990562439 0.2543812692165375
0.4418604373931885 -0.1782945990562439 0.7613382339477539
0.4418604373931885 -0.1627907156944275 0.24941568076610565
0.4418604373931885 -0.1627907156944275 0.7673234343528748
0.4418604373931885 -0.14728683233261108 0.24379846453666687
0.4418604373931885 -0.14728683233261108 0.7782987356185913
0.4418604373931885 -0.13178294897079468 0.23766590654850006
0.4418604373931885 -0.13178294897079468 0.7840561270713806
0.4418604373931885 -0.11627906560897827 0.2333483099937439
0.4418604373931885 -0.11627906560897827 0.7929502725601196
0.4418604373931885 -0.10077518224716187 0.23265963792800903
0.4418604373931885 -0.10077518224716187 0.7969016432762146
0.4418604373931885 -0.08527129888534546 0.23421452939510345
0.4418604373931885 -0.08527129888534546 0.7991194725036621
0.4418604373931885 -0.06976741552352905 0.2368825078010559
0.4418604373931885 -0.06976741552352905 0.8022289872169495
0.4418604373931885 -0.05426359176635742 0.2387537956237793
0.4418604373931885 -0.05426359176635742 0.8054450750350952
0.4418604373931885 -0.038759708404541016 0.23945368826389313
0.4418604373931885 -0.038759708404541016 0.8074259161949158
0.4418604373931885 -0.02325582504272461 0.23988132178783417
0.4418604373931885 -0.02325582504272461 0.8084374666213989
0.4418604373931885 -0.007751941680908203 0.24124088883399963
0.4418604373931885 -0.007751941680908203 0.8089410066604614
0.4418604373931885 0.00775194214656949 0.24274684488773346
0.4418604373931885 0.007751941680908203 0.8085614442825317
0.4418604373931885 0.02325582504272461 0.24085617065429688
0.4418604373931885 0.02325582504272461 0.8071672916412354
0.4418604373931885 0.038759708404541016 0.2387014776468277
0.4418604373931885 0.038759708404541016 0.8048931360244751
0.4418604373931885 0.05426359176635742 0.2352502942085266
0.4418604373931885 0.05426359176635742 0.800911545753479
0.4418604373931885 0.06976747512817383 0.23181979358196259
0.4418604373931885 0.06976747512817383 0.797807514667511
0.4418604373931885 0.08527135848999023 0.22875261306762695
0.4418604373931885 0.08527135848999023 0.7953444719314575
0.4418604373931885 0.10077524185180664 0.22383128106594086
0.4418604373931885 0.10077524185180664 0.7905336022377014
0.4418604373931885 0.11627912521362305 0.21794667840003967
0.4418604373931885 0.11627912521362305 0.7828124165534973
0.44186046719551086 0.1317828893661499 0.21496310830116272
0.4418604373931885 0.1317828893661499 0.7792583107948303
0.4418604373931885 0.1472867727279663 0.21898779273033142
0.4418604373931885 0.1472867727279663 0.7716476917266846
0.4418604373931885 0.16279064118862152 0.22705873847007751
0.4418604373931885 0.16279065608978271 0.766106903553009
0.4418604373931885 0.17829453945159912 0.23861359059810638
0.4418604373931885 0.17829453945159912 0.7622370719909668
0.4418604373931885 0.19379842281341553 0.2507495880126953
0.44186046719551086 0.19379843771457672 0.754040539264679
0.4418604075908661 0.20930230617523193 0.26196813583374023
0.4418604373931885 0.20930230617523193 0.7500407695770264
0.4418604373931885 0.22480618953704834 0.27266383171081543
0.4418604373931885 0.22480618953704834 0.7434380054473877
0.4418604373931885 0.24031007289886475 0.2843776345252991
0.4418604373931885 0.24031007289886475 0.7357196807861328
0.4418604373931885 0.25581395626068115 0.29512321949005127
0.4418604373931885 0.25581395626068115 0.7292604446411133
0.4418604373931885 0.27131783962249756 0.304272323846817
0.4418604373931885 0.27131783962249756 0.7196604609489441
0.4418604373931885 0.28682172298431396 0.31586048007011414
0.44186046719551086 0.28682172298431396 0.7072135806083679
0.4418604373931885 0.30232560634613037 0.32616567611694336
0.4418604373931885 0.30232560634613037 0.6949705481529236
0.44186046719551086 0.3178294897079468 0.336613267660141
0.4418604373931885 0.3178294897079468 0.6772812604904175
0.4418604373931885 0.3333333730697632 0.3474055230617523
0.4418604373931885 0.3333333730697632 0.6559851169586182
0.4418604373931885 0.3488372564315796 0.3600647747516632
0.4418604373931885 0.3488372564315796 0.6269263625144958
0.4418604373931885 0.364341139793396 0.3750843405723572
0.4418604373931885 0.364341139793396 0.5943573117256165
0.4418604373931885 0.37984490394592285 0.40005335211753845
0.4418604373931885 0.37984490394592285 0.5499656796455383
0.4573643207550049 -0.3333333432674408 0.42648667097091675
0.4573643207550049 -0.3333333134651184 0.5420830249786377
0.4573643207550049 -0.317829430103302 0.4061793088912964
0.4573643207550049 -0.317829430103302 0.591201901435852
0.4573643207550049 -0.30232560634613037 0.3923705816268921
0.4573643207550049 -0.30232560634613037 0.6309735178947449
0.4573643207550049 -0.28682172298431396 0.3801046311855316
0.4573643207550049 -0.28682172298431396 0.6642599105834961
0.4573643207550049 -0.27131783962249756 0.3681994378566742
0.4573643207550049 -0.27131783962249756 0.6859113574028015
0.4573643207550049 -0.25581395626068115 0.35317689180374146
0.4573643207550049 -0.25581395626068115 0.7004106640815735
0.4573643207550049 -0.24031007289886475 0.330068439245224
0.4573643207550049 -0.24031007289886475 0.7108772993087769
0.4573643207550049 -0.22480617463588715 0.3052598536014557
0.4573643207550049 -0.22480618953704834 0.718980073928833
0.4573643207550049 -0.20930230617523193 0.29033660888671875
0.4573643207550049 -0.20930230617523193 0.7267881631851196
0.4573643207550049 -0.19379842281341553 0.2803071141242981
0.4573643207550049 -0.19379842281341553 0.7334480881690979
0.4573643207550049 -0.1782945990562439 0.2717164158821106
0.4573643207550049 -0.1782945990562439 0.7403614521026611
0.4573643207550049 -0.1627907156944275 0.26474037766456604
0.4573643207550049 -0.1627907156944275 0.7492967844009399
0.45736435055732727 -0.14728683233261108 0.2571462392807007
0.45736435055732727 -0.14728683233261108 0.7589164972305298
0.4573643207550049 -0.13178294897079468 0.24982723593711853
0.4573643207550049 -0.13178294897079468 0.7661905288696289
0.4573643207550049 -0.11627906560897827 0.24468837678432465
0.4573643207550049 -0.11627906560897827 0.7750221490859985
0.4573643207550049 -0.10077518224716187 0.2417280077934265
0.4573643207550049 -0.10077518224716187 0.78046715259552
0.4573643207550049 -0.08527129888534546 0.24079342186450958
0.4573643207550049 -0.08527129888534546 0.7826656699180603
0.4573643207550049 -0.06976741552352905 0.24221855401992798
0.4573643207550049 -0.06976741552352905 0.7847530245780945
0.4573643207550049 -0.05426359176635742 0.24450784921646118
0.4573643207550049 -0.05426359176635742 0.7873828411102295
0.4573642909526825 -0.038759708404541016 0.24595218896865845
0.4573643207550049 -0.038759708404541016 0.7889120578765869
0.4573643207550049 -0.02325582504272461 0.24744412302970886
0.4573643207550049 -0.02325582504272461 0.789680004119873
0.4573643207550049 -0.007751941680908203 0.24954645335674286
0.4573643207550049 -0.007751941680908203 0.7899178862571716
0.4573643207550049 0.007751941680908203 0.2512916922569275
0.4573643207550049 0.007751941680908203 0.7892076373100281
0.4573643207550049 0.02325582504272461 0.2503046989440918
0.4573643207550049 0.02325582690536976 0.7874403595924377
0.4573643207550049 0.038759708404541016 0.2479330152273178
0.4573643207550049 0.038759708404541016 0.7854042649269104
0.4573643207550049 0.05426359176635742 0.24451720714569092
0.4573643207550049 0.05426359176635742 0.7827795147895813
0.45736435055732727 0.06976747512817383 0.24101917445659637
0.4573643207550049 0.06976747512817383 0.7813321352005005
0.4573643207550049 0.08527135848999023 0.23902787268161774
0.4573643207550049 0.08527135848999023 0.7786766290664673
0.4573643207550049 0.10077524185180664 0.23611700534820557
0.4573643207550049 0.10077523440122604 0.773183286190033
0.4573643207550049 0.11627912521362305 0.23186326026916504
0.4573643207550049 0.11627912521362305 0.7666094899177551
0.4573643207550049 0.1317828893661499 0.2313411384820938
0.4573643207550049 0.1317828893661499 0.7629355788230896
0.4573643207550049 0.1472867727279663 0.23670685291290283
0.4573643207550049 0.1472867727279663 0.7547494173049927
0.4573643207550049 0.16279065608978271 0.2446681559085846
0.4573643207550049 0.16279065608978271 0.7501623630523682
0.4573643207550049 0.17829453945159912 0.2537173330783844
0.4573643207550049 0.17829453945159912 0.7450989484786987
0.4573643207550049 0.19379842281341553 0.2630045413970947
0.4573643207550049 0.19379842281341553 0.7363360524177551
0.4573643207550049 0.20930230617523193 0.2727542519569397
0.4573643207550049 0.20930230617523193 0.7322645783424377
0.4573643207550049 0.22480618953704834 0.2840195894241333
0.4573643207550049 0.22480618953704834 0.7226104736328125
0.4573643207550049 0.24031007289886475 0.296661376953125
0.4573643207550049 0.24031007289886475 0.7171798944473267
0.4573643207550049 0.25581395626068115 0.30971628427505493
0.4573643207550049 0.25581395626068115 0.7063010931015015
0.4573643207550049 0.27131783962249756 0.32195496559143066
0.4573643207550049 0.27131783962249756 0.6983574628829956
0.4573643207550049 0.28682172298431396 0.33329713344573975
0.4573643207550049 0.28682172298431396 0.6852037906646729
0.4573643207550049 0.30232560634613037 0.34253352880477905
0.4573643207550049 0.30232560634613037 0.6679335832595825
0.4573643207550049 0.3178294897079468 0.353451132774353
0.4573643207550049 0.3178294897079468 0.6443366408348083
0.4573643207550049 0.3333333730697632 0.36645007133483887
0.4573643207550049 0.3333333730697632 0.6183357238769531
0.4573643207550049 0.3488372564315796 0.38277173042297363
0.4573643207550049 0.348837286233902 0.5848228931427002
0.4573643207550049 0.364341139793396 0.40895918011665344
0.4573643207550049 0.364341139793396 0.5395106673240662
0.4728682041168213 -0.317829430103302 0.43719983100891113
0.4728682041168213 -0.317829430103302 0.5318702459335327
0.4728682041168213 -0.30232560634613037 0.4094296097755432
0.4728682041168213 -0.30232560634613037 0.5806697010993958
0.4728682041168213 -0.28682172298431396 0.39277416467666626
0.4728682041168213 -0.28682172298431396 0.6217262744903564
0.4728682041168213 -0.27131783962249756 0.37886548042297363
0.4728682041168213 -0.27131783962249756 0.6519854664802551
0.4728682041168213 -0.25581395626068115 0.36696508526802063
0.4728682041168213 -0.25581395626068115 0.6712520122528076
0.4728682041168213 -0.24031007289886475 0.35180985927581787
0.4728682041168213 -0.24031007289886475 0.685588538646698
0.4728682041168213 -0.22480618953704834 0.3304864466190338
0.4728682041168213 -0.22480618953704834 0.6966589093208313
0.4728682041168213 -0.20930230617523193 0.31278011202812195
0.4728682041168213 -0.20930230617523193 0.7032983899116516
0.4728682041168213 -0.19379842281341553 0.30059513449668884
0.4728682041168213 -0.19379842281341553 0.7120165824890137
0.4728682339191437 -0.1782945990562439 0.29119715094566345
0.4728682041168213 -0.1782945990562439 0.718848705291748
0.4728682041168213 -0.1627907156944275 0.2817889451980591
0.4728682041168213 -0.1627907156944275 0.7289774417877197
0.4728682041168213 -0.14728683233261108 0.27219507098197937
0.4728682041168213 -0.14728683233261108 0.7359969615936279
