-0.1782945990562439 0.3085765242576599 0.038759708404541016
-0.1782945990562439 0.31004074215888977 0.05426359176635742
-0.1782945990562439 0.310937762260437 0.06976747512817383
-0.1782945990562439 0.31179001927375793 0.08527135848999023
-0.1782945990562439 0.31218889355659485 0.10077524185180664
-0.1782945990562439 0.31229156255722046 0.11627912521362305
-0.1782945990562439 0.3123783469200134 0.1317828893661499
-0.1782945990562439 0.31227603554725647 0.1472867727279663
-0.1782945990562439 0.31159812211990356 0.16279065608978271
-0.1782945990562439 0.31041160225868225 0.17829453945159912
-0.1782945990562439 0.3083150088787079 0.19379842281341553
-0.1782945990562439 0.3045929968357086 0.20930230617523193
-0.1782945990562439 0.3321179747581482 0.42635655403137207
-0.1782945990562439 0.3290693163871765 0.8604651689529419
-0.1782945990562439 0.35799920558929443 0.41085267066955566
-0.1782946139574051 0.350446492433548 0.8449612855911255
-0.1782945990562439 0.3766442835330963 0.41085267066955566
-0.1782945990562439 0.3724144697189331 0.8294574022293091
-0.1782945990562439 0.39011868834495544 0.8139535188674927
-0.1782945990562439 0.3997276723384857 0.42635655403137207
-0.1782945990562439 0.40493348240852356 0.7984496355056763
-0.1782945990562439 0.4155176877975464 0.4418604373931885
-0.1782945990562439 0.41774827241897583 0.7829457521438599
-0.1782945990562439 0.4301263689994812 0.4573643207550049
-0.1782945990562439 0.43974336981773376 0.4728682041168213
-0.1782945990562439 0.4394855499267578 0.751937985420227
-0.1782945841550827 0.42832139134407043 0.7674418687820435
-0.1782945990562439 0.44792354106903076 0.4883720576763153
-0.1782945990562439 0.4532584547996521 0.5038759708404541
-0.1782945990562439 0.4566139876842499 0.7209302186965942
-0.1782945990562439 0.44973286986351013 0.7364341020584106
-0.1782945990562439 0.4582696259021759 0.5193798542022705
-0.1782945990562439 0.46272873878479004 0.5348837375640869
-0.1782945990562439 0.4662637710571289 0.5503876209259033
-0.1782945990562439 0.4694829285144806 0.5658915042877197
-0.1782945990562439 0.4724904000759125 0.5813953876495361
-0.1782945990562439 0.46919572353363037 0.6899224519729614
-0.1782945990562439 0.46442747116088867 0.7054263353347778
-0.1782945990562439 0.47452157735824585 0.5968992710113525
-0.1782945990562439 0.4760281443595886 0.612403154373169
-0.1782945990562439 0.4768396317958832 0.6279069185256958
-0.1782945990562439 0.4768950343132019 0.6434108018875122
-0.1782945990562439 0.47559651732444763 0.6589146852493286
-0.1782945990562439 0.47306007146835327 0.674418568611145
-0.1627907156944275 -0.45914143323898315 0.5348837375640869
-0.1627907156944275 -0.46295225620269775 0.5503876209259033
-0.1627907156944275 -0.46572399139404297 0.5658915042877197
-0.1627907156944275 -0.4680512547492981 0.5813953876495361
-0.1627907156944275 -0.4698066711425781 0.5968992710113525
-0.1627907156944275 -0.47121819853782654 0.612403154373169
-0.1627907156944275 -0.47227099537849426 0.6279069185256958
-0.1627907007932663 -0.47255054116249084 0.6434108018875122
-0.1627907156944275 -0.4719844460487366 0.6589146852493286
-0.1627907156944275 -0.47027280926704407 0.674418568611145
-0.1627907156944275 -0.4681187570095062 0.6899224519729614
-0.1627907156944275 -0.4653952419757843 0.7054263353347778
-0.1627907156944275 -0.4605410099029541 0.7209302186965942
-0.1627907156944275 -0.44552507996559143 0.4883720874786377
-0.1627907156944275 -0.45026493072509766 0.5038759708404541
-0.1627907156944275 -0.4548419415950775 0.5193798542022705
-0.1627907156944275 -0.4545787274837494 0.7364341020584106
-0.1627907156944275 -0.44856008887290955 0.751937985420227
-0.1627907156944275 -0.4368029534816742 0.4728682041168213
-0.1627907156944275 -0.4397464990615845 0.7674418687820435
-0.1627907156944275 -0.43161532282829285 0.7829457521438599
-0.1627907156944275 -0.4236433506011963 0.4573643207550049
-0.1627907156944275 -0.4213505685329437 0.7984496355056763
-0.1627907156944275 -0.4075433015823364 0.8139535188674927
-0.1627907156944275 -0.39235761761665344 0.4418604373931885
-0.1627907156944275 -0.39007890224456787 0.8294574022293091
-0.1627907156944275 -0.3652617633342743 0.28682172298431396
-0.1627907156944275 -0.36579614877700806 0.30232560634613037
-0.1627907156944275 -0.36640918254852295 0.8449612855911255
-0.1627907156944275 -0.34973663091659546 0.19379842281341553
-0.1627907156944275 -0.35228413343429565 0.20930230617523193
-0.1627907156944275 -0.3545975387096405 0.22480618953704834
-0.1627907156944275 -0.3573112487792969 0.24031007289886475
-0.1627907156944275 -0.3603377938270569 0.25581395626068115
-0.1627907156944275 -0.3632896840572357 0.27131783962249756
-0.1627907156944275 -0.36423805356025696 0.3178294897079468
-0.1627907156944275 -0.3594474494457245 0.3333333730697632
-0.1627907156944275 -0.3534303307533264 0.3488372564315796
-0.1627907156944275 -0.33489421010017395 0.11627912521362305
-0.1627907156944275 -0.33714160323143005 0.1317828893661499
-0.1627907156944275 -0.33961015939712524 0.1472867727279663
-0.1627907156944275 -0.3425273299217224 0.16279065608978271
-0.1627907156944275 -0.34619030356407166 0.17829453945159912
-0.1627907156944275 -0.3419268727302551 0.364341139793396
-0.1627907156944275 -0.3435153365135193 0.8604651689529419
-0.1627907156944275 -0.32217156887054443 0.3488372564315796
-0.1627907156944275 -0.33108359575271606 0.364341139793396
-0.1627907156944275 -0.3160715401172638 0.11627912521362305
-0.1627907156944275 -0.3135501742362976 0.1317828893661499
-0.1627907156944275 -0.3098609447479248 0.1472867727279663
-0.1627907156944275 -0.30545639991760254 0.16279065608978271
-0.1627907156944275 -0.30438998341560364 0.28682172298431396
-0.1627907156944275 -0.30897071957588196 0.30232560634613037
-0.1627907156944275 -0.3131822943687439 0.3178294897079468
-0.1627907156944275 -0.31638655066490173 0.3333333730697632
-0.1627907156944275 -0.31560075283050537 0.8759689331054688
-0.1627907156944275 -0.30203887820243835 0.17829453945159912
-0.1627907156944275 -0.30099770426750183 0.19379842281341553
-0.1627907156944275 -0.29998543858528137 0.20930230617523193
-0.1627907156944275 -0.2996208667755127 0.22480618953704834
-0.1627907156944275 -0.29978519678115845 0.24031007289886475
-0.1627907156944275 -0.30039551854133606 0.25581395626068115
-0.16279073059558868 -0.30149874091148376 0.27131783962249756
-0.1627907156944275 -0.27229103446006775 -0.1627907156944275
-0.1627907156944275 -0.2743968963623047 -0.14728683233261108
-0.1627907156944275 -0.2758764624595642 -0.13178294897079468
-0.1627907156944275 -0.2755588889122009 -0.11627906560897827
-0.1627907156944275 -0.27442193031311035 -0.10077518224716187
-0.1627907156944275 -0.272278755903244 -0.08527129888534546
-0.1627907156944275 -0.2866183817386627 0.8914728164672852
-0.1627907156944275 -0.2692771255970001 -0.1627907156944275
-0.1627907156944275 -0.26531606912612915 -0.14728683233261108
-0.1627907156944275 -0.2628338932991028 -0.13178294897079468
-0.1627907156944275 -0.2637033462524414 -0.11627906560897827
-0.1627907156944275 -0.2662903964519501 -0.10077518224716187
-0.1627907156944275 -0.26990601420402527 -0.08527129888534546
-0.1627907156944275 -0.25828471779823303 0.9069766998291016
-0.1627907156944275 -0.2433677464723587 0.4418604373931885
-0.1627907156944275 -0.2270861566066742 0.922480583190918
-0.1627907156944275 -0.20670032501220703 0.4573642909526825
-0.1627907156944275 -0.19170549511909485 0.9379844665527344
-0.1627907156944275 -0.16193917393684387 0.4573643207550049
-0.1627907156944275 -0.1395549476146698 0.9534883499145508
-0.1627907156944275 0.08478650450706482 0.4418604373931885
-0.1627907156944275 0.11556174606084824 -0.7364341020584106
-0.1627907156944275 0.11244875192642212 -0.7209302186965942
-0.1627907156944275 0.11451958119869232 -0.7054263353347778
-0.1627907156944275 0.12383656203746796 -0.7364341020584106
-0.1627907156944275 0.12400798499584198 -0.6899224519729614
-0.1627907156944275 0.11959759891033173 0.9534883499145508
-0.1627907156944275 0.14624467492103577 -0.674418568611145
-0.1627907156944275 0.15361082553863525 -0.7209302186965942
-0.1627907156944275 0.1601533144712448 0.42635655403137207
-0.1627907156944275 0.16629423201084137 -0.7054263353347778
-0.1627907156944275 0.17421859502792358 -0.6899224519729614
-0.1627907156944275 0.16318988800048828 -0.674418568611145
-0.1627907156944275 0.17701755464076996 0.9379844665527344
-0.1627907156944275 0.2155492901802063 0.922480583190918
-0.1627907156944275 0.2390858232975006 0.038759708404541016
-0.1627907156944275 0.23854681849479675 0.05426359176635742
-0.1627907156944275 0.23830731213092804 0.06976747512817383
-0.1627907156944275 0.2390790581703186 0.08527135848999023
-0.1627907156944275 0.2399631142616272 0.10077524185180664
-0.1627907156944275 0.25490134954452515 -0.05426359176635742
-0.1627907156944275 0.25296613574028015 -0.038759708404541016
-0.1627907156944275 0.2508866488933563 -0.02325582504272461
-0.1627907156944275 0.2479182779788971 -0.007751941680908203
-0.1627907156944275 0.24443715810775757 0.007751941680908203
-0.1627907156944275 0.24058285355567932 0.02325582504272461
-0.1627907156944275 0.24216845631599426 0.11627912521362305
-0.1627907156944275 0.24466422200202942 0.1317828893661499
-0.1627907156944275 0.24663911759853363 0.1472867727279663
-0.1627907156944275 0.24867844581604004 0.16279065608978271
-0.1627907156944275 0.2501397728919983 0.17829453945159912
-0.1627907156944275 0.251796692609787 0.19379842281341553
-0.1627907156944275 0.25410938262939453 0.20930230617523193
-0.1627907156944275 0.24996396899223328 0.9069766998291016
-0.1627907156944275 0.27076059579849243 -0.10077518224716187
-0.1627907156944275 0.26396599411964417 -0.08527129888534546
-0.1627907007932663 0.25819873809814453 -0.06976741552352905
-0.1627907156944275 0.26213106513023376 0.22480618953704834
-0.1627907156944275 0.2717578113079071 -0.10077518224716187
-0.1627907156944275 0.28127577900886536 -0.08527129888534546
-0.1627907156944275 0.28260475397109985 0.8914728164672852
-0.1627907156944275 0.28960758447647095 -0.06976741552352905
-0.1627907156944275 0.29399678111076355 -0.05426359176635742
-0.1627907156944275 0.3005272150039673 -0.038759708404541016
-0.1627907156944275 0.30440109968185425 -0.02325582318007946
-0.1627907156944275 0.30791783332824707 -0.007751941680908203
-0.1627907156944275 0.31158605217933655 0.007751941680908203
-0.1627907156944275 0.3153581917285919 0.02325582504272461
-0.1627907156944275 0.31781676411628723 0.038759708404541016
-0.1627907156944275 0.31205490231513977 0.8759689331054688
-0.1627907156944275 0.3190414309501648 0.05426359176635742
-0.1627907156944275 0.3199827969074249 0.06976747512817383
-0.1627907156944275 0.32070598006248474 0.08527135848999023
-0.1627907156944275 0.3210287094116211 0.10077524930238724
-0.1627907156944275 0.3212124705314636 0.11627912521362305
-0.1627907156944275 0.32156074047088623 0.1317828893661499
-0.1627907156944275 0.32247716188430786 0.1472867727279663
-0.1627907156944275 0.3237674832344055 0.16279065608978271
-0.1627907156944275 0.3254426121711731 0.17829453945159912
-0.1627907156944275 0.3282582461833954 0.19379842281341553
-0.1627907156944275 0.3330540955066681 0.20930230617523193
-0.1627907156944275 0.3278156518936157 0.24031007289886475
-0.1627907156944275 0.33111870288848877 0.25581395626068115
-0.1627907156944275 0.3327751159667969 0.27131783962249756
-0.1627907156944275 0.3309583365917206 0.41085267066955566
-0.1627907156944275 0.33524101972579956 0.22480618953704834
-0.1627907156944275 0.3363686203956604 0.24031007289886475
-0.1627907156944275 0.33734193444252014 0.25581395626068115
-0.1627907156944275 0.33770591020584106 0.27131783962249756
-0.1627907156944275 0.3446321189403534 0.28682172298431396
-0.1627907156944275 0.34415268898010254 0.30232560634613037
-0.1627907156944275 0.3422360420227051 0.3178294897079468
-0.1627907156944275 0.34250617027282715 0.3333333730697632
-0.1627907156944275 0.3407329320907593 0.3488372564315796
-0.1627907156944275 0.33886104822158813 0.364341139793396
-0.1627907156944275 0.33717358112335205 0.37984490394592285
-0.1627907156944275 0.3350352644920349 0.39534878730773926
-0.1627907156944275 0.3358771800994873 0.8604651689529419
-0.1627907156944275 0.3492574095726013 0.28682172298431396
-0.1627907156944275 0.35094958543777466 0.30232560634613037
-0.1627907156944275 0.35545969009399414 0.3178294897079468
-0.1627907156944275 0.36040470004081726 0.8449612855911255
-0.1627907156944275 0.36450785398483276 0.3333333730697632
-0.1627907156944275 0.3686070442199707 0.348837286233902
-0.1627907156944275 0.3750533163547516 0.364341139793396
-0.1627907156944275 0.37870901823043823 0.8294574022293091
-0.1627907156944275 0.38095319271087646 0.37984490394592285
-0.1627907156944275 0.38511157035827637 0.39534878730773926
-0.1627907156944275 0.39489829540252686 0.8139535188674927
-0.1627907156944275 0.39772889018058777 0.41085267066955566
-0.1627907156944275 0.40965932607650757 0.7984496355056763
-0.1627907156944275 0.41244298219680786 0.42635655403137207
-0.1627907156944275 0.42619916796684265 0.4418604373931885
-0.1627907156944275 0.4235382080078125 0.7829457521438599
-0.1627907156944275 0.43864351511001587 0.4573643207550049
-0.1627907156944275 0.4357009530067444 0.7674418687820435
-0.1627907156944275 0.4494868516921997 0.4728682041168213
-0.1627907156944275 0.4565613567829132 0.4883720874786377
-0.1627907156944275 0.45462465286254883 0.7364341020584106
-0.1627907156944275 0.4447329044342041 0.751937985420227
-0.1627907156944275 0.46236860752105713 0.5038759708404541
-0.1627907156944275 0.46642738580703735 0.5193798542022705
-0.1627907156944275 0.47028279304504395 0.5348837375640869
-0.1627907156944275 0.4695899188518524 0.7054263353347778
-0.1627907156944275 0.46349814534187317 0.7209302186965942
-0.1627907007932663 0.4736517667770386 0.5503876209259033
-0.1627907156944275 0.4766513407230377 0.5658915042877197
-0.1627907156944275 0.4793523848056793 0.5813953876495361
-0.1627907156944275 0.4810354709625244 0.5968992710113525
-0.1627907156944275 0.48203930258750916 0.612403154373169
-0.1627907156944275 0.4825386106967926 0.6279069185256958
-0.1627907156944275 0.4826148748397827 0.6434108018875122
-0.1627907156944275 0.48182737827301025 0.6589146852493286
-0.1627907156944275 0.4794566035270691 0.674418568611145
-0.1627907156944275 0.47508862614631653 0.6899223923683167
-0.14728683233261108 -0.4731254279613495 0.5658915042877197
-0.14728683233261108 -0.47588682174682617 0.5813953876495361
-0.14728683233261108 -0.47774815559387207 0.5968992710113525
-0.14728683233261108 -0.47897595167160034 0.612403154373169
-0.14728683233261108 -0.47962233424186707 0.6279069185256958
-0.14728683233261108 -0.479503333568573 0.6434108018875122
-0.14728683233261108 -0.4785887897014618 0.6589146852493286
-0.14728683233261108 -0.4766543507575989 0.674418568611145
-0.14728683233261108 -0.4742109775543213 0.6899224519729614
-0.14728683233261108 -0.45842689275741577 0.5038759708404541
-0.14728683233261108 -0.4633248448371887 0.5193798542022705
-0.14728683233261108 -0.4663877487182617 0.5348837375640869
-0.14728683233261108 -0.4697895646095276 0.5503876209259033
-0.14728683233261108 -0.47001177072525024 0.7054263353347778
-0.14728683233261108 -0.4665122926235199 0.7209302186965942
-0.14728683233261108 -0.46014732122421265 0.7364341020584106
-0.14728683233261108 -0.44576215744018555 0.4728682041168213
-0.14728683233261108 -0.45260924100875854 0.4883720874786377
-0.14728683233261108 -0.45351269841194153 0.751937985420227
-0.14728683233261108 -0.4451853334903717 0.7674418687820435
-0.14728683233261108 -0.4329509735107422 0.4573643207550049
-0.14728683233261108 -0.4370289146900177 0.7829457521438599
-0.14728683233261108 -0.42523008584976196 0.7984496355056763
-0.14728683233261108 -0.41265684366226196 0.8139535188674927
-0.14728683233261108 -0.40843895077705383 0.4418604373931885
-0.14728683233261108 -0.3946879804134369 0.8294574618339539
-0.14728683233261108 -0.36669856309890747 0.24031007289886475
-0.14728683233261108 -0.3695053458213806 0.25581395626068115
-0.14728683233261108 -0.3718084990978241 0.27131783962249756
-0.14728683233261108 -0.3734816014766693 0.28682172298431396
-0.14728683233261108 -0.37367212772369385 0.30232560634613037
-0.14728683233261108 -0.37092918157577515 0.3178294897079468
-0.14728683233261108 -0.3667059540748596 0.3333333730697632
-0.14728683233261108 -0.37587592005729675 0.8449612855911255
-0.14728683233261108 -0.3504846692085266 0.16279065608978271
-0.14728683233261108 -0.35364171862602234 0.17829453945159912
-0.14728683233261108 -0.35670334100723267 0.19379842281341553
-0.14728683233261108 -0.360013484954834 0.20930230617523193
-0.14728683233261108 -0.363302081823349 0.22480618953704834
-0.14728683233261108 -0.358102947473526 0.3488372564315796
-0.14728683233261108 -0.33673784136772156 0.11627912521362305
-0.14728683233261108 -0.3415222764015198 0.1317828893661499
-0.14728683233261108 -0.34672632813453674 0.1472867876291275
-0.14728683233261108 -0.34869325160980225 0.8604651093482971
-0.14728683233261108 -0.325384259223938 0.11627912521362305
-0.14728683233261108 -0.3265261650085449 0.3488372564315796
-0.14728683233261108 -0.32621657848358154 0.8759689331054688
-0.14728683233261108 -0.3165571987628937 0.1317828893661499
-0.14728683233261108 -0.31313204765319824 0.1472867727279663
-0.14728683233261108 -0.30836132168769836 0.16279065608978271
-0.14728683233261108 -0.3034248352050781 0.17829453945159912
-0.14728683233261108 -0.30350154638290405 0.28682172298431396
-0.14728683233261108 -0.3089368939399719 0.30232560634613037
-0.14728683233261108 -0.31392762064933777 0.3178294897079468
-0.14728683233261108 -0.31726863980293274 0.3333333432674408
-0.14728683233261108 -0.3014461100101471 0.19379842281341553
-0.14728683233261108 -0.30031484365463257 0.20930230617523193
-0.14728683233261108 -0.29968011379241943 0.22480618953704834
-0.14728683233261108 -0.29957056045532227 0.24031007289886475
-0.14728683233261108 -0.30005571246147156 0.25581395626068115
-0.14728683233261108 -0.3011719584465027 0.27131783962249756
-0.14728683233261108 -0.29828882217407227 0.8914728164672852
-0.14728683233261108 -0.269049733877182 0.9069766998291016
-0.14728683233261108 -0.24833925068378448 0.4418604373931885
-0.14728683233261108 -0.23853318393230438 0.922480583190918
-0.14728683233261108 -0.21177494525909424 0.4573643207550049
-0.14728683233261108 -0.20546185970306396 0.9379844665527344
-0.14728683233261108 -0.16397207975387573 0.4573643207550049
-0.14728683233261108 -0.15642255544662476 0.9534883499145508
-0.14728683233261108 -0.1328497976064682 -0.6589146852493286
-0.14728683233261108 -0.13525280356407166 -0.643410861492157
-0.14728683233261108 -0.1368224173784256 -0.6279069781303406
-0.14728683233261108 -0.136977881193161 -0.6124030947685242
-0.14728683233261108 -0.13603819906711578 -0.5968992114067078
-0.14728683233261108 -0.1350257247686386 -0.5813953876495361
-0.14728683233261108 -0.13377481698989868 -0.5658915042877197
-0.14728683233261108 -0.1328088939189911 -0.5503876209259033
-0.14728683233261108 -0.1319143921136856 -0.5348837375640869
-0.14728683233261108 -0.13240839540958405 0.4418604373931885
-0.14728683233261108 -0.12304852902889252 -0.674418568611145
-0.14728683233261108 -0.11817798018455505 -0.5503876209259033
-0.14728683233261108 -0.130361869931221 -0.5348837375640869
-0.14728683233261108 -0.1119995042681694 -0.674418568611145
-0.14728683233261108 -0.1101447194814682 -0.6589146852493286
-0.14728683233261108 -0.10940515995025635 -0.6434108018875122
-0.14728683233261108 -0.10998066514730453 -0.6279069781303406
-0.14728683233261108 -0.11135578155517578 -0.6124030947685242
-0.14728683233261108 -0.11318174004554749 -0.5968992114067078
-0.14728683233261108 -0.11416389048099518 -0.5813953876495361
-0.14728683233261108 -0.11522383987903595 -0.5658915042877197
-0.14728683233261108 -0.040711019188165665 0.9689922332763672
-0.14728683233261108 -0.023375414311885834 -0.7674418687820435
-0.14728683233261108 -0.03729461506009102 0.4418604373931885
-0.14728683233261108 -0.013837292790412903 -0.7829457521438599
-0.1472868174314499 -0.02252054587006569 -0.7674418687820435
-0.14728683233261108 -0.007364267483353615 -0.7829457521438599
-0.14728683233261108 -0.00492922542616725 0.9689922332763672
-0.14728683233261108 0.0422603003680706 0.4418604373931885
-0.14728683233261108 0.12931548058986664 -0.7364341020584106
-0.14728683233261108 0.14510540664196014 -0.7364341020584106
-0.14728683233261108 0.13208888471126556 -0.7209302186965942
-0.14728683233261108 0.1416282206773758 0.42635655403137207
-0.14728683233261108 0.140467569231987 0.9534883499145508
-0.14728683233261108 0.16254378855228424 -0.7209302186965942
-0.14728683233261108 0.16164198517799377 -0.7054263353347778
-0.14728684723377228 0.16299013793468475 -0.7054263353347778
-0.14728683233261108 0.1906394362449646 0.9379844665527344
-0.14728683233261108 0.22391200065612793 0.41085267066955566
-0.14728683233261108 0.23626305162906647 0.41085267066955566
-0.14728683233261108 0.22513040900230408 0.922480583190918
-0.14728683233261108 0.26915618777275085 -0.007751941680908203
-0.14728683233261108 0.2661171555519104 0.007751941680908203
-0.14728683233261108 0.2630784511566162 0.02325582504272461
-0.14728683233261108 0.26039832830429077 0.038759708404541016
-0.14728683233261108 0.25865328311920166 0.05426359549164772
-0.14728683233261108 0.2571457326412201 0.06976747512817383
-0.14728683233261108 0.25789955258369446 0.08527135848999023
-0.14728683233261108 0.2596631944179535 0.10077524185180664
-0.14728683233261108 0.2621126174926758 0.11627912521362305
-0.14728683233261108 0.26461905241012573 0.1317828893661499
-0.14728683233261108 0.2668435275554657 0.1472867727279663
-0.14728683233261108 0.269353985786438 0.16279065608978271
-0.14728683233261108 0.2593316435813904 0.9069766998291016
-0.14728683233261108 0.28227707743644714 -0.038759708404541016
-0.1472868174314499 0.2731575071811676 -0.02325582318007946
-0.14728683233261108 0.27188432216644287 0.17829453945159912
-0.14728683233261108 0.28582000732421875 0.19379842281341553
-0.14728683233261108 0.2893350124359131 -0.038759708404541016
-0.14728683233261108 0.2992617189884186 -0.02325582504272461
-0.14728683233261108 0.2909766435623169 0.8914728164672852
-0.14728683233261108 0.3050817847251892 -0.007751941680908203
-0.14728683233261108 0.309701144695282 0.007751941680908203
-0.14728683233261108 0.31549984216690063 0.02325582504272461
-0.14728683233261108 0.30711108446121216 0.20930230617523193
-0.14728683233261108 0.31214094161987305 0.22480618953704834
-0.14728683233261108 0.3152385950088501 0.24031007289886475
-0.14728683233261108 0.3168448805809021 0.25581395626068115
-0.14728683233261108 0.31674787402153015 0.41085267066955566
-0.14728683233261108 0.3187272250652313 0.038759708404541016
-0.14728683233261108 0.3202204704284668 0.05426359176635742
-0.14728683233261108 0.3213079571723938 0.06976747512817383
-0.14728683233261108 0.32194143533706665 0.08527136594057083
-0.14728683233261108 0.32256191968917847 0.10077524185180664
-0.14728683233261108 0.32355356216430664 0.11627912521362305
-0.14728683233261108 0.3259768486022949 0.1317828893661499
-0.14728683233261108 0.31799745559692383 0.27131783962249756
-0.14728683233261108 0.3205534815788269 0.28682172298431396
-0.14728683233261108 0.3228146433830261 0.30232560634613037
-0.14728683233261108 0.3235135078430176 0.3178294897079468
-0.14728683233261108 0.3248875141143799 0.3333333730697632
-0.14728683233261108 0.32524484395980835 0.3488372564315796
-0.14728683233261108 0.3254653811454773 0.364341139793396
-0.14728683233261108 0.325483500957489 0.37984490394592285
-0.14728683233261108 0.323886513710022 0.39534878730773926
-0.14728683233261108 0.31847599148750305 0.8759689331054688
-0.1472868174314499 0.3340287506580353 0.1472867727279663
-0.14728683233261108 0.3390311300754547 0.16279065608978271
-0.14728683233261108 0.34476718306541443 0.17829453945159912
-0.14728683233261108 0.3452433943748474 0.8604651689529419
-0.14728683233261108 0.3497038781642914 0.19379842281341553
-0.14728683233261108 0.35230720043182373 0.20930230617523193
-0.14728683233261108 0.35531142354011536 0.22480618953704834
-0.14728683233261108 0.3579536974430084 0.24031007289886475
-0.14728683233261108 0.3619019091129303 0.25581395626068115
-0.14728683233261108 0.365293025970459 0.27131783962249756
-0.14728683233261108 0.36771368980407715 0.28682172298431396
-0.14728683233261108 0.370885968208313 0.30232560634613037
-0.14728683233261108 0.3759651482105255 0.3178294897079468
-0.14728683233261108 0.36506447196006775 0.8449612855911255
-0.14728683233261108 0.38084468245506287 0.3333333730697632
-0.14728683233261108 0.38412269949913025 0.3488372564315796
-0.14728683233261108 0.3883976936340332 0.364341139793396
-0.14728683233261108 0.3940339684486389 0.37984490394592285
-0.14728683233261108 0.38429996371269226 0.8294574022293091
-0.14728683233261108 0.39840608835220337 0.39534878730773926
-0.14728683233261108 0.4095129668712616 0.41085267066955566
-0.14728683233261108 0.4010975658893585 0.8139535188674927
-0.14728683233261108 0.4211618900299072 0.42635655403137207
-0.14728683233261108 0.4149421453475952 0.7984496355056763
-0.14728683233261108 0.4344715476036072 0.4418604373931885
-0.14728683233261108 0.4401376247406006 0.7674418687820435
-0.14728683233261108 0.4275941848754883 0.7829457521438599
-0.14728683233261108 0.4484874904155731 0.45736435055732727
-0.14728683233261108 0.451704204082489 0.751937985420227
-0.14728683233261108 0.458824098110199 0.4728682041168213
-0.14728683233261108 0.46525800228118896 0.4883720874786377
-0.14728683233261108 0.47030776739120483 0.5038759708404541
-0.14728683233261108 0.4692959189414978 0.7209302186965942
-0.14728683233261108 0.46047085523605347 0.7364341020584106
-0.14728683233261108 0.4745343327522278 0.5193798542022705
-0.14728683233261108 0.47798001766204834 0.5348837375640869
-0.14728683233261108 0.48058444261550903 0.5503876209259033
-0.14728683233261108 0.4827020764350891 0.5658915042877197
-0.14728683233261108 0.4848785400390625 0.5813953876495361
-0.14728683233261108 0.4864599406719208 0.5968992710113525
-0.14728683233261108 0.4874430298805237 0.612403154373169
-0.14728683233261108 0.4878500699996948 0.6279069185256958
-0.14728683233261108 0.4877799153327942 0.6434108018875122
-0.14728683233261108 0.4866272807121277 0.6589146852493286
-0.14728683233261108 0.4844510555267334 0.674418568611145
-0.14728683233261108 0.4817993640899658 0.6899224519729614
-0.14728683233261108 0.47587311267852783 0.7054263949394226
-0.13178294897079468 -0.4739423096179962 0.5348837375640869
-0.13178294897079468 -0.4778890013694763 0.5503876209259033
-0.13178294897079468 -0.4804857075214386 0.5658915042877197
-0.13178294897079468 -0.4819318354129791 0.5813953876495361
-0.13178294897079468 -0.48285967111587524 0.5968992710113525
-0.13178294897079468 -0.48354411125183105 0.612403154373169
-0.13178294897079468 -0.48386508226394653 0.6279069185256958
-0.13178294897079468 -0.48365694284439087 0.6434108018875122
-0.13178294897079468 -0.48309093713760376 0.6589146852493286
-0.13178294897079468 -0.4821915626525879 0.674418568611145
-0.13178294897079468 -0.4798699617385864 0.6899224519729614
-0.13178294897079468 -0.4755726158618927 0.7054263353347778
-0.13178294897079468 -0.46148160099983215 0.4883720874786377
-0.13178294897079468 -0.4659075438976288 0.5038759708404541
-0.13178294897079468 -0.4698810577392578 0.5193798542022705
-0.13178294897079468 -0.47045037150382996 0.7209302186965942
-0.13178294897079468 -0.4658428728580475 0.7364341020584106
-0.13178294897079468 -0.45758071541786194 0.751937985420227
-0.13178294897079468 -0.443779855966568 0.4573643207550049
-0.13178294897079468 -0.45369064807891846 0.4728682041168213
-0.13178294897079468 -0.45093339681625366 0.7674418687820435
-0.13178294897079468 -0.4405401051044464 0.7829457521438599
-0.13178294897079468 -0.4310581088066101 0.7984496355056763
-0.13178294897079468 -0.42498528957366943 0.4418604373931885
-0.13178294897079468 -0.4199964702129364 0.8139535188674927
-0.13178294897079468 -0.40426337718963623 0.8294574022293091
-0.13178294897079468 -0.38153815269470215 0.28682172298431396
-0.13178294897079468 -0.3813435435295105 0.30232560634613037
-0.13178294897079468 -0.381917268037796 0.8449612855911255
-0.13178294897079468 -0.36577272415161133 0.20930230617523193
-0.13178294897079468 -0.36913007497787476 0.22480618953704834
-0.13178294897079468 -0.3726467490196228 0.24031007289886475
-0.13178294897079468 -0.3763972520828247 0.25581395626068115
-0.13178293406963348 -0.3797391653060913 0.27131783962249756
-0.13178294897079468 -0.3756464421749115 0.3178294897079468
-0.13178294897079468 -0.3649978041648865 0.3333333730697632
-0.13178294897079468 -0.35159066319465637 0.16279065608978271
-0.13178294897079468 -0.3561690151691437 0.17829453945159912
-0.13178294897079468 -0.36140134930610657 0.19379842281341553
-0.13178294897079468 -0.3592265248298645 0.8604651689529419
-0.13178294897079468 -0.3429819941520691 0.1472867727279663
-0.13178294897079468 -0.33666157722473145 0.3333333730697632
-0.13178294897079468 -0.32869070768356323 0.1472867727279663
-0.13178294897079468 -0.32548630237579346 0.3178294897079468
-0.13178294897079468 -0.3316952884197235 0.8759689331054688
-0.13178294897079468 -0.31769031286239624 0.16279065608978271
-0.13178294897079468 -0.31435853242874146 0.17829453945159912
-0.13178294897079468 -0.3100014925003052 0.19379842281341553
-0.13178294897079468 -0.3058977425098419 0.20930230617523193
-0.13178294897079468 -0.3036787211894989 0.22480618953704834
-0.13178294897079468 -0.30318978428840637 0.24031007289886475
-0.13178294897079468 -0.304573655128479 0.25581395626068115
-0.13178294897079468 -0.30794230103492737 0.27131783962249756
-0.13178294897079468 -0.3127317726612091 0.28682172298431396
-0.13178294897079468 -0.3167450428009033 0.30232560634613037
-0.13178294897079468 -0.3061434328556061 0.8914728164672852
-0.13178294897079468 -0.2794279456138611 0.9069766998291016
-0.13178294897079468 -0.27091217041015625 0.4418604373931885
-0.13178294897079468 -0.2498045563697815 0.922480583190918
-0.13178294897079468 -0.2321976274251938 0.4573643207550049
-0.13178294897079468 -0.21559664607048035 0.9379844665527344
-0.13178294897079468 -0.20816202461719513 0.4728682339191437
-0.13178294897079468 -0.16990217566490173 0.4728682041168213
-0.13178294897079468 -0.16938956081867218 0.9534883499145508
-0.13178294897079468 -0.15088634192943573 0.4573643207550049
-0.13178294897079468 -0.1319158971309662 -0.6589146852493286
-0.13178294897079468 -0.13544867932796478 -0.643410861492157
-0.13178294897079468 -0.13925868272781372 -0.6279069781303406
-0.13178294897079468 -0.14199109375476837 -0.6124030947685242
-0.13178294897079468 -0.14279307425022125 -0.5968992114067078
-0.13178294897079468 -0.14302566647529602 -0.5813953876495361
-0.13178294897079468 -0.14136995375156403 -0.5658915042877197
-0.13178294897079468 -0.1389528512954712 -0.5503876209259033
-0.13178294897079468 -0.13681244850158691 -0.5348837375640869
-0.13178294897079468 -0.13486124575138092 -0.5193798542022705
-0.13178294897079468 -0.13347512483596802 -0.5038759708404541
-0.13178294897079468 -0.13237959146499634 -0.4883720874786377
-0.13178294897079468 -0.13185492157936096 0.4418604373931885
-0.13178294897079468 -0.11923826485872269 -0.674418568611145
-0.13178294897079468 -0.11033894866704941 -0.674418568611145
-0.13178294897079468 -0.10360495001077652 -0.5503876209259033
-0.13178294897079468 -0.10674314200878143 -0.5348837375640869
-0.13178294897079468 -0.11015504598617554 -0.5193798542022705
-0.13178294897079468 -0.11313802003860474 -0.5038759708404541
-0.13178294897079468 -0.11556223034858704 -0.4883720874786377
-0.13178294897079468 -0.10053090006113052 -0.6589146852493286
-0.13178294897079468 -0.09998732805252075 -0.643410861492157
-0.13178294897079468 -0.09972185641527176 -0.6279070377349854
-0.13178294897079468 -0.09966525435447693 -0.6124030947685242
-0.13178294897079468 -0.09986519813537598 -0.5968992114067078
-0.13178294897079468 -0.10007315129041672 -0.5813953876495361
-0.13178294897079468 -0.10055683553218842 -0.5658915042877197
-0.13178294897079468 -0.084742471575737 0.968992292881012
-0.13178294897079468 -0.024735109880566597 -0.7829457521438599
-0.13178294897079468 -0.023872846737504005 -0.7674418687820435
-0.13178294897079468 -0.017139585688710213 -0.7984496355056763
-0.13178294897079468 -0.004598556086421013 -0.7984496355056763
-0.13178294897079468 -0.005836984142661095 -0.7829457521438599
-0.13178294897079468 -0.007616336457431316 -0.7674418687820435
-0.13178294897079468 0.04824177548289299 0.9689922332763672
-0.13178294897079468 0.12986214458942413 0.42635655403137207
-0.13178294897079468 0.1558668613433838 0.9534883499145508
-0.13178294897079468 0.20093494653701782 0.9379844665527344
-0.13178294897079468 0.2370266318321228 0.922480583190918
-0.13178294897079468 0.2699403762817383 0.9069766998291016
-0.13178294897079468 0.3004622757434845 0.8914728164672852
-0.13178294897079468 0.31763461232185364 0.16279065608978271
-0.13178294897079468 0.3155125081539154 0.17829453945159912
-0.13178294897079468 0.3146306574344635 0.19379842281341553
-0.13178294897079468 0.31400805711746216 0.20930230617523193
-0.13178294897079468 0.31447291374206543 0.22480618953704834
-0.13178294897079468 0.31513795256614685 0.24031007289886475
-0.13178294897079468 0.3155524730682373 0.25581395626068115
-0.13178294897079468 0.31590861082077026 0.27131783962249756
-0.13178294897079468 0.31625527143478394 0.28682172298431396
-0.13178294897079468 0.3166393041610718 0.30232560634613037
-0.13178294897079468 0.3166082203388214 0.3178294897079468
-0.13178294897079468 0.31691545248031616 0.3333333730697632
-0.13178294897079468 0.31701186299324036 0.3488372564315796
-0.13178294897079468 0.3171238601207733 0.364341139793396
-0.13178294897079468 0.31714102625846863 0.37984490394592285
-0.13178294897079468 0.3162538409233093 0.39534878730773926
-0.13178294897079468 0.3089078664779663 0.41085267066955566
-0.13178294897079468 0.3326793313026428 0.1317828893661499
-0.13178294897079468 0.3249564468860626 0.1472867727279663
-0.13178294897079468 0.32791638374328613 0.8759689331054688
-0.13178294897079468 0.3345048725605011 0.1317828893661499
-0.13178294897079468 0.34892702102661133 0.1472867727279663
-0.13178294897079468 0.3519563674926758 0.16279065608978271
-0.13178294897079468 0.35581377148628235 0.17829453945159912
-0.13178294897079468 0.3597010374069214 0.19379842281341553
-0.13178294897079468 0.36423027515411377 0.20930230617523193
-0.13178294897079468 0.349771648645401 0.8604651689529419
-0.13178294897079468 0.36620864272117615 0.22480620443820953
-0.13178294897079468 0.3681676983833313 0.24031007289886475
-0.13178294897079468 0.3706446588039398 0.25581395626068115
-0.13178294897079468 0.37377405166625977 0.27131783962249756
-0.13178294897079468 0.3781762421131134 0.28682172298431396
-0.13178294897079468 0.3731015920639038 0.8449612855911255
-0.13178294897079468 0.3811522126197815 0.30232560634613037
-0.13178294897079468 0.38415077328681946 0.3178294897079468
-0.13178294897079468 0.3879578709602356 0.3333333730697632
-0.13178294897079468 0.39344537258148193 0.3488372564315796
-0.13178294897079468 0.3913481831550598 0.8294574022293091
-0.13178294897079468 0.39659544825553894 0.3643411695957184
-0.13178294897079468 0.3990093171596527 0.37984490394592285
-0.13178294897079468 0.40687331557273865 0.39534878730773926
-0.13178294897079468 0.4073178768157959 0.8139535188674927
-0.13178294897079468 0.4177023470401764 0.41085267066955566
-0.13178294897079468 0.4216870963573456 0.7984496355056763
-0.13178294897079468 0.43100273609161377 0.42635655403137207
-0.13178294897079468 0.4347718358039856 0.7829457521438599
-0.13178294897079468 0.44482362270355225 0.4418604373931885
-0.13178294897079468 0.4572499394416809 0.4573643207550049
-0.13178294897079468 0.4559590518474579 0.751937985420227
-0.13178294897079468 0.4457157254219055 0.7674418687820435
-0.13178294897079468 0.46619516611099243 0.4728682041168213
-0.13178294897079468 0.46701836585998535 0.7364341020584106
-0.13178294897079468 0.4728759527206421 0.4883721172809601
-0.13178294897079468 0.47754740715026855 0.5038759708404541
-0.13178294897079468 0.48073187470436096 0.5193798542022705
-0.13178294897079468 0.4834408462047577 0.5348837375640869
-0.13178294897079468 0.4859793782234192 0.5503876209259033
-0.13178294897079468 0.4883231520652771 0.5658915042877197
-0.13178294897079468 0.4859139919281006 0.6899224519729614
-0.13178294897079468 0.4821081757545471 0.7054263353347778
-0.13178294897079468 0.47445160150527954 0.7209302186965942
-0.13178294897079468 0.4902583956718445 0.5813953876495361
-0.13178294897079468 0.4919012784957886 0.5968992710113525
-0.13178294897079468 0.4929630756378174 0.612403154373169
-0.13178294897079468 0.4933737814426422 0.6279069185256958
-0.13178294897079468 0.49325570464134216 0.6434108018875122
-0.13178294897079468 0.4920307397842407 0.6589146852493286
-0.13178294897079468 0.48963862657546997 0.674418568611145
-0.11627906560897827 -0.48850786685943604 0.6279069185256958
-0.11627906560897827 -0.4770854711532593 0.5193798542022705
-0.11627906560897827 -0.48030897974967957 0.5348837375640869
-0.11627906560897827 -0.48241111636161804 0.5503876209259033
-0.11627907305955887 -0.48445749282836914 0.5658915042877197
-0.11627906560897827 -0.486142098903656 0.5813953876495361
-0.11627906560897827 -0.487301230430603 0.5968992710113525
-0.11627906560897827 -0.4881570637226105 0.612403154373169
-0.11627906560897827 -0.48832136392593384 0.643410861492157
-0.11627906560897827 -0.48737379908561707 0.6589146852493286
-0.11627905815839767 -0.48540133237838745 0.674418568611145
-0.11627906560897827 -0.4835699200630188 0.6899224519729614
-0.11627906560897827 -0.4805838465690613 0.7054263353347778
-0.11627906560897827 -0.4753072261810303 0.7209302186965942
-0.11627906560897827 -0.4623303711414337 0.4728682041168213
-0.11627906560897827 -0.46761006116867065 0.4883720576763153
-0.11627905815839767 -0.4722422659397125 0.5038759708404541
-0.11627906560897827 -0.46960991621017456 0.7364341020584106
-0.11627906560897827 -0.46273648738861084 0.751937985420227
-0.11627906560897827 -0.4521368741989136 0.4573643207550049
-0.11627906560897827 -0.45468804240226746 0.7674418091773987
-0.11627906560897827 -0.445419043302536 0.7829457521438599
-0.11627906560897827 -0.43699970841407776 0.4418604373931885
-0.11627907305955887 -0.43609362840652466 0.798449695110321
-0.11627906560897827 -0.42379382252693176 0.8139535188674927
-0.11627906560897827 -0.40855175256729126 0.8294574022293091
-0.11627906560897827 -0.38390445709228516 0.25581395626068115
-0.11627906560897827 -0.388777494430542 0.27131783962249756
-0.11627906560897827 -0.392307311296463 0.28682172298431396
-0.11627906560897827 -0.3925512135028839 0.30232560634613037
-0.11627906560897827 -0.39026758074760437 0.8449612855911255
-0.11627906560897827 -0.3671621084213257 0.20930230617523193
-0.11627906560897827 -0.3725734055042267 0.22480618953704834
-0.11627906560897827 -0.37902069091796875 0.24031007289886475
-0.11627906560897827 -0.35837650299072266 0.19379842281341553
-0.11627906560897827 -0.36368703842163086 0.8604651689529419
-0.11627906560897827 -0.3487774729728699 0.30232560634613037
-0.11627906560897827 -0.3411366641521454 0.8759689331054688
-0.11627906560897827 -0.32973524928092957 0.19379843771457672
-0.11627906560897827 -0.32224351167678833 0.20930230617523193
-0.11627906560897827 -0.31872236728668213 0.25581395626068115
-0.11627906560897827 -0.3246280550956726 0.27131783962249756
-0.11627906560897827 -0.33232125639915466 0.28682172298431396
-0.11627906560897827 -0.3316534161567688 0.4418604373931885
-0.11627906560897827 -0.3178130090236664 0.22480618953704834
-0.11627906560897827 -0.3174925446510315 0.24031005799770355
-0.11627906560897827 -0.31409385800361633 0.8914728164672852
-0.11627906560897827 -0.2854796051979065 0.9069766998291016
-0.11627906560897827 -0.25785866379737854 0.4573643207550049
-0.11627907305955887 -0.25577032566070557 0.9224806427955627
-0.11627905815839767 -0.234606072306633 0.4728682041168213
-0.11627906560897827 -0.22363099455833435 0.4883720874786377
-0.11627906560897827 -0.22095242142677307 0.5038759708404541
-0.11627906560897827 -0.21922752261161804 0.5193798542022705
-0.11627906560897827 -0.21387335658073425 0.5348837375640869
-0.11627906560897827 -0.22396960854530334 0.9379844665527344
-0.11627906560897827 -0.2005782425403595 0.5503876209259033
-0.11627906560897827 -0.17961834371089935 0.9534883499145508
-0.11627906560897827 -0.1681184470653534 0.5348837375640869
-0.11627906560897827 -0.17791035771369934 0.5503876209259033
-0.11627906560897827 -0.14735692739486694 0.4728682041168213
-0.11627906560897827 -0.1545535773038864 0.4883720874786377
-0.11627906560897827 -0.159425288438797 0.5038759708404541
-0.11627906560897827 -0.16225259006023407 0.5193798542022705
-0.11627906560897827 -0.1335604339838028 -0.643410861492157
-0.11627906560897827 -0.13586178421974182 -0.6279069781303406
-0.11627906560897827 -0.13844004273414612 -0.6124030947685242
-0.11627906560897827 -0.13988865911960602 -0.5968992114067078
-0.11627906560897827 -0.14106248319149017 -0.5813953876495361
-0.11627906560897827 -0.1404617875814438 -0.5658915042877197
-0.11627906560897827 -0.1390039026737213 -0.5503876209259033
-0.11627906560897827 -0.13767430186271667 -0.5348837375640869
-0.11627906560897827 -0.13635094463825226 -0.5193798542022705
-0.11627906560897827 -0.13500477373600006 -0.5038759708404541
-0.11627906560897827 -0.13401293754577637 -0.4883720874786377
-0.11627906560897827 -0.1332707703113556 -0.4728682041168213
-0.11627906560897827 -0.1324833333492279 -0.4573643207550049
-0.11627906560897827 -0.13506394624710083 0.4573643207550049
-0.11627906560897827 -0.12444046884775162 -0.6589146852493286
-0.11627906560897827 -0.1272067129611969 -0.4418604373931885
-0.11627906560897827 -0.11853079497814178 0.4418604373931885
-0.11627906560897827 -0.11112008988857269 -0.6589146852493286
-0.11627906560897827 -0.10469356179237366 -0.4883720874786377
-0.11627906560897827 -0.10901124775409698 -0.4728682041168213
-0.11627906560897827 -0.11260879784822464 -0.4573643207550049
-0.11627906560897827 -0.11517077684402466 -0.4418604373931885
-0.11627906560897827 -0.10802793502807617 0.9689922332763672
-0.11627906560897827 -0.1007121205329895 -0.643410861492157
-0.11627906560897827 -0.0998956561088562 -0.6279069781303406
-0.11627906560897827 -0.09943035244941711 -0.6124030947685242
-0.11627905815839767 -0.09920048713684082 -0.5968992114067078
-0.11627906560897827 -0.09895113855600357 -0.5813953876495361
-0.11627905815839767 -0.09897768497467041 -0.5658915042877197
-0.11627906560897827 -0.09916216135025024 -0.5503876209259033
-0.11627906560897827 -0.09942129999399185 -0.5348837375640869
-0.11627906560897827 -0.09992232173681259 -0.5193798542022705
-0.11627906560897827 -0.10058772563934326 -0.5038759708404541
-0.11627906560897827 -0.023680785670876503 -0.7984496355056763
-0.11627906560897827 -0.02414601296186447 -0.7829457521438599
-0.11627906560897827 -0.02346637099981308 -0.7674418687820435
-0.11627906560897827 -0.012184454128146172 -0.8139535188674927
-0.11627907305955887 -0.004562394693493843 -0.8139535188674927
-0.11627906560897827 -0.0038048317655920982 -0.7984495759010315
-0.11627906560897827 -0.0058693354949355125 -0.7829457521438599
-0.11627906560897827 -0.007582010701298714 -0.7674418687820435
-0.11627906560897827 0.08126626908779144 0.9689922332763672
-0.11627906560897827 0.13196058571338654 0.42635658383369446
-0.11627906560897827 0.1676197052001953 0.9534883499145508
-0.11627906560897827 0.19269749522209167 -0.674418568611145
-0.11627906560897827 0.20227175951004028 -0.674418568611145
-0.11627906560897827 0.1968250274658203 -0.6589146852493286
-0.11627906560897827 0.2053309977054596 -0.643410861492157
-0.11627906560897827 0.2087264508008957 -0.6279069781303406
-0.11627906560897827 0.20837631821632385 0.9379844665527344
-0.11627906560897827 0.21360158920288086 -0.6589146852493286
-0.11627906560897827 0.2210623323917389 -0.643410861492157
-0.11627906560897827 0.22179068624973297 -0.6124030947685242
-0.11627906560897827 0.22720275819301605 -0.6279069781303406
-0.11627906560897827 0.22739367187023163 -0.6124030947685242
-0.11627906560897827 0.24451656639575958 0.922480583190918
-0.11627906560897827 0.27877578139305115 0.9069766998291016
-0.11627906560897827 0.31658774614334106 0.17829453945159912
-0.11627906560897827 0.3154677450656891 0.19379842281341553
-0.11627906560897827 0.3145604729652405 0.20930230617523193
-0.11627906560897827 0.31458714604377747 0.22480618953704834
-0.11627906560897827 0.31492504477500916 0.24031007289886475
-0.11627906560897827 0.31516191363334656 0.25581395626068115
-0.11627906560897827 0.3153756856918335 0.27131783962249756
-0.11627906560897827 0.31556686758995056 0.28682172298431396
-0.11627906560897827 0.3158259987831116 0.30232560634613037
-0.11627906560897827 0.31567758321762085 0.3178294897079468
-0.11627906560897827 0.31594255566596985 0.3333333730697632
-0.11627906560897827 0.3160480856895447 0.3488372564315796
-0.11627906560897827 0.31619957089424133 0.364341139793396
-0.11627906560897827 0.3161943852901459 0.37984490394592285
-0.11627906560897827 0.31479310989379883 0.39534878730773926
-0.11627906560897827 0.30308660864830017 0.41085267066955566
-0.11627906560897827 0.3074803948402405 0.8914728164672852
-0.11627906560897827 0.32786309719085693 0.1472867727279663
-0.11627906560897827 0.3202334940433502 0.16279065608978271
-0.11627906560897827 0.33289018273353577 0.8759689331054688
-0.11627906560897827 0.34774115681648254 0.1317828893661499
-0.11627905815839767 0.34886524081230164 0.1317828893661499
-0.11627906560897827 0.35352784395217896 0.1472867727279663
-0.11627906560897827 0.35879895091056824 0.16279065608978271
-0.11627906560897827 0.36406949162483215 0.17829453945159912
-0.11627906560897827 0.3579101860523224 0.8604651689529419
-0.11627906560897827 0.3664737343788147 0.19379842281341553
-0.11627907305955887 0.3690250515937805 0.20930232107639313
-0.11627906560897827 0.3717638850212097 0.22480618953704834
-0.11627906560897827 0.37451890110969543 0.24031007289886475
-0.11627906560897827 0.37842708826065063 0.25581395626068115
-0.11627906560897827 0.3781830668449402 0.8449612855911255
-0.11627906560897827 0.38097137212753296 0.27131783962249756
-0.11627906560897827 0.38317161798477173 0.28682172298431396
-0.11627906560897827 0.38590267300605774 0.30232560634613037
-0.11627906560897827 0.3900490403175354 0.3178294897079468
-0.11627906560897827 0.3952164947986603 0.3333333730697632
-0.11627906560897827 0.3951456844806671 0.8294574022293091
-0.11627906560897827 0.396958589553833 0.3488372564315796
-0.11627906560897827 0.39868468046188354 0.364341139793396
-0.11627906560897827 0.4030717611312866 0.37984490394592285
-0.11627906560897827 0.41349107027053833 0.39534875750541687
-0.11627906560897827 0.42565208673477173 0.7984496355056763
-0.11627906560897827 0.4109743535518646 0.8139535188674927
-0.11627907305955887 0.42718198895454407 0.41085267066955566
-0.11627906560897827 0.4391319155693054 0.42635655403137207
-0.11627906560897827 0.4395890235900879 0.7829457521438599
-0.11627906560897827 0.4512975215911865 0.4418604373931885
-0.11627906560897827 0.4521237909793854 0.7674418687820435
-0.11627906560897827 0.46369969844818115 0.4573643207550049
-0.11627906560897827 0.47240668535232544 0.4728682041168213
-0.11627906560897827 0.47113868594169617 0.7364341020584106
-0.11627906560897827 0.4620002210140228 0.751937985420227
-0.11627906560897827 0.4783795177936554 0.4883720874786377
-0.11627906560897827 0.48211929202079773 0.5038759708404541
-0.11627906560897827 0.4856320023536682 0.5193798542022705
-0.11627906560897827 0.4859311282634735 0.7054263353347778
-0.11627906560897827 0.48067140579223633 0.7209302186965942
