-0.08527129888534546 0.6899224519729614 -0.13885292410850525
-0.08527129888534546 0.6899224519729614 0.2060154378414154
-0.08527129888534546 0.6899224519729614 0.23541632294654846
-0.08527129888534546 0.7054263353347778 -0.19515597820281982
-0.08527129888534546 0.7054263353347778 -0.13862182199954987
-0.08527129888534546 0.7054263353347778 0.20595821738243103
-0.08527129888534546 0.7054263353347778 0.23553073406219482
-0.08527129888534546 0.7209302186965942 -0.1953544318675995
-0.08527129888534546 0.7209302186965942 -0.1389993131160736
-0.08527129888534546 0.7209302186965942 0.0691332146525383
-0.08527129888534546 0.7209302186965942 0.087964728474617
-0.08527129888534546 0.7209302186965942 0.20565061271190643
-0.08527129888534546 0.7209302186965942 0.235436350107193
-0.08527129888534546 0.7364341020584106 -0.19532649219036102
-0.08527129888534546 0.7364341020584106 -0.13988584280014038
-0.08527129888534546 0.7364341020584106 0.06648215651512146
-0.08527129888534546 0.7364341020584106 0.09222976863384247
-0.08527129888534546 0.7364341020584106 0.2055855542421341
-0.08527129888534546 0.7364341020584106 0.2352992594242096
-0.08527129888534546 0.751937985420227 -0.19514200091362
-0.08527129888534546 0.751937985420227 -0.14118219912052155
-0.08527129888534546 0.751937985420227 0.06357253342866898
-0.08527129888534546 0.751937985420227 0.09552156180143356
-0.08527129888534546 0.751937985420227 0.2052799016237259
-0.08527129888534546 0.751937985420227 0.23528066277503967
-0.08527129888534546 0.7674418687820435 -0.19483785331249237
-0.08527129888534546 0.7674418687820435 -0.1429119110107422
-0.08527129888534546 0.7674418687820435 0.061696358025074005
-0.08527129888534546 0.7674418687820435 0.09641809016466141
-0.08527129888534546 0.7674418687820435 0.20452871918678284
-0.08527129888534546 0.7674418687820435 0.23534394800662994
-0.08527129888534546 0.7829457521438599 -0.19438743591308594
-0.08527129888534546 0.7829457521438599 -0.14511249959468842
-0.08527129888534546 0.7829457521438599 0.06347475945949554
-0.08527129888534546 0.7829457521438599 0.09273479878902435
-0.08527129888534546 0.7829457521438599 0.20333744585514069
-0.08527129888534546 0.7829457521438599 0.23553577065467834
-0.08527129888534546 0.7984496355056763 -0.1938939243555069
-0.08527129888534546 0.7984496355056763 -0.1464027613401413
-0.08527129888534546 0.7984496355056763 0.06661735475063324
-0.08527129888534546 0.7984496355056763 0.088605135679245
-0.08527129888534546 0.7984496355056763 0.2020682394504547
-0.08527129888534546 0.7984496355056763 0.23585325479507446
-0.08527129888534546 0.8139535188674927 -0.191506490111351
-0.08527129143476486 0.8139535188674927 -0.14578112959861755
-0.08527129888534546 0.8139535188674927 0.0663515031337738
-0.08527129888534546 0.8139535188674927 0.08983410149812698
-0.08527129888534546 0.8139535188674927 0.2005693018436432
-0.08527129888534546 0.8139535188674927 0.23633667826652527
-0.08527129888534546 0.8294574022293091 -0.18952666223049164
-0.08527129888534546 0.8294574022293091 -0.14531677961349487
-0.08527129888534546 0.8294574022293091 0.060213372111320496
-0.08527129888534546 0.8294574022293091 0.09967165440320969
-0.08527129888534546 0.8294574022293091 0.19918951392173767
-0.08527129888534546 0.8294574022293091 0.2367212176322937
-0.08527129888534546 0.8449612855911255 -0.1883295774459839
-0.08527130633592606 0.8449612855911255 -0.1440388560295105
-0.08527129888534546 0.8449612855911255 0.03759228065609932
-0.08527129888534546 0.8449612855911255 0.10574658215045929
-0.08527129888534546 0.8449612855911255 0.19823041558265686
-0.08527129888534546 0.8449612855911255 0.23703999817371368
-0.08527129888534546 0.8604651689529419 -0.18760621547698975
-0.08527129888534546 0.8604651689529419 -0.1422625631093979
-0.08527129888534546 0.8604651689529419 0.03046121448278427
-0.08527129888534546 0.8604651689529419 0.11237204074859619
-0.08527129888534546 0.8604651689529419 0.19746775925159454
-0.08527129888534546 0.8604651689529419 0.23721754550933838
-0.08527129888534546 0.8759689331054688 -0.1877506971359253
-0.08527129888534546 0.8759689331054688 -0.1426989883184433
-0.08527130633592606 0.8759689331054688 0.02568732760846615
-0.08527129888534546 0.8759689331054688 0.1179114431142807
-0.08527129888534546 0.8759689331054688 0.19732452929019928
-0.08527129888534546 0.8759689331054688 0.2372378408908844
-0.08527129888534546 0.8914728164672852 -0.18835537135601044
-0.08527129888534546 0.8914728164672852 -0.14299792051315308
-0.08527129888534546 0.8914728164672852 0.021158024668693542
-0.08527129888534546 0.8914728164672852 0.12274269759654999
-0.08527129888534546 0.8914728164672852 0.19664572179317474
-0.08527129888534546 0.8914728164672852 0.2369791567325592
-0.08527129888534546 0.9069766998291016 -0.18888349831104279
-0.08527129143476486 0.9069766998291016 -0.14355561137199402
-0.08527129888534546 0.9069766998291016 0.018432192504405975
-0.08527129888534546 0.9069766998291016 0.1230420172214508
-0.08527129888534546 0.9069766998291016 0.1607348918914795
-0.08527129888534546 0.9069766402244568 0.16358651220798492
-0.08527129888534546 0.9069766998291016 0.19647933542728424
-0.08527129888534546 0.9069766998291016 0.236477792263031
-0.08527129888534546 0.9224806427955627 -0.18947409093379974
-0.08527129888534546 0.922480583190918 -0.14433498680591583
-0.08527129888534546 0.922480583190918 0.01640160195529461
-0.08527129888534546 0.9224805235862732 0.11972462385892868
-0.08527129888534546 0.922480583190918 0.1511707454919815
-0.08527129888534546 0.922480583190918 0.17274516820907593
-0.08527130633592606 0.922480583190918 0.19511441886425018
-0.08527129888534546 0.922480583190918 0.2360503077507019
-0.08527129888534546 0.9379844665527344 -0.19068312644958496
-0.08527129888534546 0.9379844665527344 -0.026618096977472305
-0.08527129888534546 0.9379844665527344 0.012639569118618965
-0.08527129888534546 0.9379844665527344 0.23598793148994446
-0.08527129888534546 0.9534883499145508 -0.19391225278377533
-0.08527129888534546 0.9534883499145508 0.23876748979091644
-0.08527129888534546 0.9689922332763672 -0.19600290060043335
-0.08527129888534546 0.9689922332763672 0.24043481051921844
-0.06976741552352905 -0.9689922332763672 -0.19605965912342072
-0.06976741552352905 -0.9689922332763672 0.23590043187141418
-0.06976741552352905 -0.9534883499145508 -0.19301529228687286
-0.06976741552352905 -0.9534883499145508 0.23625783622264862
-0.06976741552352905 -0.9379844665527344 -0.1910904347896576
-0.06976741552352905 -0.9379844665527344 -0.09198923408985138
-0.06976741552352905 -0.9379844665527344 0.0041131312027573586
-0.06976741552352905 -0.9379844665527344 0.23485642671585083
-0.06976741552352905 -0.9224806427955627 -0.1903967708349228
-0.06976741552352905 -0.922480583190918 -0.13491733372211456
-0.06976741552352905 -0.9224806427955627 0.006707644090056419
-0.06976741552352905 -0.9224806427955627 0.23468483984470367
-0.06976741552352905 -0.9069766998291016 -0.19029894471168518
-0.06976741552352905 -0.9069768190383911 -0.14103418588638306
-0.06976741552352905 -0.9069766998291016 0.005402420647442341
-0.06976741552352905 -0.9069766998291016 0.2351202368736267
-0.06976741552352905 -0.8914728760719299 -0.19022130966186523
-0.06976741552352905 -0.8914729356765747 -0.14393457770347595
-0.06976741552352905 -0.8914728760719299 0.005567684769630432
-0.06976741552352905 -0.8914728760719299 0.13028548657894135
-0.06976741552352905 -0.8914728164672852 0.1334279328584671
-0.06976741552352905 -0.8914728760719299 0.2355988323688507
-0.06976741552352905 -0.8759690523147583 -0.18995720148086548
-0.06976741552352905 -0.8759689927101135 -0.14601148664951324
-0.06976741552352905 -0.8759689927101135 0.007394852116703987
-0.06976741552352905 -0.8759689927101135 0.11625388264656067
-0.06976741552352905 -0.8759690523147583 0.19506296515464783
-0.06976741552352905 -0.8759689927101135 0.2361270934343338
-0.06976741552352905 -0.8604651093482971 -0.18968626856803894
-0.06976740807294846 -0.8604650497436523 -0.14652730524539948
-0.06976741552352905 -0.8604651093482971 0.00977785512804985
-0.06976741552352905 -0.8604651093482971 0.11434014141559601
-0.06976741552352905 -0.8604651093482971 0.19706188142299652
-0.06976741552352905 -0.8604651093482971 0.2364984005689621
-0.06976741552352905 -0.8449612259864807 -0.18938925862312317
-0.06976741552352905 -0.8449612259864807 -0.1475398689508438
-0.06976741552352905 -0.8449611663818359 0.013824828900396824
-0.06976741552352905 -0.8449611663818359 0.11167135834693909
-0.06976741552352905 -0.8449611663818359 0.19968916475772858
-0.06976741552352905 -0.8449612259864807 0.23654790222644806
-0.06976741552352905 -0.8294574022293091 -0.1890927255153656
-0.06976741552352905 -0.8294573426246643 -0.14775753021240234
-0.06976741552352905 -0.8294574022293091 0.01791239343583584
-0.06976741552352905 -0.8294573426246643 0.1093597412109375
-0.06976741552352905 -0.8294573426246643 0.20158685743808746
-0.06976741552352905 -0.8294573426246643 0.23645120859146118
-0.06976741552352905 -0.8139535188674927 -0.189001202583313
-0.06976741552352905 -0.8139535188674927 -0.14858277142047882
-0.06976741552352905 -0.8139535188674927 0.02269023470580578
-0.06976741552352905 -0.8139535188674927 0.10668248683214188
-0.06976741552352905 -0.8139535188674927 0.20392169058322906
-0.06976741552352905 -0.8139535188674927 0.23616015911102295
-0.06976741552352905 -0.7984496355056763 -0.18912379443645477
-0.06976741552352905 -0.7984496355056763 -0.1495775282382965
-0.06976741552352905 -0.7984496355056763 0.02836596965789795
-0.06976741552352905 -0.7984496355056763 0.10437078028917313
-0.06976741552352905 -0.7984496355056763 0.205810546875
-0.06976741552352905 -0.7984496355056763 0.23590442538261414
-0.06976741552352905 -0.7829457521438599 -0.18935082852840424
-0.06976741552352905 -0.7829457521438599 -0.14860327541828156
-0.06976741552352905 -0.7829457521438599 0.0319114588201046
-0.06976741552352905 -0.7829457521438599 0.10290931910276413
-0.06976741552352905 -0.7829457521438599 0.20605020225048065
-0.06976741552352905 -0.7829457521438599 0.23581477999687195
-0.06976741552352905 -0.7674418687820435 -0.18974697589874268
-0.06976741552352905 -0.7674418687820435 -0.14774653315544128
-0.06976741552352905 -0.7674418687820435 0.0423104502260685
-0.06976741552352905 -0.7674418687820435 0.098493792116642
-0.06976741552352905 -0.7674418687820435 0.20693226158618927
-0.06976741552352905 -0.7674418687820435 0.23572377860546112
-0.06976741552352905 -0.751937985420227 -0.190256267786026
-0.06976741552352905 -0.751937985420227 -0.14716461300849915
-0.06976741552352905 -0.751937985420227 0.054001584649086
-0.06976741552352905 -0.751937985420227 0.0915960967540741
-0.06976741552352905 -0.751937985420227 0.20699402689933777
-0.06976741552352905 -0.751937985420227 0.23567497730255127
-0.06976741552352905 -0.7364341020584106 -0.19112655520439148
-0.06976741552352905 -0.7364341020584106 -0.1462261825799942
-0.06976741552352905 -0.7364341020584106 0.06418688595294952
-0.06976741552352905 -0.7364341020584106 0.08523052930831909
-0.06976741552352905 -0.7364341020584106 0.20709113776683807
-0.06976741552352905 -0.7364341020584106 0.23567038774490356
-0.06976741552352905 -0.7209302186965942 -0.19238735735416412
-0.06976741552352905 -0.7209302186965942 -0.14536316692829132
-0.06976741552352905 -0.7209302186965942 0.2079276442527771
-0.06976741552352905 -0.7209302186965942 0.23587782680988312
-0.06976741552352905 -0.7054263353347778 -0.19387100636959076
-0.06976741552352905 -0.7054263353347778 -0.14519467949867249
-0.06976741552352905 -0.7054263353347778 0.20922967791557312
-0.06976741552352905 -0.7054263353347778 0.23595398664474487
-0.06976741552352905 -0.6899224519729614 -0.19428420066833496
-0.06976741552352905 -0.6899225115776062 -0.1447925716638565
-0.06976741552352905 -0.6899224519729614 0.21019689738750458
-0.06976741552352905 -0.6899224519729614 0.23585565388202667
-0.06976741552352905 -0.674418568611145 -0.19459091126918793
-0.06976741552352905 -0.674418568611145 -0.1441059112548828
-0.06976741552352905 -0.674418568611145 0.21053346991539001
-0.06976741552352905 -0.674418568611145 0.23575562238693237
-0.06976741552352905 -0.6589146852493286 -0.19472986459732056
-0.06976741552352905 -0.6589146852493286 -0.14389975368976593
-0.06976741552352905 -0.6589146256446838 0.21073096990585327
-0.06976741552352905 -0.6589146852493286 0.23566554486751556
-0.06976741552352905 -0.643410861492157 -0.19480986893177032
-0.06976741552352905 -0.643410861492157 -0.14400702714920044
-0.06976741552352905 -0.643410861492157 0.21016910672187805
-0.06976741552352905 -0.643410861492157 0.2355429083108902
-0.06976741552352905 -0.6279069781303406 -0.19488665461540222
-0.06976741552352905 -0.6279069185256958 -0.1448979377746582
-0.06976741552352905 -0.6279070377349854 0.20956598222255707
-0.06976741552352905 -0.6279069781303406 0.2352813482284546
-0.06976741552352905 -0.6124030947685242 -0.19475878775119781
-0.06976741552352905 -0.6124030947685242 -0.1453719437122345
-0.06976741552352905 -0.6124030947685242 0.20906607806682587
-0.06976741552352905 -0.6124030947685242 0.23497554659843445
-0.06976741552352905 -0.5968992114067078 -0.194482684135437
-0.06976741552352905 -0.5968992114067078 -0.14523348212242126
-0.06976741552352905 -0.5968992114067078 0.2086719125509262
-0.06976741552352905 -0.5968992114067078 0.23460273444652557
-0.06976741552352905 -0.5813953876495361 -0.19422152638435364
-0.06976741552352905 -0.5813953876495361 -0.14515666663646698
-0.06976741552352905 -0.5813953876495361 0.20832157135009766
-0.06976741552352905 -0.5813953876495361 0.23443421721458435
-0.06976741552352905 -0.5658915042877197 -0.19389061629772186
-0.06976741552352905 -0.5658915042877197 -0.1449846476316452
-0.06976741552352905 -0.5658915042877197 0.20806360244750977
-0.06976741552352905 -0.5658915042877197 0.23423103988170624
-0.06976741552352905 -0.5503876209259033 -0.1919189840555191
-0.06976741552352905 -0.5503876209259033 -0.1440586894750595
-0.06976741552352905 -0.5503876209259033 0.20785647630691528
-0.06976741552352905 -0.5503876209259033 0.23413142561912537
-0.06976741552352905 -0.5348837375640869 -0.19008955359458923
-0.06976741552352905 -0.5348837375640869 -0.14296767115592957
-0.06976741552352905 -0.5348837375640869 0.20757082104682922
-0.06976741552352905 -0.5348837375640869 0.23422566056251526
-0.06976741552352905 -0.5193798542022705 -0.18932516872882843
-0.06976741552352905 -0.5193798542022705 -0.14211633801460266
-0.06976741552352905 -0.5193798542022705 0.2077987939119339
-0.06976741552352905 -0.5193798542022705 0.23448486626148224
-0.06976741552352905 -0.5038759708404541 -0.18955501914024353
-0.06976741552352905 -0.5038759708404541 -0.14169242978096008
-0.06976741552352905 -0.5038759708404541 0.2085563987493515
-0.06976741552352905 -0.5038759708404541 0.2347022294998169
-0.06976741552352905 -0.4883720874786377 -0.1902279108762741
-0.06976741552352905 -0.4883721172809601 -0.141682431101799
-0.06976741552352905 -0.4883720874786377 0.2092812955379486
-0.06976741552352905 -0.4883720874786377 0.23494350910186768
-0.06976741552352905 -0.4728682041168213 -0.19102761149406433
-0.06976741552352905 -0.4728682041168213 -0.1415218561887741
-0.06976741552352905 -0.4728682041168213 0.20954972505569458
-0.06976741552352905 -0.4728682041168213 0.23524335026741028
-0.06976741552352905 -0.4573643207550049 -0.1916418969631195
-0.06976741552352905 -0.4573643207550049 -0.14131763577461243
-0.06976741552352905 -0.4573643207550049 0.209455206990242
-0.06976741552352905 -0.4573643207550049 0.23540827631950378
-0.06976741552352905 -0.4418604373931885 -0.19200946390628815
-0.06976741552352905 -0.4418604075908661 -0.1411237120628357
-0.06976742297410965 -0.4418604373931885 0.20948615670204163
-0.06976741552352905 -0.4418604373931885 0.23547346889972687
-0.06976741552352905 -0.42635661363601685 -0.1922670304775238
-0.06976741552352905 -0.42635661363601685 -0.14078956842422485
-0.06976741552352905 -0.42635661363601685 0.2090824991464615
-0.06976741552352905 -0.42635661363601685 0.2354985773563385
-0.06976741552352905 -0.41085270047187805 -0.19244186580181122
-0.06976741552352905 -0.41085273027420044 -0.14033523201942444
-0.06976741552352905 -0.41085273027420044 0.20865029096603394
-0.06976741552352905 -0.41085273027420044 0.23554083704948425
-0.06976741552352905 -0.39534884691238403 -0.19249923527240753
-0.06976741552352905 -0.39534884691238403 -0.1396254301071167
-0.06976741552352905 -0.39534884691238403 0.20855335891246796
-0.06976741552352905 -0.39534884691238403 0.23561084270477295
-0.06976741552352905 -0.3798449635505676 -0.192789688706398
-0.06976741552352905 -0.3798449635505676 -0.1387823224067688
-0.06976741552352905 -0.3798449635505676 0.20887714624404907
-0.06976741552352905 -0.3798449635505676 0.2357161045074463
-0.06976740807294846 -0.36434105038642883 -0.19324570894241333
-0.06976741552352905 -0.3643410801887512 -0.1382463574409485
-0.06976741552352905 -0.3643410801887512 0.20922844111919403
-0.06976741552352905 -0.3643410801887512 0.23588740825653076
-0.06976741552352905 -0.3488371968269348 -0.19384296238422394
-0.06976741552352905 -0.3488371968269348 -0.1381782740354538
-0.06976742297410965 -0.3488371968269348 0.20988725125789642
-0.06976741552352905 -0.3488371968269348 0.23593354225158691
-0.06976741552352905 -0.3333333134651184 -0.19411978125572205
-0.06976741552352905 -0.3333333134651184 -0.1382947415113449
-0.06976741552352905 -0.3333333134651184 0.21073317527770996
-0.06976741552352905 -0.3333333134651184 0.23604054749011993
-0.06976741552352905 -0.317829430103302 -0.1943192183971405
-0.06976741552352905 -0.317829430103302 -0.13880717754364014
-0.06976741552352905 -0.317829430103302 0.21117261052131653
-0.06976741552352905 -0.317829430103302 0.23623442649841309
-0.06976741552352905 -0.30232560634613037 -0.19442322850227356
-0.06976741552352905 -0.30232560634613037 -0.13944873213768005
-0.06976741552352905 -0.30232560634613037 0.21145357191562653
-0.06976741552352905 -0.30232560634613037 0.23643168807029724
-0.06976741552352905 -0.28682172298431396 -0.194543719291687
-0.06976741552352905 -0.28682172298431396 -0.13996489346027374
-0.06976741552352905 -0.28682172298431396 0.21128924190998077
-0.06976741552352905 -0.28682172298431396 0.23668275773525238
-0.06976741552352905 -0.27131783962249756 -0.19469168782234192
-0.06976741552352905 -0.27131783962249756 -0.14000821113586426
-0.06976741552352905 -0.27131783962249756 0.21069729328155518
-0.06976741552352905 -0.27131783962249756 0.23689068853855133
-0.06976741552352905 -0.25581395626068115 -0.19478517770767212
-0.06976741552352905 -0.25581395626068115 -0.13879388570785522
-0.06976741552352905 -0.25581395626068115 0.20980653166770935
-0.06976741552352905 -0.25581395626068115 0.23706741631031036
-0.06976741552352905 -0.24031007289886475 -0.19495874643325806
-0.06976741552352905 -0.24031007289886475 -0.13773009181022644
-0.06976741552352905 -0.24031007289886475 0.20903655886650085
-0.06976741552352905 -0.24031007289886475 0.23704126477241516
-0.06976741552352905 -0.22480618953704834 -0.1952487826347351
-0.06976741552352905 -0.22480618953704834 -0.1379581093788147
-0.06976741552352905 -0.22480618953704834 0.20845191180706024
-0.06976741552352905 -0.22480618953704834 0.23693032562732697
-0.06976741552352905 -0.20930230617523193 -0.19569727778434753
-0.06976741552352905 -0.20930230617523193 -0.13840380311012268
-0.06976741552352905 -0.20930230617523193 0.20761485397815704
-0.06976741552352905 -0.20930230617523193 0.23694394528865814
-0.06976741552352905 -0.19379842281341553 -0.19603943824768066
-0.06976741552352905 -0.19379842281341553 -0.1381216049194336
-0.06976741552352905 -0.19379842281341553 0.20701204240322113
-0.06976741552352905 -0.19379842281341553 0.23710192739963531
-0.06976741552352905 -0.1782945990562439 -0.1962033212184906
-0.06976741552352905 -0.1782945990562439 -0.13680578768253326
-0.06976741552352905 -0.1782945990562439 0.20669837296009064
-0.06976741552352905 -0.1782945990562439 0.23689371347427368
-0.06976741552352905 -0.1627907156944275 -0.19631057977676392
-0.06976741552352905 -0.1627907156944275 -0.13590951263904572
-0.06976741552352905 -0.1627907156944275 0.20673857629299164
-0.06976741552352905 -0.1627907156944275 0.23656083643436432
-0.06976741552352905 -0.14728683233261108 -0.19635286927223206
-0.06976741552352905 -0.14728683233261108 -0.1356658935546875
-0.06976741552352905 -0.14728683233261108 0.2069229632616043
-0.06976741552352905 -0.14728683233261108 0.23646581172943115
-0.06976741552352905 -0.13178294897079468 -0.19642959535121918
-0.06976741552352905 -0.13178294897079468 -0.13540270924568176
-0.06976741552352905 -0.13178294897079468 0.2072860300540924
-0.06976741552352905 -0.13178294897079468 0.2364034205675125
-0.06976741552352905 -0.11627906560897827 -0.1965441256761551
-0.06976741552352905 -0.11627906560897827 -0.13484933972358704
-0.06976741552352905 -0.11627906560897827 0.20778246223926544
-0.06976741552352905 -0.11627906560897827 0.23652206361293793
-0.06976741552352905 -0.10077518224716187 -0.1965256929397583
-0.06976741552352905 -0.10077518224716187 -0.13412289321422577
-0.06976741552352905 -0.10077518224716187 0.20800672471523285
-0.06976741552352905 -0.10077518224716187 0.2367965430021286
-0.06976741552352905 -0.08527129888534546 -0.196510449051857
-0.06976741552352905 -0.08527129888534546 -0.13312950730323792
-0.06976741552352905 -0.08527129888534546 0.20796817541122437
-0.06976741552352905 -0.08527129888534546 0.23720252513885498
-0.06976741552352905 -0.06976741552352905 -0.19645459949970245
-0.06976741552352905 -0.06976741552352905 -0.1321750432252884
-0.06976741552352905 -0.06976741552352905 0.2080179750919342
-0.06976741552352905 -0.06976741552352905 0.23745819926261902
-0.06976741552352905 -0.05426359176635742 -0.196341410279274
-0.06976741552352905 -0.05426359176635742 -0.13150008022785187
-0.06976741552352905 -0.05426359176635742 0.20810310542583466
-0.06976741552352905 -0.05426359176635742 0.2375936657190323
-0.06976741552352905 -0.038759708404541016 -0.1963006556034088
-0.06976741552352905 -0.038759708404541016 -0.13114754855632782
-0.06976741552352905 -0.038759708404541016 0.20795874297618866
-0.06976741552352905 -0.038759708404541016 0.2376146763563156
-0.06976741552352905 -0.02325582504272461 -0.19624367356300354
-0.06976741552352905 -0.02325582504272461 -0.1316109150648117
-0.06976741552352905 -0.02325582504272461 0.20793956518173218
-0.06976741552352905 -0.02325582504272461 0.2376290261745453
-0.06976741552352905 -0.007751941680908203 -0.19611378014087677
-0.06976741552352905 -0.007751941680908203 -0.13151966035366058
-0.06976741552352905 -0.007751941680908203 0.20820726454257965
-0.06976741552352905 -0.007751941680908203 0.2376973032951355
-0.06976741552352905 0.007751941680908203 -0.19597826898097992
-0.06976741552352905 0.007751941680908203 -0.13253243267536163
-0.06976741552352905 0.007751941680908203 0.20870479941368103
-0.06976741552352905 0.007751941680908203 0.23774944245815277
-0.06976741552352905 0.02325582504272461 -0.19585788249969482
-0.06976741552352905 0.02325582504272461 -0.13352292776107788
-0.06976741552352905 0.02325582504272461 0.20915080606937408
-0.06976741552352905 0.02325582504272461 0.23787347972393036
-0.06976741552352905 0.038759708404541016 -0.19562160968780518
-0.06976741552352905 0.038759708404541016 -0.13462696969509125
-0.06976741552352905 0.038759708404541016 0.2101684957742691
-0.06976741552352905 0.038759708404541016 0.2378244698047638
-0.06976741552352905 0.05426359176635742 -0.19551846385002136
-0.06976741552352905 0.05426359176635742 -0.13554108142852783
-0.06976741552352905 0.05426359549164772 0.21117763221263885
-0.06976741552352905 0.05426359176635742 0.23792053759098053
-0.06976741552352905 0.06976747512817383 -0.19533683359622955
-0.06976741552352905 0.06976747512817383 -0.13667967915534973
-0.06976741552352905 0.06976747512817383 0.21148653328418732
-0.06976741552352905 0.06976747512817383 0.23805169761180878
-0.06976741552352905 0.08527135848999023 -0.1951732486486435
-0.06976741552352905 0.08527135848999023 -0.13732215762138367
-0.06976741552352905 0.08527135848999023 0.2114214152097702
-0.06976741552352905 0.08527135848999023 0.23814043402671814
-0.06976741552352905 0.10077524185180664 -0.1950853168964386
-0.06976741552352905 0.10077524185180664 -0.1375521421432495
-0.06976741552352905 0.10077524185180664 0.2114081233739853
-0.06976741552352905 0.10077524185180664 0.23832370340824127
-0.06976741552352905 0.11627912521362305 -0.19500122964382172
-0.06976741552352905 0.11627912521362305 -0.13778311014175415
-0.06976741552352905 0.11627912521362305 0.21086959540843964
-0.06976741552352905 0.11627912521362305 0.23837816715240479
-0.06976741552352905 0.1317828893661499 -0.19494925439357758
-0.06976741552352905 0.1317828893661499 -0.1377900242805481
-0.06976740807294846 0.1317828893661499 0.20990324020385742
-0.06976741552352905 0.1317828893661499 0.23832568526268005
-0.06976741552352905 0.1472867727279663 -0.19500340521335602
-0.06976741552352905 0.1472867727279663 -0.13799084722995758
-0.06976741552352905 0.1472867727279663 0.20907899737358093
-0.06976741552352905 0.1472867727279663 0.23808741569519043
-0.06976741552352905 0.16279065608978271 -0.1951020509004593
-0.06976741552352905 0.16279065608978271 -0.13828681409358978
-0.06976741552352905 0.16279065608978271 0.20865648984909058
-0.06976741552352905 0.16279065608978271 0.2377268224954605
-0.06976741552352905 0.17829453945159912 -0.19524946808815002
-0.06976741552352905 0.17829453945159912 -0.1382921040058136
-0.06976741552352905 0.17829453945159912 0.20804792642593384
-0.06976741552352905 0.17829453945159912 0.23748508095741272
-0.06976741552352905 0.19379842281341553 -0.1953621208667755
-0.06976741552352905 0.19379842281341553 -0.13841237127780914
-0.06976741552352905 0.19379842281341553 0.20763367414474487
-0.06976741552352905 0.19379842281341553 0.23729383945465088
-0.06976741552352905 0.20930230617523193 -0.19541959464550018
-0.06976741552352905 0.20930230617523193 -0.13822869956493378
-0.06976741552352905 0.20930230617523193 0.2075803428888321
-0.06976741552352905 0.20930230617523193 0.237085223197937
-0.06976741552352905 0.22480618953704834 -0.19538971781730652
-0.06976741552352905 0.22480618953704834 -0.1378321647644043
-0.06976741552352905 0.22480618953704834 0.20776595175266266
-0.06976741552352905 0.22480618953704834 0.23684704303741455
-0.06976741552352905 0.24031007289886475 -0.19524775445461273
-0.06976741552352905 0.24031007289886475 -0.13772045075893402
-0.06976741552352905 0.24031007289886475 0.20805156230926514
-0.06976741552352905 0.24031007289886475 0.2368212640285492
-0.06976741552352905 0.25581395626068115 -0.19512945413589478
-0.06976741552352905 0.25581395626068115 -0.13760975003242493
-0.06976741552352905 0.25581395626068115 0.2083131968975067
-0.06976741552352905 0.25581395626068115 0.23675237596035004
-0.06976741552352905 0.27131783962249756 -0.19500955939292908
-0.06976741552352905 0.27131783962249756 -0.13758909702301025
-0.06976741552352905 0.27131783962249756 0.20891886949539185
-0.06976741552352905 0.27131783962249756 0.2368374466896057
-0.06976741552352905 0.28682172298431396 -0.19480735063552856
-0.06976741552352905 0.28682172298431396 -0.13724207878112793
-0.06976741552352905 0.28682172298431396 0.20924235880374908
-0.06976741552352905 0.28682172298431396 0.23703086376190186
-0.06976741552352905 0.30232560634613037 -0.19471605122089386
-0.06976741552352905 0.30232560634613037 -0.13646796345710754
-0.06976741552352905 0.30232560634613037 0.20946431159973145
-0.06976741552352905 0.30232560634613037 0.237227201461792
-0.06976741552352905 0.3178294897079468 -0.19466936588287354
-0.06976741552352905 0.3178294897079468 -0.13589881360530853
-0.06976741552352905 0.3178294897079468 0.20989952981472015
-0.06976741552352905 0.3178294897079468 0.23730787634849548
-0.06976741552352905 0.3333333730697632 -0.19454114139080048
-0.06976741552352905 0.3333333730697632 -0.1360098123550415
-0.06976741552352905 0.3333333730697632 0.21019573509693146
-0.06976741552352905 0.3333333730697632 0.2371707409620285
-0.06976741552352905 0.3488372564315796 -0.19443324208259583
-0.06976741552352905 0.3488372564315796 -0.1361575722694397
-0.06976740807294846 0.3488372266292572 0.20980961620807648
-0.06976741552352905 0.3488372564315796 0.23690082132816315
-0.06976741552352905 0.364341139793396 -0.19435052573680878
-0.06976741552352905 0.364341139793396 -0.13646236062049866
-0.06976741552352905 0.364341139793396 0.20938199758529663
-0.06976741552352905 0.364341139793396 0.23651452362537384
-0.06976741552352905 0.37984490394592285 -0.19431044161319733
-0.06976741552352905 0.37984490394592285 -0.13677331805229187
-0.06976741552352905 0.37984490394592285 0.20923101902008057
-0.06976741552352905 0.37984490394592285 0.23633283376693726
-0.06976741552352905 0.39534878730773926 -0.19429641962051392
-0.06976741552352905 0.39534878730773926 -0.137861967086792
-0.06976741552352905 0.39534875750541687 0.2093164175748825
-0.06976741552352905 0.39534878730773926 0.23615697026252747
-0.06976741552352905 0.41085267066955566 -0.19432583451271057
-0.06976741552352905 0.41085267066955566 -0.13949716091156006
-0.06976741552352905 0.41085267066955566 0.20978954434394836
-0.06976741552352905 0.41085267066955566 0.23609253764152527
-0.06976741552352905 0.42635655403137207 -0.1943656951189041
-0.06976741552352905 0.42635655403137207 -0.1410922110080719
-0.06976741552352905 0.42635655403137207 0.21054044365882874
-0.06976741552352905 0.42635655403137207 0.23604890704154968
-0.06976741552352905 0.4418604373931885 -0.1944279968738556
-0.06976741552352905 0.4418604373931885 -0.14262816309928894
-0.06976741552352905 0.4418604373931885 0.21117328107357025
-0.06976741552352905 0.4418604373931885 0.23614482581615448
-0.06976741552352905 0.4573643207550049 -0.19439765810966492
-0.06976741552352905 0.4573643207550049 -0.14357587695121765
-0.06976741552352905 0.4573642909526825 0.2112741768360138
-0.06976741552352905 0.4573643207550049 0.23630362749099731
-0.06976741552352905 0.4728682041168213 -0.1942468136548996
-0.06976741552352905 0.4728682041168213 -0.1438942700624466
-0.06976741552352905 0.4728682041168213 0.21127194166183472
-0.06976741552352905 0.4728682041168213 0.23634356260299683
-0.06976741552352905 0.4883720874786377 -0.19407546520233154
-0.06976741552352905 0.4883720874786377 -0.1439725011587143
-0.06976741552352905 0.4883720874786377 0.21134544909000397
-0.06976741552352905 0.4883720874786377 0.23638248443603516
-0.06976741552352905 0.5038759708404541 -0.19384369254112244
-0.06976741552352905 0.5038759708404541 -0.14414334297180176
-0.06976741552352905 0.5038759708404541 0.21082012355327606
-0.06976741552352905 0.5038759708404541 0.23632529377937317
-0.06976741552352905 0.5193798542022705 -0.19308777153491974
-0.06976741552352905 0.5193798542022705 -0.14447540044784546
-0.06976741552352905 0.5193798542022705 0.20988762378692627
-0.06976741552352905 0.5193798542022705 0.23606273531913757
-0.06976741552352905 0.5348837375640869 -0.19334091246128082
-0.06976741552352905 0.5348837375640869 -0.14503194391727448
-0.06976741552352905 0.5348837375640869 0.20907366275787354
-0.06976741552352905 0.5348837375640869 0.2356823831796646
-0.06976742297410965 0.5503876209259033 -0.19368715584278107
-0.06976741552352905 0.5503876209259033 -0.1457449495792389
-0.06976741552352905 0.5503876209259033 0.20846480131149292
-0.06976741552352905 0.5503876209259033 0.23523634672164917
-0.06976741552352905 0.5658915638923645 -0.19340568780899048
-0.06976741552352905 0.5658915042877197 -0.1459878385066986
-0.06976741552352905 0.5658915042877197 0.2075638622045517
-0.06976741552352905 0.5658915042877197 0.23506200313568115
-0.06976741552352905 0.5813953876495361 -0.19184012711048126
-0.06976740807294846 0.5813953876495361 -0.14644715189933777
-0.06976741552352905 0.5813953876495361 0.20670178532600403
-0.06976741552352905 0.5813953876495361 0.23501643538475037
-0.06976741552352905 0.5968992710113525 -0.18925917148590088
-0.06976741552352905 0.5968992710113525 -0.14715896546840668
-0.06976741552352905 0.5968992710113525 0.20622898638248444
-0.06976741552352905 0.5968992710113525 0.23497582972049713
-0.06976741552352905 0.612403154373169 -0.18637031316757202
-0.06976741552352905 0.612403154373169 -0.1480030119419098
-0.06976741552352905 0.612403154373169 0.20604753494262695
-0.06976741552352905 0.612403154373169 0.23480641841888428
-0.06976741552352905 0.6279069185256958 -0.18516506254673004
-0.06976741552352905 0.6279069185256958 -0.14758345484733582
-0.06976741552352905 0.6279069185256958 0.20596922934055328
-0.06976741552352905 0.6279069185256958 0.23480859398841858
-0.06976741552352905 0.6434108018875122 -0.1855696141719818
-0.06976741552352905 0.6434108018875122 -0.14558610320091248
-0.06976741552352905 0.6434108018875122 0.2060825675725937
-0.06976741552352905 0.6434108018875122 0.2349335253238678
-0.06976741552352905 0.6589146852493286 -0.18736031651496887
-0.06976741552352905 0.6589146852493286 -0.1425851285457611
-0.06976741552352905 0.6589146852493286 0.20650503039360046
-0.06976741552352905 0.6589146852493286 0.23504161834716797
-0.06976741552352905 0.674418568611145 -0.19072118401527405
-0.06976741552352905 0.674418568611145 -0.13945415616035461
-0.06976741552352905 0.674418568611145 0.2065536379814148
-0.06976741552352905 0.674418568611145 0.2353602945804596
-0.06976741552352905 0.6899224519729614 -0.1940065324306488
-0.06976741552352905 0.6899224519729614 -0.13768555223941803
-0.06976741552352905 0.6899224519729614 0.20654763281345367
-0.06976741552352905 0.6899224519729614 0.23557564616203308
-0.06976741552352905 0.7054263353347778 -0.19472746551036835
-0.06976741552352905 0.7054263353347778 -0.13692700862884521
-0.06976741552352905 0.7054263353347778 0.2065141201019287
-0.06976741552352905 0.7054263353347778 0.23568959534168243
-0.06976741552352905 0.7209302186965942 -0.19501237571239471
-0.06976741552352905 0.7209302186965942 -0.13711139559745789
-0.06976741552352905 0.7209302186965942 0.2062157392501831
-0.06976741552352905 0.7209302186965942 0.2355547845363617
-0.06976741552352905 0.7364341020584106 -0.19503259658813477
-0.06976741552352905 0.7364341020584106 -0.13803525269031525
-0.06976741552352905 0.7364341020584106 0.06749682128429413
-0.06976741552352905 0.7364341020584106 0.08941826224327087
-0.06976741552352905 0.7364341020584106 0.2061699628829956
-0.06976741552352905 0.7364341020584106 0.23536396026611328
-0.06976741552352905 0.751937985420227 -0.19489550590515137
-0.06976741552352905 0.751937985420227 -0.1394919753074646
-0.06976741552352905 0.751937985420227 0.06441476196050644
-0.06976741552352905 0.751937985420227 0.09278400242328644
-0.06976741552352905 0.751937985420227 0.20593291521072388
-0.06976741552352905 0.751937985420227 0.2353133261203766
-0.06976741552352905 0.7674418687820435 -0.1946202516555786
-0.06976741552352905 0.7674418687820435 -0.1414811909198761
-0.06976741552352905 0.7674418687820435 0.06246812641620636
-0.06976741552352905 0.7674418687820435 0.09370608627796173
-0.06976741552352905 0.7674418687820435 0.20529481768608093
-0.06976741552352905 0.7674418687820435 0.2353721261024475
-0.06976741552352905 0.7829457521438599 -0.19418483972549438
-0.06976741552352905 0.7829457521438599 -0.14380645751953125
-0.06976741552352905 0.7829457521438599 0.06395413726568222
-0.06976741552352905 0.7829457521438599 0.09070385992527008
-0.06976741552352905 0.7829457521438599 0.20409813523292542
-0.06976741552352905 0.7829457521438599 0.23558706045150757
-0.06976741552352905 0.7984495759010315 -0.1933451145887375
-0.06976741552352905 0.7984496355056763 -0.14525416493415833
-0.06976741552352905 0.7984496355056763 0.06687086820602417
-0.06976741552352905 0.7984496355056763 0.08706454187631607
-0.06976741552352905 0.7984496355056763 0.20287078619003296
-0.06976741552352905 0.7984496355056763 0.23595061898231506
-0.06976741552352905 0.8139535188674927 -0.19091090559959412
-0.06976741552352905 0.8139535188674927 -0.1447242796421051
-0.06976741552352905 0.8139535188674927 0.06613874435424805
-0.06976741552352905 0.8139535188674927 0.08837492763996124
-0.06976741552352905 0.8139535188674927 0.20131108164787292
-0.06976741552352905 0.8139535188674927 0.2364775538444519
-0.06976741552352905 0.8294574022293091 -0.18905997276306152
-0.06976741552352905 0.8294574022293091 -0.14422330260276794
-0.06976741552352905 0.8294574022293091 0.05925077199935913
-0.06976741552352905 0.8294574022293091 0.09734077751636505
-0.06976741552352905 0.8294574022293091 0.199754536151886
-0.06976741552352905 0.8294574022293091 0.23688364028930664
-0.06976741552352905 0.8449612855911255 -0.1878620982170105
-0.06976741552352905 0.8449612855911255 -0.1429925262928009
-0.06976741552352905 0.8449612855911255 0.03765369951725006
-0.06976741552352905 0.8449612855911255 0.10477371513843536
-0.06976741552352905 0.8449612855911255 0.19879931211471558
-0.06976741552352905 0.8449612855911255 0.23720547556877136
-0.06976741552352905 0.8604651689529419 -0.18713848292827606
-0.06976741552352905 0.8604651689529419 -0.1411830484867096
-0.06976741552352905 0.8604651689529419 0.030188390985131264
-0.06976741552352905 0.8604651689529419 0.1115368977189064
-0.06976741552352905 0.8604651689529419 0.19804400205612183
-0.06976741552352905 0.8604651689529419 0.23735667765140533
-0.06976741552352905 0.8759689331054688 -0.18726517260074615
-0.06976741552352905 0.8759689331054688 -0.1415085792541504
-0.06976741552352905 0.8759689331054688 0.025203824043273926
-0.06976742297410965 0.8759689927101135 0.11730076372623444
-0.06976741552352905 0.8759689331054688 0.19798395037651062
-0.06976741552352905 0.8759689331054688 0.23733408749103546
-0.06976741552352905 0.8914728164672852 -0.18787026405334473
-0.06976741552352905 0.8914727568626404 -0.14149115979671478
-0.06976741552352905 0.8914728164672852 0.020739542320370674
-0.06976741552352905 0.8914728164672852 0.12275013327598572
-0.06976741552352905 0.8914728164672852 0.1972900629043579
-0.06976741552352905 0.8914728164672852 0.23697981238365173
-0.06976741552352905 0.9069767594337463 -0.18843673169612885
-0.06976741552352905 0.9069766998291016 -0.14164890348911285
-0.06976741552352905 0.9069766998291016 0.018128959462046623
-0.06976741552352905 0.9069766998291016 0.12364856153726578
-0.06976741552352905 0.9069766998291016 0.1589760035276413
-0.06976741552352905 0.9069766998291016 0.16442792117595673
-0.06976741552352905 0.9069766998291016 0.19696351885795593
-0.06976741552352905 0.9069766998291016 0.23636887967586517
-0.06976741552352905 0.922480583190918 -0.18904845416545868
-0.06976741552352905 0.922480583190918 -0.14202895760536194
-0.06976741552352905 0.922480583190918 0.016291990876197815
-0.06976741552352905 0.922480583190918 0.12021028995513916
-0.06976741552352905 0.922480583190918 0.15105876326560974
-0.06976741552352905 0.922480583190918 0.17421293258666992
-0.06976741552352905 0.9224806427955627 0.19545356929302216
-0.06976741552352905 0.922480583190918 0.23586022853851318
-0.06976741552352905 0.9379844665527344 -0.19016128778457642
-0.06976741552352905 0.9379844665527344 -0.029580717906355858
-0.06976741552352905 0.9379844665527344 0.01259341649711132
-0.06976741552352905 0.9379844665527344 0.23575282096862793
-0.06976741552352905 0.9534883499145508 -0.19351117312908173
-0.06976741552352905 0.9534883499145508 0.2383953034877777
-0.06976741552352905 0.9689922332763672 -0.19583505392074585
-0.06976741552352905 0.9689922332763672 0.24038124084472656
-0.05426359176635742 -0.9689922332763672 -0.19582387804985046
-0.05426359176635742 -0.9689922332763672 0.23582834005355835
-0.05426359176635742 -0.953488290309906 -0.19237719476222992
-0.05426359176635742 -0.9534883499145508 0.23607832193374634
-0.05426359176635742 -0.9379844665527344 -0.19057826697826385
-0.05426359176635742 -0.9379844665527344 -0.08827521651983261
-0.05426359176635742 -0.9379844665527344 -0.05780738964676857
-0.05426359176635742 -0.9379844665527344 -0.05124222859740257
-0.05426359176635742 -0.9379844665527344 0.0030734334141016006
-0.05426359176635742 -0.9379844665527344 0.23475933074951172
-0.05426359176635742 -0.9224806427955627 -0.18990567326545715
-0.05426359176635742 -0.9224806427955627 -0.13206803798675537
-0.05426359176635742 -0.9224806427955627 0.005699491128325462
-0.05426359176635742 -0.9224807024002075 0.23461338877677917
-0.05426359176635742 -0.9069766998291016 -0.18977853655815125
-0.05426359176635742 -0.9069767594337463 -0.13857892155647278
-0.05426359176635742 -0.9069767594337463 0.004072905518114567
-0.05426359176635742 -0.9069768190383911 0.2350558638572693
-0.05426358804106712 -0.8914728164672852 -0.1896582394838333
-0.05426359176635742 -0.8914728164672852 -0.14174069464206696
-0.05426359176635742 -0.8914728760719299 0.004061457701027393
-0.05426359176635742 -0.8914728760719299 0.13002783060073853
-0.05426359176635742 -0.8914728760719299 0.13417966663837433
-0.05426359176635742 -0.8914728164672852 0.23556509613990784
-0.05426359176635742 -0.8759690523147583 -0.18936672806739807
-0.05426359176635742 -0.8759689331054688 -0.14413052797317505
-0.05426359176635742 -0.8759689927101135 0.005798265337944031
-0.05426359176635742 -0.8759689927101135 0.11814899742603302
-0.05426359176635742 -0.8759689927101135 0.16253717243671417
-0.05426359549164772 -0.8759689927101135 0.16289693117141724
-0.05426359176635742 -0.8759689927101135 0.19454242289066315
-0.05426359176635742 -0.8759689927101135 0.23614126443862915
-0.05426359549164772 -0.8604651689529419 -0.18910297751426697
-0.05426358804106712 -0.8604651093482971 -0.14482048153877258
-0.05426359176635742 -0.8604651093482971 0.007999752648174763
-0.05426359176635742 -0.8604651093482971 0.11493068933486938
-0.05426359176635742 -0.8604651093482971 0.19652482867240906
-0.05426359176635742 -0.8604651093482971 0.23654085397720337
-0.05426359176635742 -0.8449612855911255 -0.18884627521038055
-0.05426359176635742 -0.8449612855911255 -0.14613525569438934
-0.05426359549164772 -0.8449612855911255 0.011894681490957737
-0.05426359176635742 -0.8449612259864807 0.11232741177082062
-0.05426359176635742 -0.8449611663818359 0.1992010772228241
-0.05426359176635742 -0.8449612259864807 0.2365977168083191
-0.05426359176635742 -0.8294573426246643 -0.1885923147201538
-0.05426359176635742 -0.8294573426246643 -0.1465424746274948
-0.05426359176635742 -0.8294573426246643 0.015990981832146645
-0.05426359176635742 -0.8294573426246643 0.11004162579774857
-0.05426359176635742 -0.8294573426246643 0.20108675956726074
-0.05426359176635742 -0.8294573426246643 0.23648834228515625
-0.05426359176635742 -0.8139535188674927 -0.18854665756225586
-0.05426359176635742 -0.8139535188674927 -0.1475159227848053
-0.05426359176635742 -0.8139535188674927 0.02095181681215763
-0.05426359176635742 -0.8139535188674927 0.10736653208732605
-0.05426359176635742 -0.8139535188674927 0.20352879166603088
-0.05426359176635742 -0.8139535188674927 0.23617437481880188
-0.05426359176635742 -0.7984496355056763 -0.188679039478302
-0.05426359176635742 -0.7984496355056763 -0.14860327541828156
-0.05426359176635742 -0.7984496355056763 0.02636568620800972
-0.05426359176635742 -0.7984496355056763 0.10509373247623444
-0.05426359176635742 -0.7984496355056763 0.2056547850370407
-0.05426359176635742 -0.7984496355056763 0.23589706420898438
-0.05426359176635742 -0.7829457521438599 -0.1888655722141266
-0.05426359176635742 -0.7829457521438599 -0.14756983518600464
-0.05426359176635742 -0.7829457521438599 0.030374709516763687
-0.05426359176635742 -0.7829457521438599 0.10364340245723724
-0.05426359176635742 -0.7829457521438599 0.20599249005317688
-0.05426359176635742 -0.7829457521438599 0.23578962683677673
-0.05426359176635742 -0.7674418687820435 -0.18922947347164154
-0.05426359176635742 -0.7674418687820435 -0.1467551440000534
-0.05426359176635742 -0.7674418091773987 0.04185035452246666
-0.05426359176635742 -0.7674418687820435 0.09994325786828995
-0.05426359176635742 -0.7674418687820435 0.20704609155654907
-0.05426359176635742 -0.7674418687820435 0.23570334911346436
-0.05426359176635742 -0.751937985420227 -0.18974775075912476
-0.05426359549164772 -0.7519380450248718 -0.14628653228282928
-0.05426359176635742 -0.751937985420227 0.053588204085826874
-0.05426359176635742 -0.751937985420227 0.09235408902168274
-0.05426359176635742 -0.751937985420227 0.20713704824447632
-0.05426359176635742 -0.751937985420227 0.2356719672679901
-0.05426359176635742 -0.7364341020584106 -0.19060823321342468
-0.05426359176635742 -0.7364340424537659 -0.14535249769687653
-0.05426359176635742 -0.7364341020584106 0.06434627622365952
-0.05426359549164772 -0.7364341020584106 0.08542785793542862
-0.05426359176635742 -0.7364341020584106 0.20724035799503326
-0.05426359176635742 -0.7364341020584106 0.23570312559604645
-0.05426358804106712 -0.7209302186965942 -0.19181296229362488
-0.05426358804106712 -0.7209301590919495 -0.1444483995437622
-0.05426359176635742 -0.7209302186965942 0.20817798376083374
-0.05426359176635742 -0.7209302186965942 0.23594607412815094
-0.05426359176635742 -0.7054263353347778 -0.193486750125885
-0.05426359176635742 -0.7054263353347778 -0.14433042705059052
-0.05426358804106712 -0.7054263353347778 0.20964834094047546
-0.05426359176635742 -0.7054263353347778 0.23603039979934692
-0.05426359176635742 -0.6899224519729614 -0.19415588676929474
-0.05426359176635742 -0.6899223923683167 -0.14395271241664886
-0.05426359176635742 -0.6899224519729614 0.21064132452011108
-0.05426359176635742 -0.6899224519729614 0.2359267771244049
-0.05426359176635742 -0.674418568611145 -0.19448068737983704
-0.05426359176635742 -0.674418568611145 -0.14330698549747467
-0.05426359176635742 -0.674418568611145 0.21099364757537842
-0.05426359176635742 -0.674418568611145 0.23583221435546875
-0.05426359176635742 -0.6589146852493286 -0.19465282559394836
-0.05426359176635742 -0.6589146852493286 -0.14329588413238525
-0.05426358804106712 -0.6589146852493286 0.21124877035617828
-0.05426359176635742 -0.6589146852493286 0.2357417494058609
-0.05426359176635742 -0.643410861492157 -0.19476743042469025
-0.05426359176635742 -0.643410861492157 -0.14351442456245422
-0.05426359549164772 -0.643410861492157 0.21081404387950897
-0.05426359176635742 -0.643410861492157 0.23559622466564178
-0.05426359176635742 -0.6279069781303406 -0.19486944377422333
-0.05426359176635742 -0.6279069185256958 -0.1445649117231369
-0.05426359176635742 -0.6279069781303406 0.2103061079978943
-0.05426359176635742 -0.6279069781303406 0.23531685769557953
-0.05426359176635742 -0.6124030947685242 -0.19477057456970215
-0.05426359176635742 -0.612403154373169 -0.14517106115818024
-0.05426359176635742 -0.6124030947685242 0.209682896733284
-0.05426359176635742 -0.6124030947685242 0.234999880194664
-0.05426359176635742 -0.5968992114067078 -0.19452758133411407
-0.05426359176635742 -0.5968992114067078 -0.14517618715763092
-0.05426359176635742 -0.5968992114067078 0.20908352732658386
-0.05426359176635742 -0.5968992114067078 0.23461025953292847
-0.05426359176635742 -0.5813953876495361 -0.19431202113628387
-0.05426359176635742 -0.5813953876495361 -0.14532428979873657
-0.05426359176635742 -0.5813953876495361 0.20867256820201874
-0.05426359176635742 -0.5813953876495361 0.23441049456596375
-0.05426359176635742 -0.5658915042877197 -0.19404175877571106
-0.05426359176635742 -0.5658915042877197 -0.14552980661392212
-0.05426359176635742 -0.5658915042877197 0.20835274457931519
-0.05426359176635742 -0.5658915042877197 0.23419997096061707
-0.05426359176635742 -0.5503876209259033 -0.19283029437065125
-0.05426358804106712 -0.5503876209259033 -0.14492939412593842
-0.05426359176635742 -0.5503876209259033 0.20812925696372986
-0.05426359176635742 -0.5503876209259033 0.23410943150520325
-0.05426359176635742 -0.5348837375640869 -0.19081446528434753
-0.05426358804106712 -0.5348837375640869 -0.14393581449985504
-0.05426359176635742 -0.5348837375640869 0.20784860849380493
