-0.08527129888534546 0.02325582504272461 -0.12056070566177368
-0.08527129888534546 0.02325582504272461 -0.1113201230764389
-0.08527129888534546 0.02325582504272461 -0.05426456406712532
-0.08527129888534546 0.02325582504272461 -0.054255854338407516
-0.08527129888534546 0.02325582504272461 -0.03616420552134514
-0.08527129888534546 0.02325582504272461 0.046323422342538834
-0.08527129888534546 0.02325582504272461 0.14433056116104126
-0.08527129888534546 0.02325582504272461 0.18250542879104614
-0.08527129888534546 0.02325582504272461 0.23930475115776062
-0.08527129888534546 0.038759708404541016 -0.18403717875480652
-0.08527129888534546 0.038759708404541016 -0.02752986177802086
-0.08527129888534546 0.038759708404541016 0.044461142271757126
-0.08527129888534546 0.038759712129831314 0.14865660667419434
-0.08527129888534546 0.038759708404541016 0.181424081325531
-0.08527129888534546 0.038759708404541016 0.23826265335083008
-0.08527129888534546 0.05426359176635742 -0.18389353156089783
-0.08527129888534546 0.05426359176635742 -0.024007316678762436
-0.08527129888534546 0.05426359176635742 0.0431792289018631
-0.08527129888534546 0.05426358804106712 0.14987339079380035
-0.08527129888534546 0.05426359176635742 0.17980359494686127
-0.08527129888534546 0.05426359176635742 0.2375876009464264
-0.08527129888534546 0.06976747512817383 -0.1835540235042572
-0.08527129888534546 0.06976747512817383 -0.02386576682329178
-0.08527129888534546 0.06976747512817383 0.044193826615810394
-0.08527129888534546 0.06976747512817383 0.1476265788078308
-0.08527129888534546 0.06976747512817383 0.17912182211875916
-0.08527129888534546 0.06976747512817383 0.23716333508491516
-0.08527129888534546 0.08527135848999023 -0.1831648200750351
-0.08527129888534546 0.08527135848999023 -0.02390751801431179
-0.08527129888534546 0.08527135848999023 0.04712143540382385
-0.08527129888534546 0.08527135848999023 0.1428506225347519
-0.08527129888534546 0.08527135848999023 0.17911647260189056
-0.08527129888534546 0.08527135848999023 0.23679305613040924
-0.08527129888534546 0.10077524185180664 -0.182846799492836
-0.08527129888534546 0.10077524185180664 -0.11728623509407043
-0.08527129888534546 0.10077524185180664 -0.11546336114406586
-0.08527129888534546 0.10077524185180664 -0.028776604682207108
-0.08527129888534546 0.10077524185180664 0.05103588104248047
-0.08527129888534546 0.10077524185180664 0.13375644385814667
-0.08527129888534546 0.10077524185180664 0.1808491051197052
-0.08527129888534546 0.10077524185180664 0.2365211695432663
-0.08527129888534546 0.11627912521362305 -0.1825636625289917
-0.08527129888534546 0.11627912521362305 -0.12535536289215088
-0.08527129888534546 0.11627911776304245 -0.10964632034301758
-0.08527129143476486 0.11627912521362305 -0.038255054503679276
-0.08527129888534546 0.11627912521362305 0.05126873403787613
-0.08527129888534546 0.11627912521362305 0.12898480892181396
-0.08527129888534546 0.11627912521362305 0.18306906521320343
-0.08527129888534546 0.11627912521362305 0.2360309660434723
-0.08527129888534546 0.1317828893661499 -0.18240028619766235
-0.08527129888534546 0.1317828893661499 -0.13186414539813995
-0.08527129888534546 0.1317828893661499 -0.10655128210783005
-0.08527129888534546 0.1317828893661499 -0.05028951168060303
-0.08527129888534546 0.1317828893661499 0.04820486903190613
-0.08527129888534546 0.1317828893661499 0.1488860547542572
-0.08527129888534546 0.1317828893661499 0.18417170643806458
-0.08527129888534546 0.1317828893661499 0.23489844799041748
-0.08527129888534546 0.1472867727279663 -0.18233831226825714
-0.08527129888534546 0.1472867727279663 -0.13257749378681183
-0.08527129888534546 0.1472867727279663 -0.10929696261882782
-0.08527129888534546 0.1472867727279663 -0.031916745007038116
-0.08527130633592606 0.1472867727279663 0.04237351939082146
-0.08527129888534546 0.1472867727279663 0.23361217975616455
-0.08527129888534546 0.16279065608978271 -0.18253612518310547
-0.08527129888534546 0.16279065608978271 0.23375502228736877
-0.08527129888534546 0.17829453945159912 -0.18313612043857574
-0.08527129888534546 0.17829453945159912 0.23288379609584808
-0.08527129888534546 0.19379842281341553 -0.1793273538351059
-0.08527129888534546 0.19379842281341553 -0.15620416402816772
-0.08527129888534546 0.19379842281341553 -0.11014514416456223
-0.08527129888534546 0.19379842281341553 -0.09913206100463867
-0.08527129888534546 0.19379842281341553 -0.034408535808324814
-0.08527129888534546 0.19379842281341553 0.1518026888370514
-0.08527129888534546 0.19379842281341553 0.20225709676742554
-0.08527129888534546 0.19379842281341553 0.21404440701007843
-0.06976741552352905 -0.19379842281341553 -0.183244526386261
-0.06976741552352905 -0.19379842281341553 0.22603575885295868
-0.06976741552352905 -0.1782945990562439 -0.18198344111442566
-0.06976741552352905 -0.1782945990562439 0.2323283851146698
-0.06976741552352905 -0.1627907156944275 -0.18101084232330322
-0.06976741552352905 -0.1627907156944275 -0.13815893232822418
-0.06976741552352905 -0.1627907156944275 -0.10216457396745682
-0.06976741552352905 -0.1627907156944275 -0.02674945443868637
-0.06976741552352905 -0.1627907156944275 0.004538571462035179
-0.06976741552352905 -0.1627907156944275 0.028174400329589844
-0.06976741552352905 -0.1627907156944275 0.04161679372191429
-0.06976741552352905 -0.1627907156944275 0.2329934686422348
-0.06976741552352905 -0.14728683233261108 -0.18094800412654877
-0.06976741552352905 -0.14728683233261108 -0.14409708976745605
-0.06976741552352905 -0.14728683233261108 -0.09345367550849915
-0.06976741552352905 -0.14728683233261108 -0.05649244040250778
-0.06976741552352905 -0.14728683233261108 0.0482456348836422
-0.06976741552352905 -0.14728683233261108 0.23388123512268066
-0.06976741552352905 -0.13178294897079468 -0.18147006630897522
-0.06976741552352905 -0.13178294897079468 -0.1431564837694168
-0.06976741552352905 -0.13178294897079468 -0.09258482605218887
-0.06976741552352905 -0.13178294897079468 -0.06644751131534576
-0.06976741552352905 -0.13178294897079468 0.050332650542259216
-0.06976741552352905 -0.13178294897079468 0.1569376140832901
-0.06976741552352905 -0.13178294897079468 0.19444623589515686
-0.06976741552352905 -0.13178294897079468 0.23472702503204346
-0.06976741552352905 -0.11627906560897827 -0.18229681253433228
-0.06976741552352905 -0.11627906560897827 -0.1395372748374939
-0.06976741552352905 -0.11627906560897827 -0.09436963498592377
-0.06976741552352905 -0.11627906560897827 -0.0663658082485199
-0.06976741552352905 -0.11627906560897827 0.05069233849644661
-0.06976741552352905 -0.11627906560897827 0.14436796307563782
-0.06976741552352905 -0.11627906560897827 0.19231201708316803
-0.06976741552352905 -0.11627906560897827 0.23562300205230713
-0.06976741552352905 -0.10077518224716187 -0.18283513188362122
-0.06976741552352905 -0.10077518224716187 -0.13564062118530273
-0.06976741552352905 -0.10077518224716187 -0.0988764613866806
-0.06976741552352905 -0.10077518224716187 -0.063323974609375
-0.06976741552352905 -0.10077518224716187 0.05053938552737236
-0.06976741552352905 -0.10077518224716187 0.1381121575832367
-0.06976741552352905 -0.10077518224716187 0.1892009973526001
-0.06976741552352905 -0.10077518224716187 0.23649916052818298
-0.06976741552352905 -0.08527129888534546 -0.1831754893064499
-0.06976741552352905 -0.08527129888534546 -0.1327972114086151
-0.06976741552352905 -0.08527129888534546 -0.10249903798103333
-0.06976741552352905 -0.08527129888534546 -0.060780011117458344
-0.06976741552352905 -0.08527129888534546 0.04999233037233353
-0.06976741552352905 -0.08527129888534546 0.1334603726863861
-0.06976741552352905 -0.08527129888534546 0.18737801909446716
-0.06976741552352905 -0.08527129888534546 0.2374436855316162
-0.06976741552352905 -0.06976741552352905 -0.1834290623664856
-0.06976741552352905 -0.06976741552352905 -0.1300904005765915
-0.06976741552352905 -0.06976741552352905 -0.1044563427567482
-0.06976741552352905 -0.06976741552352905 -0.05986161530017853
-0.06976741552352905 -0.06976741552352905 0.04912995919585228
-0.06976741552352905 -0.06976741552352905 0.13214373588562012
-0.06976741552352905 -0.06976741552352905 0.18642857670783997
-0.06976741552352905 -0.06976741552352905 0.2381625473499298
-0.06976741552352905 -0.05426359176635742 -0.18352395296096802
-0.06976741552352905 -0.05426359176635742 -0.12858103215694427
-0.06976741552352905 -0.05426359176635742 -0.1047791913151741
-0.06976741552352905 -0.05426359176635742 -0.06240640580654144
-0.06976741552352905 -0.05426359176635742 0.048241496086120605
-0.06976741552352905 -0.05426359176635742 0.13400770723819733
-0.06976741552352905 -0.05426359176635742 0.18533167243003845
-0.06976741552352905 -0.05426359176635742 0.23871633410453796
-0.06976741552352905 -0.038759708404541016 -0.18365460634231567
-0.06976741552352905 -0.038759708404541016 -0.12929141521453857
-0.06976741552352905 -0.038759708404541016 -0.10293158143758774
-0.06976740807294846 -0.038759708404541016 -0.06928632408380508
-0.06976741552352905 -0.038759708404541016 0.047804806381464005
-0.06976741552352905 -0.038759708404541016 0.1329542100429535
-0.06976741552352905 -0.038759708404541016 0.1839679479598999
-0.06976741552352905 -0.038759708404541016 0.23924510180950165
-0.06976741552352905 -0.02325582504272461 -0.1837286800146103
-0.06976742297410965 -0.02325582504272461 -0.1303589791059494
-0.06976741552352905 -0.02325582504272461 -0.09969111531972885
-0.06976741552352905 -0.02325582504272461 -0.07532922178506851
-0.06976741552352905 -0.02325582504272461 0.04776095598936081
-0.06976741552352905 -0.02325582504272461 0.1289370357990265
-0.06976741552352905 -0.02325582504272461 0.18274031579494476
-0.06976741552352905 -0.02325582504272461 0.23986801505088806
-0.06976741552352905 -0.007751941680908203 -0.18385908007621765
-0.06976741552352905 -0.007751941215246916 -0.12986218929290771
-0.06976741552352905 -0.007751941215246916 -0.0988486260175705
-0.06976741552352905 -0.007751941680908203 -0.07522943615913391
-0.06976741552352905 -0.007751941680908203 0.04802709072828293
-0.06976741552352905 -0.007751941680908203 0.11831171810626984
-0.06976741552352905 -0.007751941680908203 0.18196052312850952
-0.06976741552352905 -0.007751941680908203 0.2403242588043213
-0.06976741552352905 0.007751941680908203 -0.18396583199501038
-0.06976741552352905 0.007751941680908203 -0.12746673822402954
-0.06976741552352905 0.007751941680908203 -0.10249917209148407
-0.06976741552352905 0.007751941680908203 -0.06713515520095825
-0.06976741552352905 0.007751941680908203 0.048490747809410095
-0.06976741552352905 0.007751941680908203 0.1237056702375412
-0.06976741552352905 0.007751941680908203 0.18269133567810059
-0.06976741552352905 0.007751941680908203 0.24031314253807068
-0.06976741552352905 0.02325582504272461 -0.1840778887271881
-0.06976741552352905 0.02325582504272461 -0.12230684608221054
-0.06976741552352905 0.02325582504272461 -0.10916489362716675
-0.06976741552352905 0.02325582504272461 -0.030003076419234276
-0.06976741552352905 0.02325582504272461 0.01870160549879074
-0.06976741552352905 0.02325582504272461 0.02880556881427765
-0.06976741552352905 0.02325582504272461 0.0461636520922184
-0.06976741552352905 0.02325582504272461 0.1423269808292389
-0.06976741552352905 0.02325582504272461 0.18179893493652344
-0.06976741552352905 0.02325582504272461 0.23955529928207397
-0.06976741552352905 0.038759708404541016 -0.18384800851345062
-0.06976741552352905 0.038759708404541016 -0.1171041950583458
-0.06976741552352905 0.038759708404541016 -0.11533385515213013
-0.06976741552352905 0.038759708404541016 -0.02084803394973278
-0.06976741552352905 0.038759708404541016 0.017057474702596664
-0.06976741552352905 0.038759708404541016 0.03432747721672058
-0.06976741552352905 0.038759708404541016 0.04191940650343895
-0.06976741552352905 0.038759708404541016 0.15038518607616425
-0.06976741552352905 0.038759708404541016 0.1803893744945526
-0.06976741552352905 0.038759708404541016 0.2384909838438034
-0.06976741552352905 0.05426359176635742 -0.18370503187179565
-0.06976741552352905 0.05426359176635742 -0.018318915739655495
-0.06976741552352905 0.05426359176635742 0.017873330041766167
-0.06976741552352905 0.05426359176635742 0.15361075103282928
-0.06976741552352905 0.05426359176635742 0.1785683035850525
-0.06976741552352905 0.05426359176635742 0.2377895712852478
-0.06976741552352905 0.06976747512817383 -0.18336518108844757
-0.06976741552352905 0.06976747512817383 -0.018612725660204887
-0.06976741552352905 0.06976747512817383 0.021061880514025688
-0.06976741552352905 0.06976747512817383 0.03489506244659424
-0.06976741552352905 0.06976747512817383 0.039892151951789856
-0.06976741552352905 0.06976747512817383 0.1511567234992981
-0.06976741552352905 0.06976747512817383 0.17708061635494232
-0.06976741552352905 0.06976747512817383 0.23733849823474884
-0.06976741552352905 0.08527135848999023 -0.18296892940998077
-0.06976741552352905 0.08527135848999023 -0.01946479268372059
-0.06976741552352905 0.08527135848999023 0.045019932091236115
-0.06976741552352905 0.08527135848999023 0.14466936886310577
-0.06976741552352905 0.08527135848999023 0.17847216129302979
-0.06976741552352905 0.08527135848999023 0.23694327473640442
-0.06976741552352905 0.10077524185180664 -0.18263381719589233
-0.06976741552352905 0.10077524185180664 -0.12049413472414017
-0.06976741552352905 0.10077524185180664 -0.1127728596329689
-0.06976741552352905 0.10077524185180664 -0.024399103596806526
-0.06976741552352905 0.10077524185180664 0.05155862867832184
-0.06976741552352905 0.10077524185180664 0.13195182383060455
-0.06976741552352905 0.10077524185180664 0.18061283230781555
-0.06976741552352905 0.10077524185180664 0.23665116727352142
-0.06976741552352905 0.11627912521362305 -0.1823299080133438
-0.06976741552352905 0.11627912521362305 -0.12867754697799683
-0.06976741552352905 0.11627912521362305 -0.10710586607456207
-0.06976741552352905 0.11627912521362305 -0.036128930747509
-0.06976741552352905 0.11627912521362305 0.05265629664063454
-0.06976741552352905 0.11627912521362305 0.11897528171539307
-0.06976741552352905 0.11627912521362305 0.18315359950065613
-0.06976741552352905 0.11627912521362305 0.23613059520721436
-0.06976741552352905 0.1317828893661499 -0.18215787410736084
-0.06976741552352905 0.1317828893661499 -0.13349246978759766
-0.06976741552352905 0.1317828893661499 -0.10421092808246613
-0.06976741552352905 0.1317828893661499 -0.04937580227851868
-0.06976741552352905 0.1317828893661499 0.04944899305701256
-0.06976741552352905 0.1317828893661499 0.14343896508216858
-0.06976741552352905 0.1317828893661499 0.18460971117019653
-0.06976741552352905 0.1317828893661499 0.23495295643806458
-0.06976741552352905 0.1472867727279663 -0.18209654092788696
-0.06976741552352905 0.1472867727279663 -0.13428565859794617
-0.06976741552352905 0.1472867727279663 -0.10698313266038895
-0.06976741552352905 0.1472867727279663 -0.0314318872988224
-0.06976741552352905 0.1472867727279663 0.011628174223005772
-0.06976741552352905 0.1472867727279663 0.031177079305052757
-0.06976741552352905 0.1472867727279663 0.04390999674797058
-0.06976741552352905 0.1472867727279663 0.2336418181657791
-0.06976741552352905 0.16279065608978271 -0.18231625854969025
-0.06976741552352905 0.16279065608978271 0.2337508201599121
-0.06976741552352905 0.17829453945159912 -0.18295958638191223
-0.06976741552352905 0.17829453945159912 0.23280605673789978
-0.06976741552352905 0.19379842281341553 -0.17930126190185547
-0.06976741552352905 0.19379842281341553 -0.15682828426361084
-0.06976741552352905 0.19379842281341553 -0.1061103418469429
-0.06976741552352905 0.19379842281341553 -0.09914431720972061
-0.06976741552352905 0.19379842281341553 -0.032105401158332825
-0.06976741552352905 0.19379842281341553 0.15043331682682037
-0.06976741552352905 0.19379842281341553 0.20188143849372864
-0.06976741552352905 0.19379842281341553 0.21406328678131104
-0.05426359176635742 -0.19379842281341553 -0.18274059891700745
-0.05426359176635742 -0.19379842281341553 0.2260865867137909
-0.05426359176635742 -0.1782945990562439 -0.18149562180042267
-0.05426359176635742 -0.1782945990562439 0.23216769099235535
-0.05426359176635742 -0.1627907156944275 -0.18068397045135498
-0.05426359176635742 -0.1627907156944275 -0.13870081305503845
-0.05426359176635742 -0.1627907156944275 -0.09776568412780762
-0.05426359176635742 -0.1627907156944275 -0.026379255577921867
-0.05426359176635742 -0.1627907156944275 0.0015905380714684725
-0.05426359176635742 -0.1627907156944275 0.03471579775214195
-0.05426359549164772 -0.1627907156944275 0.04455551505088806
-0.05426359176635742 -0.1627907156944275 0.23295937478542328
-0.05426359176635742 -0.14728683233261108 -0.1807924211025238
-0.05426359176635742 -0.14728683233261108 -0.14351534843444824
-0.05426359176635742 -0.14728683233261108 -0.08825965970754623
-0.05426359176635742 -0.14728683233261108 -0.06048375368118286
-0.05426359176635742 -0.14728683233261108 0.02066035196185112
-0.05426359176635742 -0.14728683233261108 0.025533422827720642
-0.05426359176635742 -0.14728683233261108 0.05160459876060486
-0.05426359176635742 -0.14728683233261108 0.17482151091098785
-0.05426359176635742 -0.14728683233261108 0.19394347071647644
-0.05426359176635742 -0.14728683233261108 0.2338273823261261
-0.05426359176635742 -0.13178294897079468 -0.18136253952980042
-0.05426359176635742 -0.13178294897079468 -0.14287135004997253
-0.05426359176635742 -0.13178294897079468 -0.08662212640047073
-0.05426359176635742 -0.13178294897079468 -0.07555994391441345
-0.05426359176635742 -0.13178294897079468 0.0537806898355484
-0.05426359176635742 -0.13178294897079468 0.14817121624946594
-0.05426359176635742 -0.13178294897079468 0.1950596272945404
-0.05426359176635742 -0.13178294897079468 0.23466633260250092
-0.05426359176635742 -0.11627906560897827 -0.18216806650161743
-0.05426359176635742 -0.11627906560897827 -0.1397642195224762
-0.05426359176635742 -0.11627906560897827 -0.08811227977275848
-0.05426359176635742 -0.11627906560897827 -0.07266224920749664
-0.05426359176635742 -0.11627906560897827 0.05386305972933769
-0.05426359176635742 -0.11627906560897827 0.13478060066699982
-0.05426359176635742 -0.11627905815839767 0.19408583641052246
-0.05426359176635742 -0.11627906560897827 0.23555687069892883
-0.05426359176635742 -0.10077518224716187 -0.1826545000076294
-0.05426359176635742 -0.10077518224716187 -0.13639362156391144
-0.05426359176635742 -0.10077518224716187 -0.0915532112121582
-0.05426359176635742 -0.10077517479658127 -0.06728402525186539
-0.05426359176635742 -0.10077518224716187 0.05330003798007965
-0.05426359176635742 -0.10077518224716187 0.12549525499343872
-0.05426359176635742 -0.10077518224716187 0.19106879830360413
-0.05426359176635742 -0.10077518224716187 0.23641645908355713
-0.05426359176635742 -0.08527129888534546 -0.1829664558172226
-0.05426359176635742 -0.08527129888534546 -0.13392291963100433
-0.05426359176635742 -0.08527129888534546 -0.09521973133087158
-0.05426359176635742 -0.08527129888534546 -0.06454847753047943
-0.05426359176635742 -0.08527129888534546 0.05254560708999634
-0.05426359176635742 -0.08527129888534546 0.08229129016399384
-0.05426359176635742 -0.08527129888534546 0.18904069066047668
-0.05426359176635742 -0.08527129888534546 0.2373586744070053
-0.05426359176635742 -0.06976741552352905 -0.1832009106874466
-0.05426359176635742 -0.06976741552352905 -0.13231854140758514
-0.05426359176635742 -0.06976741552352905 -0.09837813675403595
-0.05426359176635742 -0.06976741552352905 -0.06363024562597275
-0.05426359176635742 -0.06976741552352905 0.051817797124385834
-0.05426359176635742 -0.06976741552352905 0.08227773010730743
-0.05426359176635742 -0.06976741552352905 0.18811753392219543
-0.05426359176635742 -0.06976741552352905 0.23809680342674255
-0.05426359176635742 -0.05426359176635742 -0.18328389525413513
-0.05426359176635742 -0.05426359176635742 -0.13117483258247375
-0.05426359176635742 -0.05426359176635742 -0.09896424412727356
-0.05426359176635742 -0.05426359176635742 -0.06654313951730728
-0.05426359176635742 -0.05426359176635742 0.051234785467386246
-0.05426358804106712 -0.05426358804106712 0.08689234405755997
-0.05426359176635742 -0.05426359176635742 0.18702448904514313
-0.05426359176635742 -0.05426359176635742 0.2386825680732727
-0.05426359176635742 -0.038759708404541016 -0.18340523540973663
-0.05426358804106712 -0.038759708404541016 -0.13105593621730804
-0.05426359549164772 -0.038759708404541016 -0.09448367357254028
-0.05426359176635742 -0.038759708404541016 -0.07470487803220749
-0.05426359176635742 -0.038759708404541016 0.05117867514491081
-0.05426359176635742 -0.038759708404541016 0.09159964323043823
-0.05426359176635742 -0.038759708404541016 0.18559500575065613
-0.05426359176635742 -0.038759708404541016 0.23924507200717926
-0.05426359176635742 -0.02325582504272461 -0.18347856402397156
-0.05426358804106712 -0.02325582318007946 -0.1312568187713623
-0.05426359176635742 -0.02325582504272461 -0.08824796229600906
-0.05426359176635742 -0.02325582504272461 -0.08191230148077011
-0.05426359176635742 -0.02325582504272461 0.051485575735569
-0.05426359176635742 -0.02325582504272461 0.09264840185642242
-0.05426359176635742 -0.02325582504272461 0.1846049278974533
-0.05426359176635742 -0.02325582504272461 0.23992252349853516
-0.05426359176635742 -0.007751941680908203 -0.1836058646440506
-0.05426359176635742 -0.007751941680908203 -0.13058049976825714
-0.05426359176635742 -0.007751941680908203 -0.0878535583615303
-0.05426359176635742 -0.007751941680908203 -0.08209691196680069
-0.05426359176635742 -0.007751941680908203 0.022485198453068733
-0.05426359549164772 -0.007751941680908203 0.02406761422753334
-0.05426359176635742 -0.007751941680908203 0.0519726425409317
-0.05426359176635742 -0.007751941680908203 0.08839072287082672
-0.05426359176635742 -0.007751941680908203 0.18397194147109985
-0.05426359176635742 -0.007751941215246916 0.24035412073135376
-0.05426359176635742 0.007751941680908203 -0.18372172117233276
-0.05426359176635742 0.007751941680908203 -0.12867578864097595
-0.05426358804106712 0.007751941215246916 -0.09459421038627625
-0.05426359176635742 0.007751941680908203 -0.07195436954498291
-0.05426359176635742 0.007751941680908203 0.0188571996986866
-0.05426359176635742 0.007751941680908203 0.028113562613725662
-0.05426359176635742 0.007751941680908203 0.05259474366903305
-0.05426359549164772 0.007751941680908203 0.08788976818323135
-0.05426359176635742 0.007751941680908203 0.18418380618095398
-0.05426359176635742 0.007751941680908203 0.24035683274269104
-0.05426359176635742 0.02325582504272461 -0.18383872509002686
-0.05426359176635742 0.02325582504272461 -0.124782994389534
-0.05426359176635742 0.02325582504272461 -0.10469605028629303
-0.05426359176635742 0.02325582504272461 -0.027037236839532852
-0.05426359176635742 0.02325582504272461 0.014578403905034065
-0.05426359176635742 0.02325582504272461 0.03484494984149933
-0.05426359176635742 0.02325582504272461 0.04634220153093338
-0.05426359176635742 0.02325582504272461 0.1322799026966095
-0.05426359176635742 0.02325582504272461 0.1823957860469818
-0.05426359176635742 0.02325582504272461 0.23973752558231354
-0.05426359176635742 0.038759708404541016 -0.18360620737075806
-0.05426359176635742 0.038759708404541016 -0.12061482667922974
-0.05426359176635742 0.038759708404541016 -0.11060591042041779
-0.05426359176635742 0.038759708404541016 -0.015753690153360367
-0.05426359176635742 0.038759708404541016 0.012614496052265167
-0.05426359176635742 0.038759708404541016 0.1486181616783142
-0.05426359176635742 0.038759708404541016 0.18012845516204834
-0.05426359176635742 0.038759708404541016 0.23863612115383148
-0.05426359176635742 0.05426359176635742 -0.18344758450984955
-0.05426359176635742 0.05426359176635742 -0.11763811856508255
-0.05426359176635742 0.05426359176635742 -0.11455117166042328
-0.05426359176635742 0.05426359176635742 -0.012355465441942215
-0.05426359176635742 0.05426359176635742 0.012736323289573193
-0.05426359176635742 0.05426359176635742 0.15510070323944092
-0.05426359176635742 0.05426359176635742 0.17442059516906738
-0.05426359176635742 0.05426359176635742 0.23790119588375092
-0.05426359176635742 0.06976747512817383 -0.18311043083667755
-0.05426359176635742 0.06976747512817383 -0.11737208813428879
-0.05426359549164772 0.06976747512817383 -0.11492620408535004
-0.05426359176635742 0.06976747512817383 -0.013302037492394447
-0.05426359176635742 0.06976747512817383 0.01584468223154545
-0.05426359176635742 0.06976747512817383 0.15268319845199585
-0.05426359176635742 0.06976747512817383 0.17340508103370667
-0.05426359176635742 0.06976747512817383 0.2374180257320404
-0.05426359176635742 0.08527135848999023 -0.18273693323135376
-0.05426359176635742 0.08527135848999023 -0.1190795749425888
-0.05426359176635742 0.08527135848999023 -0.11309362947940826
-0.05426359176635742 0.08527135848999023 -0.015474587678909302
-0.05426359176635742 0.08527135848999023 0.01992562599480152
-0.05426359176635742 0.08527135848999023 0.14429573714733124
-0.05426359176635742 0.08527135848999023 0.17779238522052765
-0.05426359176635742 0.08527135848999023 0.23699723184108734
-0.05426359176635742 0.10077524185180664 -0.18243205547332764
-0.05426359176635742 0.10077524185180664 -0.12463170289993286
-0.05426359176635742 0.10077524185180664 -0.10796815156936646
-0.05426359176635742 0.10077524185180664 -0.02213541977107525
-0.05426359176635742 0.10077524185180664 0.06006055325269699
-0.05426359176635742 0.10077524185180664 0.08056635409593582
-0.05426359176635742 0.10077524185180664 0.11434157937765121
-0.05426359176635742 0.10077524185180664 0.11737624555826187
-0.05426358804106712 0.10077524185180664 0.18079042434692383
-0.05426359176635742 0.10077524185180664 0.2366836965084076
-0.05426359176635742 0.11627912521362305 -0.18217676877975464
-0.05426359176635742 0.11627912521362305 -0.13185787200927734
-0.05426359176635742 0.11627912521362305 -0.10251274704933167
-0.05426359176635742 0.11627912521362305 -0.037594836205244064
-0.05426359176635742 0.11627912521362305 0.06287236511707306
-0.05426359176635742 0.11627912521362305 0.08082166314125061
-0.05426359176635742 0.11627912521362305 0.18376308679580688
-0.05426359176635742 0.11627912521362305 0.23613359034061432
-0.05426359176635742 0.1317828893661499 -0.1820450872182846
-0.05426359176635742 0.1317828893661499 -0.13458020985126495
-0.05426359176635742 0.1317828893661499 -0.09937132149934769
-0.05426359176635742 0.1317828893661499 -0.051924437284469604
-0.05426359176635742 0.1317828893661499 0.01783098094165325
-0.05426359176635742 0.1317828893661499 0.02982737123966217
-0.05426359176635742 0.1317828893661499 0.05383724346756935
-0.05426359176635742 0.1317828893661499 0.1325485110282898
-0.05426359176635742 0.1317828893661499 0.18582838773727417
-0.05426359176635742 0.1317828893661499 0.23490497469902039
-0.05426359176635742 0.1472867727279663 -0.1819189190864563
-0.05426359176635742 0.1472867727279663 -0.135536327958107
-0.05426359176635742 0.1472867727279663 -0.1030774787068367
-0.05426359176635742 0.1472867727279663 -0.03246629983186722
-0.05426359176635742 0.1472867727279663 0.006008844822645187
-0.05426359176635742 0.1472867727279663 0.036190006881952286
-0.05426359176635742 0.1472867727279663 0.043965794146060944
-0.05426359176635742 0.1472867727279663 0.2335474044084549
-0.05426359176635742 0.16279065608978271 -0.1819247454404831
-0.05426359176635742 0.16279065608978271 0.23363015055656433
-0.05426359176635742 0.17829453945159912 -0.18246261775493622
-0.05426359176635742 0.17829453945159912 0.2326977401971817
-0.05426359176635742 0.19379842281341553 -0.17914104461669922
-0.05426359176635742 0.19379842281341553 -0.1616668701171875
-0.05426359176635742 0.19379842281341553 -0.12209561467170715
-0.05426359176635742 0.19379842281341553 -0.09790940582752228
-0.05426359176635742 0.19379842281341553 -0.034990061074495316
-0.05426359176635742 0.19379842281341553 0.0540858693420887
-0.05426359176635742 0.19379842281341553 0.05584394186735153
-0.05426359176635742 0.19379842281341553 0.14832516014575958
-0.05426359176635742 0.19379842281341553 0.20133021473884583
-0.05426359176635742 0.19379842281341553 0.214421808719635
-0.038759708404541016 -0.19379842281341553 -0.18261446058750153
-0.038759708404541016 -0.19379842281341553 0.2260410636663437
-0.038759708404541016 -0.1782945990562439 -0.18135987222194672
-0.038759708404541016 -0.1782945990562439 0.23213614523410797
-0.038759708404541016 -0.1627907156944275 -0.18069922924041748
-0.038759708404541016 -0.1627907156944275 -0.13824567198753357
-0.038759708404541016 -0.1627907156944275 -0.0976165235042572
-0.038759708404541016 -0.1627907156944275 -0.02973918989300728
-0.038759708404541016 -0.1627907156944275 0.0032066693529486656
-0.038759708404541016 -0.1627907156944275 0.03732104226946831
-0.038759708404541016 -0.1627907156944275 0.04394140839576721
-0.038759708404541016 -0.1627907156944275 0.2329539656639099
-0.038759708404541016 -0.14728683233261108 -0.1808193027973175
-0.038759708404541016 -0.14728683233261108 -0.1425565928220749
-0.038759708404541016 -0.14728683233261108 -0.08827219903469086
-0.038759708404541016 -0.14728683233261108 -0.060888756066560745
-0.038759708404541016 -0.14728683233261108 0.017871176823973656
-0.038759708404541016 -0.14728683233261108 0.029134025797247887
-0.038759708404541016 -0.14728683233261108 0.06018427759408951
-0.038759708404541016 -0.14728683233261108 0.16732332110404968
-0.038759708404541016 -0.14728683233261108 0.19479317963123322
-0.038759708404541016 -0.14728683233261108 0.23374608159065247
-0.038759708404541016 -0.13178294897079468 -0.18132899701595306
-0.038759708404541016 -0.13178294897079468 -0.14175620675086975
-0.038759708404541016 -0.13178294897079468 -0.08664905279874802
-0.038759708404541016 -0.13178294897079468 -0.073121577501297
-0.038759708404541016 -0.13178294897079468 0.06566951423883438
-0.038759708404541016 -0.13178294897079468 0.13641102612018585
-0.038759712129831314 -0.13178294897079468 0.1956695020198822
-0.038759708404541016 -0.13178294897079468 0.2346552461385727
-0.038759708404541016 -0.11627906560897827 -0.18207401037216187
-0.038759708404541016 -0.11627906560897827 -0.13871534168720245
-0.038759708404541016 -0.11627906560897827 -0.08791886270046234
-0.038759708404541016 -0.11627906560897827 -0.07265336066484451
-0.038759708404541016 -0.11627906560897827 0.06816057860851288
-0.038759708404541016 -0.11627906560897827 0.07454714924097061
-0.038759708404541016 -0.11627906560897827 0.09973661601543427
-0.038759708404541016 -0.11627906560897827 0.1203339546918869
-0.038759708404541016 -0.11627905815839767 0.19469180703163147
-0.038759708404541016 -0.11627906560897827 0.23556602001190186
-0.038759708404541016 -0.10077518224716187 -0.1825062781572342
-0.038759708404541016 -0.10077518224716187 -0.1353914439678192
-0.038759708404541016 -0.10077518224716187 -0.091070756316185
-0.03875970467925072 -0.10077518224716187 -0.06804618239402771
-0.038759708404541016 -0.10077518224716187 0.06976690143346786
-0.03875970467925072 -0.10077517479658127 0.06976824253797531
-0.038759708404541016 -0.10077518224716187 0.1925395429134369
-0.038759708404541016 -0.10077518224716187 0.23641282320022583
-0.038759708404541016 -0.08527129888534546 -0.1827840358018875
-0.038759708404541016 -0.08527129888534546 -0.1330011785030365
-0.038759708404541016 -0.08527129888534546 -0.09421651065349579
-0.038759708404541016 -0.08527129888534546 -0.06622196733951569
-0.038759708404541016 -0.08527129888534546 0.19022876024246216
-0.038759708404541016 -0.08527129888534546 0.23735281825065613
-0.038759708404541016 -0.06976741552352905 -0.18299619853496552
-0.038759708404541016 -0.06976741552352905 -0.13125407695770264
-0.038759708404541016 -0.06976741552352905 -0.09662501513957977
-0.038759708404541016 -0.06976741552352905 -0.06596960127353668
-0.038759708404541016 -0.06976741552352905 0.18930277228355408
-0.038759708404541016 -0.06976741552352905 0.2381076067686081
-0.038759708404541016 -0.05426359176635742 -0.18306730687618256
-0.038759708404541016 -0.05426358804106712 -0.1299351006746292
-0.038759708404541016 -0.05426358804106712 -0.09641062468290329
-0.038759708404541016 -0.05426359176635742 -0.06906918436288834
-0.038759708404541016 -0.05426359176635742 0.18828284740447998
-0.038759708404541016 -0.05426359176635742 0.2387184202671051
-0.038759708404541016 -0.038759708404541016 -0.18317756056785583
-0.038759708404541016 -0.038759708404541016 -0.1298598349094391
-0.038759708404541016 -0.038759708404541016 -0.09139181673526764
-0.038759708404541016 -0.038759708404541016 -0.07781273126602173
-0.038759708404541016 -0.038759708404541016 0.18701745569705963
-0.038759708404541016 -0.038759708404541016 0.23934030532836914
-0.038759708404541016 -0.02325582504272461 -0.1832396537065506
-0.038759708404541016 -0.02325582504272461 -0.1302424520254135
-0.038759708404541016 -0.02325582504272461 0.1864379644393921
-0.038759708404541016 -0.02325582504272461 0.24004574120044708
-0.038759708404541016 -0.007751941680908203 -0.18336069583892822
-0.038759708404541016 -0.007751941680908203 -0.12985068559646606
-0.038759708404541016 -0.007751941680908203 0.021375466138124466
-0.038759708404541016 -0.007751941680908203 0.02638702467083931
-0.038759708404541016 -0.007751941680908203 0.18609043955802917
-0.038759708404541016 -0.007751941680908203 0.24038805067539215
-0.038759708404541016 0.007751941680908203 -0.18348079919815063
-0.038759708404541016 0.007751941680908203 -0.1282341480255127
-0.038759708404541016 0.007751941680908203 -0.091066375374794
-0.038759708404541016 0.007751941680908203 -0.07639382779598236
-0.038759708404541016 0.007751941680908203 0.018856417387723923
-0.038759708404541016 0.007751941680908203 0.032108552753925323
-0.038759708404541016 0.007751941680908203 0.1858687698841095
-0.038759708404541016 0.007751941680908203 0.2403857558965683
-0.038759708404541016 0.02325582504272461 -0.183612659573555
-0.038759708404541016 0.02325582504272461 -0.12484605610370636
-0.038759708404541016 0.02325582504272461 -0.10332793742418289
-0.038759708404541016 0.02325582504272461 -0.05527617037296295
-0.038759708404541016 0.02325582504272461 -0.04330075904726982
-0.038759708404541016 0.02325582504272461 -0.037961144000291824
-0.038759708404541016 0.02325582504272461 0.015602817758917809
-0.038759708404541016 0.02325582504272461 0.04686401039361954
-0.038759708404541016 0.02325582504272461 0.18309280276298523
-0.038759708404541016 0.02325582504272461 0.23981109261512756
-0.038759708404541016 0.038759708404541016 -0.18338948488235474
-0.038759708404541016 0.038759708404541016 -0.12111714482307434
-0.038759708404541016 0.038759708404541016 -0.10926322638988495
-0.038759708404541016 0.038759708404541016 -0.020825430750846863
-0.038759708404541016 0.038759708404541016 0.01426912285387516
-0.038759708404541016 0.038759708404541016 0.0828382670879364
-0.038759708404541016 0.038759708404541016 0.08967471122741699
-0.038759708404541016 0.038759708404541016 0.13519392907619476
-0.038759708404541016 0.038759708404541016 0.18010170757770538
-0.038759708404541016 0.038759708404541016 0.2386905699968338
-0.038759708404541016 0.05426359176635742 -0.18324065208435059
-0.038759708404541016 0.05426359176635742 -0.11836400628089905
-0.038759708404541016 0.05426359176635742 -0.1133628562092781
-0.038759708404541016 0.05426359176635742 -0.016615334898233414
-0.038759708404541016 0.05426359176635742 0.014399860985577106
-0.038759708404541016 0.05426359176635742 0.1492816060781479
-0.038759708404541016 0.05426359176635742 0.17222175002098083
-0.038759708404541016 0.05426359176635742 0.237942636013031
-0.038759708404541016 0.06976747512817383 -0.18291711807250977
-0.038759708404541016 0.06976747512817383 -0.11802518367767334
-0.038759708404541016 0.06976747512817383 -0.11391275376081467
-0.038759708404541016 0.06976747512817383 -0.01663978025317192
-0.038759708404541016 0.06976747512817383 0.016707485541701317
-0.038759708404541016 0.06976747512817383 0.14834396541118622
-0.038759708404541016 0.06976747512817383 0.17105206847190857
-0.038759708404541016 0.06976747512817383 0.23745472729206085
-0.038759708404541016 0.08527135848999023 -0.18257009983062744
-0.038759708404541016 0.08527135848999023 -0.11952131986618042
-0.038759708404541016 0.08527135848999023 -0.11226767301559448
-0.038759708404541016 0.08527135848999023 -0.017943810671567917
-0.038759708404541016 0.08527135848999023 0.019624797627329826
-0.038759708404541016 0.08527135848999023 0.05358691141009331
-0.038759712129831314 0.08527135848999023 0.055719129741191864
-0.038759708404541016 0.08527135848999023 0.08329156041145325
-0.038759708404541016 0.08527135848999023 0.08969108015298843
-0.038759708404541016 0.08527135848999023 0.13832837343215942
-0.038759708404541016 0.08527135848999023 0.1750507950782776
-0.038759708404541016 0.08527135848999023 0.23703457415103912
-0.038759708404541016 0.10077524185180664 -0.18229161202907562
-0.038759708404541016 0.10077524185180664 -0.12480998784303665
-0.038759708404541016 0.10077524185180664 -0.1070537120103836
-0.038759708404541016 0.10077524185180664 -0.024939555674791336
-0.038759708404541016 0.10077524185180664 0.023250965401530266
-0.038759708404541016 0.10077524185180664 0.023769380524754524
-0.038759708404541016 0.10077524185180664 0.1805877685546875
-0.038759708404541016 0.10077524185180664 0.23671549558639526
-0.038759708404541016 0.11627912521362305 -0.18207569420337677
-0.038759708404541016 0.11627912521362305 -0.13179157674312592
-0.038759708404541016 0.11627912521362305 -0.10129441320896149
-0.038759708404541016 0.11627912521362305 -0.041999153792858124
-0.038759708404541016 0.11627912521362305 0.022578692063689232
-0.038759708404541016 0.11627912521362305 0.02617398276925087
-0.038759708404541016 0.11627912521362305 0.1841302216053009
-0.038759708404541016 0.11627912521362305 0.23613768815994263
-0.038759708404541016 0.1317828893661499 -0.18200138211250305
-0.038759708404541016 0.1317828893661499 -0.13454699516296387
-0.038759708404541016 0.1317828893661499 -0.09660032391548157
-0.038759708404541016 0.1317828893661499 -0.05409487709403038
-0.038759708404541016 0.1317828893661499 0.01708659529685974
-0.038759708404541016 0.1317828893661499 0.03605709969997406
-0.038759708404541016 0.1317828893661499 0.06767173856496811
-0.038759708404541016 0.1317828893661499 0.07919374853372574
-0.038759708404541016 0.1317828893661499 0.18709760904312134
-0.038759708404541016 0.1317828893661499 0.23485639691352844
-0.038759708404541016 0.1472867727279663 -0.18192483484745026
-0.038759708404541016 0.1472867727279663 -0.13579405844211578
-0.038759708404541016 0.1472867727279663 -0.10051239281892776
-0.038759708404541016 0.1472867727279663 -0.037438761442899704
-0.038759708404541016 0.1472867727279663 0.008355902507901192
-0.038759708404541016 0.1472867727279663 0.16901956498622894
-0.038759708404541016 0.1472867727279663 0.18138012290000916
-0.038759708404541016 0.1472867727279663 0.23340550065040588
-0.038759708404541016 0.16279065608978271 -0.18189609050750732
-0.038759708404541016 0.16279065608978271 0.23346391320228577
-0.038759708404541016 0.17829453945159912 -0.18234668672084808
-0.038759708404541016 0.17829453945159912 0.23264631628990173
-0.038759708404541016 0.19379842281341553 -0.17913559079170227
-0.038759708404541016 0.19379842281341553 -0.16144701838493347
-0.038759708404541016 0.19379842281341553 -0.1294420212507248
-0.038759708404541016 0.19379842281341553 -0.09587021172046661
-0.038759708404541016 0.19379842281341553 -0.03670990467071533
-0.038759708404541016 0.19379842281341553 0.06027526780962944
-0.038759708404541016 0.19379842281341553 0.09538059681653976
-0.038759708404541016 0.19379842281341553 0.14597783982753754
-0.038759708404541016 0.19379842281341553 0.2007746398448944
-0.038759708404541016 0.19379842281341553 0.2147006094455719
-0.02325582504272461 -0.19379842281341553 -0.18273523449897766
-0.02325582504272461 -0.19379842281341553 0.22591036558151245
-0.02325582504272461 -0.1782945990562439 -0.1814829260110855
-0.02325582504272461 -0.1782945990562439 0.23211294412612915
-0.02325582504272461 -0.1627907156944275 -0.18083389103412628
-0.02325582504272461 -0.1627907156944275 -0.135687917470932
-0.02325582504272461 -0.1627907156944275 -0.10212898254394531
-0.02325582504272461 -0.1627907156944275 -0.031255967915058136
-0.02325582504272461 -0.1627907156944275 0.0023972971830517054
-0.02325582504272461 -0.1627907156944275 0.2329345941543579
-0.02325582504272461 -0.14728683233261108 -0.18090897798538208
-0.02325582504272461 -0.14728683233261108 -0.14069482684135437
-0.02325582504272461 -0.14728683233261108 -0.0922914445400238
-0.02325582504272461 -0.14728683233261108 -0.059839218854904175
-0.02325582504272461 -0.14728683233261108 0.016609033569693565
-0.02325582504272461 -0.14728683233261108 0.03696567937731743
-0.02325582504272461 -0.14728683233261108 0.0655476376414299
-0.02325582504272461 -0.14728683233261108 0.16342982649803162
-0.02325582504272461 -0.14728684723377228 0.19465424120426178
-0.02325582504272461 -0.14728683233261108 0.23364898562431335
-0.02325582504272461 -0.13178294897079468 -0.18139266967773438
-0.02325582504272461 -0.13178294897079468 -0.13956919312477112
-0.02325582504272461 -0.13178294897079468 -0.09108678251504898
-0.02325582504272461 -0.13178294897079468 -0.0680268257856369
-0.02325582504272461 -0.13178294897079468 0.06967774033546448
-0.02325582504272461 -0.13178294897079468 0.13093307614326477
-0.02325582504272461 -0.13178294897079468 0.19541986286640167
-0.02325582504272461 -0.13178294897079468 0.23463323712348938
-0.02325582504272461 -0.11627906560897827 -0.1821180284023285
-0.02325582504272461 -0.11627906560897827 -0.13615432381629944
-0.02325582504272461 -0.11627906560897827 -0.09362061321735382
-0.02325582504272461 -0.11627906560897827 -0.06749170273542404
-0.02325582504272461 -0.11627906560897827 0.09038466960191727
-0.02325582318007946 -0.11627905815839767 0.11758702993392944
-0.02325582504272461 -0.11627905815839767 0.1944434642791748
-0.02325582504272461 -0.11627906560897827 0.23555627465248108
-0.02325582504272461 -0.10077518224716187 -0.1825195550918579
-0.02325582504272461 -0.10077518224716187 -0.13241694867610931
-0.02325582504272461 -0.10077518224716187 -0.09854784607887268
-0.02325582504272461 -0.10077518224716187 -0.06445901095867157
-0.02325582504272461 -0.10077518224716187 0.19174015522003174
-0.02325582504272461 -0.10077518224716187 0.23637300729751587
-0.02325582504272461 -0.08527129888534546 -0.18276765942573547
-0.02325582504272461 -0.08527129888534546 -0.12844842672348022
-0.02325582504272461 -0.08527129888534546 -0.10196907818317413
-0.02325582504272461 -0.08527129888534546 -0.0624128021299839
-0.02325582504272461 -0.08527129888534546 0.1893955022096634
-0.02325582504272461 -0.08527129888534546 0.237287238240242
-0.02325582504272461 -0.06976741552352905 -0.18295368552207947
-0.02325582504272461 -0.06976741552352905 -0.1264077126979828
-0.02325582504272461 -0.06976741552352905 -0.10312016308307648
-0.02325582504272461 -0.06976741552352905 -0.06250910460948944
-0.02325582504272461 -0.06976741552352905 0.18851903080940247
-0.02325582504272461 -0.06976741552352905 0.23802337050437927
-0.02325582504272461 -0.05426359176635742 -0.1830027848482132
-0.02325582504272461 -0.05426359176635742 -0.12589013576507568
-0.02325582504272461 -0.05426359176635742 -0.10269592702388763
-0.02325582504272461 -0.05426359176635742 -0.06608858704566956
-0.02325582504272461 -0.05426359176635742 0.18756645917892456
-0.02325582504272461 -0.05426359176635742 0.23862266540527344
-0.02325582504272461 -0.038759708404541016 -0.18307971954345703
-0.02325582504272461 -0.038759708404541016 -0.12676426768302917
-0.02325582504272461 -0.038759708404541016 -0.0985754206776619
-0.02325582504272461 -0.038759708404541016 -0.07444623112678528
-0.02325582504272461 -0.038759708404541016 0.18655359745025635
-0.02325582504272461 -0.038759708404541016 0.23924677073955536
-0.02325582504272461 -0.02325582504272461 -0.1831130087375641
-0.02325582504272461 -0.02325582504272461 -0.12777230143547058
-0.02325582504272461 -0.02325582504272461 -0.08933092653751373
-0.02325582504272461 -0.02325582504272461 -0.08191259950399399
-0.02325582504272461 -0.02325582504272461 0.1862848997116089
-0.02325582504272461 -0.02325582504272461 0.23998858034610748
-0.02325582504272461 -0.007751941680908203 -0.1832224428653717
-0.02325582504272461 -0.007751941680908203 -0.12772999703884125
-0.02325582504272461 -0.007751941680908203 -0.0882512778043747
-0.02325582504272461 -0.007751941680908203 -0.08255286514759064
-0.02325582504272461 -0.007751941680908203 0.020323844626545906
-0.02325582504272461 -0.007751941680908203 0.039285119622945786
-0.02325582504272461 -0.007751941680908203 0.18605056405067444
-0.02325582504272461 -0.00775194214656949 0.24037964642047882
-0.02325582504272461 0.007751941680908203 -0.18335270881652832
-0.02325582504272461 0.007751941680908203 -0.12616591155529022
-0.02325582504272461 0.007751941680908203 -0.0963754802942276
-0.02325582504272461 0.007751941680908203 -0.07391142100095749
-0.02325582504272461 0.007751941680908203 0.018314121291041374
-0.02325582504272461 0.007751941680908203 0.044176135212183
-0.02325582504272461 0.007751941680908203 0.1854662001132965
-0.02325582504272461 0.007751941680908203 0.24037322402000427
-0.02325582504272461 0.02325582504272461 -0.18351887166500092
-0.02325582504272461 0.02325582504272461 -0.12242817133665085
-0.02325582504272461 0.02325582504272461 -0.10640956461429596
-0.02325582504272461 0.02325582504272461 -0.054549723863601685
-0.02325582504272461 0.02325582504272461 -0.04914437234401703
-0.02325582504272461 0.02325582504272461 -0.0374450609087944
-0.02325582504272461 0.02325582504272461 0.015106558799743652
-0.02325582504272461 0.02325582504272461 0.05183421075344086
-0.02325582504272461 0.02325582504272461 0.18143659830093384
-0.02325582504272461 0.02325582504272461 0.2397574782371521
-0.02325582504272461 0.038759708404541016 -0.18331286311149597
-0.02325582504272461 0.038759708404541016 -0.118621326982975
-0.02325582504272461 0.038759708404541016 -0.11265451461076736
-0.02325582318007946 0.038759708404541016 -0.020950589329004288
-0.02325582504272461 0.038759708404541016 0.014127965085208416
-0.02325582504272461 0.038759708404541016 0.12861980497837067
-0.02325582504272461 0.038759708404541016 0.17497876286506653
-0.02325582504272461 0.038759708404541016 0.23865340650081635
-0.02325582504272461 0.05426359176635742 -0.18318769335746765
-0.02325582504272461 0.05426359549164772 -0.016785314306616783
-0.02325582504272461 0.05426359176635742 0.013997690752148628
-0.02325582504272461 0.05426359176635742 0.1609295755624771
-0.02325582504272461 0.05426359176635742 0.16304251551628113
-0.02325582504272461 0.05426359176635742 0.23791858553886414
-0.02325582504272461 0.06976747512817383 -0.18288788199424744
-0.02325582504272461 0.06976747512817383 -0.01616191677749157
-0.02325582504272461 0.06976747512817383 0.015420541167259216
-0.02325582504272461 0.06976747512817383 0.2374384105205536
-0.02325582504272461 0.08527135848999023 -0.18257275223731995
-0.02325582504272461 0.08527135848999023 -0.016179237514734268
-0.02325582504272461 0.08527135848999023 0.01699606515467167
-0.02325582504272461 0.08527135848999023 0.14233972132205963
-0.02325582318007946 0.08527135848999023 0.1664188802242279
-0.02325582504272461 0.08527135848999023 0.2370263934135437
-0.02325582504272461 0.10077524185180664 -0.18231405317783356
-0.02325582504272461 0.10077524185180664 -0.12017215043306351
-0.02325582504272461 0.10077524185180664 -0.11201925575733185
-0.02325582504272461 0.10077524185180664 -0.02142517641186714
-0.02325582504272461 0.10077524185180664 0.019956771284341812
-0.02325582504272461 0.10077524185180664 0.04998252913355827
-0.02325582690536976 0.10077524930238724 0.17843444645404816
-0.02325582504272461 0.10077524185180664 0.23670119047164917
-0.02325582504272461 0.11627912521362305 -0.18210315704345703
