0.5503876209259033 0.08527135848999023 0.24262472987174988
0.5503876209259033 0.10077524185180664 -0.1807079315185547
0.5503876209259033 0.10077524185180664 -0.17216043174266815
0.5503876209259033 0.10077524185180664 0.2192060947418213
0.5503876209259033 0.10077524185180664 0.24256651103496552
0.5503876209259033 0.11627912521362305 -0.1813710480928421
0.5503876209259033 0.11627912521362305 -0.16961655020713806
0.5503876209259033 0.11627912521362305 0.22005780041217804
0.5503876209259033 0.11627912521362305 0.24247746169567108
0.5503876209259033 0.1317828893661499 -0.19499991834163666
0.5503876209259033 0.1317828893661499 -0.16067183017730713
0.5503876209259033 0.1317828893661499 0.22126233577728271
0.5503876209259033 0.1317828893661499 0.24215705692768097
0.5503876209259033 0.1472867727279663 -0.23130035400390625
0.5503876209259033 0.1472867727279663 -0.13941892981529236
0.5503876209259033 0.1472867727279663 0.22206373512744904
0.5503876209259033 0.1472867727279663 0.24163003265857697
0.5503876209259033 0.16279065608978271 -0.24327093362808228
0.5503876209259033 0.16279065608978271 -0.11735296994447708
0.5503876209259033 0.16279065608978271 0.21969377994537354
0.5503876209259033 0.16279065608978271 0.24124553799629211
0.5503876209259033 0.17829453945159912 -0.24417170882225037
0.5503876209259033 0.17829453945159912 0.24165190756320953
0.5503876209259033 0.19379842281341553 -0.24055464565753937
0.5503876209259033 0.19379842281341553 0.22916367650032043
0.5658915042877197 -0.19379842281341553 -0.24035263061523438
0.5658915042877197 -0.19379842281341553 0.2345455139875412
0.5658915042877197 -0.1782945990562439 -0.24088259041309357
0.5658915042877197 -0.1782945990562439 0.2411569207906723
0.5658915042877197 -0.1627907156944275 -0.23695909976959229
0.5658915042877197 -0.16279073059558868 -0.13097885251045227
0.5658915042877197 -0.1627907156944275 0.22224590182304382
0.5658915638923645 -0.16279073059558868 0.2408151477575302
0.5658915042877197 -0.14728683233261108 -0.20597240328788757
0.5658915042877197 -0.14728683233261108 -0.16263310611248016
0.5658915042877197 -0.14728683233261108 0.2220023274421692
0.5658915638923645 -0.14728683233261108 0.2413979023694992
0.5658915042877197 -0.13178294897079468 -0.19482457637786865
0.5658915042877197 -0.13178294897079468 -0.16754618287086487
0.5658915042877197 -0.13178294897079468 0.22119568288326263
0.5658915042877197 -0.13178294897079468 0.24185435473918915
0.5658915042877197 -0.11627906560897827 -0.18358641862869263
0.5658915042877197 -0.11627906560897827 -0.16988316178321838
0.5658915042877197 -0.11627906560897827 0.22055593132972717
0.5658915042877197 -0.11627906560897827 0.24219994246959686
0.5658915042877197 -0.10077518224716187 -0.1820671111345291
0.5658915042877197 -0.10077518224716187 -0.17009198665618896
0.5658915042877197 -0.10077518224716187 0.2200300097465515
0.5658915042877197 -0.10077518224716187 0.2425168752670288
0.5658915042877197 -0.08527129888534546 -0.18309548497200012
0.5658915042877197 -0.08527129888534546 -0.16720138490200043
0.5658915042877197 -0.08527129888534546 0.2197888195514679
0.5658915042877197 -0.08527129888534546 0.2428789883852005
0.5658915042877197 -0.06976741552352905 -0.18520328402519226
0.5658915042877197 -0.06976741552352905 -0.16237765550613403
0.5658915042877197 -0.06976741552352905 0.2197587788105011
0.5658915042877197 -0.06976741552352905 0.24315449595451355
0.5658915042877197 -0.05426359176635742 -0.18864984810352325
0.5658915042877197 -0.05426359176635742 -0.16038838028907776
0.5658915042877197 -0.05426359176635742 0.21987760066986084
0.5658915042877197 -0.05426359176635742 0.24337288737297058
0.5658915042877197 -0.038759708404541016 -0.1943339705467224
0.5658915042877197 -0.038759708404541016 -0.1595938801765442
0.5658915042877197 -0.038759708404541016 0.22009944915771484
0.5658915042877197 -0.038759708404541016 0.24351251125335693
0.5658915042877197 -0.02325582504272461 -0.1956821084022522
0.5658915042877197 -0.02325582504272461 -0.15998594462871552
0.5658915042877197 -0.02325582504272461 0.22022481262683868
0.5658915042877197 -0.02325582690536976 0.24355533719062805
0.5658915042877197 -0.007751941680908203 -0.1965385377407074
0.5658915042877197 -0.007751941680908203 -0.1602710336446762
0.5658915042877197 -0.007751941680908203 0.220162495970726
0.5658915042877197 -0.007751941680908203 0.24355155229568481
0.5658915042877197 0.007751941680908203 -0.1963188648223877
0.5658915042877197 0.007751941680908203 -0.16104084253311157
0.5658915042877197 0.007751941680908203 0.2199961245059967
0.5658915042877197 0.007751941680908203 0.24350059032440186
0.5658915042877197 0.02325582504272461 -0.1953953504562378
0.5658915042877197 0.02325582504272461 -0.16209086775779724
0.5658915042877197 0.02325582504272461 0.21981823444366455
0.5658915042877197 0.02325582504272461 0.24333584308624268
0.5658915042877197 0.038759708404541016 -0.19381225109100342
0.5658915042877197 0.038759708404541016 -0.16456881165504456
0.5658915042877197 0.038759708404541016 0.21984446048736572
0.5658915042877197 0.038759708404541016 0.24311333894729614
0.5658915042877197 0.05426359176635742 -0.18583962321281433
0.5658915042877197 0.05426359176635742 -0.16816303133964539
0.5658915042877197 0.05426359176635742 0.21990647912025452
0.5658915042877197 0.05426359176635742 0.24292859435081482
0.5658915042877197 0.06976747512817383 -0.18205958604812622
0.5658915042877197 0.06976747512817383 -0.17200803756713867
0.5658915042877197 0.06976747512817383 0.21977776288986206
0.5658915042877197 0.06976747512817383 0.24279437959194183
0.5658915042877197 0.08527135848999023 -0.18039903044700623
0.5658915042877197 0.08527135848999023 -0.17369002103805542
0.5658915042877197 0.08527135848999023 0.21971316635608673
0.5658915042877197 0.08527136594057083 0.24271200597286224
0.5658915042877197 0.10077524185180664 -0.18116384744644165
0.5658915042877197 0.10077524185180664 -0.17053130269050598
0.5658915042877197 0.10077524185180664 0.22002923488616943
0.5658915042877197 0.10077523440122604 0.24265968799591064
0.5658915042877197 0.11627912521362305 -0.18225544691085815
0.5658915042877197 0.11627912521362305 -0.167649507522583
0.5658915042877197 0.11627912521362305 0.2206534445285797
0.5658915042877197 0.11627912521362305 0.24257488548755646
0.5658915042877197 0.1317828893661499 -0.1941700428724289
0.5658915042877197 0.1317828893661499 -0.15958693623542786
0.5658915042877197 0.1317828893661499 0.22164402902126312
0.5658915042877197 0.1317828893661499 0.2422601580619812
0.5658915042877197 0.1472867727279663 -0.21766220033168793
0.5658915042877197 0.1472867727279663 -0.1387110948562622
0.5658915042877197 0.1472867727279663 0.22242826223373413
0.5658915042877197 0.14728675782680511 0.24170824885368347
0.5658915042877197 0.16279065608978271 -0.23869383335113525
0.5658915042877197 0.16279065608978271 -0.11838404834270477
0.5658915042877197 0.16279065608978271 0.22046950459480286
0.5658915042877197 0.16279065608978271 0.2412758618593216
0.5658915042877197 0.17829453945159912 -0.240948885679245
0.5658915042877197 0.17829453945159912 0.24165406823158264
0.5658915042877197 0.19379842281341553 -0.23224258422851562
0.5658915042877197 0.19379842281341553 0.2289462387561798
0.5813953876495361 -0.19379842281341553 -0.23079395294189453
0.5813953876495361 -0.19379842281341553 0.2348509132862091
0.5813953876495361 -0.1782945990562439 -0.2338431179523468
0.5813953876495361 -0.1782945990562439 0.2411622554063797
0.5813953876495361 -0.1627907156944275 -0.22829189896583557
0.5813953876495361 -0.1627907156944275 -0.13213717937469482
0.5813953876495361 -0.1627907156944275 0.22207948565483093
0.5813953876495361 -0.1627907156944275 0.24081605672836304
0.5813953876495361 -0.14728683233261108 -0.2024257481098175
0.5813953876495361 -0.14728683233261108 -0.16198675334453583
0.5813953876495361 -0.14728683233261108 0.2218833565711975
0.5813953876495361 -0.14728683233261108 0.24142014980316162
0.5813953876495361 -0.13178294897079468 -0.1946505606174469
0.5813953876495361 -0.13178294897079468 -0.16529417037963867
0.5813953876495361 -0.13178294897079468 0.22111563384532928
0.5813953876495361 -0.13178294897079468 0.24188946187496185
0.5813953876495361 -0.11627906560897827 -0.18558508157730103
0.5813953876495361 -0.11627906560897827 -0.1646157056093216
0.5813953876495361 -0.11627906560897827 0.22060474753379822
0.5813953280448914 -0.11627905815839767 0.2422311007976532
0.5813953876495361 -0.10077518224716187 -0.1840936839580536
0.5813953876495361 -0.10077518224716187 -0.16312149167060852
0.5813953876495361 -0.10077518224716187 0.22023877501487732
0.5813953876495361 -0.10077518224716187 0.24254076182842255
0.5813953876495361 -0.08527129888534546 -0.18455246090888977
0.5813953876495361 -0.08527129888534546 -0.16163234412670135
0.5813953876495361 -0.08527129888534546 0.22012858092784882
0.5813953876495361 -0.08527129888534546 0.2428925484418869
0.5813953876495361 -0.06976741552352905 -0.1863340586423874
0.5813953876495361 -0.06976741552352905 -0.15991844236850739
0.5813953876495361 -0.06976741552352905 0.22016319632530212
0.5813953876495361 -0.06976741552352905 0.24315667152404785
0.5813953876495361 -0.05426359176635742 -0.18961794674396515
0.5813953876495361 -0.05426358804106712 -0.15833745896816254
0.5813953876495361 -0.05426359176635742 0.2202904224395752
0.5813953876495361 -0.05426359549164772 0.24336141347885132
0.5813953876495361 -0.038759708404541016 -0.19433189928531647
0.5813953876495361 -0.038759708404541016 -0.15762029588222504
0.5813953876495361 -0.038759708404541016 0.22047720849514008
0.5813953876495361 -0.038759708404541016 0.24349038302898407
0.5813953876495361 -0.02325582504272461 -0.19544260203838348
0.5813953876495361 -0.02325582504272461 -0.15773457288742065
0.5813953876495361 -0.02325582504272461 0.22058607637882233
0.5813953876495361 -0.02325582504272461 0.24351873993873596
0.5813953876495361 -0.007751941680908203 -0.19613324105739594
0.5813953876495361 -0.007751941680908203 -0.15785107016563416
0.5813953876495361 -0.007751941680908203 0.22050485014915466
0.5813953876495361 -0.007751941680908203 0.2435145378112793
0.5813953876495361 0.007751941680908203 -0.1959453970193863
0.5813953876495361 0.007751941680908203 -0.15857988595962524
0.5813953876495361 0.007751941680908203 0.2203378528356552
0.5813953876495361 0.007751941680908203 0.24346771836280823
0.5813953876495361 0.02325582504272461 -0.19517315924167633
0.5813953876495361 0.02325582504272461 -0.15963114798069
0.5813953876495361 0.02325582504272461 0.22016683220863342
0.5813953876495361 0.02325582504272461 0.24331346154212952
0.5813953876495361 0.038759708404541016 -0.1937372386455536
0.5813953876495361 0.038759708404541016 -0.16095229983329773
0.5813953876495361 0.038759708404541016 0.22019338607788086
0.5813953876495361 0.038759708404541016 0.24310676753520966
0.5813953876495361 0.05426359176635742 -0.18634021282196045
0.5813953280448914 0.05426358804106712 -0.16245178878307343
0.5813953876495361 0.05426359176635742 0.22025862336158752
0.5813953876495361 0.05426359176635742 0.24293148517608643
0.5813953876495361 0.06976747512817383 -0.1829889863729477
0.5813953876495361 0.06976747512817383 -0.16770491003990173
0.5813953876495361 0.06976747512817383 0.22015029191970825
0.5813953876495361 0.06976747512817383 0.2428082972764969
0.5813953876495361 0.08527135848999023 -0.18155798316001892
0.5813953876495361 0.08527135848999023 -0.16907307505607605
0.5813953876495361 0.08527135848999023 0.2200724482536316
0.5813953876495361 0.08527135848999023 0.24273498356342316
0.5813953876495361 0.10077524185180664 -0.1824285238981247
0.5813953876495361 0.10077524185180664 -0.1631172001361847
0.5813953876495361 0.10077524185180664 0.22030645608901978
0.5813953876495361 0.10077524185180664 0.2426924705505371
0.5813953876495361 0.11627912521362305 -0.1842910796403885
0.5813953876495361 0.11627912521362305 -0.1615806668996811
0.5813953876495361 0.11627912521362305 0.22078855335712433
0.5813953876495361 0.11627912521362305 0.2426174283027649
0.5813953876495361 0.1317828893661499 -0.19412042200565338
0.5813953876495361 0.1317828893661499 -0.15675175189971924
0.5813953876495361 0.1317828893661499 0.22162652015686035
0.5813953876495361 0.1317828893661499 0.24233266711235046
0.5813953876495361 0.1472867727279663 -0.20540237426757812
0.5813953876495361 0.1472867727279663 -0.13804268836975098
0.5813953876495361 0.1472867727279663 0.22228890657424927
0.5813953876495361 0.1472867727279663 0.2417946308851242
0.5813953876495361 0.16279065608978271 -0.22917060554027557
0.5813953876495361 0.16279065608978271 -0.11831563711166382
0.5813953876495361 0.16279065608978271 -0.056735482066869736
0.5813953876495361 0.16279065608978271 -0.05055348202586174
0.5813953876495361 0.16279065608978271 0.2201276570558548
0.5813953876495361 0.16279065608978271 0.24133312702178955
0.5813953876495361 0.17829453945159912 -0.23265807330608368
0.5813953876495361 0.17829453945159912 0.2416786551475525
0.5813953876495361 0.19379842281341553 -0.22172114253044128
0.5813953876495361 0.19379840791225433 0.22921839356422424
0.5968992710113525 -0.19379842281341553 -0.21478600800037384
0.5968992710113525 -0.19379842281341553 0.23500698804855347
0.5968992710113525 -0.1782945990562439 -0.21438464522361755
0.5968992710113525 -0.1782945841550827 0.24111530184745789
0.5968992710113525 -0.1627907156944275 -0.2040426880121231
0.5968992710113525 -0.1627907156944275 -0.14203523099422455
0.5968992710113525 -0.1627907156944275 0.22190526127815247
0.5968992710113525 -0.1627907156944275 0.24081523716449738
0.5968992710113525 -0.14728683233261108 -0.19773435592651367
0.5968992710113525 -0.14728683233261108 -0.16437427699565887
0.5968992710113525 -0.14728683233261108 0.22150683403015137
0.5968993306159973 -0.14728683233261108 0.24147361516952515
0.5968992710113525 -0.13178294897079468 -0.1942993700504303
0.5968992114067078 -0.13178294897079468 -0.16239392757415771
0.5968992710113525 -0.13178294897079468 0.22069595754146576
0.5968992710113525 -0.13178294897079468 0.2419443577528
0.5968992710113525 -0.11627906560897827 -0.1890394687652588
0.5968992710113525 -0.11627906560897827 -0.16047042608261108
0.5968992710113525 -0.11627906560897827 0.22017526626586914
0.5968992710113525 -0.11627906560897827 0.24227339029312134
0.5968992710113525 -0.10077518224716187 -0.18654587864875793
0.5968992710113525 -0.10077518224716187 -0.1599215865135193
0.5968992710113525 -0.10077518224716187 0.21982339024543762
0.5968992710113525 -0.10077518224716187 0.24256975948810577
0.5968992710113525 -0.08527129888534546 -0.18654105067253113
0.5968992710113525 -0.08527129888534546 -0.15910427272319794
0.5968992710113525 -0.08527129888534546 0.21973007917404175
0.5968992710113525 -0.08527129888534546 0.2429099678993225
0.5968992710113525 -0.06976741552352905 -0.18816223740577698
0.5968992710113525 -0.06976741552352905 -0.15790173411369324
0.5968992710113525 -0.06976741552352905 0.21977365016937256
0.5968992710113525 -0.06976741552352905 0.2431611269712448
0.5968992710113525 -0.05426359176635742 -0.19159545004367828
0.5968992710113525 -0.05426359176635742 -0.15672029554843903
0.5968992710113525 -0.05426359176635742 0.2199026197195053
0.5968992710113525 -0.05426359176635742 0.24335530400276184
0.5968992710113525 -0.038759708404541016 -0.1944204866886139
0.5968992710113525 -0.038759708404541016 -0.15619716048240662
0.5968992710113525 -0.038759708404541016 0.22010661661624908
0.5968992710113525 -0.038759708404541016 0.24347007274627686
0.5968992710113525 -0.02325582504272461 -0.19517220556735992
0.5968992710113525 -0.02325582504272461 -0.15627749264240265
0.5968992710113525 -0.02325582504272461 0.2201969027519226
0.5968992710113525 -0.02325582504272461 0.24350741505622864
0.5968992710113525 -0.007751941680908203 -0.19560402631759644
0.5968992710113525 -0.007751941680908203 -0.156327024102211
0.5968992710113525 -0.007751941680908203 0.2200864553451538
0.5968992710113525 -0.007751941680908203 0.24351052939891815
0.5968992710113525 0.007751941680908203 -0.1954643577337265
0.5968992710113525 0.007751941680908203 -0.15695317089557648
0.5968992710113525 0.007751941680908203 0.21989706158638
0.5968992710113525 0.007751941680908203 0.243458092212677
0.5968992710113525 0.02325582504272461 -0.1949298083782196
0.5968992710113525 0.02325582504272461 -0.157832071185112
0.5968992710113525 0.02325582504272461 0.2197229564189911
0.5968992710113525 0.02325582504272461 0.24330022931098938
0.5968992710113525 0.038759708404541016 -0.19390131533145905
0.5968992710113525 0.038759708404541016 -0.15899911522865295
0.5968992710113525 0.038759708404541016 0.21975040435791016
0.5968992710113525 0.038759708404541016 0.24308820068836212
0.5968992710113525 0.05426359176635742 -0.1877327710390091
0.5968992710113525 0.05426359176635742 -0.16004599630832672
0.5968992710113525 0.05426359176635742 0.21981361508369446
0.5968992710113525 0.05426359176635742 0.2429145872592926
0.5968992710113525 0.06976747512817383 -0.18443113565444946
0.5968992710113525 0.06976747512817383 -0.161386638879776
0.5968992710113525 0.06976747512817383 0.2197079360485077
0.5968993306159973 0.06976747512817383 0.2427952140569687
0.5968992710113525 0.08527135848999023 -0.1833118498325348
0.5968992710113525 0.08527135848999023 -0.16158756613731384
0.5968992710113525 0.08527135848999023 0.2196398675441742
0.5968992710113525 0.08527135848999023 0.24272915720939636
0.5968992710113525 0.10077524185180664 -0.18426871299743652
0.5968992710113525 0.10077524185180664 -0.159918412566185
0.5968992710113525 0.10077524185180664 0.21988773345947266
0.5968992710113525 0.10077524185180664 0.24270135164260864
0.5968992710113525 0.11627912521362305 -0.1871427297592163
0.5968992710113525 0.11627912521362305 -0.15842154622077942
0.5968992710113525 0.11627912521362305 0.22037409245967865
0.5968992710113525 0.11627912521362305 0.2426464855670929
0.5968992710113525 0.1317828893661499 -0.1944003850221634
0.5968992710113525 0.1317828893661499 -0.15548905730247498
0.5968992710113525 0.1317828893661499 0.22120532393455505
0.5968992710113525 0.1317828893661499 0.24238665401935577
0.5968992710113525 0.1472867727279663 -0.19996777176856995
0.5968992710113525 0.1472867727279663 -0.1407419592142105
0.5968992710113525 0.1472867727279663 0.2217983454465866
0.5968992710113525 0.1472867727279663 0.24185994267463684
0.5968992710113525 0.16279065608978271 -0.20810672640800476
0.5968992710113525 0.16279065608978271 -0.12005001306533813
0.5968992710113525 0.16279065608978271 -0.06020315736532211
0.5968992710113525 0.16279065608978271 -0.04568811506032944
0.5968992710113525 0.16279065608978271 0.03324698656797409
0.5968992710113525 0.16279065608978271 0.04355153068900108
0.5968992710113525 0.16279065608978271 0.21985282003879547
0.5968992710113525 0.16279065608978271 0.24136656522750854
0.5968992710113525 0.17829453945159912 -0.21455073356628418
0.5968992710113525 0.17829453945159912 0.24167335033416748
0.5968992710113525 0.19379842281341553 -0.20308580994606018
0.5968992710113525 0.19379842281341553 -0.10088669508695602
0.5968992114067078 0.19379842281341553 -0.10073871165513992
0.5968992710113525 0.19379842281341553 0.23037520051002502
0.612403154373169 -0.19379842281341553 -0.19703103601932526
0.612403154373169 -0.19379842281341553 0.2350766956806183
0.612403154373169 -0.1782945990562439 -0.1984017789363861
0.612403154373169 -0.1782945990562439 0.24107225239276886
0.612403154373169 -0.1627907156944275 -0.19560569524765015
0.612403154373169 -0.1627907156944275 -0.16582965850830078
0.612403154373169 -0.1627907156944275 0.22169293463230133
0.612403154373169 -0.1627907156944275 0.2407689094543457
0.612403154373169 -0.14728683233261108 -0.19440223276615143
0.612403154373169 -0.14728683233261108 -0.16494394838809967
0.612403154373169 -0.14728683233261108 0.221224844455719
0.612403154373169 -0.14728683233261108 0.241463303565979
0.612403154373169 -0.13178294897079468 -0.19321152567863464
0.612403154373169 -0.13178294897079468 -0.16071146726608276
0.612403154373169 -0.13178294897079468 0.22030770778656006
0.6124030947685242 -0.13178294897079468 0.24195122718811035
0.612403154373169 -0.11627906560897827 -0.18854175508022308
0.612403154373169 -0.11627906560897827 -0.1588871330022812
0.612403154373169 -0.11627906560897827 0.2197350412607193
0.612403154373169 -0.11627906560897827 0.24226267635822296
0.612403154373169 -0.10077518224716187 -0.18643994629383087
0.612403154373169 -0.10077518224716187 -0.15840157866477966
0.612403154373169 -0.10077518224716187 0.219388946890831
0.612403154373169 -0.10077518224716187 0.24254652857780457
0.612403154373169 -0.08527129888534546 -0.18617823719978333
0.612403154373169 -0.08527129888534546 -0.15781261026859283
0.612403154373169 -0.08527129888534546 0.21931469440460205
0.612403154373169 -0.08527129888534546 0.24288396537303925
0.612403154373169 -0.06976741552352905 -0.18738850951194763
0.612403154373169 -0.06976741552352905 -0.15693433582782745
0.612403154373169 -0.06976741552352905 0.219392791390419
0.612403154373169 -0.06976741552352905 0.24313411116600037
0.612403154373169 -0.05426359176635742 -0.1897481083869934
0.612403154373169 -0.05426359176635742 -0.15602467954158783
0.612403154373169 -0.05426359176635742 0.2195698320865631
0.612403154373169 -0.05426359176635742 0.24332909286022186
0.612403154373169 -0.038759708404541016 -0.19386203587055206
0.612403154373169 -0.038759708404541016 -0.1557219922542572
0.612403154373169 -0.038759708404541016 0.21980860829353333
0.612403154373169 -0.038759708404541016 0.2434503734111786
0.612403154373169 -0.02325582504272461 -0.19445966184139252
0.612403154373169 -0.02325582504272461 -0.15588301420211792
0.612403154373169 -0.02325582504272461 0.21991367638111115
0.612403154373169 -0.02325582504272461 0.24349744617938995
0.612403154373169 -0.007751941680908203 -0.19470936059951782
0.612403154373169 -0.007751941680908203 -0.155944362282753
0.612403154373169 -0.007751941680908203 0.21979624032974243
0.612403154373169 -0.007751941680908203 0.24350512027740479
0.612403154373169 0.007751941680908203 -0.19459621608257294
0.612403154373169 0.007751941680908203 -0.15645873546600342
0.612403154373169 0.007751941680908203 0.21956497430801392
0.612403154373169 0.007751941680908203 0.2434500753879547
0.612403154373169 0.02325582504272461 -0.19420990347862244
0.612403154373169 0.02325582504272461 -0.15716594457626343
0.612403154373169 0.02325582504272461 0.21936330199241638
0.612403154373169 0.02325582504272461 0.24328990280628204
0.612403154373169 0.038759708404541016 -0.19099977612495422
0.612403154373169 0.038759708404541016 -0.15815089643001556
0.612403154373169 0.038759708404541016 0.21939900517463684
0.6124032139778137 0.038759708404541016 0.24306392669677734
0.612403154373169 0.05426359176635742 -0.18677881360054016
0.612403154373169 0.05426359176635742 -0.1589013636112213
0.612403154373169 0.05426359176635742 0.2194795310497284
0.6124030947685242 0.05426358804106712 0.24287955462932587
0.612403154373169 0.06976747512817383 -0.18431365489959717
0.612403154373169 0.06976747512817383 -0.15977631509304047
0.612403154373169 0.06976747512817383 0.2193697690963745
0.612403154373169 0.06976747512817383 0.24275648593902588
0.612403154373169 0.08527135848999023 -0.1834980994462967
0.612403154373169 0.08527135848999023 -0.1598043590784073
0.612403154373169 0.08527135848999023 0.21928580105304718
0.612403154373169 0.08527135103940964 0.24269767105579376
0.612403154373169 0.10077524185180664 -0.184465229511261
0.612403154373169 0.10077524185180664 -0.15852724015712738
0.612403154373169 0.10077524185180664 0.21953076124191284
0.612403154373169 0.10077524185180664 0.24268709123134613
0.612403154373169 0.11627911776304245 -0.1871861219406128
0.612403154373169 0.11627912521362305 -0.15721440315246582
0.612403154373169 0.11627912521362305 0.22003543376922607
0.612403154373169 0.11627911776304245 0.2426561564207077
0.612403154373169 0.1317828893661499 -0.19409023225307465
0.612403154373169 0.1317828893661499 -0.1559978425502777
0.612403154373169 0.1317828893661499 0.22094112634658813
0.612403154373169 0.1317828893661499 0.2424127757549286
0.612403154373169 0.1472867727279663 -0.19603992998600006
0.612403154373169 0.1472867727279663 -0.14725853502750397
0.612403154373169 0.1472867727279663 0.22156143188476562
0.612403154373169 0.1472867727279663 0.24188612401485443
0.612403154373169 0.16279065608978271 -0.1982346922159195
0.612403154373169 0.16279065608978271 -0.1263505071401596
0.612403154373169 0.16279065608978271 -0.06046021729707718
0.612403154373169 0.16279065608978271 -0.045235682278871536
0.612403154373169 0.16279065608978271 0.21982142329216003
0.612403154373169 0.16279065608978271 0.24137605726718903
0.612403154373169 0.17829453945159912 -0.19954022765159607
0.612403154373169 0.17829453945159912 0.24168534576892853
0.612403154373169 0.19379842281341553 -0.19385360181331635
0.612403154373169 0.19379842281341553 -0.10640570521354675
0.612403154373169 0.19379840791225433 -0.0993213802576065
0.612403154373169 0.19379842281341553 0.23069386184215546
0.6279069185256958 -0.19379842281341553 -0.19415421783924103
0.6279069185256958 -0.19379842281341553 0.23525065183639526
0.6279069185256958 -0.1782945990562439 -0.1944100558757782
0.6279069185256958 -0.1782945990562439 0.24104595184326172
0.6279069185256958 -0.1627907156944275 -0.19260407984256744
0.6279069185256958 -0.1627907156944275 -0.16731604933738708
0.6279069185256958 -0.1627907156944275 0.221610888838768
0.6279069185256958 -0.1627907156944275 0.24074456095695496
0.6279069185256958 -0.14728683233261108 -0.1918044537305832
0.6279069185256958 -0.14728683233261108 -0.16342373192310333
0.6279069185256958 -0.14728683233261108 0.2211907058954239
0.6279069185256958 -0.14728683233261108 0.24144241213798523
0.6279069185256958 -0.13178294897079468 -0.18907831609249115
0.6279069185256958 -0.13178294897079468 -0.1596996933221817
0.6279069185256958 -0.13178294897079468 0.2202513962984085
0.627906858921051 -0.13178294897079468 0.24193605780601501
0.6279069185256958 -0.11627906560897827 -0.18658973276615143
0.6279069185256958 -0.11627906560897827 -0.15817011892795563
0.6279069185256958 -0.11627906560897827 0.21969473361968994
0.6279069185256958 -0.11627905815839767 0.24223613739013672
0.6279069185256958 -0.10077518224716187 -0.18498027324676514
0.6279069185256958 -0.10077518224716187 -0.15770190954208374
0.6279069185256958 -0.10077518224716187 0.21941718459129333
0.6279069185256958 -0.10077518224716187 0.2425123006105423
0.6279069185256958 -0.08527129888534546 -0.18466106057167053
0.6279069185256958 -0.08527129888534546 -0.15721580386161804
0.6279069185256958 -0.08527129888534546 0.21939200162887573
0.6279069185256958 -0.08527129143476486 0.24285003542900085
0.6279069185256958 -0.06976741552352905 -0.18555417656898499
0.6279069185256958 -0.06976741552352905 -0.15650257468223572
0.6279069185256958 -0.06976741552352905 0.21952086687088013
0.627906858921051 -0.06976741552352905 0.24309973418712616
0.6279069185256958 -0.05426359176635742 -0.18720413744449615
0.6279069185256958 -0.05426359176635742 -0.15579137206077576
0.6279069185256958 -0.05426359176635742 0.21974331140518188
0.6279069185256958 -0.05426359176635742 0.24329563975334167
0.6279069185256958 -0.038759708404541016 -0.18983645737171173
0.6279069185256958 -0.038759708404541016 -0.1556527316570282
0.6279069185256958 -0.038759708404541016 0.2199992537498474
0.6279069185256958 -0.038759708404541016 0.243418350815773
0.6279069781303406 -0.02325582690536976 -0.1927783489227295
0.6279069185256958 -0.02325582504272461 -0.15583761036396027
0.6279069185256958 -0.02325582504272461 0.22010168433189392
0.6279069185256958 -0.02325582318007946 0.24347247183322906
0.6279069185256958 -0.007751941680908203 -0.19385167956352234
0.6279069185256958 -0.007751941680908203 -0.15589605271816254
0.6279069185256958 -0.007751941680908203 0.21997317671775818
0.6279069185256958 -0.007751941680908203 0.243485227227211
0.6279069185256958 0.007751941215246916 -0.193363219499588
0.6279069185256958 0.007751941680908203 -0.15633054077625275
0.6279069185256958 0.007751941680908203 0.21971715986728668
0.6279069185256958 0.007751941680908203 0.2434307336807251
0.6279069185256958 0.02325582504272461 -0.19113542139530182
0.6279069185256958 0.02325582504272461 -0.15692654252052307
0.6279069185256958 0.02325582504272461 0.219488263130188
0.6279069185256958 0.02325582690536976 0.2432737648487091
0.6279069185256958 0.038759708404541016 -0.18758627772331238
0.6279069185256958 0.038759708404541016 -0.1577647179365158
0.6279069185256958 0.038759708404541016 0.2195172756910324
0.6279069185256958 0.038759708404541016 0.24303987622261047
0.6279069185256958 0.05426359176635742 -0.1850491762161255
0.6279069185256958 0.05426359176635742 -0.15831956267356873
0.6279069185256958 0.05426359176635742 0.21959847211837769
0.6279069185256958 0.05426359176635742 0.2428508698940277
0.6279069185256958 0.06976747512817383 -0.1832866370677948
0.6279069185256958 0.06976747512817383 -0.158898264169693
0.6279069185256958 0.06976747512817383 0.21949878334999084
0.6279069185256958 0.06976747512817383 0.24272596836090088
0.6279069185256958 0.08527135848999023 -0.1826811283826828
0.6279069185256958 0.08527135848999023 -0.1588369607925415
0.6279069185256958 0.08527135848999023 0.21940916776657104
0.6279069185256958 0.08527135848999023 0.24267469346523285
0.6279069185256958 0.10077524185180664 -0.1836044192314148
0.6279069185256958 0.10077524185180664 -0.1577785611152649
0.6279069185256958 0.10077524185180664 0.2196299433708191
0.6279069185256958 0.10077524185180664 0.24267572164535522
0.6279069185256958 0.11627912521362305 -0.1857922226190567
0.6279069185256958 0.11627912521362305 -0.1567361205816269
0.6279069185256958 0.11627912521362305 0.22009947896003723
0.6279069185256958 0.11627912521362305 0.24265877902507782
0.6279069185256958 0.1317828893661499 -0.19136911630630493
0.6279069185256958 0.1317828893661499 -0.15642139315605164
0.6279069185256958 0.1317828893661499 0.22098851203918457
0.6279069185256958 0.1317828893661499 0.24243348836898804
0.6279069185256958 0.1472867727279663 -0.1944631040096283
0.6279069185256958 0.1472867727279663 -0.15389308333396912
0.6279069185256958 0.1472867727279663 0.22160953283309937
0.6279069185256958 0.1472867727279663 0.2419152855873108
0.6279069185256958 0.16279065608978271 -0.1948860138654709
0.6279069185256958 0.16279065608978271 -0.1350608468055725
0.6279069185256958 0.16279065608978271 -0.06138298660516739
0.6279069185256958 0.16279065608978271 -0.04565054923295975
0.6279069185256958 0.16279065608978271 0.21998564898967743
0.6279069185256958 0.16279065608978271 0.24139349162578583
0.6279069185256958 0.17829453945159912 -0.19539572298526764
0.6279069781303406 0.17829453945159912 0.24169309437274933
0.6279069185256958 0.19379842281341553 -0.18727019429206848
0.6279069185256958 0.19379842281341553 -0.11306311190128326
0.6279069185256958 0.19379842281341553 -0.09871196001768112
0.6279069185256958 0.19379842281341553 0.2311195433139801
0.6434108018875122 -0.19379842281341553 -0.19404122233390808
0.6434108018875122 -0.19379842281341553 0.2352147251367569
0.6434108018875122 -0.1782945990562439 -0.19372020661830902
0.6434108018875122 -0.1782945990562439 0.24100704491138458
0.6434108018875122 -0.1627907156944275 -0.1898561269044876
0.6434108018875122 -0.1627907156944275 -0.16807681322097778
0.6434108018875122 -0.1627907156944275 0.22173969447612762
0.6434108018875122 -0.1627907156944275 0.2407112419605255
0.6434108018875122 -0.14728683233261108 -0.1887970268726349
0.6434108018875122 -0.14728683233261108 -0.16290698945522308
0.6434108018875122 -0.14728683233261108 0.22132152318954468
0.6434108018875122 -0.14728683233261108 0.24141187965869904
0.6434108018875122 -0.13178294897079468 -0.18696309626102448
0.643410861492157 -0.13178294897079468 -0.15979497134685516
0.6434108018875122 -0.13178294897079468 0.22044534981250763
0.643410861492157 -0.13178294897079468 0.2418765127658844
0.6434108018875122 -0.11627906560897827 -0.18521754443645477
0.6434108018875122 -0.11627906560897827 -0.15841929614543915
0.6434108018875122 -0.11627906560897827 0.21994446218013763
0.6434108018875122 -0.11627906560897827 0.24216583371162415
0.6434108018875122 -0.10077518224716187 -0.1839456856250763
0.6434108018875122 -0.10077518224716187 -0.1578754037618637
0.6434108018875122 -0.10077518224716187 0.21974268555641174
0.6434108018875122 -0.10077518224716187 0.24243628978729248
0.6434108018875122 -0.08527129888534546 -0.18362897634506226
0.6434108018875122 -0.08527129888534546 -0.15738752484321594
0.6434108018875122 -0.08527129888534546 0.21976599097251892
0.6434108018875122 -0.08527129888534546 0.24277114868164062
0.6434108018875122 -0.06976741552352905 -0.18435733020305634
0.6434108018875122 -0.06976741552352905 -0.15679831802845
0.6434108018875122 -0.06976741552352905 0.2199341058731079
0.6434108018875122 -0.06976741552352905 0.24301332235336304
0.6434108018875122 -0.05426359176635742 -0.18564416468143463
0.6434108018875122 -0.05426359176635742 -0.1562711000442505
0.6434108018875122 -0.05426359176635742 0.22017860412597656
0.6434108018875122 -0.05426359549164772 0.24320049583911896
0.6434108018875122 -0.038759708404541016 -0.18743690848350525
0.6434108018875122 -0.038759708404541016 -0.15620717406272888
0.6434108018875122 -0.038759708404541016 0.22044140100479126
0.6434108018875122 -0.038759708404541016 0.2433084398508072
0.6434108018875122 -0.02325582504272461 -0.18931129574775696
0.6434108018875122 -0.02325582504272461 -0.15631772577762604
0.6434108018875122 -0.02325582504272461 0.22050873935222626
0.6434107422828674 -0.02325582504272461 0.2433747500181198
0.6434108018875122 -0.007751941680908203 -0.19024507701396942
0.6434108018875122 -0.007751941680908203 -0.15633165836334229
0.6434108018875122 -0.007751941680908203 0.22036093473434448
0.6434108018875122 -0.007751941680908203 0.24340301752090454
0.6434108018875122 0.007751941680908203 -0.18961387872695923
0.6434108018875122 0.007751941215246916 -0.1567014455795288
0.6434108018875122 0.007751941680908203 0.2201038897037506
0.643410861492157 0.007751941680908203 0.2433542013168335
0.6434108018875122 0.02325582504272461 -0.1879178136587143
0.6434108018875122 0.02325582504272461 -0.15722087025642395
0.6434108018875122 0.02325582504272461 0.2198730856180191
0.6434108018875122 0.02325582504272461 0.2432013303041458
0.6434108018875122 0.038759708404541016 -0.18569834530353546
0.6434108018875122 0.038759708404541016 -0.15795458853244781
0.6434108018875122 0.038759708404541016 0.2199001908302307
0.6434108018875122 0.038759708404541016 0.24296680092811584
0.6434108018875122 0.05426359176635742 -0.18388229608535767
0.6434108018875122 0.05426359176635742 -0.15838946402072906
0.6434108018875122 0.05426359176635742 0.21997526288032532
0.6434108018875122 0.05426359176635742 0.2427782416343689
0.6434108018875122 0.06976747512817383 -0.18252184987068176
0.6434108018875122 0.06976747512817383 -0.15876102447509766
0.6434108018875122 0.06976747512817383 0.21988816559314728
0.6434108018875122 0.06976747512817383 0.242653027176857
0.6434108018875122 0.08527135848999023 -0.18208996951580048
0.6434108018875122 0.08527135848999023 -0.1586495041847229
0.6434108018875122 0.08527135848999023 0.21979764103889465
0.6434108018875122 0.08527135848999023 0.24261116981506348
0.6434108018875122 0.10077524185180664 -0.18298661708831787
0.6434108018875122 0.10077524185180664 -0.1578235924243927
0.6434108018875122 0.10077524185180664 0.21999087929725647
0.6434108018875122 0.10077524185180664 0.24262197315692902
0.6434108018875122 0.11627912521362305 -0.18474631011486053
0.6434108018875122 0.11627912521362305 -0.15712663531303406
0.6434108018875122 0.11627912521362305 0.2203894555568695
0.6434107422828674 0.11627912521362305 0.24261169135570526
0.6434108018875122 0.1317828893661499 -0.18827158212661743
0.6434108018875122 0.1317828893661499 -0.1570521593093872
0.6434108018875122 0.1317828893661499 0.22117021679878235
0.6434108018875122 0.1317828893661499 0.2424056977033615
0.6434108018875122 0.1472867876291275 -0.19280408322811127
0.6434108018875122 0.1472867727279663 -0.15646038949489594
0.6434108018875122 0.1472867727279663 0.2217421531677246
0.6434108018875122 0.1472867727279663 0.2418951541185379
0.6434108018875122 0.16279065608978271 -0.19402146339416504
0.6434108018875122 0.16279065608978271 -0.14317955076694489
0.6434108018875122 0.16279065608978271 -0.0608394555747509
0.6434108018875122 0.16279065608978271 -0.04601925238966942
0.6434108018875122 0.16279065608978271 0.22019611299037933
0.6434108018875122 0.16279065608978271 0.24135753512382507
0.6434108018875122 0.17829453945159912 -0.1944161355495453
0.643410861492157 0.17829453945159912 0.24164822697639465
0.6434108018875122 0.19379842281341553 -0.18672186136245728
0.6434108018875122 0.19379842281341553 -0.11844936013221741
0.643410861492157 0.19379842281341553 -0.09821639955043793
0.6434108018875122 0.19379842281341553 0.2316882610321045
0.6589146852493286 -0.19379842281341553 -0.1940198540687561
0.6589146852493286 -0.19379842281341553 0.23540040850639343
0.6589146852493286 -0.1782945990562439 -0.19198864698410034
0.6589146852493286 -0.1782945990562439 -0.10405460000038147
0.6589146852493286 -0.1782945990562439 -0.09821972995996475
0.6589146256446838 -0.1782945990562439 0.24105684459209442
0.6589146852493286 -0.1627907156944275 -0.18753111362457275
0.6589146852493286 -0.1627907156944275 -0.16871300339698792
0.6589146852493286 -0.1627907156944275 0.22186827659606934
0.6589146852493286 -0.1627907156944275 0.24074634909629822
0.6589146852493286 -0.14728683233261108 -0.18692870438098907
0.6589146852493286 -0.14728683233261108 -0.1629980504512787
0.6589146852493286 -0.14728683233261108 0.22159962356090546
0.6589146852493286 -0.14728683233261108 0.24144721031188965
0.6589146852493286 -0.13178294897079468 -0.18563342094421387
0.6589146852493286 -0.13178294897079468 -0.16012369096279144
0.6589146852493286 -0.13178294897079468 0.2208426296710968
0.6589146852493286 -0.13178294897079468 0.24189123511314392
0.6589146852493286 -0.11627906560897827 -0.1842702329158783
0.6589146852493286 -0.11627906560897827 -0.15884149074554443
0.6589146852493286 -0.11627906560897827 0.22046610713005066
0.6589146852493286 -0.11627906560897827 0.24215953052043915
0.6589146852493286 -0.10077518224716187 -0.1831899881362915
0.6589146852493286 -0.10077518224716187 -0.15821191668510437
0.6589146852493286 -0.10077518224716187 0.2203551083803177
0.6589146852493286 -0.10077518224716187 0.242415189743042
0.6589146852493286 -0.08527129888534546 -0.18287712335586548
0.6589146852493286 -0.08527129888534546 -0.15766680240631104
0.6589146852493286 -0.08527129888534546 0.2204235941171646
0.6589146852493286 -0.08527129888534546 0.24273869395256042
0.6589146852493286 -0.06976741552352905 -0.18351486325263977
0.6589146852493286 -0.06976741552352905 -0.15713092684745789
0.6589146852493286 -0.06976741552352905 0.22058366239070892
0.6589146852493286 -0.06976741552352905 0.2429773509502411
0.6589146852493286 -0.05426359176635742 -0.1846219301223755
0.6589146852493286 -0.05426359176635742 -0.15670564770698547
0.6589146852493286 -0.05426359176635742 0.22079066932201385
0.6589146852493286 -0.05426359176635742 0.24316343665122986
0.6589146852493286 -0.038759708404541016 -0.1860853135585785
0.6589146852493286 -0.038759708404541016 -0.15665298700332642
0.6589146852493286 -0.038759708404541016 0.22096675634384155
0.6589146852493286 -0.038759708404541016 0.24329063296318054
0.6589146852493286 -0.02325582504272461 -0.18741600215435028
0.6589146852493286 -0.02325582504272461 -0.15666480362415314
0.6589146852493286 -0.02325582504272461 0.22102436423301697
0.6589146852493286 -0.02325582504272461 0.24334962666034698
0.6589146852493286 -0.007751941680908203 -0.18804693222045898
0.6589146852493286 -0.007751941680908203 -0.156624436378479
0.6589146852493286 -0.007751941680908203 0.22089476883411407
0.6589146852493286 -0.007751941680908203 0.2433692216873169
0.6589146852493286 0.007751941680908203 -0.1875244677066803
0.6589146852493286 0.007751941680908203 -0.15693911910057068
0.6589146852493286 0.007751941680908203 0.22068177163600922
0.6589146852493286 0.00775194214656949 0.24331334233283997
0.6589146852493286 0.02325582504272461 -0.18626296520233154
0.6589146852493286 0.02325582504272461 -0.15740153193473816
0.6589146852493286 0.02325582504272461 0.22051340341567993
0.6589146852493286 0.02325582504272461 0.24314913153648376
0.6589146852493286 0.038759708404541016 -0.18457117676734924
0.6589146852493286 0.038759708404541016 -0.15810662508010864
0.6589146852493286 0.038759708404541016 0.2205345332622528
0.6589146852493286 0.038759708404541016 0.24292916059494019
0.6589146852493286 0.05426359176635742 -0.18306368589401245
0.6589146852493286 0.05426359176635742 -0.15851059556007385
0.6589146852493286 0.05426359176635742 0.2206118404865265
0.6589146852493286 0.05426359176635742 0.2427438497543335
0.6589146852493286 0.06976747512817383 -0.18192122876644135
0.6589146852493286 0.06976747512817383 -0.15877728164196014
0.6589146852493286 0.06976747512817383 0.22053232789039612
0.6589146852493286 0.06976747512817383 0.24262495338916779
0.6589146852493286 0.08527135848999023 -0.18161873519420624
0.6589146852493286 0.08527135848999023 -0.15865963697433472
0.6589146852493286 0.08527135848999023 0.22045844793319702
0.6589146852493286 0.08527135848999023 0.24258580803871155
0.6589146852493286 0.10077524185180664 -0.18249210715293884
0.6589146852493286 0.10077524185180664 -0.15810441970825195
0.6589146852493286 0.10077524185180664 0.220632404088974
0.6589146852493286 0.10077524185180664 0.24259430170059204
0.6589146852493286 0.11627912521362305 -0.18398672342300415
0.6589146852493286 0.11627912521362305 -0.15776357054710388
0.6589146852493286 0.11627912521362305 0.22094807028770447
0.6589146852493286 0.11627912521362305 0.2425776869058609
0.6589146852493286 0.1317828893661499 -0.18632981181144714
0.6589146852493286 0.1317828893661499 -0.15792050957679749
0.6589146852493286 0.1317828893661499 0.2215345799922943
0.6589146852493286 0.1317828893661499 0.2424001544713974
0.6589146852493286 0.1472867727279663 -0.18934352695941925
0.6589146852493286 0.1472867727279663 -0.1587943732738495
0.6589146852493286 0.1472867727279663 0.22202391922473907
0.6589146852493286 0.1472867727279663 0.24192801117897034
0.6589146852493286 0.16279065608978271 -0.19127151370048523
0.6589146852493286 0.16279065608978271 -0.1528356522321701
0.6589146852493286 0.16279065608978271 -0.05843232572078705
0.6589146852493286 0.16279065608978271 -0.04846392944455147
0.6589146852493286 0.16279065608978271 0.22042302787303925
0.6589146852493286 0.16279065608978271 0.2413800060749054
0.6589146852493286 0.17829453945159912 -0.19397805631160736
0.6589146852493286 0.17829453945159912 0.24164901673793793
0.6589146852493286 0.19379842281341553 -0.18631644546985626
0.6589146852493286 0.19379842281341553 -0.11810771375894547
0.6589146852493286 0.19379842281341553 -0.09965036064386368
0.6589146852493286 0.19379842281341553 0.2322051227092743
0.674418568611145 -0.19379842281341553 -0.19391730427742004
0.674418568611145 -0.19379842281341553 0.23570528626441956
0.674418568611145 -0.1782945990562439 -0.19075119495391846
0.674418568611145 -0.1782945990562439 -0.105097696185112
0.674418568611145 -0.1782945990562439 -0.09664429724216461
0.6744185090065002 -0.1782945990562439 0.24107949435710907
0.674418568611145 -0.1627907156944275 -0.1860961616039276
0.674418568611145 -0.1627907156944275 -0.16882851719856262
0.674418568611145 -0.1627907156944275 0.22194291651248932
0.674418568611145 -0.1627907156944275 0.24075785279273987
0.674418568611145 -0.14728683233261108 -0.1860075742006302
0.674418568611145 -0.14728683233261108 -0.1624879539012909
0.674418568611145 -0.14728683233261108 0.22188116610050201
0.674418568611145 -0.14728683233261108 0.24142536520957947
0.674418568611145 -0.13178294897079468 -0.18495827913284302
0.674418568611145 -0.13178294897079468 -0.15994560718536377
0.674418568611145 -0.13178294897079468 0.22128620743751526
0.674418568611145 -0.13178294897079468 0.24184104800224304
0.674418568611145 -0.11627906560897827 -0.1837044656276703
0.674418568611145 -0.11627906560897827 -0.15877766907215118
0.674418568611145 -0.11627906560897827 0.221037358045578
0.674418568611145 -0.11627905815839767 0.24209731817245483
0.674418568611145 -0.10077518224716187 -0.18265041708946228
0.674418568611145 -0.10077518224716187 -0.15817472338676453
0.674418568611145 -0.10077518224716187 0.22099092602729797
0.674418568611145 -0.10077518224716187 0.24234429001808167
0.674418568611145 -0.08527129888534546 -0.1823177933692932
0.674418568611145 -0.08527129888534546 -0.15761928260326385
0.674418568611145 -0.08527129888534546 0.2210742086172104
0.674418568611145 -0.08527129888534546 0.24266155064105988
0.674418568611145 -0.06976741552352905 -0.18291857838630676
0.674418568611145 -0.06976741552352905 -0.15709850192070007
0.674418568611145 -0.06976741552352905 0.22121654450893402
0.674418568611145 -0.06976741552352905 0.2428949624300003
0.674418568611145 -0.05426359176635742 -0.18396791815757751
0.674418568611145 -0.05426358804106712 -0.15671639144420624
0.674418568611145 -0.05426359176635742 0.22138889133930206
0.674418568611145 -0.05426359176635742 0.24307480454444885
0.674418568611145 -0.038759708404541016 -0.18530072271823883
0.674418568611145 -0.038759708404541016 -0.15665629506111145
0.674418568611145 -0.038759708404541016 0.22152017056941986
0.674418568611145 -0.03875970467925072 0.24320191144943237
0.674418568611145 -0.02325582504272461 -0.18642304837703705
0.674418568611145 -0.02325582504272461 -0.1566372513771057
0.674418568611145 -0.02325582504272461 0.2215559035539627
0.674418568611145 -0.02325582504272461 0.24325454235076904
0.674418568611145 -0.007751941680908203 -0.18689218163490295
0.674418568611145 -0.007751941680908203 -0.15660741925239563
0.674418568611145 -0.007751941680908203 0.22143195569515228
0.674418568611145 -0.007751941680908203 0.24326591193675995
0.674418568611145 0.007751941680908203 -0.18644237518310547
0.674418568611145 0.007751941215246916 -0.15688514709472656
0.674418568611145 0.007751941680908203 0.22126339375972748
0.6744185090065002 0.007751941215246916 0.24320101737976074
0.674418568611145 0.02325582504272461 -0.18536138534545898
0.674418568611145 0.02325582504272461 -0.15731722116470337
0.674418568611145 0.02325582504272461 0.22113628685474396
0.674418568611145 0.02325582504272461 0.2430378943681717
0.674418568611145 0.038759708404541016 -0.18383227288722992
0.674418568611145 0.038759708404541016 -0.15797656774520874
0.674418568611145 0.038759708404541016 0.22117120027542114
0.6744186282157898 0.038759708404541016 0.24282494187355042
0.674418568611145 0.05426359176635742 -0.18243028223514557
0.674418568611145 0.05426359176635742 -0.15840493142604828
0.674418568611145 0.05426359176635742 0.22125419974327087
0.674418568611145 0.05426359176635742 0.24264876544475555
0.674418568611145 0.06976747512817383 -0.18138271570205688
0.674418568611145 0.06976747512817383 -0.15867212414741516
0.674418568611145 0.06976747512817383 0.22118060290813446
0.674418568611145 0.06976747512817383 0.24254190921783447
0.674418568611145 0.08527135848999023 -0.18116159737110138
0.674418568611145 0.08527135848999023 -0.1585872322320938
0.674418568611145 0.08527135848999023 0.2211049199104309
0.674418568611145 0.08527135848999023 0.2425147444009781
0.674418568611145 0.10077524185180664 -0.18205474317073822
0.674418568611145 0.10077524185180664 -0.1581897884607315
0.674418568611145 0.10077524185180664 0.22123199701309204
0.674418568611145 0.10077524185180664 0.24253107607364655
0.674418568611145 0.11627912521362305 -0.183489590883255
0.674418568611145 0.11627912521362305 -0.1580565869808197
0.674418568611145 0.11627912521362305 0.22146371006965637
0.674418568611145 0.11627912521362305 0.2425176203250885
0.674418568611145 0.1317828893661499 -0.18532702326774597
0.674418568611145 0.1317828893661499 -0.15834186971187592
