0.8139535188674927 0.02325582504272461 0.22909602522850037
0.8139535188674927 0.038759708404541016 -0.1855681836605072
0.8139535188674927 0.038759708404541016 -0.13302089273929596
0.8139535188674927 0.038759708404541016 0.16130687296390533
0.8139535188674927 0.038759708404541016 0.22885075211524963
0.8139535188674927 0.05426359176635742 -0.18644660711288452
0.8139535188674927 0.05426359176635742 -0.10793839395046234
0.8139535188674927 0.05426359176635742 0.16156022250652313
0.8139535188674927 0.05426358804106712 0.2283988893032074
0.8139535188674927 0.06976747512817383 -0.18788523972034454
0.8139535188674927 0.06976747512817383 -0.09000618755817413
0.8139535188674927 0.06976747512817383 -0.058053918182849884
0.8139534592628479 0.06976747512817383 0.056066714227199554
0.8139535188674927 0.06976747512817383 0.1604873538017273
0.8139535188674927 0.06976747512817383 0.22787749767303467
0.8139535188674927 0.08527135848999023 -0.1903982013463974
0.8139535188674927 0.08527135848999023 0.062353670597076416
0.8139535188674927 0.08527135848999023 0.15864436328411102
0.8139535188674927 0.08527135848999023 0.22745484113693237
0.8139535188674927 0.10077524185180664 -0.19349220395088196
0.8139535188674927 0.10077524185180664 0.06923764199018478
0.8139535188674927 0.10077524185180664 0.15502499043941498
0.8139535188674927 0.10077524185180664 0.22720743715763092
0.8139535188674927 0.11627912521362305 -0.19437910616397858
0.8139535188674927 0.11627912521362305 0.0779842957854271
0.8139535188674927 0.11627912521362305 0.1482366919517517
0.8139535188674927 0.11627912521362305 0.22693084180355072
0.8139535188674927 0.1317828893661499 -0.19468091428279877
0.8139535188674927 0.1317828893661499 0.09374692291021347
0.8139535188674927 0.1317828893661499 0.13584205508232117
0.8139535188674927 0.1317828893661499 0.22629278898239136
0.8139535188674927 0.1472867727279663 -0.19471776485443115
0.8139535188674927 0.1472867876291275 0.22532299160957336
0.8139535188674927 0.16279065608978271 -0.19462034106254578
0.8139535188674927 0.16279065608978271 0.22340579330921173
0.8139535188674927 0.17829453945159912 -0.1942620575428009
0.8139535188674927 0.17829453945159912 0.22378471493721008
0.8139535188674927 0.19379842281341553 -0.1860273778438568
0.8139535188674927 0.19379842281341553 -0.14613233506679535
0.8294574022293091 -0.19379842281341553 -0.18175500631332397
0.8294574022293091 -0.19379842281341553 -0.16500099003314972
0.8294574022293091 -0.1782945990562439 -0.19466963410377502
0.8294574022293091 -0.1782945990562439 0.22368955612182617
0.8294574022293091 -0.1627907156944275 -0.19463872909545898
0.8294574022293091 -0.1627907156944275 0.22331099212169647
0.8294574022293091 -0.14728683233261108 -0.19456595182418823
0.8294574022293091 -0.14728683233261108 0.2253856509923935
0.8294574022293091 -0.13178294897079468 -0.19444413483142853
0.8294574022293091 -0.13178294897079468 0.10359390825033188
0.8294574022293091 -0.13178294897079468 0.12061567604541779
0.8294574022293091 -0.13178294897079468 0.22612044215202332
0.8294574022293091 -0.11627906560897827 -0.19422776997089386
0.8294574022293091 -0.11627906560897827 0.09073518961668015
0.8294574022293091 -0.11627906560897827 0.13077287375926971
0.8294574022293091 -0.11627906560897827 0.2267340123653412
0.8294574022293091 -0.10077518224716187 -0.1938442587852478
0.8294573426246643 -0.10077518224716187 0.08538138121366501
0.8294574022293091 -0.10077518224716187 0.13501478731632233
0.8294573426246643 -0.10077518224716187 0.22732385993003845
0.8294574022293091 -0.08527129888534546 -0.19294236600399017
0.8294574022293091 -0.08527129888534546 0.08542777597904205
0.8294574022293091 -0.08527129888534546 0.13533872365951538
0.8294574022293091 -0.08527129888534546 0.22790734469890594
0.8294574022293091 -0.06976741552352905 -0.19225157797336578
0.8294574618339539 -0.06976741552352905 0.0862996056675911
0.8294574022293091 -0.06976741552352905 0.1357070654630661
0.8294574022293091 -0.06976741552352905 0.22831487655639648
0.8294574022293091 -0.05426359176635742 -0.19165098667144775
0.8294574022293091 -0.05426359176635742 0.08493371307849884
0.8294574022293091 -0.05426359176635742 0.13692577183246613
0.8294574022293091 -0.05426359176635742 0.22856083512306213
0.8294574022293091 -0.038759708404541016 -0.1912861168384552
0.8294574022293091 -0.038759708404541016 -0.08788199722766876
0.8294573426246643 -0.038759708404541016 -0.06386202573776245
0.8294574022293091 -0.038759708404541016 0.08217255026102066
0.8294574022293091 -0.038759708404541016 0.13681301474571228
0.8294574022293091 -0.038759708404541016 0.2285899519920349
0.8294574022293091 -0.02325582504272461 -0.1903441995382309
0.8294574022293091 -0.02325582504272461 -0.1099444255232811
0.8294574022293091 -0.02325582504272461 -0.04732134938240051
0.8294574022293091 -0.02325582504272461 0.07328198105096817
0.8294574022293091 -0.02325582504272461 0.14026480913162231
0.8294574022293091 -0.02325582504272461 0.2286033034324646
0.8294574022293091 -0.007751941680908203 -0.18869014084339142
0.8294574022293091 -0.007751941680908203 -0.13493086397647858
0.8294574022293091 -0.007751941680908203 -0.00998595543205738
0.8294574022293091 -0.007751941680908203 -0.0032157525420188904
0.8294574022293091 -0.00775194214656949 0.14774656295776367
0.8294574022293091 -0.007751941680908203 0.22880437970161438
0.8294574022293091 0.007751941680908203 -0.18678170442581177
0.8294574022293091 0.007751941680908203 -0.14303606748580933
0.8294574022293091 0.007751941680908203 0.1553192287683487
0.8294574022293091 0.007751941680908203 0.22893406450748444
0.8294574022293091 0.02325582504272461 -0.18606960773468018
0.8294574022293091 0.02325582504272461 -0.14046649634838104
0.8294574022293091 0.02325582504272461 0.15765219926834106
0.8294574022293091 0.02325582504272461 0.22893178462982178
0.8294574022293091 0.038759708404541016 -0.18608683347702026
0.8294574022293091 0.038759708404541016 -0.12562142312526703
0.8294574022293091 0.038759708404541016 0.15941579639911652
0.8294574022293091 0.038759708404541016 0.2287168800830841
0.8294574022293091 0.05426359176635742 -0.18709862232208252
0.8294574022293091 0.05426359176635742 -0.10040396451950073
0.8294574022293091 0.05426359176635742 -0.04407376050949097
0.8294574022293091 0.05426359176635742 0.02981014922261238
0.8294574022293091 0.05426359176635742 0.15965977311134338
0.8294574022293091 0.05426359176635742 0.2283095121383667
0.8294574022293091 0.06976747512817383 -0.18850865960121155
0.8294574022293091 0.06976747512817383 -0.08388449251651764
0.8294574022293091 0.06976747512817383 -0.06537926197052002
0.8294574022293091 0.06976747512817383 0.057003606110811234
0.8294574022293091 0.06976747512817383 0.15866507589817047
0.8294574022293091 0.06976747512817383 0.22781182825565338
0.8294574022293091 0.08527135848999023 -0.1907249242067337
0.8294574022293091 0.08527135848999023 0.061933644115924835
0.8294574022293091 0.08527135848999023 0.15694206953048706
0.8294574022293091 0.08527136594057083 0.2273988127708435
0.8294574618339539 0.10077524185180664 -0.19335438311100006
0.8294574022293091 0.10077524185180664 0.0679515153169632
0.8294574022293091 0.10077524185180664 0.15326181054115295
0.8294574022293091 0.10077524185180664 0.2271655797958374
0.8294574022293091 0.11627912521362305 -0.19423967599868774
0.8294574022293091 0.11627912521362305 0.07672646641731262
0.8294574022293091 0.11627912521362305 0.14616376161575317
0.8294574022293091 0.11627912521362305 0.22691099345684052
0.8294574022293091 0.1317828893661499 -0.1945311725139618
0.8294574022293091 0.1317828893661499 0.09229286760091782
0.8294574022293091 0.1317828893661499 0.13351991772651672
0.8294574022293091 0.1317828893661499 0.22629746794700623
0.8294574022293091 0.1472867727279663 -0.19460761547088623
0.8294574022293091 0.1472867727279663 0.2253130078315735
0.8294574022293091 0.16279065608978271 -0.19456414878368378
0.8294574022293091 0.16279065608978271 0.22334274649620056
0.8294574022293091 0.17829453945159912 -0.1942509263753891
0.8294574022293091 0.17829453945159912 0.2237381786108017
0.8294574022293091 0.19379842281341553 -0.1856606900691986
0.8294574022293091 0.19379842281341553 -0.14737308025360107
0.8449612855911255 -0.19379842281341553 -0.18193703889846802
0.8449612855911255 -0.19379842281341553 -0.16411294043064117
0.8449612855911255 -0.1782945990562439 -0.19468964636325836
0.8449612855911255 -0.1782945990562439 0.22358988225460052
0.8449612855911255 -0.1627907156944275 -0.1946045309305191
0.8449612855911255 -0.1627907156944275 0.22316808998584747
0.8449612855911255 -0.14728683233261108 -0.1944631040096283
0.8449612855911255 -0.14728683233261108 0.22530455887317657
0.8449612855911255 -0.13178294897079468 -0.1943081021308899
0.8449612855911255 -0.13178294897079468 0.0994601622223854
0.8449612855911255 -0.13178294897079468 0.12004636973142624
0.8449612855911255 -0.13178294897079468 0.22600825130939484
0.8449612855911255 -0.11627906560897827 -0.19409792125225067
0.8449612855911255 -0.11627906560897827 0.0884808748960495
0.8449612855911255 -0.11627906560897827 0.12831470370292664
0.8449612855911255 -0.11627906560897827 0.22659847140312195
0.8449612855911255 -0.10077518969774246 -0.1936071366071701
0.8449612855911255 -0.10077518224716187 0.08328866213560104
0.8449612855911255 -0.10077518224716187 0.13252972066402435
0.8449612855911255 -0.10077518224716187 0.22717735171318054
0.8449612855911255 -0.08527129888534546 -0.19265960156917572
0.8449612855911255 -0.08527129888534546 0.08338779956102371
0.8449612855911255 -0.08527129888534546 0.1324107050895691
0.8449612259864807 -0.08527129888534546 0.2277476042509079
0.8449612259864807 -0.06976741552352905 -0.19199155271053314
0.8449612855911255 -0.06976741552352905 0.08486953377723694
0.8449612855911255 -0.06976741552352905 0.1316608488559723
0.8449612855911255 -0.06976741552352905 0.22814834117889404
0.8449612855911255 -0.05426359176635742 -0.19139432907104492
0.8449612855911255 -0.05426359176635742 0.08517079800367355
0.8449612855911255 -0.05426359176635742 0.13156060874462128
0.8449612855911255 -0.05426359176635742 0.22839421033859253
0.8449612855911255 -0.038759708404541016 -0.19095878303050995
0.8449612855911255 -0.038759708404541016 -0.07234856486320496
0.8449612855911255 -0.038759708404541016 -0.06922333687543869
0.8449612855911255 -0.038759708404541016 0.08424734324216843
0.8449612855911255 -0.038759708404541016 0.1294785887002945
0.8449612855911255 -0.038759708404541016 0.2284320741891861
0.8449612259864807 -0.02325582504272461 -0.19003289937973022
0.8449612855911255 -0.02325582504272461 -0.09913866221904755
0.8449612855911255 -0.02325582504272461 -0.0565253347158432
0.8449612855911255 -0.02325582504272461 0.07734841853380203
0.8449612855911255 -0.02325582504272461 0.13268035650253296
0.8449612855911255 -0.02325582504272461 0.2284468561410904
0.8449612855911255 -0.007751941680908203 -0.18853910267353058
0.8449612855911255 -0.007751941680908203 -0.12455196678638458
0.8449612855911255 -0.007751941680908203 -0.03886060789227486
0.8449612855911255 -0.007751941680908203 0.03864958509802818
0.8449613451957703 -0.00775194214656949 0.03885135427117348
0.8449612259864807 -0.007751941680908203 0.0587233304977417
0.8449612855911255 -0.007751941680908203 0.1404598355293274
0.8449613451957703 -0.007751941680908203 0.22864775359630585
0.8449612855911255 0.007751941680908203 -0.18689441680908203
0.8449612855911255 0.007751941680908203 -0.13554614782333374
0.8449612855911255 0.007751941680908203 -0.008510835468769073
0.8449612855911255 0.007751941680908203 -0.005411055870354176
0.8449612855911255 0.007751941680908203 0.14764773845672607
0.8449612855911255 0.00775194214656949 0.2287674844264984
0.8449612855911255 0.02325582504272461 -0.18632656335830688
0.8449612855911255 0.02325582504272461 -0.13137288391590118
0.8449612855911255 0.02325582504272461 0.15150970220565796
0.8449612259864807 0.02325582504272461 0.22876600921154022
0.8449612855911255 0.038759708404541016 -0.18645496666431427
0.8449612855911255 0.038759708404541016 -0.11281915754079819
0.8449612855911255 0.038759708404541016 -0.040618542581796646
0.8449612855911255 0.038759708404541016 -0.03187639266252518
0.8449612855911255 0.038759708404541016 -0.016907300800085068
0.8449612259864807 0.038759708404541016 0.02381582371890545
0.8449612855911255 0.038759708404541016 0.15455931425094604
0.8449612855911255 0.038759708404541016 0.22855985164642334
0.8449612855911255 0.05426359176635742 -0.18741488456726074
0.8449612855911255 0.05426359176635742 -0.09452242404222488
0.8449612855911255 0.05426359176635742 -0.05706055834889412
0.8449612855911255 0.05426359176635742 0.05208650976419449
0.8449612855911255 0.05426359176635742 0.15544992685317993
0.8449612855911255 0.05426359176635742 0.22817125916481018
0.8449612855911255 0.06976747512817383 -0.1886734664440155
0.8449612855911255 0.06976747512817383 0.058499764651060104
0.8449612855911255 0.06976747512817383 0.1550542414188385
0.8449612855911255 0.06976747512817383 0.2276867926120758
0.8449612259864807 0.08527135848999023 -0.19067098200321198
0.8449612855911255 0.08527135848999023 0.06181524321436882
0.8449612855911255 0.08527135848999023 0.15391498804092407
0.8449612855911255 0.08527135848999023 0.2272796332836151
0.8449612855911255 0.10077524185180664 -0.19310739636421204
0.8449612855911255 0.10077524185180664 0.06666289269924164
0.8449612855911255 0.10077524185180664 0.1504184901714325
0.8449612855911255 0.10077524185180664 0.2270483672618866
0.8449612855911255 0.11627912521362305 -0.19412612915039062
0.8449612855911255 0.11627912521362305 0.07452940940856934
0.8449612855911255 0.11627912521362305 0.14382314682006836
0.8449612855911255 0.11627912521362305 0.22679449617862701
0.8449612855911255 0.1317828893661499 -0.19443796575069427
0.8449612855911255 0.1317828893661499 0.08605966717004776
0.8449612855911255 0.1317828893661499 0.132770374417305
0.8449612855911255 0.1317828893661499 0.22621473670005798
0.8449612855911255 0.1472867727279663 -0.19456066191196442
0.8449612855911255 0.1472867727279663 0.09751561284065247
0.8449612855911255 0.1472867727279663 0.12009643018245697
0.8449612855911255 0.1472867727279663 0.2252637892961502
0.8449612855911255 0.16279065608978271 -0.19455577433109283
0.8449612855911255 0.16279065608978271 0.22320985794067383
0.8449612855911255 0.17829453945159912 -0.19426129758358002
0.8449612855911255 0.17829453945159912 0.2237630933523178
0.8449612855911255 0.19379842281341553 -0.18506774306297302
0.8449612855911255 0.19379842281341553 -0.14985135197639465
0.8604651689529419 -0.19379842281341553 -0.18207934498786926
0.8604651689529419 -0.19379842281341553 -0.16392922401428223
0.8604651689529419 -0.1782945990562439 -0.1946849524974823
0.8604651689529419 -0.1782945990562439 0.22341561317443848
0.8604651689529419 -0.1627907156944275 -0.1945924162864685
0.8604651689529419 -0.1627907156944275 0.2228349894285202
0.8604651689529419 -0.14728683233261108 -0.19441469013690948
0.8604651689529419 -0.14728683233261108 0.22517237067222595
0.8604651689529419 -0.13178294897079468 -0.19423168897628784
0.8604651689529419 -0.13178294897079468 0.09935057908296585
0.8604651689529419 -0.13178294897079468 0.11704506725072861
0.8604651689529419 -0.13178294897079468 0.22584690153598785
0.8604651689529419 -0.11627906560897827 -0.19401665031909943
0.8604651093482971 -0.11627906560897827 0.08726565539836884
0.8604651689529419 -0.11627906560897827 0.12430919706821442
0.8604651689529419 -0.11627905815839767 0.22640590369701385
0.8604651689529419 -0.10077518224716187 -0.19345331192016602
0.8604651689529419 -0.10077518224716187 0.08232782781124115
0.8604651689529419 -0.10077518224716187 0.12775662541389465
0.8604651689529419 -0.10077517479658127 0.22697705030441284
0.8604651689529419 -0.08527129888534546 -0.19262826442718506
0.8604651689529419 -0.08527129888534546 0.08277525007724762
0.8604651689529419 -0.08527129888534546 0.12679678201675415
0.8604651093482971 -0.08527129888534546 0.22754520177841187
0.8604652285575867 -0.06976741552352905 -0.19206687808036804
0.8604651689529419 -0.06976740807294846 0.08558592200279236
0.8604651689529419 -0.06976741552352905 0.12402895092964172
0.8604651689529419 -0.06976741552352905 0.22795270383358002
0.8604651689529419 -0.05426359176635742 -0.19152571260929108
0.8604651093482971 -0.05426359176635742 0.08894769847393036
0.8604651689529419 -0.05426359176635742 0.12159806489944458
0.8604651689529419 -0.05426359176635742 0.228200763463974
0.8604651689529419 -0.038759708404541016 -0.19108471274375916
0.8604651689529419 -0.038759708404541016 0.0907851904630661
0.8604651689529419 -0.038759708404541016 0.11846501380205154
0.8604651689529419 -0.038759708404541016 0.22823283076286316
0.8604651689529419 -0.02325582504272461 -0.19024309515953064
0.8604651689529419 -0.02325582504272461 -0.09109744429588318
0.8604651689529419 -0.02325582504272461 -0.06196821853518486
0.8604651689529419 -0.02325582504272461 0.08287008851766586
0.8604651689529419 -0.02325582318007946 0.12125173211097717
0.8604651689529419 -0.02325582504272461 0.2282322347164154
0.8604651689529419 -0.007751941680908203 -0.18896622955799103
0.8604651689529419 -0.007751941680908203 -0.10623325407505035
0.8604651689529419 -0.007751941680908203 -0.05056207254528999
0.8604651689529419 -0.007751941680908203 0.07103317975997925
0.8604651689529419 -0.007751941680908203 0.12974503636360168
0.8604651689529419 -0.007751941215246916 0.2284284085035324
0.8604651689529419 0.007751941680908203 -0.18763485550880432
0.8604651689529419 0.007751941680908203 -0.11800376325845718
0.8604651689529419 0.007751941680908203 -0.04126432538032532
0.8604651689529419 0.007751941680908203 0.05642087385058403
0.8604651689529419 0.00775194214656949 0.13882175087928772
0.8604651689529419 0.007751941680908203 0.22853708267211914
0.8604651689529419 0.02325582504272461 -0.18717992305755615
0.8604651689529419 0.02325582504272461 -0.11208441853523254
0.8604651689529419 0.02325582504272461 -0.045100294053554535
0.8604651689529419 0.02325582504272461 0.05313520133495331
0.8604651689529419 0.02325582504272461 0.14321793615818024
0.8604651689529419 0.02325582504272461 0.22852905094623566
0.8604651689529419 0.038759708404541016 -0.18732516467571259
0.8604651689529419 0.038759712129831314 -0.09875395894050598
0.8604651689529419 0.038759708404541016 -0.055552251636981964
0.8604651689529419 0.038759708404541016 0.05530500411987305
0.8604651689529419 0.038759708404541016 0.14707151055335999
0.8604651689529419 0.038759708404541016 0.22832319140434265
0.8604651689529419 0.05426359176635742 -0.18809479475021362
0.8604651689529419 0.05426359176635742 -0.08664163202047348
0.8604651689529419 0.05426358804106712 -0.06493508070707321
0.8604651689529419 0.05426359176635742 0.058012645691633224
0.8604651689529419 0.05426359176635742 0.1491136997938156
0.8604651689529419 0.05426359176635742 0.22795835137367249
0.8604651689529419 0.06976747512817383 -0.1890629231929779
0.8604651689529419 0.06976747512817383 0.06065807119011879
0.8604651689529419 0.06976747512817383 0.14952385425567627
0.8604651689529419 0.06976747512817383 0.22749966382980347
0.8604651689529419 0.08527135848999023 -0.19076991081237793
0.8604651689529419 0.08527135848999023 0.0627421885728836
0.8604651689529419 0.08527135103940964 0.14907678961753845
0.8604651689529419 0.08527135103940964 0.22710824012756348
0.8604651689529419 0.10077524185180664 -0.19301603734493256
0.8604651689529419 0.10077524185180664 0.06659676134586334
0.8604651689529419 0.10077524185180664 0.1460115611553192
0.8604651689529419 0.10077524930238724 0.22688017785549164
0.8604651689529419 0.11627912521362305 -0.19406509399414062
0.8604651689529419 0.11627912521362305 0.07326696813106537
0.8604651689529419 0.11627912521362305 0.1404559314250946
0.8604651689529419 0.11627912521362305 0.2266276478767395
0.8604651689529419 0.1317828893661499 -0.19438165426254272
0.8604651689529419 0.1317828893661499 0.08211049437522888
0.8604651689529419 0.1317828893661499 0.13067293167114258
0.8604651093482971 0.1317828893661499 0.22609427571296692
0.8604651689529419 0.1472867727279663 -0.19453275203704834
0.8604651689529419 0.1472867727279663 0.08493252843618393
0.8604651689529419 0.1472867727279663 0.12518589198589325
0.8604651689529419 0.1472867727279663 0.22520627081394196
0.8604651689529419 0.16279065608978271 -0.1945423185825348
0.8604651689529419 0.16279065608978271 0.2229808121919632
0.8604651689529419 0.17829453945159912 -0.19421932101249695
0.8604651689529419 0.17829453945159912 0.22372595965862274
0.8604651689529419 0.19379842281341553 -0.18443416059017181
0.8604651689529419 0.19379842281341553 -0.15296868979930878
0.8759689331054688 -0.19379842281341553 -0.18255716562271118
0.8759689331054688 -0.19379842281341553 -0.16343535482883453
0.8759689331054688 -0.1782945990562439 -0.19477921724319458
0.8759689331054688 -0.1782945990562439 0.22317267954349518
0.8759689331054688 -0.1627907156944275 -0.1947067379951477
0.8759689331054688 -0.1627907156944275 0.22211289405822754
0.8759689331054688 -0.14728683233261108 -0.19452813267707825
0.8759689331054688 -0.14728683233261108 0.22449038922786713
0.8759689331054688 -0.13178294897079468 -0.1943424791097641
0.8759689331054688 -0.13178294897079468 0.22528673708438873
0.8759689331054688 -0.11627906560897827 -0.19416417181491852
0.8759689331054688 -0.11627906560897827 0.09184425324201584
0.8759689331054688 -0.11627906560897827 0.11736038327217102
0.8759689331054688 -0.11627906560897827 0.2258215695619583
0.8759689331054688 -0.10077518224716187 -0.19390584528446198
0.8759689331054688 -0.10077518224716187 0.08477579802274704
0.8759689927101135 -0.10077518224716187 0.12025763094425201
0.8759689331054688 -0.10077518224716187 0.22641682624816895
0.8759689331054688 -0.08527129888534546 -0.1935291588306427
0.8759689331054688 -0.08527129888534546 0.08706972002983093
0.8759689331054688 -0.08527129143476486 0.11803171038627625
0.8759689331054688 -0.08527129888534546 0.22703537344932556
0.8759689331054688 -0.06976741552352905 -0.19315914809703827
0.8759689331054688 -0.06976741552352905 0.09766188263893127
0.8759689331054688 -0.06976741552352905 0.10508527606725693
0.875968873500824 -0.06976741552352905 0.22750984132289886
0.875968873500824 -0.05426359176635742 -0.19269177317619324
0.8759689927101135 -0.05426359176635742 0.2278292328119278
0.8759689927101135 -0.038759708404541016 -0.19222253561019897
0.8759689331054688 -0.038759708404541016 0.22790469229221344
0.8759689331054688 -0.02325582504272461 -0.19142909348011017
0.8759689331054688 -0.02325582504272461 0.22791409492492676
0.8759689331054688 -0.007751941680908203 -0.19041913747787476
0.8759689331054688 -0.007751941680908203 -0.08752764016389847
0.875968873500824 -0.007751941680908203 -0.06542842090129852
0.8759689331054688 -0.00775194214656949 0.2281067669391632
0.8759689331054688 0.007751941680908203 -0.18949224054813385
0.8759689331054688 0.007751941680908203 -0.09348718822002411
0.8759689331054688 0.007751941680908203 -0.061169154942035675
0.8759689331054688 0.007751941680908203 0.0796087384223938
0.8759689331054688 0.007751941680908203 0.11833283305168152
0.8759689331054688 0.007751941680908203 0.22821144759655
0.8759689331054688 0.02325582504272461 -0.18920186161994934
0.8759689331054688 0.02325582504272461 -0.09034913033246994
0.8759689331054688 0.02325582504272461 -0.06378264725208282
0.8759689331054688 0.02325582504272461 0.07310619205236435
0.8759689331054688 0.02325582504272461 0.12612049281597137
0.8759689331054688 0.02325582504272461 0.22818617522716522
0.8759689331054688 0.038759708404541016 -0.18931707739830017
0.8759689331054688 0.038759708404541016 0.06899524480104446
0.8759689331054688 0.038759708404541016 0.13369573652744293
0.8759689331054688 0.038759708404541016 0.2279786318540573
0.8759689331054688 0.05426359176635742 -0.18980500102043152
0.8759689331054688 0.05426359176635742 0.06671632826328278
0.8759689331054688 0.05426359176635742 0.13780315220355988
0.8759689331054688 0.05426359176635742 0.22763338685035706
0.8759689331054688 0.06976747512817383 -0.19040144979953766
0.8759689331054688 0.06976747512817383 0.06614281982183456
0.8759689331054688 0.06976747512817383 0.13988742232322693
0.8759689331054688 0.06976747512817383 0.2271946370601654
0.8759689331054688 0.08527135848999023 -0.1916932910680771
0.8759689331054688 0.08527135848999023 0.06641394644975662
0.8759689331054688 0.08527135848999023 0.14100836217403412
0.8759689331054688 0.08527135103940964 0.22679072618484497
0.8759689331054688 0.10077524185180664 -0.19355317950248718
0.8759689331054688 0.10077524185180664 0.06930430978536606
0.8759689331054688 0.10077524185180664 0.13912656903266907
0.8759689331054688 0.10077524185180664 0.22652660310268402
0.8759689331054688 0.11627912521362305 -0.19418293237686157
0.875968873500824 0.11627912521362305 0.0747447982430458
0.8759689331054688 0.11627912521362305 0.13395652174949646
0.8759689331054688 0.11627913266420364 0.22623935341835022
0.8759689331054688 0.1317828893661499 -0.19446134567260742
0.8759689331054688 0.1317828893661499 0.08294803649187088
0.8759689331054688 0.1317828893661499 0.12529173493385315
0.8759689331054688 0.1317828893661499 0.22572612762451172
0.8759689331054688 0.1472867727279663 -0.19460855424404144
0.8759689331054688 0.1472867727279663 0.08307039737701416
0.8759689331054688 0.1472867727279663 0.12399929761886597
0.8759689331054688 0.1472867727279663 0.22488416731357574
0.8759689331054688 0.16279065608978271 -0.19461603462696075
0.8759689331054688 0.16279065608978271 0.22222371399402618
0.8759689331054688 0.17829453945159912 -0.19426403939723969
0.8759689331054688 0.17829453945159912 0.2236039936542511
0.8759689331054688 0.19379842281341553 -0.18417492508888245
0.8759689331054688 0.19379842281341553 -0.15624965727329254
0.8914728164672852 -0.19379842281341553 -0.18294093012809753
0.8914728164672852 -0.19379842281341553 -0.16289445757865906
0.8914728164672852 -0.1782945990562439 -0.19493594765663147
0.8914728164672852 -0.1782945990562439 0.22259460389614105
0.8914728164672852 -0.1627907156944275 -0.19496765732765198
0.8914728164672852 -0.1627907156944275 0.22122231125831604
0.8914728164672852 -0.14728683233261108 -0.19484099745750427
0.8914728164672852 -0.14728683233261108 0.22257962822914124
0.8914728164672852 -0.13178294897079468 -0.19467677175998688
0.8914728164672852 -0.13178294897079468 0.22367607057094574
0.8914728164672852 -0.11627906560897827 -0.19455383718013763
0.8914728164672852 -0.11627906560897827 0.22486886382102966
0.8914728164672852 -0.10077518224716187 -0.19440723955631256
0.8914728164672852 -0.10077518224716187 0.2254711091518402
0.8914728164672852 -0.08527129888534546 -0.1943313032388687
0.8914728164672852 -0.08527130633592606 0.2261410355567932
0.8914728164672852 -0.06976741552352905 -0.19427749514579773
0.8914728760719299 -0.06976741552352905 0.22669634222984314
0.8914728164672852 -0.05426359176635742 -0.19411443173885345
0.8914728760719299 -0.05426359549164772 0.227128803730011
0.8914728164672852 -0.038759708404541016 -0.19391021132469177
0.8914728164672852 -0.038759708404541016 0.22730505466461182
0.8914728164672852 -0.02325582504272461 -0.19324497878551483
0.8914728164672852 -0.02325582504272461 0.2273554652929306
0.8914728164672852 -0.007751941680908203 -0.19235911965370178
0.8914728760719299 -0.00775194214656949 0.22753643989562988
0.8914727568626404 0.007751941680908203 -0.19163887202739716
0.8914728164672852 0.007751941680908203 0.2276272028684616
0.8914728164672852 0.02325582504272461 -0.1914217174053192
0.8914728164672852 0.02325582504272461 0.22756975889205933
0.8914728164672852 0.038759708404541016 -0.1914970576763153
0.8914728164672852 0.038759708404541016 0.09169642627239227
0.8914728164672852 0.038759708404541016 0.10923260450363159
0.8914728164672852 0.038759708404541016 0.22734835743904114
0.8914728164672852 0.05426359176635742 -0.19185826182365417
0.8914728164672852 0.05426359176635742 0.081168994307518
0.8914728760719299 0.05426359176635742 0.12122035026550293
0.8914728164672852 0.05426359176635742 0.22699838876724243
0.8914728164672852 0.06976747512817383 -0.19227516651153564
0.8914728164672852 0.06976747512817383 0.07734978199005127
0.8914728164672852 0.06976747512817383 0.12625274062156677
0.8914728164672852 0.06976747512817383 0.2265823632478714
0.8914728164672852 0.08527135848999023 -0.1932709962129593
0.8914728164672852 0.08527135848999023 0.07543733716011047
0.8914728164672852 0.08527135848999023 0.12929971516132355
0.8914728164672852 0.08527135848999023 0.22617706656455994
0.8914728164672852 0.10077524185180664 -0.1941452920436859
0.8914728164672852 0.10077524185180664 0.07702425867319107
0.8914728164672852 0.10077524185180664 0.128018319606781
0.8914728164672852 0.10077524185180664 0.225868359208107
0.8914728164672852 0.11627912521362305 -0.19450396299362183
0.8914728164672852 0.11627912521362305 0.08179886639118195
0.8914728164672852 0.11627912521362305 0.12347990274429321
0.8914728164672852 0.11627912521362305 0.22554942965507507
0.8914728164672852 0.1317828893661499 -0.194716215133667
0.8914728164672852 0.1317828893661499 0.09185671806335449
0.8914727568626404 0.1317828893661499 0.11774131655693054
0.8914727568626404 0.1317828744649887 0.225102499127388
0.8914728164672852 0.1472867727279663 -0.19482989609241486
0.8914727568626404 0.1472867727279663 0.08679506182670593
0.8914727568626404 0.14728675782680511 0.11668933182954788
0.8914728164672852 0.1472867727279663 0.2232753038406372
0.8914728164672852 0.16279065608978271 -0.19481679797172546
0.8914728164672852 0.16279065608978271 0.22121019661426544
0.8914728164672852 0.17829453945159912 -0.19441957771778107
0.8914728164672852 0.17829453945159912 0.22316226363182068
0.8914728164672852 0.19379842281341553 -0.18429034948349
0.8914728164672852 0.19379842281341553 -0.15820376574993134
0.9069766998291016 -0.19379842281341553 -0.18316099047660828
0.9069766998291016 -0.19379842281341553 -0.1613055020570755
0.9069766998291016 -0.1782945990562439 -0.1950247436761856
0.9069766998291016 -0.1782945990562439 0.22075846791267395
0.9069766998291016 -0.1627907156944275 -0.19516350328922272
0.9069766998291016 -0.1627907156944275 0.219742089509964
0.9069766998291016 -0.14728683233261108 -0.1951000690460205
0.9069766998291016 -0.14728683233261108 0.220518097281456
0.9069766998291016 -0.13178294897079468 -0.19498543441295624
0.9069766998291016 -0.13178294897079468 0.22091315686702728
0.9069766998291016 -0.11627906560897827 -0.1949237883090973
0.9069766998291016 -0.11627906560897827 0.22149217128753662
0.9069766998291016 -0.10077518224716187 -0.1948584020137787
0.9069766998291016 -0.10077518224716187 0.22249945998191833
0.9069766998291016 -0.08527129888534546 -0.19487647712230682
0.9069766998291016 -0.08527129888534546 0.22405919432640076
0.9069766998291016 -0.06976741552352905 -0.19488473236560822
0.9069766402244568 -0.06976741552352905 0.2251337617635727
0.9069766998291016 -0.05426359176635742 -0.1947479248046875
0.9069766998291016 -0.05426359176635742 0.22564272582530975
0.9069766998291016 -0.038759708404541016 -0.19459028542041779
0.9069767594337463 -0.038759708404541016 0.22593319416046143
0.9069766998291016 -0.02325582504272461 -0.19432373344898224
0.9069766998291016 -0.02325582504272461 0.22603312134742737
0.9069766998291016 -0.007751941680908203 -0.19398541748523712
0.9069766998291016 -0.007751941680908203 0.226129949092865
0.9069766998291016 0.007751941680908203 -0.1934700608253479
0.9069766998291016 0.007751941680908203 0.226163849234581
0.9069766998291016 0.02325582504272461 -0.1931372880935669
0.9069766998291016 0.02325582318007946 0.22608402371406555
0.9069766998291016 0.038759708404541016 -0.19310110807418823
0.9069766998291016 0.038759708404541016 0.22588440775871277
0.9069766998291016 0.05426359176635742 -0.193386048078537
0.9069766998291016 0.05426359176635742 0.2255631685256958
0.9069766998291016 0.06976747512817383 -0.19370301067829132
0.9069766402244568 0.06976746767759323 0.2252219319343567
0.9069766998291016 0.08527135848999023 -0.19404657185077667
0.9069766998291016 0.08527135848999023 0.2248930186033249
0.9069766998291016 0.10077524185180664 -0.19446608424186707
0.9069766998291016 0.10077524185180664 0.22421252727508545
0.9069766998291016 0.11627912521362305 -0.19471906125545502
0.9069766998291016 0.11627912521362305 0.22352032363414764
0.9069766998291016 0.1317828893661499 -0.1948554962873459
0.9069766998291016 0.1317828893661499 0.22270309925079346
0.9069766998291016 0.1472867727279663 -0.1949274092912674
0.9069766998291016 0.1472867727279663 0.2210717797279358
0.9069766998291016 0.16279065608978271 -0.19490186870098114
0.9069766998291016 0.16279065608978271 0.21956577897071838
0.9069766998291016 0.17829453945159912 -0.1945062279701233
0.9069766998291016 0.17829453945159912 0.2214670032262802
0.9069766998291016 0.19379842281341553 -0.18440069258213043
0.9069767594337463 0.19379842281341553 -0.15973186492919922
0.922480583190918 -0.19379842281341553 -0.1828749179840088
0.9224805235862732 -0.19379842281341553 -0.1593201607465744
0.922480583190918 -0.1782945990562439 -0.19497908651828766
0.922480583190918 -0.1782945990562439 0.21842165291309357
0.922480583190918 -0.1627907156944275 -0.19516697525978088
0.922480583190918 -0.1627907156944275 0.21757352352142334
0.922480583190918 -0.14728683233261108 -0.19512173533439636
0.922480583190918 -0.14728683233261108 0.21820387244224548
0.922480583190918 -0.13178294897079468 -0.19503434002399445
0.922480583190918 -0.13178294897079468 0.21836939454078674
0.922480583190918 -0.11627906560897827 -0.19499710202217102
0.922480583190918 -0.11627906560897827 0.21854346990585327
0.922480583190918 -0.10077518224716187 -0.1949521005153656
0.922480583190918 -0.10077518224716187 0.21883821487426758
0.922480583190918 -0.08527129888534546 -0.19498775899410248
0.922480583190918 -0.08527129888534546 0.21922951936721802
0.922480583190918 -0.06976741552352905 -0.19501586258411407
0.922480583190918 -0.06976741552352905 0.21964818239212036
0.922480583190918 -0.05426359176635742 -0.19490918517112732
0.922480583190918 -0.05426359176635742 0.220158651471138
0.922480583190918 -0.038759708404541016 -0.1948116421699524
0.922480583190918 -0.038759708404541016 0.22061830759048462
0.922480583190918 -0.02325582504272461 -0.19465552270412445
0.922480583190918 -0.02325582504272461 0.22084492444992065
0.922480583190918 -0.007751941680908203 -0.19442787766456604
0.922480583190918 -0.007751941680908203 0.22095590829849243
0.922480583190918 0.007751941680908203 -0.19412563741207123
0.922480583190918 0.007751941680908203 0.22090308368206024
0.922480583190918 0.02325582504272461 -0.1939258873462677
0.922480583190918 0.02325582504272461 0.22081473469734192
0.922480583190918 0.038759708404541016 -0.19383233785629272
0.922480583190918 0.038759708404541016 0.22056840360164642
0.922480583190918 0.05426359176635742 -0.19387972354888916
0.922480583190918 0.05426359176635742 0.22014585137367249
0.922480583190918 0.06976747512817383 -0.1939380168914795
0.922480583190918 0.06976747512817383 0.21982441842556
0.922480583190918 0.08527135848999023 -0.1941516399383545
0.922480583190918 0.08527135848999023 0.21961036324501038
0.922480583190918 0.10077524185180664 -0.19449736177921295
0.922480583190918 0.10077524185180664 0.21946516633033752
0.922480583190918 0.11627912521362305 -0.19468095898628235
0.922480583190918 0.11627912521362305 0.2192947268486023
0.922480583190918 0.1317828893661499 -0.1947559267282486
0.922480583190918 0.1317828893661499 0.21895083785057068
0.922480583190918 0.1472867727279663 -0.19480283558368683
0.922480583190918 0.1472867727279663 0.21809029579162598
0.922480583190918 0.16279065608978271 -0.19479882717132568
0.922480583190918 0.16279065608978271 0.21717405319213867
0.922480583190918 0.17829453945159912 -0.19445417821407318
0.922480583190918 0.17829453945159912 0.2180567979812622
0.922480583190918 0.19379842281341553 -0.18369454145431519
0.9224806427955627 0.19379842281341553 -0.16256827116012573
0.9379844665527344 -0.19379842281341553 -0.1823224127292633
0.9379845261573792 -0.19379842281341553 -0.1591069996356964
0.9379844665527344 -0.19379842281341553 0.04378274083137512
0.9379844665527344 -0.19379842281341553 0.2044857144355774
0.9379844665527344 -0.1782945990562439 -0.19494803249835968
0.9379844665527344 -0.1782945990562439 0.2160949856042862
0.9379844665527344 -0.1627907156944275 -0.19512087106704712
0.9379844665527344 -0.1627907156944275 0.2156713604927063
0.9379844665527344 -0.14728683233261108 -0.1950436383485794
0.9379844665527344 -0.14728683233261108 0.2156708687543869
0.9379844665527344 -0.13178294897079468 -0.19497017562389374
0.9379844665527344 -0.13178294897079468 0.2154950201511383
0.9379844665527344 -0.11627906560897827 -0.19495683908462524
0.9379844665527344 -0.11627906560897827 0.21547402441501617
0.9379844665527344 -0.10077518224716187 -0.19491520524024963
0.9379844665527344 -0.10077518224716187 0.21575450897216797
0.9379844665527344 -0.08527129888534546 -0.19493931531906128
0.9379844665527344 -0.08527129888534546 0.21614623069763184
0.9379844665527344 -0.06976741552352905 -0.19496628642082214
0.9379844665527344 -0.06976741552352905 0.21644511818885803
0.9379844665527344 -0.05426359176635742 -0.19488996267318726
0.9379844665527344 -0.05426359176635742 0.2167881727218628
0.9379844665527344 -0.038759708404541016 -0.19484825432300568
0.9379844665527344 -0.038759708404541016 0.21706989407539368
0.9379844665527344 -0.02325582504272461 -0.19477443397045135
0.9379844665527344 -0.02325582504272461 0.21720121800899506
0.9379844665527344 -0.007751941680908203 -0.1946307271718979
0.9379844665527344 -0.007751941680908203 0.2172205001115799
0.9379844665527344 0.007751941680908203 -0.19435887038707733
0.9379844665527344 0.007751941680908203 0.21711097657680511
0.9379844665527344 0.02325582504272461 -0.19411900639533997
0.9379844665527344 0.02325582504272461 0.21700477600097656
0.9379844665527344 0.038759708404541016 -0.1939609795808792
0.9379844665527344 0.038759708404541016 0.21676582098007202
0.9379844665527344 0.05426359176635742 -0.1939474642276764
0.9379844665527344 0.05426359176635742 0.21642716228961945
0.9379844665527344 0.06976747512817383 -0.193952277302742
0.9379844665527344 0.06976747512817383 0.21636943519115448
0.9379844665527344 0.08527135848999023 -0.19411897659301758
0.9379844665527344 0.08527135848999023 0.2164386659860611
0.9379844665527344 0.10077524185180664 -0.19441786408424377
0.9379844665527344 0.10077524185180664 0.21654483675956726
0.9379844665527344 0.11627912521362305 -0.19455046951770782
0.9379844665527344 0.11627912521362305 0.21661800146102905
0.9379844665527344 0.1317828893661499 -0.19457784295082092
0.9379844665527344 0.1317828893661499 0.21652990579605103
0.9379844665527344 0.1472867727279663 -0.19461795687675476
0.9379844665527344 0.1472867727279663 0.21613556146621704
0.9379844665527344 0.16279065608978271 -0.19464197754859924
0.9379844665527344 0.16279065608978271 0.21578329801559448
0.9379844665527344 0.17829453945159912 -0.1943572610616684
0.9379844665527344 0.17829453945159912 0.216162770986557
0.9379844665527344 0.19379842281341553 -0.18241576850414276
0.9379844665527344 0.19379842281341553 -0.16414305567741394
0.9534883499145508 -0.19379842281341553 -0.18141847848892212
0.9534883499145508 -0.19379842281341553 -0.15592074394226074
0.9534883499145508 -0.19379842281341553 -0.009172910824418068
0.9534883499145508 -0.19379842281341553 0.20112505555152893
0.9534883499145508 -0.1782945990562439 -0.19459205865859985
0.9534883499145508 -0.1782945990562439 0.2108931541442871
0.9534883499145508 -0.1627907156944275 -0.19471876323223114
0.9534883499145508 -0.1627907156944275 0.20969858765602112
0.9534883499145508 -0.14728683233261108 -0.1946263164281845
0.9534883499145508 -0.14728684723377228 0.20931485295295715
0.9534883499145508 -0.13178294897079468 -0.19456639885902405
0.9534883499145508 -0.13178294897079468 0.20855900645256042
0.9534883499145508 -0.11627906560897827 -0.19455763697624207
0.9534883499145508 -0.11627906560897827 0.20803488790988922
0.9534883499145508 -0.10077518224716187 -0.19451051950454712
0.9534883499145508 -0.10077518224716187 0.20788994431495667
0.9534883499145508 -0.08527129888534546 -0.19451706111431122
0.9534883499145508 -0.08527129888534546 0.20787407457828522
0.9534883499145508 -0.06976741552352905 -0.19453749060630798
0.9534883499145508 -0.06976741552352905 0.2077793926000595
0.9534883499145508 -0.05426359176635742 -0.19448432326316833
0.9534883499145508 -0.05426359176635742 0.20783023536205292
0.9534883499145508 -0.038759708404541016 -0.19447992742061615
0.9534883499145508 -0.038759708404541016 0.2080017775297165
0.9534883499145508 -0.02325582504272461 -0.19446636736392975
0.9534883499145508 -0.02325582504272461 0.2081560641527176
0.9534883499145508 -0.007751941680908203 -0.1943802684545517
0.9534883499145508 -0.007751941680908203 0.20813511312007904
0.9534883499145508 0.007751941680908203 -0.19414156675338745
0.9534883499145508 0.007751941680908203 0.20796960592269897
0.9534883499145508 0.02325582504272461 -0.1938932240009308
0.9534883499145508 0.02325582504272461 0.2079647332429886
0.9534883499145508 0.03875970467925072 -0.19361303746700287
0.9534883499145508 0.038759708404541016 0.2079063206911087
0.9534883499145508 0.05426359176635742 -0.19350318610668182
0.9534883499145508 0.05426359176635742 0.2078114151954651
0.9534883499145508 0.06976747512817383 -0.19342949986457825
0.9534883499145508 0.06976747512817383 0.20814476907253265
0.9534883499145508 0.08527135848999023 -0.1937665492296219
0.9534883499145508 0.08527135848999023 0.20863428711891174
0.9534883499145508 0.10077524185180664 -0.19402825832366943
0.9534883499145508 0.10077524185180664 0.2090628743171692
0.9534883499145508 0.11627912521362305 -0.19411441683769226
0.9534884095191956 0.11627912521362305 0.20945589244365692
0.9534883499145508 0.1317828893661499 -0.19410188496112823
0.9534883499145508 0.1317828893661499 0.2098308950662613
0.9534883499145508 0.1472867727279663 -0.19413034617900848
0.9534883499145508 0.1472867727279663 0.2103016972541809
0.9534883499145508 0.16279065608978271 -0.1941571682691574
0.9534883499145508 0.16279065608978271 0.2111523598432541
0.9534883499145508 0.17829453945159912 -0.19393271207809448
0.9534883499145508 0.17829453945159912 0.21283823251724243
0.9534883499145508 0.19379842281341553 -0.18087351322174072
0.9534883499145508 0.19379842281341553 -0.16495028138160706
0.9689922332763672 -0.19379842281341553 -0.18094828724861145
0.9689922332763672 -0.19379842281341553 -0.13588683307170868
0.9689922332763672 -0.19379842281341553 -0.07116925716400146
0.968992292881012 -0.19379842281341553 0.16983720660209656
0.9689922332763672 -0.1782945990562439 -0.19385090470314026
0.9689922332763672 -0.1782945990562439 0.1973515748977661
0.9689922332763672 -0.1627907156944275 -0.1944090873003006
0.9689922332763672 -0.1627907156944275 0.19499818980693817
0.9689922332763672 -0.14728683233261108 -0.19444817304611206
0.9689922332763672 -0.14728683233261108 0.18264220654964447
0.9689922332763672 -0.13178294897079468 -0.19438597559928894
0.9689922332763672 -0.13178294897079468 0.17881391942501068
0.9689922332763672 -0.11627906560897827 -0.19427745044231415
0.9689922332763672 -0.11627906560897827 0.17641615867614746
0.9689922332763672 -0.10077518224716187 -0.19419828057289124
0.9689922332763672 -0.10077518224716187 0.17586106061935425
0.9689922332763672 -0.08527129888534546 -0.194240003824234
0.9689922332763672 -0.08527129888534546 0.1778571754693985
0.9689922332763672 -0.06976741552352905 -0.19427995383739471
0.9689922332763672 -0.06976741552352905 0.18069984018802643
0.9689922332763672 -0.05426359176635742 -0.1942339986562729
0.9689922332763672 -0.05426359176635742 0.18322375416755676
0.9689922332763672 -0.038759708404541016 -0.19425678253173828
0.9689922332763672 -0.038759708404541016 0.185989648103714
0.9689922332763672 -0.02325582504272461 -0.19430071115493774
0.9689922332763672 -0.02325582504272461 0.1889146864414215
0.9689922332763672 -0.007751941680908203 -0.1942775994539261
0.9689922332763672 -0.007751941680908203 0.19034545123577118
0.9689922332763672 0.007751941680908203 -0.19405734539031982
0.9689922332763672 0.007751941680908203 0.19016529619693756
0.9689922332763672 0.02325582504272461 -0.19371747970581055
0.9689922332763672 0.02325582504272461 0.1890203356742859
0.9689922332763672 0.038759708404541016 -0.1931540071964264
0.9689922332763672 0.038759708404541016 0.18595805764198303
0.9689922332763672 0.05426359176635742 -0.192863330245018
0.9689922332763672 0.05426358804106712 0.18274515867233276
0.968992292881012 0.06976747512817383 -0.19256365299224854
0.9689922332763672 0.06976747512817383 0.18178312480449677
0.968992292881012 0.08527136594057083 -0.19275109469890594
0.9689922332763672 0.08527135848999023 0.18130964040756226
0.9689922332763672 0.10077524930238724 -0.19339784979820251
0.9689921736717224 0.10077524185180664 0.1823951154947281
0.9689922332763672 0.11627912521362305 -0.19366712868213654
0.9689922332763672 0.11627912521362305 0.18385419249534607
0.9689922332763672 0.1317828893661499 -0.19370806217193604
0.9689922332763672 0.1317828893661499 0.1837686002254486
0.9689922332763672 0.1472867727279663 -0.1938512921333313
0.9689922332763672 0.1472867727279663 0.18300491571426392
0.9689922332763672 0.16279065608978271 -0.19389434158802032
0.9689921736717224 0.16279065608978271 0.19416546821594238
0.9689921736717224 0.17829452455043793 -0.1923891007900238
0.9689922332763672 0.17829453945159912 0.19868400692939758
0.9689922332763672 0.19379842281341553 -0.17928674817085266
0.9689922332763672 0.19379840791225433 -0.14661212265491486
0.9689922332763672 0.19379842281341553 0.05764559656381607
0.9689922332763672 0.19379842281341553 0.14924003183841705
0.9844961166381836 -0.19379842281341553 -0.18078166246414185
0.9844961166381836 -0.19379842281341553 -0.14665406942367554
0.9844961166381836 -0.1782945990562439 -0.19056415557861328
0.9844961166381836 -0.1782945990562439 -0.10694380849599838
0.9844961762428284 -0.1627907156944275 -0.19115011394023895
0.9844961166381836 -0.1627907156944275 -0.1054147481918335
0.9844960570335388 -0.14728683233261108 -0.19081322848796844
0.9844961166381836 -0.14728683233261108 -0.10457858443260193
0.9844961166381836 -0.13178294897079468 -0.1904822289943695
0.9844961166381836 -0.13178294897079468 -0.10456355661153793
0.9844961166381836 -0.11627906560897827 -0.19020605087280273
0.9844961166381836 -0.11627906560897827 -0.10469187796115875
0.9844960570335388 -0.10077518224716187 -0.1902000606060028
0.9844961166381836 -0.10077518224716187 -0.10461224615573883
0.9844961166381836 -0.08527129888534546 -0.1905958652496338
0.9844961166381836 -0.08527129888534546 -0.10415393114089966
0.9844961166381836 -0.06976741552352905 -0.19104230403900146
0.9844961166381836 -0.06976741552352905 -0.10364901274442673
0.9844961166381836 -0.05426359176635742 -0.19129513204097748
0.9844961166381836 -0.05426359176635742 -0.10335084795951843
0.9844961166381836 -0.038759708404541016 -0.19164714217185974
0.9844961166381836 -0.038759708404541016 -0.10307801514863968
0.9844961166381836 -0.02325582504272461 -0.19215616583824158
0.9844961166381836 -0.02325582504272461 -0.10314051061868668
0.9844961166381836 -0.007751941680908203 -0.19247794151306152
0.9844961166381836 -0.007751941680908203 -0.10359132289886475
0.9844961166381836 0.007751941215246916 -0.1915702521800995
0.9844961166381836 0.007751941680908203 -0.1045663058757782
0.9844961166381836 0.02325582504272461 -0.19035156071186066
0.9844961166381836 0.02325582504272461 -0.10570990294218063
0.9844961166381836 0.038759708404541016 -0.18950232863426208
0.9844961166381836 0.038759708404541016 -0.10654417425394058
0.9844961166381836 0.05426359176635742 -0.18903398513793945
0.9844961166381836 0.05426359176635742 -0.10700379312038422
0.9844961166381836 0.06976747512817383 -0.18867133557796478
0.9844961166381836 0.06976747512817383 -0.10715597867965698
0.9844961166381836 0.08527135848999023 -0.1886633336544037
