-0.2413913458585739 0.11627912521362305 -0.4728682041168213
-0.2420153021812439 0.11627912521362305 -0.4573643207550049
-0.24286727607250214 0.11627912521362305 -0.4418604373931885
-0.24408197402954102 0.11627912521362305 -0.42635661363601685
-0.24525517225265503 0.11627912521362305 -0.41085273027420044
-0.24624185264110565 0.11627912521362305 -0.39534884691238403
-0.246970534324646 0.11627912521362305 -0.3798449635505676
-0.24831265211105347 0.11627912521362305 -0.3643410801887512
-0.25040358304977417 0.11627912521362305 -0.3488371968269348
-0.2536574602127075 0.11627912521362305 -0.3333333134651184
-0.2556934952735901 0.11627912521362305 0.24031008780002594
-0.24057437479496002 0.1317828893661499 -0.39534884691238403
-0.24126699566841125 0.1317828893661499 -0.3798449635505676
-0.24260421097278595 0.1317828893661499 -0.3643410801887512
-0.24435338377952576 0.1317828893661499 -0.3488371968269348
-0.24624496698379517 0.1317828893661499 -0.3333333134651184
-0.24822933971881866 0.1317828893661499 -0.317829430103302
-0.25039729475975037 0.1317828893661499 -0.30232560634613037
-0.25201112031936646 0.1317828893661499 -0.28682172298431396
-0.25319546461105347 0.1317828893661499 -0.27131783962249756
-0.2537115216255188 0.1317828893661499 -0.25581395626068115
-0.25310230255126953 0.1317828893661499 -0.24031008780002594
-0.25178512930870056 0.1317828893661499 -0.22480620443820953
-0.249810591340065 0.1317828893661499 -0.20930230617523193
-0.2482685148715973 0.1317828893661499 -0.19379842281341553
-0.24752002954483032 0.1317828893661499 -0.1782945990562439
-0.24830424785614014 0.1317828893661499 -0.1627907156944275
-0.2496420294046402 0.1317828893661499 -0.14728683233261108
-0.251595139503479 0.1317828893661499 -0.13178294897079468
-0.254006564617157 0.1317828893661499 -0.11627907305955887
-0.2548004984855652 0.1317828893661499 0.02325582504272461
-0.25388962030410767 0.1317828893661499 0.038759708404541016
-0.253683865070343 0.1317828893661499 0.05426359176635742
-0.25393369793891907 0.1317828893661499 0.06976747512817383
-0.25449976325035095 0.1317828893661499 0.08527135848999023
-0.2553769052028656 0.1317828893661499 0.10077524185180664
-0.2541484832763672 0.1317828893661499 0.17829453945159912
-0.2516094446182251 0.1317828893661499 0.19379842281341553
-0.24973149597644806 0.1317828893661499 0.20930230617523193
-0.24891385436058044 0.1317828893661499 0.22480618953704834
-0.24898797273635864 0.1317828893661499 0.24031007289886475
-0.2500452995300293 0.1317828893661499 0.25581395626068115
-0.2509341835975647 0.1317828893661499 0.27131783962249756
-0.251076340675354 0.1317828893661499 0.28682172298431396
-0.2512860894203186 0.1317828893661499 0.30232560634613037
-0.2522448003292084 0.1317828893661499 0.3178294897079468
-0.25388455390930176 0.1317828893661499 0.3333333730697632
-0.25200769305229187 0.1317828893661499 0.4883720874786377
-0.2494025081396103 0.1317828893661499 0.5038759708404541
-0.2548474073410034 0.1317828893661499 0.5193798542022705
-0.24606123566627502 0.1317828893661499 0.5813953876495361
-0.240555539727211 0.1472867727279663 -0.317829430103302
-0.24161091446876526 0.1472867727279663 -0.30232560634613037
-0.24258120357990265 0.1472867727279663 -0.28682172298431396
-0.24337080121040344 0.1472867727279663 -0.27131783962249756
-0.243775874376297 0.1472867727279663 -0.25581395626068115
-0.2433365285396576 0.1472867727279663 -0.24031007289886475
-0.24236150085926056 0.1472867727279663 -0.22480618953704834
-0.241224005818367 0.1472867727279663 -0.20930230617523193
-0.24059562385082245 0.1472867727279663 -0.19379842281341553
-0.2403334379196167 0.1472867727279663 -0.1782945990562439
-0.24071286618709564 0.1472867727279663 -0.1627907156944275
-0.24132880568504333 0.1472867727279663 -0.14728683233261108
-0.24235352873802185 0.1472867727279663 -0.13178294897079468
-0.24380268156528473 0.1472867727279663 -0.11627906560897827
-0.24570436775684357 0.1472867727279663 -0.10077518224716187
-0.2471795380115509 0.1472867727279663 -0.08527129888534546
-0.2481135129928589 0.1472867727279663 -0.06976741552352905
-0.24849581718444824 0.1472867727279663 -0.05426359176635742
-0.24873070418834686 0.1472867727279663 -0.038759708404541016
-0.24850767850875854 0.1472867727279663 -0.02325582504272461
-0.24773815274238586 0.1472867727279663 -0.007751941680908203
-0.24687643349170685 0.1472867727279663 0.007751941680908203
-0.2458847463130951 0.1472867727279663 0.02325582504272461
-0.24520403146743774 0.1472867727279663 0.038759708404541016
-0.24496117234230042 0.1472867727279663 0.05426359176635742
-0.24518759548664093 0.1472867727279663 0.06976747512817383
-0.24558013677597046 0.1472867727279663 0.08527135848999023
-0.2461911141872406 0.1472867727279663 0.10077524185180664
-0.24950295686721802 0.1472867727279663 0.11627912521362305
-0.25202950835227966 0.1472867727279663 0.1317828893661499
-0.25217050313949585 0.1472867727279663 0.1472867727279663
-0.25021448731422424 0.1472867727279663 0.16279065608978271
-0.2462218701839447 0.1472867727279663 0.17829453945159912
-0.2444707602262497 0.1472867727279663 0.19379842281341553
-0.24282827973365784 0.1472867727279663 0.20930230617523193
-0.24195866286754608 0.1472867727279663 0.22480618953704834
-0.24198174476623535 0.1472867727279663 0.24031007289886475
-0.24272528290748596 0.1472867727279663 0.25581395626068115
-0.24352237582206726 0.1472867727279663 0.27131783962249756
-0.2437427043914795 0.1472867727279663 0.28682172298431396
-0.24383124709129333 0.1472867727279663 0.30232560634613037
-0.2445087730884552 0.1472867727279663 0.3178294897079468
-0.24599607288837433 0.1472867727279663 0.3333333730697632
-0.24779531359672546 0.1472867727279663 0.3488372564315796
-0.2488526999950409 0.1472867727279663 0.364341139793396
-0.24991321563720703 0.1472867727279663 0.37984490394592285
-0.25342652201652527 0.1472867727279663 0.39534878730773926
-0.25504565238952637 0.1472867727279663 0.4418604373931885
-0.24725642800331116 0.1472867727279663 0.4573643207550049
-0.24526473879814148 0.1472867727279663 0.4728682041168213
-0.24171748757362366 0.1472867727279663 0.4883720874786377
-0.24073633551597595 0.1472867727279663 0.5038759708404541
-0.24548561871051788 0.1472867727279663 0.5193798542022705
-0.24467456340789795 0.16279065608978271 -0.7364341020584106
-0.2491663694381714 0.16279065608978271 -0.643410861492157
-0.24101650714874268 0.16279065608978271 0.11627912521362305
-0.2439042329788208 0.16279065608978271 0.1317828893661499
-0.2442050576210022 0.16279065608978271 0.1472867727279663
-0.2421657145023346 0.16279065608978271 0.16279065608978271
-0.24033190310001373 0.16279065608978271 0.364341139793396
-0.24116604030132294 0.16279065608978271 0.37984490394592285
-0.24387706816196442 0.16279065608978271 0.39534878730773926
-0.24802866578102112 0.16279065608978271 0.41085267066955566
-0.24824228882789612 0.16279065608978271 0.42635655403137207
-0.24348948895931244 0.16279065608978271 0.4418604373931885
-0.24803686141967773 0.16279065608978271 0.5658915042877197
-0.2519237995147705 0.17829453945159912 -0.7209302186965942
-0.25408220291137695 0.19379842281341553 -0.7054263949394226
-0.24932017922401428 0.19379842281341553 -0.6589146852493286
-0.2521182894706726 0.19379842281341553 0.5503876209259033
-0.24973559379577637 0.20930230617523193 -0.6899224519729614
-0.24927355349063873 0.20930230617523193 -0.674418568611145
-0.2484544962644577 0.22480618953704834 0.5348837375640869
-0.22579701244831085 -0.24031007289886475 -0.6899224519729614
-0.23510155081748962 -0.24031005799770355 0.5348837375640869
-0.228495791554451 -0.22480618953704834 -0.7054263353347778
-0.23781532049179077 -0.22480618953704834 -0.674418568611145
-0.2337646335363388 -0.20930230617523193 -0.6589146852493286
-0.23769181966781616 -0.20930230617523193 0.5503876209259033
-0.23166021704673767 -0.19379842281341553 -0.7209302186965942
-0.22730447351932526 -0.19379842281341553 0.1317828893661499
-0.22727015614509583 -0.19379842281341553 0.1472867727279663
-0.23124876618385315 -0.1782945990562439 -0.643410861492157
-0.22487710416316986 -0.1782945990562439 -0.10077518224716187
-0.22659336030483246 -0.1782945990562439 -0.08527129888534546
-0.2282184660434723 -0.1782945990562439 -0.06976741552352905
-0.22910162806510925 -0.1782945990562439 -0.05426359176635742
-0.22955596446990967 -0.1782945990562439 -0.038759708404541016
-0.22931545972824097 -0.1782945990562439 -0.02325582504272461
-0.22914475202560425 -0.1782945990562439 -0.007751941680908203
-0.22898849844932556 -0.1782945990562439 0.007751941680908203
-0.2285773605108261 -0.1782945990562439 0.02325582504272461
-0.22835201025009155 -0.1782945990562439 0.038759708404541016
-0.2281002402305603 -0.1782945990562439 0.05426359176635742
-0.22855690121650696 -0.1782945990562439 0.06976747512817383
-0.22895213961601257 -0.1782945990562439 0.08527135848999023
-0.22955024242401123 -0.1782945990562439 0.10077524185180664
-0.2318580001592636 -0.1782945990562439 0.11627912521362305
-0.23443670570850372 -0.1782945990562439 0.1317828893661499
-0.23447328805923462 -0.1782945990562439 0.1472867727279663
-0.23239688575267792 -0.1782945990562439 0.16279065608978271
-0.22963571548461914 -0.1782945990562439 0.17829453945159912
-0.22896115481853485 -0.1782945990562439 0.19379842281341553
-0.2281269133090973 -0.1782945990562439 0.20930230617523193
-0.22742053866386414 -0.1782945990562439 0.22480618953704834
-0.2277999222278595 -0.1782945990562439 0.24031007289886475
-0.2285163402557373 -0.1782945990562439 0.25581395626068115
-0.2288445234298706 -0.1782945990562439 0.27131783962249756
-0.2293192446231842 -0.1782945990562439 0.28682172298431396
-0.22923430800437927 -0.1782945990562439 0.30232560634613037
-0.22912248969078064 -0.1782945990562439 0.3178294897079468
-0.22856676578521729 -0.1782945990562439 0.3333333730697632
-0.22792886197566986 -0.1782945990562439 0.3488372564315796
-0.2276380956172943 -0.1782945990562439 0.364341139793396
-0.22742319107055664 -0.1782945990562439 0.37984490394592285
-0.22895416617393494 -0.1782945990562439 0.39534878730773926
-0.2311156988143921 -0.1782945990562439 0.41085267066955566
-0.23070508241653442 -0.1782945990562439 0.42635655403137207
-0.2264137715101242 -0.1782945990562439 0.4418604373931885
-0.23456501960754395 -0.1782945990562439 0.5658915042877197
-0.22856178879737854 -0.1627907156944275 -0.7364341020584106
-0.2253996729850769 -0.1627907156944275 -0.317829430103302
-0.2267884761095047 -0.1627907156944275 -0.30232560634613037
-0.22765012085437775 -0.1627907156944275 -0.28682172298431396
-0.22823035717010498 -0.1627907156944275 -0.27131783962249756
-0.2287437915802002 -0.1627907156944275 -0.25581395626068115
-0.2285928577184677 -0.1627907156944275 -0.24031007289886475
-0.2276795208454132 -0.1627907156944275 -0.22480618953704834
-0.22717563807964325 -0.1627907156944275 -0.20930230617523193
-0.22735212743282318 -0.1627907156944275 -0.19379842281341553
-0.22763463854789734 -0.1627907156944275 -0.1782945990562439
-0.22861528396606445 -0.1627907156944275 -0.1627907156944275
-0.22992658615112305 -0.1627907156944275 -0.14728683233261108
-0.23132666945457458 -0.1627907156944275 -0.13178294897079468
-0.232697993516922 -0.1627907156944275 -0.11627906560897827
-0.23435106873512268 -0.1627907156944275 -0.10077518224716187
-0.23581627011299133 -0.1627907156944275 -0.08527129888534546
-0.23706141114234924 -0.1627907156944275 -0.06976741552352905
-0.23774775862693787 -0.1627907156944275 -0.05426359176635742
-0.23820535838603973 -0.1627907156944275 -0.038759708404541016
-0.2378596067428589 -0.1627907156944275 -0.02325582504272461
-0.23735575377941132 -0.1627907156944275 -0.007751941680908203
-0.236884206533432 -0.1627907156944275 0.007751941680908203
-0.2362167090177536 -0.1627907156944275 0.02325582504272461
-0.2357509732246399 -0.1627907156944275 0.038759708404541016
-0.23540283739566803 -0.1627907156944275 0.05426359549164772
-0.2356254607439041 -0.1627907156944275 0.06976747512817383
-0.23583939671516418 -0.1627907156944275 0.08527135848999023
-0.2362460345029831 -0.1627907156944275 0.10077524185180664
-0.23640146851539612 -0.1627907156944275 0.17829453945159912
-0.23557408154010773 -0.1627907156944275 0.19379842281341553
-0.23457594215869904 -0.1627907156944275 0.20930230617523193
-0.23375767469406128 -0.1627907156944275 0.22480618953704834
-0.2346276342868805 -0.1627907156944275 0.24031007289886475
-0.23525546491146088 -0.1627907156944275 0.25581395626068115
-0.2358652651309967 -0.1627907156944275 0.27131783962249756
-0.23642386496067047 -0.1627907156944275 0.28682172298431396
-0.23634302616119385 -0.1627907156944275 0.30232560634613037
-0.23651063442230225 -0.1627907156944275 0.3178294897079468
-0.2364703267812729 -0.1627907156944275 0.3333333730697632
-0.2360106110572815 -0.1627907156944275 0.3488372564315796
-0.2358730435371399 -0.1627907156944275 0.364341139793396
-0.2357909381389618 -0.1627907156944275 0.37984490394592285
-0.23763233423233032 -0.1627907156944275 0.39534878730773926
-0.234511137008667 -0.1627907156944275 0.4418604373931885
-0.22893786430358887 -0.1627907156944275 0.4573643207550049
-0.22728745639324188 -0.1627907156944275 0.4728682041168213
-0.23188775777816772 -0.1627907156944275 0.5193798542022705
-0.23901118338108063 -0.14728683233261108 -0.7364341020584106
-0.2252851128578186 -0.14728683233261108 -0.4728682041168213
-0.2262907326221466 -0.14728683233261108 -0.4573643207550049
-0.22720611095428467 -0.14728683233261108 -0.4418604373931885
-0.22848637402057648 -0.14728683233261108 -0.42635661363601685
-0.22910109162330627 -0.14728683233261108 -0.41085273027420044
-0.2299579679965973 -0.14728683233261108 -0.39534884691238403
-0.23064738512039185 -0.14728683233261108 -0.3798449635505676
-0.23166829347610474 -0.14728683233261108 -0.3643410801887512
-0.23271483182907104 -0.14728683233261108 -0.3488371968269348
-0.23380398750305176 -0.14728683233261108 -0.3333333134651184
-0.23507484793663025 -0.14728683233261108 -0.317829430103302
-0.23665288090705872 -0.14728683233261108 -0.30232560634613037
-0.23770137131214142 -0.14728683233261108 -0.28682172298431396
-0.23847338557243347 -0.14728683233261108 -0.27131783962249756
-0.23881098628044128 -0.14728683233261108 -0.25581395626068115
-0.2383928894996643 -0.14728683233261108 -0.24031008780002594
-0.23739534616470337 -0.14728683233261108 -0.22480618953704834
-0.2368205338716507 -0.14728683233261108 -0.20930230617523193
-0.23692238330841064 -0.14728683233261108 -0.19379842281341553
-0.23714232444763184 -0.14728683233261108 -0.1782945990562439
-0.23818032443523407 -0.14728683233261108 -0.1627907156944275
-0.23987556993961334 -0.14728683233261108 -0.14728683233261108
-0.23823580145835876 -0.14728683233261108 0.4573643207550049
-0.2359919250011444 -0.14728683233261108 0.4728682041168213
-0.22968409955501556 -0.14728683233261108 0.4883720874786377
-0.22853751480579376 -0.14728683233261108 0.5038759708404541
-0.2313242405653 -0.14728683233261108 0.5813953876495361
-0.22843477129936218 -0.13178294897079468 -0.6279069781303406
-0.225936159491539 -0.13178294897079468 -0.5348837375640869
-0.22862064838409424 -0.13178294897079468 -0.5193798542022705
-0.23186202347278595 -0.13178294897079468 -0.5038759708404541
-0.2338687628507614 -0.13178294897079468 -0.4883720874786377
-0.23538371920585632 -0.13178294897079468 -0.4728682041168213
-0.23624351620674133 -0.13178294897079468 -0.4573643207550049
-0.2368239313364029 -0.13178294897079468 -0.4418604373931885
-0.23742347955703735 -0.13178294897079468 -0.42635661363601685
-0.23794731497764587 -0.13178294897079468 -0.41085273027420044
-0.23933464288711548 -0.13178294897079468 -0.39534884691238403
-0.23998023569583893 -0.13178294897079468 0.5038759708404541
-0.23640555143356323 -0.11627906560897827 -0.6279069781303406
-0.225338876247406 -0.11627906560897827 -0.5968992114067078
-0.22672119736671448 -0.11627906560897827 -0.5813953876495361
-0.2288365364074707 -0.11627906560897827 -0.5658915042877197
-0.23153896629810333 -0.11627906560897827 -0.5503876209259033
-0.23497775197029114 -0.11627906560897827 -0.5348837375640869
-0.23806385695934296 -0.11627906560897827 -0.5193798542022705
-0.2308463156223297 -0.11627906560897827 0.5968992710113525
-0.23004946112632751 -0.10077518224716187 -0.6124030947685242
-0.23020410537719727 -0.10077518224716187 -0.5968992114067078
-0.23303377628326416 -0.10077518224716187 -0.5813953876495361
-0.23629407584667206 -0.10077518224716187 -0.5658915042877197
-0.23971664905548096 -0.10077518224716187 -0.5503876209259033
-0.22714366018772125 -0.08527129888534546 -0.751937985420227
-0.23713666200637817 -0.08527129888534546 -0.6124030947685242
-0.23742642998695374 -0.08527130633592606 -0.5968992114067078
-0.23136231303215027 -0.08527129888534546 0.612403154373169
-0.2364087849855423 -0.06976741552352905 -0.751937985420227
-0.2262854427099228 -0.038759708404541016 0.6279069185256958
-0.22913610935211182 -0.02325582504272461 0.6279069185256958
-0.22575856745243073 -0.007751941680908203 -0.8604651689529419
-0.23733067512512207 -0.007751941215246916 0.6279069185256958
-0.2304435670375824 -0.007751941680908203 0.7829457521438599
-0.23064962029457092 -0.007751941680908203 0.8139535188674927
-0.23221006989479065 0.007751941680908203 0.6279069185256958
-0.22850507497787476 0.007751941680908203 0.7829457521438599
-0.23011431097984314 0.007751941680908203 0.8139535188674927
-0.2348451465368271 0.02325582504272461 -0.7984496355056763
-0.2313736230134964 0.02325582504272461 -0.7829457521438599
-0.22642335295677185 0.038759708404541016 -0.7674418687820435
-0.2382035255432129 0.06976747512817383 0.612403154373169
-0.2339276373386383 0.08527135848999023 -0.751937985420227
-0.23570261895656586 0.08527135848999023 -0.6124030947685242
-0.2343418002128601 0.08527135848999023 -0.5968992710113525
-0.23766487836837769 0.08527135103940964 -0.5813953876495361
-0.22596383094787598 0.08527135848999023 0.612403154373169
-0.224970743060112 0.10077524185180664 -0.751937985420227
-0.228861004114151 0.10077524185180664 -0.6124030947685242
-0.2279527485370636 0.10077524185180664 -0.5968992114067078
-0.2300817370414734 0.10077524185180664 -0.5813953876495361
-0.23360446095466614 0.10077524185180664 -0.5658915042877197
-0.23768121004104614 0.10077524185180664 -0.5503876209259033
-0.2262473851442337 0.11627912521362305 -0.5658915042877197
-0.22859697043895721 0.11627912521362305 -0.5503876209259033
-0.23215961456298828 0.11627912521362305 -0.5348837375640869
-0.23563411831855774 0.11627911776304245 -0.5193798542022705
-0.23884722590446472 0.11627912521362305 -0.5038759708404541
-0.23466891050338745 0.11627912521362305 0.5968992710113525
-0.23419292271137238 0.1317828893661499 -0.6279069781303406
-0.22676876187324524 0.1317828893661499 -0.5193798542022705
-0.2298998236656189 0.1317828893661499 -0.5038759708404541
-0.23249326646327972 0.1317828893661499 -0.4883720874786377
-0.234502375125885 0.1317828893661499 -0.4728682041168213
-0.23586338758468628 0.1317828893661499 -0.4573643207550049
-0.23708343505859375 0.1317828893661499 -0.4418604373931885
-0.23850806057453156 0.1317828893661499 -0.42635661363601685
-0.23986370861530304 0.1317828893661499 -0.41085273027420044
-0.22647526860237122 0.1472867727279663 -0.6279069781303406
-0.22593791782855988 0.1472867727279663 -0.4728682041168213
-0.22733059525489807 0.1472867727279663 -0.4573643207550049
-0.22907835245132446 0.1472867727279663 -0.4418604373931885
-0.23116382956504822 0.1472867727279663 -0.42635661363601685
-0.23235133290290833 0.1472867727279663 -0.41085273027420044
-0.2329835444688797 0.1472867727279663 -0.39534884691238403
-0.2338530570268631 0.1472867727279663 -0.3798449635505676
-0.23523013293743134 0.1472867727279663 -0.3643410801887512
-0.23680830001831055 0.1472867727279663 -0.3488371968269348
-0.23882272839546204 0.1472867727279663 -0.3333333134651184
-0.233164444565773 0.1472867727279663 0.5813953876495361
-0.22543451189994812 0.16279065608978271 -0.3798449635505676
-0.22696569561958313 0.16279065608978271 -0.3643410801887512
-0.22841918468475342 0.16279065608978271 -0.3488371968269348
-0.2296099066734314 0.16279065608978271 -0.3333333134651184
-0.23066380620002747 0.16279065608978271 -0.317829430103302
-0.23185059428215027 0.16279065608978271 -0.30232560634613037
-0.23277398943901062 0.16279065608978271 -0.28682172298431396
-0.23344241082668304 0.16279065608978271 -0.27131783962249756
-0.23372238874435425 0.16279065608978271 -0.25581395626068115
-0.23349064588546753 0.16279065608978271 -0.24031007289886475
-0.2328278124332428 0.16279065608978271 -0.22480618953704834
-0.23154082894325256 0.16279065608978271 -0.20930230617523193
-0.2304220348596573 0.16279065608978271 -0.19379842281341553
-0.22982889413833618 0.16279065608978271 -0.1782945990562439
-0.2304742932319641 0.16279065608978271 -0.1627907156944275
-0.2314581274986267 0.16279065608978271 -0.14728683233261108
-0.2328236997127533 0.16279065608978271 -0.13178294897079468
-0.23440805077552795 0.16279065608978271 -0.11627906560897827
-0.23598156869411469 0.16279065608978271 -0.10077518224716187
-0.2370857149362564 0.16279065608978271 -0.08527129888534546
-0.23784030973911285 0.16279065608978271 -0.06976741552352905
-0.2383258193731308 0.16279065608978271 -0.05426358804106712
-0.23865152895450592 0.16279065608978271 -0.038759708404541016
-0.23844903707504272 0.16279065608978271 -0.02325582504272461
-0.2378890961408615 0.16279065608978271 -0.007751941680908203
-0.23721228539943695 0.16279065608978271 0.007751941215246916
-0.23649349808692932 0.16279065608978271 0.02325582504272461
-0.2359451949596405 0.16279065608978271 0.038759708404541016
-0.235599547624588 0.16279065608978271 0.05426359176635742
-0.2355923056602478 0.16279065608978271 0.06976747512817383
-0.23573046922683716 0.16279065608978271 0.08527135848999023
-0.23617476224899292 0.16279065608978271 0.10077524185180664
-0.2374739795923233 0.16279065608978271 0.17829453945159912
-0.23641812801361084 0.16279065608978271 0.19379842281341553
-0.2352534383535385 0.16279065608978271 0.20930230617523193
-0.23430775105953217 0.16279065608978271 0.22480617463588715
-0.23467423021793365 0.16279065608978271 0.24031007289886475
-0.23523779213428497 0.16279065608978271 0.25581395626068115
-0.23612987995147705 0.16279065608978271 0.27131783962249756
-0.23646694421768188 0.16279065608978271 0.28682172298431396
-0.23643378913402557 0.16279065608978271 0.30232560634613037
-0.2367856651544571 0.16279065608978271 0.3178294897079468
-0.237656369805336 0.1627906709909439 0.3333333730697632
-0.23921236395835876 0.16279065608978271 0.3488372564315796
-0.23869267106056213 0.16279065608978271 0.4573643207550049
-0.23709040880203247 0.16279065608978271 0.4728682041168213
-0.23070725798606873 0.16279065608978271 0.4883720874786377
-0.22922003269195557 0.16279065608978271 0.5038759708404541
-0.2379050850868225 0.16279065608978271 0.5193798542022705
-0.23260615766048431 0.17829453945159912 -0.7364341020584106
-0.23590248823165894 0.17829453945159912 -0.643410861492157
-0.22537443041801453 0.17829453945159912 -0.11627906560897827
-0.2264241725206375 0.17829453945159912 -0.10077518224716187
-0.22747334837913513 0.17829453945159912 -0.08527129888534546
-0.22837764024734497 0.17829453945159912 -0.06976741552352905
-0.2289343774318695 0.17829453945159912 -0.05426359176635742
-0.22929158806800842 0.17829453945159912 -0.038759708404541016
-0.22912955284118652 0.17829453945159912 -0.02325582504272461
-0.228653222322464 0.17829453945159912 -0.007751941680908203
-0.227957084774971 0.17829453945159912 0.007751941680908203
-0.22718316316604614 0.17829453945159912 0.02325582504272461
-0.2266952395439148 0.17829453945159912 0.038759708404541016
-0.2264075130224228 0.17829453945159912 0.05426359176635742
-0.22653192281723022 0.17829453945159912 0.06976747512817383
-0.22679373621940613 0.17829453945159912 0.08527135848999023
-0.22746016085147858 0.17829453945159912 0.10077524185180664
-0.23154936730861664 0.17829453945159912 0.11627912521362305
-0.23429277539253235 0.17829453945159912 0.1317828893661499
-0.2346547544002533 0.17829453945159912 0.1472867727279663
-0.23312512040138245 0.17829453945159912 0.16279065608978271
-0.2290794551372528 0.17829453945159912 0.17829453945159912
-0.22805652022361755 0.17829453945159912 0.19379842281341553
-0.227134108543396 0.17829453945159912 0.20930230617523193
-0.22646629810333252 0.17829453945159912 0.22480618953704834
-0.22661364078521729 0.17829453945159912 0.24031007289886475
-0.22696855664253235 0.17829453945159912 0.25581395626068115
-0.2275080382823944 0.17829453945159912 0.27131783962249756
-0.2277829498052597 0.17829453945159912 0.28682172298431396
-0.2276262789964676 0.17829453945159912 0.30232560634613037
-0.22772052884101868 0.17829453945159912 0.3178294897079468
-0.22821468114852905 0.17829453945159912 0.3333333730697632
-0.22943872213363647 0.17829453945159912 0.3488372564315796
-0.23038622736930847 0.17829453945159912 0.364341139793396
-0.23175491392612457 0.17829453945159912 0.37984490394592285
-0.23453639447689056 0.17829453945159912 0.39534878730773926
-0.23843032121658325 0.17829453945159912 0.41085267066955566
-0.23863157629966736 0.17829453945159912 0.42635655403137207
-0.23308807611465454 0.17829453945159912 0.4418604373931885
-0.22710496187210083 0.17829453945159912 0.4573643207550049
-0.2260729819536209 0.17829453945159912 0.4728682041168213
-0.22651901841163635 0.17829453945159912 0.5193798542022705
-0.23300352692604065 0.17829453945159912 0.5658915042877197
-0.238095223903656 0.19379842281341553 -0.7209302186965942
-0.2251558005809784 0.19379842281341553 0.1317828893661499
-0.22564317286014557 0.19379842281341553 0.1472867727279663
-0.22665220499038696 0.19379842281341553 0.41085267066955566
-0.2263055294752121 0.19379842281341553 0.42635655403137207
-0.2397659420967102 0.20930229127407074 -0.7054263353347778
-0.23462378978729248 0.20930230617523193 -0.6589146852493286
-0.2342713177204132 0.20930230617523193 0.5503876209259033
-0.22537444531917572 0.22480618953704834 -0.7054263353347778
-0.2353583574295044 0.22480618953704834 -0.6899224519729614
-0.23486262559890747 0.22480618953704834 -0.674418568611145
-0.23422425985336304 0.24031007289886475 0.5348837375640869
-0.2114529311656952 -0.25581395626068115 -0.6899224519729614
-0.21041661500930786 -0.25581395626068115 -0.674418568611145
-0.21816498041152954 -0.25581395626068115 0.5348837375640869
-0.21627941727638245 -0.24031007289886475 -0.7054263353347778
-0.22459736466407776 -0.24031007289886475 -0.674418568611145
-0.20932400226593018 -0.24031007289886475 -0.6589146852493286
-0.20985981822013855 -0.22480618953704834 -0.7209302186965942
-0.2206534892320633 -0.22480617463588715 -0.6589146852493286
-0.21866461634635925 -0.22480618953704834 0.5503876209259033
-0.21890418231487274 -0.20930230617523193 -0.7209302186965942
-0.21305619180202484 -0.20930230617523193 0.11627912521362305
-0.21688677370548248 -0.20930230617523193 0.1317828893661499
-0.2168656587600708 -0.20930230617523193 0.1472867727279663
-0.21366122364997864 -0.20930230617523193 0.16279065608978271
-0.21138472855091095 -0.20930230617523193 0.41085267066955566
-0.21099570393562317 -0.20930230617523193 0.42635655403137207
-0.21052657067775726 -0.19379842281341553 -0.7364341020584106
-0.21884454786777496 -0.19379842281341553 -0.643410861492157
-0.21036383509635925 -0.19379842281341553 -0.13178294897079468
-0.21240216493606567 -0.19379842281341553 -0.11627906560897827
-0.21462509036064148 -0.19379842281341553 -0.10077518224716187
-0.21635939180850983 -0.19379842281341553 -0.08527129888534546
-0.21771179139614105 -0.19379842281341553 -0.06976741552352905
-0.21835282444953918 -0.19379842281341553 -0.05426359176635742
-0.21871352195739746 -0.19379842281341553 -0.038759708404541016
-0.21851438283920288 -0.19379842281341553 -0.02325582504272461
-0.21847335994243622 -0.19379842281341553 -0.007751941680908203
-0.21854691207408905 -0.19379842281341553 0.007751941680908203
-0.2183709442615509 -0.19379842281341553 0.02325582504272461
-0.2183515876531601 -0.19379842281341553 0.038759708404541016
-0.2183004915714264 -0.19379842281341553 0.05426359176635742
-0.21881118416786194 -0.19379842281341553 0.06976747512817383
-0.21924914419651031 -0.19379842281341553 0.08527135848999023
-0.2198358178138733 -0.19379843771457672 0.10077524185180664
-0.22313430905342102 -0.19379842281341553 0.11627912521362305
-0.22389709949493408 -0.19379842281341553 0.16279065608978271
-0.21977165341377258 -0.19379842281341553 0.17829453945159912
-0.21935106813907623 -0.19379842281341553 0.19379842281341553
-0.21865630149841309 -0.19379842281341553 0.20930229127407074
-0.21778057515621185 -0.19379842281341553 0.22480618953704834
-0.2177702933549881 -0.19379842281341553 0.24031007289886475
-0.21884211897850037 -0.19379842281341553 0.25581395626068115
-0.21954204142093658 -0.19379842281341553 0.27131783962249756
-0.2204405814409256 -0.19379842281341553 0.28682172298431396
-0.2204277664422989 -0.19379840791225433 0.30232560634613037
-0.22012609243392944 -0.19379843771457672 0.3178294897079468
-0.21893158555030823 -0.19379842281341553 0.3333333730697632
-0.21731692552566528 -0.19379842281341553 0.3488372564315796
-0.21639135479927063 -0.19379842281341553 0.364341139793396
-0.21644827723503113 -0.19379842281341553 0.37984490394592285
-0.2198839783668518 -0.19379842281341553 0.39534878730773926
-0.222962886095047 -0.19379842281341553 0.41085267066955566
-0.22247646749019623 -0.19379843771457672 0.42635655403137207
-0.2165810763835907 -0.19379842281341553 0.4418604373931885
-0.21064028143882751 -0.19379842281341553 0.4573643207550049
-0.21071907877922058 -0.19379842281341553 0.5193798542022705
-0.21688568592071533 -0.19379842281341553 0.5658915042877197
-0.22008492052555084 -0.1782945990562439 -0.7364341020584106
-0.21061518788337708 -0.1782945990562439 -0.3643410801887512
-0.2122572511434555 -0.1782945990562439 -0.3488371968269348
-0.21323993802070618 -0.1782945990562439 -0.3333333134651184
-0.21440434455871582 -0.1782945990562439 -0.317829430103302
-0.21587693691253662 -0.1782945990562439 -0.30232560634613037
-0.21679189801216125 -0.1782945990562439 -0.28682172298431396
-0.21739643812179565 -0.1782945990562439 -0.27131783962249756
-0.21776725351810455 -0.1782945990562439 -0.25581395626068115
-0.2175750732421875 -0.1782945990562439 -0.24031007289886475
-0.21686674654483795 -0.1782945990562439 -0.22480618953704834
-0.21635818481445312 -0.1782945990562439 -0.20930230617523193
-0.21648529171943665 -0.1782945990562439 -0.19379842281341553
-0.21683183312416077 -0.1782945990562439 -0.1782945990562439
-0.21775312721729279 -0.1782945990562439 -0.1627907156944275
-0.21893447637557983 -0.1782945990562439 -0.14728683233261108
-0.22047017514705658 -0.1782945990562439 -0.13178294897079468
-0.2222232222557068 -0.1782945990562439 -0.11627906560897827
-0.22056563198566437 -0.1782945990562439 0.4573643207550049
-0.21823270618915558 -0.1782945990562439 0.4728682041168213
-0.2120332419872284 -0.1782945990562439 0.4883720874786377
-0.21058212220668793 -0.1782945990562439 0.5038759708404541
-0.2246604561805725 -0.1782945990562439 0.5193798542022705
-0.21024374663829803 -0.1627907156944275 -0.4883720874786377
-0.21267598867416382 -0.1627907156944275 -0.4728682041168213
-0.2148759514093399 -0.1627907156944275 -0.4573643207550049
-0.21653854846954346 -0.1627907156944275 -0.4418604373931885
-0.21761620044708252 -0.1627907156944275 -0.42635661363601685
-0.21791388094425201 -0.1627907156944275 -0.41085273027420044
-0.21836325526237488 -0.1627907156944275 -0.39534884691238403
-0.2190873920917511 -0.1627907156944275 -0.3798449635505676
-0.22055689990520477 -0.1627907156944275 -0.3643410801887512
-0.22231660783290863 -0.1627907156944275 -0.3488371968269348
-0.22397246956825256 -0.1627907156944275 -0.3333333134651184
-0.22235721349716187 -0.1627907156944275 0.4883720576763153
-0.21971720457077026 -0.1627907156944275 0.5038759708404541
-0.2169250249862671 -0.1627907156944275 0.5813953876495361
-0.21870127320289612 -0.14728683233261108 -0.6279069781303406
-0.2101866751909256 -0.14728683233261108 -0.5503876209259033
-0.21360927820205688 -0.14728683233261108 -0.5348837375640869
-0.21742220222949982 -0.14728683233261108 -0.5193798542022705
-0.2210795134305954 -0.14728683233261108 -0.5038759708404541
-0.22349132597446442 -0.14728683233261108 -0.4883720874786377
-0.21273627877235413 -0.13178294897079468 -0.6124030947685242
-0.21409985423088074 -0.13178294897079468 -0.5968992114067078
-0.21680809557437897 -0.13178294897079468 -0.5813953876495361
-0.22024491429328918 -0.13178294897079468 -0.5658915042877197
-0.22316595911979675 -0.13178294897079468 -0.5503876209259033
-0.21732571721076965 -0.13178294897079468 0.5968992710113525
-0.21158452332019806 -0.11627906560897827 -0.751937985420227
-0.22355595231056213 -0.11627906560897827 -0.6124030947685242
-0.21692410111427307 -0.10077518224716187 -0.751937985420227
-0.21190141141414642 -0.10077518224716187 0.612403154373169
-0.21099306643009186 -0.06976741552352905 -0.7674418687820435
-0.21486243605613708 -0.05426359176635742 -0.7984496355056763
-0.2100927084684372 -0.05426359176635742 -0.7829457521438599
-0.2166195511817932 -0.05426359176635742 -0.7674418687820435
-0.22251452505588531 -0.05426359176635742 0.6279069185256958
-0.21371373534202576 -0.038759708404541016 -0.8139535188674927
-0.22341100871562958 -0.038759708404541016 -0.7984496355056763
-0.21539857983589172 -0.038759708404541016 -0.7829457521438599
-0.22480149567127228 -0.038759708404541016 -0.7674418687820435
-0.21296021342277527 -0.02325582504272461 -0.8294573426246643
-0.22168634831905365 -0.00775194214656949 -0.8604651689529419
-0.20990918576717377 -0.007751941680908203 0.7984496355056763
-0.2171364426612854 -0.007751941680908203 0.8139535188674927
-0.2138316035270691 0.007751941680908203 0.8139535188674927
-0.2093329280614853 0.02325582504272461 -0.8294573426246643
-0.22046299278736115 0.02325582318007946 -0.8139535188674927
-0.2187453806400299 0.02325582504272461 0.6279069185256958
-0.21151790022850037 0.038759708404541016 -0.8139535188674927
-0.2189144790172577 0.038759708404541016 -0.7984496355056763
-0.215696781873703 0.038759708404541016 -0.7829457521438599
-0.21338260173797607 0.038759708404541016 0.6279069185256958
-0.21187688410282135 0.05426359176635742 -0.7984496355056763
-0.21081018447875977 0.05426359176635742 -0.7829457521438599
-0.2218487560749054 0.05426359176635742 -0.7674418687820435
-0.21093623340129852 0.05426359176635742 0.6279069185256958
-0.21418972313404083 0.06976747512817383 -0.7674418687820435
-0.2139921635389328 0.10077524185180664 0.612403154373169
-0.22292952239513397 0.11627912521362305 -0.751937985420227
-0.22266171872615814 0.11627912521362305 -0.6124030947685242
-0.22151882946491241 0.11627912521362305 -0.5968992114067078
-0.22460637986660004 0.11627912521362305 -0.5813953876495361
-0.22262418270111084 0.1317828893661499 -0.751937985420227
-0.21319954097270966 0.1317828893661499 -0.6124030947685242
-0.21200412511825562 0.1317828893661499 -0.5968992114067078
-0.21357691287994385 0.1317828893661499 -0.5813953876495361
-0.21683603525161743 0.1317828893661499 -0.5658915042877197
-0.22073523700237274 0.1317828893661499 -0.5503876209259033
-0.22479605674743652 0.1317828893661499 -0.5348837375640869
-0.2218407839536667 0.1317828893661499 0.5968992710113525
-0.2192661613225937 0.1472867727279663 -0.751937985420227
-0.21032945811748505 0.1472867727279663 -0.5503876209259033
-0.21350370347499847 0.1472867727279663 -0.5348837375640869
-0.21745510399341583 0.1472867727279663 -0.5193798542022705
-0.22158095240592957 0.1472867727279663 -0.5038759708404541
-0.22459381818771362 0.1472867876291275 -0.4883721172809601
-0.2128911167383194 0.16279065608978271 -0.751937985420227
-0.2154735028743744 0.16279065608978271 -0.6279069781303406
-0.20959265530109406 0.16279065608978271 -0.5038759708404541
-0.21226662397384644 0.16279065608978271 -0.4883720874786377
-0.21540027856826782 0.16279065608978271 -0.4728682041168213
-0.2178243100643158 0.16279065608978271 -0.4573643207550049
-0.2197580337524414 0.16279065608978271 -0.4418604373931885
-0.22184540331363678 0.16279065608978271 -0.42635661363601685
-0.22286929190158844 0.16279065608978271 -0.41085273027420044
-0.2241685688495636 0.16279065608978271 -0.39534884691238403
-0.21866562962532043 0.16279065608978271 0.5813953876495361
-0.20981280505657196 0.17829453945159912 -0.42635661363601685
-0.21150188148021698 0.17829453945159912 -0.41085273027420044
-0.21325884759426117 0.17829453945159912 -0.39534884691238403
-0.21482525765895844 0.17829453945159912 -0.3798449635505676
-0.21683457493782043 0.17829453945159912 -0.3643410801887512
-0.21836161613464355 0.17829453945159912 -0.3488371968269348
-0.2193489670753479 0.17829453945159912 -0.3333333134651184
-0.2203284353017807 0.17829453945159912 -0.317829430103302
-0.22141386568546295 0.17829453945159912 -0.30232560634613037
-0.2221781611442566 0.17829453945159912 -0.28682172298431396
-0.22279174625873566 0.17829453945159912 -0.27131783962249756
-0.22316958010196686 0.17829453945159912 -0.25581395626068115
-0.22290199995040894 0.17829453945159912 -0.24031007289886475
-0.22223179042339325 0.17829453945159912 -0.22480618953704834
-0.2212163656949997 0.17829453945159912 -0.20930230617523193
-0.22034426033496857 0.17829453945159912 -0.19379842281341553
-0.2200811803340912 0.17829453945159912 -0.1782945990562439
-0.22095461189746857 0.17829453945159912 -0.1627907156944275
-0.22232887148857117 0.17829453945159912 -0.14728683233261108
-0.2242409884929657 0.17829453945159912 -0.13178294897079468
-0.21976161003112793 0.17829453945159912 0.4883720874786377
-0.2165282666683197 0.17829453945159912 0.5038759708404541
-0.21648728847503662 0.19379842281341553 -0.7364341020584106
-0.21959218382835388 0.19379842281341553 -0.6434109210968018
-0.20981861650943756 0.19379842281341553 -0.30232560634613037
-0.21036674082279205 0.19379842281341553 -0.28682172298431396
-0.21080061793327332 0.19379842281341553 -0.27131783962249756
-0.21124328672885895 0.19379842281341553 -0.25581395626068115
-0.21100649237632751 0.19379842281341553 -0.24031007289886475
-0.21024778485298157 0.19379842281341553 -0.22480618953704834
-0.20932720601558685 0.19379842281341553 -0.20930230617523193
-0.20934003591537476 0.19379842281341553 -0.1627907156944275
-0.21017619967460632 0.19379842281341553 -0.14728683233261108
-0.2113562822341919 0.19379842281341553 -0.13178294897079468
-0.21310293674468994 0.19379842281341553 -0.11627906560897827
-0.21514594554901123 0.19379842281341553 -0.10077518224716187
-0.2167634516954422 0.19379842281341553 -0.08527129888534546
-0.21790266036987305 0.19379842281341553 -0.06976741552352905
-0.21845944225788116 0.19379842281341553 -0.05426359176635742
-0.21882367134094238 0.19379842281341553 -0.038759708404541016
-0.21865367889404297 0.19379842281341553 -0.02325582504272461
-0.21825864911079407 0.19379842281341553 -0.007751941680908203
-0.2176753580570221 0.19379842281341553 0.007751941680908203
-0.21688412129878998 0.19379842281341553 0.02325582504272461
-0.21624241769313812 0.19379842281341553 0.038759708404541016
-0.215743750333786 0.19379842281341553 0.05426359176635742
-0.21591408550739288 0.19379842281341553 0.06976747512817383
-0.21639347076416016 0.19379842281341553 0.08527135848999023
-0.2173524796962738 0.19379842281341553 0.10077524185180664
-0.22186554968357086 0.19379842281341553 0.11627912521362305
-0.22382724285125732 0.19379842281341553 0.16279065608978271
-0.21945343911647797 0.19379842281341553 0.17829453945159912
-0.2185305953025818 0.19379842281341553 0.19379842281341553
-0.217472106218338 0.19379842281341553 0.20930230617523193
-0.2161649465560913 0.19379842281341553 0.22480618953704834
-0.21532610058784485 0.19379842281341553 0.24031007289886475
-0.2152852565050125 0.19379842281341553 0.25581395626068115
-0.21568050980567932 0.19379842281341553 0.27131783962249756
-0.21595269441604614 0.19379842281341553 0.28682172298431396
-0.21524152159690857 0.19379842281341553 0.30232560634613037
-0.21479877829551697 0.19379842281341553 0.3178294897079468
-0.21519942581653595 0.19379842281341553 0.3333333730697632
-0.2165098488330841 0.19379842281341553 0.3488372564315796
-0.2181476354598999 0.19379842281341553 0.364341139793396
-0.2200770527124405 0.19379842281341553 0.37984490394592285
-0.22335052490234375 0.19379842281341553 0.39534878730773926
-0.2209668904542923 0.19379842281341553 0.4418604075908661
-0.21309413015842438 0.19379842281341553 0.4573643207550049
-0.21101367473602295 0.19379842281341553 0.4728682041168213
-0.2095956802368164 0.19379842281341553 0.5193798542022705
-0.21554797887802124 0.19379842281341553 0.5658915042877197
-0.222187340259552 0.20930230617523193 -0.7209301590919495
-0.20960712432861328 0.20930230617523193 0.11627912521362305
-0.21346871554851532 0.20930230617523193 0.1317828893661499
-0.2141958773136139 0.20930230617523193 0.1472867727279663
-0.2116951048374176 0.20930230617523193 0.16279065608978271
-0.21185773611068726 0.20930230617523193 0.41085267066955566
-0.21121777594089508 0.20930230617523193 0.42635655403137207
-0.2193964719772339 0.22480618953704834 -0.6589146852493286
-0.2159365564584732 0.22480618953704834 0.5503876209259033
-0.21090787649154663 0.24031007289886475 -0.7054263353347778
-0.2210002988576889 0.24031007289886475 -0.6899224519729614
-0.21994738280773163 0.24031007289886475 -0.674418568611145
-0.2094198316335678 0.25581395626068115 -0.6899224519729614
-0.21797457337379456 0.25581395626068115 0.5348837375640869
-0.19759565591812134 -0.27131783962249756 -0.6899224519729614
-0.19674304127693176 -0.27131783962249756 -0.674418568611145
-0.20175974071025848 -0.27131783962249756 0.5348837375640869
-0.20334315299987793 -0.25581395626068115 -0.7054263353347778
-0.1964673399925232 -0.25581395626068115 -0.6589146852493286
-0.19770026206970215 -0.24031007289886475 -0.7209302186965942
-0.19910886883735657 -0.24031007289886475 0.5503876209259033
-0.1950959861278534 -0.22480618953704834 -0.643410861492157
-0.19425217807292938 -0.22480618953704834 0.10077524185180664
-0.1993313431739807 -0.22480618953704834 0.11627912521362305
-0.203194722533226 -0.22480618953704834 0.1317828893661499
-0.20319652557373047 -0.22480618953704834 0.1472867727279663
-0.20021195709705353 -0.22480618953704834 0.16279065608978271
-0.19429932534694672 -0.22480618953704834 0.17829453945159912
-0.19624581933021545 -0.22480618953704834 0.41085267066955566
-0.19595712423324585 -0.22480618953704834 0.42635655403137207
-0.19876667857170105 -0.20930230617523193 -0.7364341020584106
-0.20682978630065918 -0.20930230617523193 -0.643410861492157
-0.19402800500392914 -0.20930230617523193 -0.27131783962249756
-0.19453132152557373 -0.20930230617523193 -0.25581395626068115
-0.19431275129318237 -0.20930230617523193 -0.24031007289886475
-0.19454766809940338 -0.20930230617523193 -0.1627907156944275
-0.1962818056344986 -0.20930230617523193 -0.14728683233261108
-0.19827686250209808 -0.20930230617523193 -0.13178294897079468
-0.20017686486244202 -0.20930230617523193 -0.11627906560897827
-0.2023662030696869 -0.20930230617523193 -0.10077518224716187
-0.20404541492462158 -0.20930230617523193 -0.08527129888534546
-0.20538155734539032 -0.20930230617523193 -0.06976741552352905
-0.20624780654907227 -0.20930229127407074 -0.05426359176635742
-0.20669692754745483 -0.20930230617523193 -0.038759708404541016
-0.2063818871974945 -0.20930230617523193 -0.02325582504272461
-0.20634427666664124 -0.20930230617523193 -0.007751941680908203
-0.20644327998161316 -0.20930229127407074 0.007751941680908203
-0.20626112818717957 -0.20930230617523193 0.02325582504272461
-0.20631276071071625 -0.20930230617523193 0.038759708404541016
-0.20638170838356018 -0.20930230617523193 0.05426359176635742
-0.20723333954811096 -0.20930230617523193 0.06976747512817383
-0.20811907947063446 -0.20930230617523193 0.08527135848999023
-0.20929521322250366 -0.20930232107639313 0.10077524185180664
-0.2091912031173706 -0.20930230617523193 0.17829453945159912
-0.2082778513431549 -0.20930230617523193 0.19379842281341553
-0.20712928473949432 -0.20930230617523193 0.20930230617523193
-0.20581147074699402 -0.20930230617523193 0.22480618953704834
-0.20516479015350342 -0.20930230617523193 0.24031007289886475
-0.20531392097473145 -0.20930230617523193 0.25581395626068115
-0.20650029182434082 -0.20930230617523193 0.27131783962249756
-0.20784246921539307 -0.20930230617523193 0.28682175278663635
-0.20768703520298004 -0.20930230617523193 0.30232560634613037
-0.20690296590328217 -0.20930230617523193 0.3178294897079468
-0.20500294864177704 -0.20930230617523193 0.3333333730697632
-0.20270660519599915 -0.20930230617523193 0.3488372564315796
-0.20213955640792847 -0.20930230617523193 0.364341139793396
-0.20314472913742065 -0.20930230617523193 0.37984490394592285
-0.20869916677474976 -0.20930230617523193 0.39534878730773926
-0.20529353618621826 -0.20930229127407074 0.4418604373931885
-0.19690732657909393 -0.20930230617523193 0.4573643207550049
-0.19491812586784363 -0.20930230617523193 0.4728682041168213
-0.19501993060112 -0.20930230617523193 0.5193798542022705
-0.19731786847114563 -0.20930230617523193 0.5658915042877197
-0.19393913447856903 -0.19379842281341553 -0.42635661363601685
-0.19511674344539642 -0.19379842281341553 -0.41085273027420044
-0.1966567039489746 -0.19379842281341553 -0.39534884691238403
-0.19799502193927765 -0.19379842281341553 -0.3798449635505676
-0.19965815544128418 -0.19379842281341553 -0.3643410801887512
-0.2009395956993103 -0.19379842281341553 -0.3488371968269348
-0.20182912051677704 -0.19379842281341553 -0.3333333134651184
-0.2029467225074768 -0.19379842281341553 -0.317829430103302
-0.20434366166591644 -0.19379842281341553 -0.30232560634613037
-0.2052646428346634 -0.19379843771457672 -0.28682172298431396
-0.20592153072357178 -0.19379843771457672 -0.27131783962249756
-0.20622840523719788 -0.19379840791225433 -0.25581395626068115
-0.20588025450706482 -0.19379842281341553 -0.24031007289886475
-0.20504003763198853 -0.19379842281341553 -0.22480618953704834
-0.204498291015625 -0.19379842281341553 -0.20930230617523193
-0.20464369654655457 -0.19379842281341553 -0.19379842281341553
-0.2051098346710205 -0.19379842281341553 -0.1782945990562439
-0.20631912350654602 -0.19379842281341553 -0.1627907156944275
-0.20816221833229065 -0.19379842281341553 -0.14728683233261108
-0.2087981253862381 -0.19379843771457672 0.4728682339191437
-0.20159971714019775 -0.19379842281341553 0.4883720874786377
-0.1994214504957199 -0.19379842281341553 0.5038759708404541
-0.1983669102191925 -0.1782945990562439 -0.6279069781303406
-0.19512858986854553 -0.1782945990562439 -0.5038759708404541
-0.19797225296497345 -0.1782945990562439 -0.4883720874786377
-0.2007705420255661 -0.1782945990562439 -0.4728682041168213
-0.2028183937072754 -0.1782945990562439 -0.4573643207550049
-0.20444242656230927 -0.1782945990562439 -0.4418604373931885
-0.20522545278072357 -0.1782945990562439 -0.42635661363601685
-0.2055359184741974 -0.1782945990562439 -0.41085273027420044
-0.20649504661560059 -0.1782945990562439 -0.39534884691238403
-0.2082388699054718 -0.1782945990562439 -0.3798449635505676
-0.20143935084342957 -0.1782945990562439 0.5813953876495361
-0.1979847103357315 -0.1627907156944275 -0.751937985420227
-0.20860140025615692 -0.1627907156944275 -0.6279069781303406
-0.1950920820236206 -0.1627907156944275 -0.5658915042877197
-0.19714173674583435 -0.1627907156944275 -0.5503876209259033
-0.2007226049900055 -0.1627907156944275 -0.5348837375640869
-0.20417667925357819 -0.1627907156944275 -0.5193798542022705
-0.2075655162334442 -0.1627907156944275 -0.5038759708404541
-0.2035401165485382 -0.14728683233261108 -0.751937985420227
-0.20234611630439758 -0.14728683233261108 -0.6124030947685242
-0.20306164026260376 -0.14728683233261108 -0.5968992114067078
-0.20519372820854187 -0.14728683233261108 -0.5813953876495361
-0.20798461139202118 -0.14728683233261108 -0.5658915042877197
-0.2044704258441925 -0.14728683233261108 0.5968992710113525
