-0.25341862440109253 -0.24031005799770355 -0.4728681743144989
-0.2544805705547333 -0.24031007289886475 -0.45736435055732727
-0.2555420696735382 -0.24031007289886475 -0.25581395626068115
-0.25443217158317566 -0.24031007289886475 -0.24031007289886475
-0.25344279408454895 -0.24031007289886475 -0.22480618953704834
-0.2526286542415619 -0.24031007289886475 -0.20930230617523193
-0.25123369693756104 -0.24031007289886475 -0.19379842281341553
-0.24985410273075104 -0.24031007289886475 -0.1782945990562439
-0.2491772472858429 -0.24031007289886475 -0.1627907156944275
-0.24822834134101868 -0.24031007289886475 -0.14728683233261108
-0.24710685014724731 -0.24031007289886475 -0.13178294897079468
-0.24622797966003418 -0.24031007289886475 -0.11627906560897827
-0.24644124507904053 -0.24031007289886475 -0.10077518224716187
-0.2471870630979538 -0.24031007289886475 -0.08527129888534546
-0.24656803905963898 -0.24031007289886475 -0.06976741552352905
-0.24960088729858398 -0.24031007289886475 -0.05426359176635742
-0.24520599842071533 -0.24031007289886475 -0.02325582504272461
-0.2428739368915558 -0.24031007289886475 -0.007751941680908203
-0.24843719601631165 -0.24031007289886475 0.038759708404541016
-0.2455228865146637 -0.24031007289886475 0.05426359176635742
-0.24517183005809784 -0.24031007289886475 0.06976747512817383
-0.24479004740715027 -0.24031007289886475 0.08527135848999023
-0.24407613277435303 -0.24031007289886475 0.10077524185180664
-0.24342496693134308 -0.24031007289886475 0.11627912521362305
-0.24283938109874725 -0.24031007289886475 0.1317828893661499
-0.24202975630760193 -0.24031007289886475 0.1472867727279663
-0.2460068017244339 -0.24031007289886475 0.3333333730697632
-0.2543342113494873 -0.24031007289886475 0.39534878730773926
-0.2460191547870636 -0.22480618953704834 -0.8449612259864807
-0.2454185038805008 -0.22480618953704834 -0.7984496355056763
-0.2460336685180664 -0.22480618953704834 -0.7829457521438599
-0.24071946740150452 -0.22480618953704834 -0.6589146852493286
-0.24193930625915527 -0.22480618953704834 -0.643410861492157
-0.24448974430561066 -0.22480618953704834 -0.6279069781303406
-0.24930104613304138 -0.22480618953704834 -0.6124030947685242
-0.2535395622253418 -0.22480618953704834 -0.5968992114067078
-0.2530894875526428 -0.22480618953704834 -0.5813953876495361
-0.25124436616897583 -0.22480618953704834 -0.5658915042877197
-0.2507893741130829 -0.22480618953704834 -0.5503876209259033
-0.25095468759536743 -0.22480618953704834 -0.5348837375640869
-0.2512272596359253 -0.22480618953704834 -0.5193798542022705
-0.2511822581291199 -0.22480618953704834 -0.5038759708404541
-0.251320481300354 -0.22480618953704834 -0.4883720874786377
-0.25165748596191406 -0.22480618953704834 -0.4728682041168213
-0.25243639945983887 -0.22480618953704834 -0.4573643207550049
-0.25354063510894775 -0.22480618953704834 -0.4418604373931885
-0.25429055094718933 -0.22480618953704834 -0.27131783962249756
-0.2532285451889038 -0.22480618953704834 -0.25581395626068115
-0.25278589129447937 -0.22480618953704834 -0.24031005799770355
-0.25260037183761597 -0.22480618953704834 -0.22480618953704834
-0.2528194785118103 -0.22480618953704834 -0.20930230617523193
-0.2523374557495117 -0.22480618953704834 -0.19379842281341553
-0.2510150074958801 -0.22480617463588715 -0.1782945990562439
-0.25037047266960144 -0.22480618953704834 -0.1627907156944275
-0.24961143732070923 -0.22480618953704834 -0.14728683233261108
-0.2492881417274475 -0.22480617463588715 -0.13178294897079468
-0.24921143054962158 -0.22480618953704834 -0.11627906560897827
-0.2501395344734192 -0.22480618953704834 -0.10077518224716187
-0.2521606683731079 -0.22480618953704834 -0.08527129888534546
-0.2507675588130951 -0.22480618953704834 -0.06976741552352905
-0.25196486711502075 -0.22480618953704834 -0.05426359549164772
-0.2432013303041458 -0.22480618953704834 -0.038759708404541016
-0.24809890985488892 -0.22480618953704834 -0.02325582504272461
-0.2462117224931717 -0.22480618953704834 -0.007751941680908203
-0.25043392181396484 -0.22480618953704834 0.038759708404541016
-0.24618752300739288 -0.22480618953704834 0.05426359176635742
-0.24562224745750427 -0.22480618953704834 0.06976747512817383
-0.2454637587070465 -0.22480618953704834 0.08527135848999023
-0.24490323662757874 -0.22480618953704834 0.10077524185180664
-0.2442113757133484 -0.22480618953704834 0.11627912521362305
-0.24360136687755585 -0.22480618953704834 0.1317828893661499
-0.24301674962043762 -0.22480618953704834 0.1472867727279663
-0.2508653998374939 -0.22480618953704834 0.3333333730697632
-0.25116658210754395 -0.22480618953704834 0.39534878730773926
-0.24219414591789246 -0.22480618953704834 0.41085267066955566
-0.24568326771259308 -0.20930230617523193 -0.8449611663818359
-0.2542026937007904 -0.20930230617523193 -0.7984496355056763
-0.2536872625350952 -0.20930230617523193 -0.7829457521438599
-0.2413192242383957 -0.20930230617523193 -0.7364341020584106
-0.24043381214141846 -0.20930230617523193 -0.6899224519729614
-0.2410261034965515 -0.20930230617523193 -0.674418568611145
-0.2417490929365158 -0.20930230617523193 -0.6589146852493286
-0.2425593137741089 -0.20930230617523193 -0.643410861492157
-0.24459236860275269 -0.20930230617523193 -0.6279069781303406
-0.24803650379180908 -0.20930230617523193 -0.6124030947685242
-0.2510487735271454 -0.20930230617523193 -0.5968992114067078
-0.25098466873168945 -0.20930230617523193 -0.5813953876495361
-0.249485582113266 -0.20930230617523193 -0.5658915042877197
-0.24878787994384766 -0.20930230617523193 -0.5503876209259033
-0.24867773056030273 -0.20930230617523193 -0.5348837375640869
-0.24882155656814575 -0.20930230617523193 -0.5193798542022705
-0.24897624552249908 -0.20930230617523193 -0.5038759708404541
-0.24941930174827576 -0.20930230617523193 -0.4883720874786377
-0.250030517578125 -0.20930230617523193 -0.4728682041168213
-0.25098344683647156 -0.20930230617523193 -0.4573643207550049
-0.25213423371315 -0.20930230617523193 -0.4418604373931885
-0.25379011034965515 -0.20930230617523193 -0.42635661363601685
-0.2555568218231201 -0.20930230617523193 -0.41085273027420044
-0.25471171736717224 -0.20930230617523193 -0.317829430103302
-0.25387102365493774 -0.20930232107639313 -0.30232560634613037
-0.2529679536819458 -0.20930230617523193 -0.28682172298431396
-0.2519737482070923 -0.20930230617523193 -0.27131783962249756
-0.25144362449645996 -0.20930230617523193 -0.25581395626068115
-0.2512933909893036 -0.20930230617523193 -0.24031007289886475
-0.25146904587745667 -0.20930229127407074 -0.22480618953704834
-0.25184914469718933 -0.20930230617523193 -0.20930230617523193
-0.2517057955265045 -0.20930230617523193 -0.19379842281341553
-0.250815749168396 -0.20930230617523193 -0.1782945990562439
-0.2504138648509979 -0.20930230617523193 -0.1627907156944275
-0.24994218349456787 -0.20930230617523193 -0.14728683233261108
-0.2500223219394684 -0.20930230617523193 -0.13178294897079468
-0.2505122423171997 -0.20930230617523193 -0.11627906560897827
-0.2524111866950989 -0.20930230617523193 -0.10077518224716187
-0.24552226066589355 -0.20930230617523193 -0.038759708404541016
-0.2490139901638031 -0.20930230617523193 -0.02325582504272461
-0.24680070579051971 -0.20930230617523193 -0.007751941680908203
-0.24201107025146484 -0.20930230617523193 0.007751941680908203
-0.25062495470046997 -0.20930230617523193 0.038759708404541016
-0.24650485813617706 -0.20930230617523193 0.05426359176635742
-0.24504393339157104 -0.20930230617523193 0.06976747512817383
-0.24427899718284607 -0.20930230617523193 0.08527135848999023
-0.2434607297182083 -0.20930230617523193 0.10077524185180664
-0.24263687431812286 -0.20930230617523193 0.11627912521362305
-0.24224551022052765 -0.20930230617523193 0.1317828893661499
-0.24142155051231384 -0.20930230617523193 0.1472867727279663
-0.2544690668582916 -0.20930230617523193 0.3333333730697632
-0.24563822150230408 -0.20930230617523193 0.39534878730773926
-0.24523577094078064 -0.19379842281341553 -0.8449612259864807
-0.24643942713737488 -0.19379842281341553 -0.7364341020584106
-0.2423073649406433 -0.19379842281341553 -0.7209302186965942
-0.2414936125278473 -0.19379842281341553 -0.6899224519729614
-0.24198377132415771 -0.19379842281341553 -0.674418568611145
-0.2426677942276001 -0.19379842281341553 -0.6589146852493286
-0.24345877766609192 -0.19379842281341553 -0.6434109210968018
-0.24523977935314178 -0.19379842281341553 -0.6279069781303406
-0.24763533473014832 -0.19379842281341553 -0.6124030947685242
-0.2501277029514313 -0.19379842281341553 -0.5968992710113525
-0.2501536011695862 -0.19379842281341553 -0.5813953876495361
-0.24871346354484558 -0.19379842281341553 -0.5658915042877197
-0.24790529906749725 -0.19379842281341553 -0.5503876209259033
-0.2477378398180008 -0.19379842281341553 -0.5348837375640869
-0.2478865683078766 -0.19379842281341553 -0.5193798542022705
-0.24829602241516113 -0.19379842281341553 -0.5038759708404541
-0.24907954037189484 -0.19379842281341553 -0.4883720874786377
-0.2499970644712448 -0.19379842281341553 -0.4728682041168213
-0.2511415481567383 -0.19379842281341553 -0.4573643207550049
-0.25239816308021545 -0.19379842281341553 -0.4418604373931885
-0.25401774048805237 -0.19379842281341553 -0.42635661363601685
-0.255610853433609 -0.19379842281341553 -0.41085273027420044
-0.25447434186935425 -0.19379842281341553 -0.317829430103302
-0.2536900043487549 -0.19379842281341553 -0.30232560634613037
-0.25290223956108093 -0.19379842281341553 -0.28682172298431396
-0.2519772946834564 -0.19379842281341553 -0.27131783962249756
-0.2515164613723755 -0.19379843771457672 -0.25581395626068115
-0.2515377104282379 -0.19379842281341553 -0.24031007289886475
-0.25202545523643494 -0.19379842281341553 -0.22480618953704834
-0.2528064250946045 -0.19379842281341553 -0.20930230617523193
-0.2531343400478363 -0.19379842281341553 -0.19379842281341553
-0.2525523006916046 -0.19379842281341553 -0.1782945990562439
-0.2522415220737457 -0.19379842281341553 -0.1627907156944275
-0.2517516613006592 -0.19379842281341553 -0.14728683233261108
-0.25203022360801697 -0.19379842281341553 -0.13178294897079468
-0.253304660320282 -0.19379842281341553 -0.11627906560897827
-0.24347826838493347 -0.19379842281341553 -0.05426359176635742
-0.24720865488052368 -0.19379842281341553 -0.038759708404541016
-0.2515106499195099 -0.19379842281341553 -0.02325582504272461
-0.24863266944885254 -0.19379842281341553 -0.007751941680908203
-0.2439437359571457 -0.19379842281341553 0.007751941680908203
-0.2418084442615509 -0.19379842281341553 0.02325582504272461
-0.24939599633216858 -0.19379842281341553 0.05426359176635742
-0.24659065902233124 -0.19379842281341553 0.06976747512817383
-0.24438968300819397 -0.19379842281341553 0.08527135848999023
-0.24261340498924255 -0.19379842281341553 0.10077524185180664
-0.2413632571697235 -0.19379842281341553 0.11627912521362305
-0.2409626543521881 -0.19379842281341553 0.1317828893661499
-0.24470548331737518 -0.1782945990562439 -0.8449612259864807
-0.24797432124614716 -0.1782945990562439 -0.7364341020584106
-0.24451632797718048 -0.1782945990562439 -0.7209302186965942
-0.24144402146339417 -0.1782945990562439 -0.7054263353347778
-0.24240753054618835 -0.1782945990562439 -0.6899224519729614
-0.24286317825317383 -0.1782945990562439 -0.674418568611145
-0.24365711212158203 -0.1782945990562439 -0.6589146852493286
-0.24462349712848663 -0.1782945990562439 -0.643410861492157
-0.24643859267234802 -0.1782945990562439 -0.6279069781303406
-0.24823379516601562 -0.1782945990562439 -0.6124030351638794
-0.25058794021606445 -0.1782945990562439 -0.5968992114067078
-0.25054192543029785 -0.1782945990562439 -0.5813953876495361
-0.24900203943252563 -0.1782945990562439 -0.5658915042877197
-0.24811235070228577 -0.1782945990562439 -0.5503876209259033
-0.24802720546722412 -0.1782945990562439 -0.5348837375640869
-0.2482982873916626 -0.1782945990562439 -0.5193798542022705
-0.24896252155303955 -0.1782945990562439 -0.5038759708404541
-0.24997369945049286 -0.1782945990562439 -0.4883720874786377
-0.25100359320640564 -0.1782945990562439 -0.4728681743144989
-0.2522250711917877 -0.1782945990562439 -0.4573643207550049
-0.2535479664802551 -0.1782945990562439 -0.4418604373931885
-0.2554296553134918 -0.1782945990562439 -0.42635661363601685
-0.2547965347766876 -0.1782945990562439 -0.30232560634613037
-0.253827303647995 -0.1782945990562439 -0.28682172298431396
-0.25276243686676025 -0.1782945990562439 -0.27131783962249756
-0.25234684348106384 -0.1782945990562439 -0.25581395626068115
-0.252566933631897 -0.1782945990562439 -0.24031007289886475
-0.2534545063972473 -0.1782945990562439 -0.22480617463588715
-0.255327433347702 -0.1782945990562439 -0.20930230617523193
-0.24200284481048584 -0.1782945990562439 -0.08527129888534546
-0.24189996719360352 -0.1782945990562439 -0.06976741552352905
-0.2448943555355072 -0.1782945990562439 -0.05426359176635742
-0.24986901879310608 -0.1782945990562439 -0.038759708404541016
-0.2553982436656952 -0.1782946139574051 -0.02325582690536976
-0.2518092691898346 -0.1782945990562439 -0.007751941680908203
-0.24645419418811798 -0.1782945990562439 0.007751941680908203
-0.24455448985099792 -0.1782945990562439 0.02325582504272461
-0.2515455484390259 -0.1782945990562439 0.05426359176635742
-0.24846619367599487 -0.1782945990562439 0.06976747512817383
-0.24588358402252197 -0.1782945990562439 0.08527135848999023
-0.24332943558692932 -0.1782945990562439 0.10077524185180664
-0.24143581092357635 -0.1782945990562439 0.11627912521362305
-0.24074873328208923 -0.1782945990562439 0.1317828893661499
-0.245665043592453 -0.1782945990562439 0.3488372564315796
-0.24836930632591248 -0.1782945990562439 0.37984490394592285
-0.24542757868766785 -0.1627907156944275 -0.8449612259864807
-0.24695950746536255 -0.1627907156944275 -0.7364341020584106
-0.2452104389667511 -0.1627907156944275 -0.7209302186965942
-0.24271483719348907 -0.1627907156944275 -0.7054263353347778
-0.24349026381969452 -0.1627907156944275 -0.6899224519729614
-0.24410748481750488 -0.1627907156944275 -0.674418568611145
-0.24513737857341766 -0.1627907156944275 -0.6589146852493286
-0.2462843656539917 -0.1627907156944275 -0.643410861492157
-0.24776044487953186 -0.1627907156944275 -0.6279069781303406
-0.24946410953998566 -0.1627907156944275 -0.612403154373169
-0.25239297747612 -0.1627907156944275 -0.5968992114067078
-0.2521328032016754 -0.1627907156944275 -0.5813953876495361
-0.25015348196029663 -0.1627907156944275 -0.5658915042877197
-0.24917638301849365 -0.1627907156944275 -0.5503876209259033
-0.24920964241027832 -0.1627907156944275 -0.5348837375640869
-0.24960127472877502 -0.1627907156944275 -0.5193798542022705
-0.2503884434700012 -0.1627907156944275 -0.5038759708404541
-0.25137415528297424 -0.1627907156944275 -0.4883720874786377
-0.2523997724056244 -0.1627907156944275 -0.4728682041168213
-0.25386035442352295 -0.1627907156944275 -0.45736435055732727
-0.2557738423347473 -0.1627907156944275 -0.44186046719551086
-0.2548576593399048 -0.1627907156944275 -0.27131783962249756
-0.25421321392059326 -0.16279073059558868 -0.25581395626068115
-0.25490787625312805 -0.1627907156944275 -0.24031007289886475
-0.24331948161125183 -0.1627907156944275 -0.10077518224716187
-0.24400527775287628 -0.1627907156944275 -0.08527129888534546
-0.24351251125335693 -0.1627907156944275 -0.06976741552352905
-0.24610960483551025 -0.1627907156944275 -0.05426359176635742
-0.25291016697883606 -0.1627907156944275 -0.038759712129831314
-0.25446832180023193 -0.16279073059558868 -0.007751941680908203
-0.24859203398227692 -0.1627907156944275 0.007751941680908203
-0.2461211234331131 -0.1627907156944275 0.02325582504272461
-0.25276368856430054 -0.1627907007932663 0.05426359176635742
-0.2488851547241211 -0.1627907156944275 0.06976747512817383
-0.24649670720100403 -0.1627907156944275 0.08527135848999023
-0.24370282888412476 -0.1627907156944275 0.10077524185180664
-0.24143843352794647 -0.1627907156944275 0.11627912521362305
-0.24061612784862518 -0.1627907156944275 0.1317828893661499
-0.24876251816749573 -0.1627907156944275 0.3488372564315796
-0.24446269869804382 -0.1627907156944275 0.364341139793396
-0.25354740023612976 -0.1627907156944275 0.37984487414360046
-0.2477937489748001 -0.14728683233261108 -0.8449612259864807
-0.24906757473945618 -0.14728683233261108 -0.7364341020584106
-0.24578996002674103 -0.14728683233261108 -0.7209302186965942
-0.2438686490058899 -0.14728683233261108 -0.7054263353347778
-0.2448873072862625 -0.14728683233261108 -0.6899224519729614
-0.24578101933002472 -0.14728683233261108 -0.674418568611145
-0.24696700274944305 -0.14728683233261108 -0.6589146852493286
-0.24814721941947937 -0.14728683233261108 -0.643410861492157
-0.2487325519323349 -0.14728683233261108 -0.6279069781303406
-0.2514078915119171 -0.14728683233261108 -0.6124030947685242
-0.2518971562385559 -0.14728683233261108 -0.5658915042877197
-0.25064101815223694 -0.14728683233261108 -0.5503876209259033
-0.2506871223449707 -0.14728683233261108 -0.5348837375640869
-0.2510409951210022 -0.14728683233261108 -0.5193798542022705
-0.2518339157104492 -0.14728683233261108 -0.5038759708404541
-0.25299468636512756 -0.14728683233261108 -0.4883720874786377
-0.25452134013175964 -0.14728683233261108 -0.4728682041168213
-0.24182426929473877 -0.14728683233261108 -0.11627906560897827
-0.24410586059093475 -0.14728683233261108 -0.10077518224716187
-0.24433305859565735 -0.14728683233261108 -0.08527129888534546
-0.24381038546562195 -0.14728683233261108 -0.06976741552352905
-0.24686956405639648 -0.14728683233261108 -0.05426359176635742
-0.255163311958313 -0.14728683233261108 -0.038759708404541016
-0.25018396973609924 -0.14728683233261108 0.007751941680908203
-0.2469499707221985 -0.14728683233261108 0.02325582504272461
-0.2542511820793152 -0.14728683233261108 0.05426359176635742
-0.24941682815551758 -0.14728683233261108 0.06976747512817383
-0.24687790870666504 -0.14728683233261108 0.08527135848999023
-0.2436818778514862 -0.14728683233261108 0.10077524185180664
-0.24116714298725128 -0.14728683233261108 0.11627912521362305
-0.24952489137649536 -0.14728683233261108 0.3488372564315796
-0.24778911471366882 -0.14728683233261108 0.364341139793396
-0.2506229877471924 -0.13178294897079468 -0.8449611663818359
-0.25190719962120056 -0.13178294897079468 -0.7364341020584106
-0.24634718894958496 -0.13178294897079468 -0.7209302186965942
-0.2449973076581955 -0.13178294897079468 -0.7054263353347778
-0.24623101949691772 -0.13178294897079468 -0.6899224519729614
-0.24732312560081482 -0.13178294897079468 -0.674418568611145
-0.2485608607530594 -0.13178294897079468 -0.6589146852493286
-0.24966105818748474 -0.13178294897079468 -0.643410861492157
-0.24973025918006897 -0.13178294897079468 -0.6279069781303406
-0.25273317098617554 -0.13178294897079468 -0.5503876209259033
-0.2526191473007202 -0.13178294897079468 -0.5348837375640869
-0.2529934048652649 -0.13178294897079468 -0.5193798542022705
-0.2542717456817627 -0.13178294897079468 -0.5038759708404541
-0.24050462245941162 -0.13178294897079468 -0.41085273027420044
-0.24098317325115204 -0.13178294897079468 -0.14728683233261108
-0.24183769524097443 -0.13178294897079468 -0.13178294897079468
-0.24295639991760254 -0.13178294897079468 -0.11627906560897827
-0.24451148509979248 -0.13178294897079468 -0.10077518224716187
-0.2445935308933258 -0.13178294897079468 -0.08527129888534546
-0.24403971433639526 -0.13178294897079468 -0.06976741552352905
-0.24729828536510468 -0.13178294897079468 -0.05426359176635742
-0.2513258159160614 -0.13178294897079468 0.007751941680908203
-0.2473219633102417 -0.13178294897079468 0.02325582504272461
-0.2551962733268738 -0.13178294897079468 0.05426359176635742
-0.2496814727783203 -0.13178294897079468 0.06976747512817383
-0.24684089422225952 -0.13178294897079468 0.08527135848999023
-0.24331995844841003 -0.13178294897079468 0.10077524185180664
-0.24085743725299835 -0.13178294897079468 0.11627912521362305
-0.24952740967273712 -0.13178294897079468 0.3488372564315796
-0.2503126561641693 -0.13178294897079468 0.364341139793396
-0.2533693015575409 -0.11627906560897827 -0.8449612259864807
-0.24723446369171143 -0.11627906560897827 -0.7209302186965942
-0.24613699316978455 -0.11627906560897827 -0.7054263353347778
-0.24734148383140564 -0.11627906560897827 -0.6899224519729614
-0.24867504835128784 -0.11627906560897827 -0.674418568611145
-0.25009065866470337 -0.11627906560897827 -0.6589146852493286
-0.25121015310287476 -0.11627906560897827 -0.6434108018875122
-0.2532399296760559 -0.11627907305955887 -0.6279070377349854
-0.2557811141014099 -0.11627905815839767 -0.5348837375640869
-0.24208521842956543 -0.11627906560897827 -0.41085273027420044
-0.24065706133842468 -0.11627906560897827 -0.39534884691238403
-0.24094219505786896 -0.11627906560897827 -0.1627907156944275
-0.2418001890182495 -0.11627906560897827 -0.14728683233261108
-0.24245727062225342 -0.11627906560897827 -0.13178294897079468
-0.24330994486808777 -0.11627906560897827 -0.11627906560897827
-0.24465516209602356 -0.11627906560897827 -0.10077518224716187
-0.24467110633850098 -0.11627906560897827 -0.08527129888534546
-0.24394094944000244 -0.11627906560897827 -0.06976741552352905
-0.24705271422863007 -0.11627906560897827 -0.05426359176635742
-0.25153452157974243 -0.11627906560897827 0.007751941680908203
-0.24716651439666748 -0.11627906560897827 0.02325582504272461
-0.25557225942611694 -0.11627906560897827 0.05426359176635742
-0.24977509677410126 -0.11627906560897827 0.06976747512817383
-0.24647533893585205 -0.11627906560897827 0.08527135848999023
-0.242695614695549 -0.11627906560897827 0.10077524185180664
-0.24044787883758545 -0.11627906560897827 0.11627912521362305
-0.24986359477043152 -0.11627906560897827 0.3488372564315796
-0.25259679555892944 -0.11627906560897827 0.364341139793396
-0.24047337472438812 -0.10077518224716187 -0.8604651093482971
-0.24855133891105652 -0.10077518224716187 -0.7209302186965942
-0.2470361292362213 -0.10077518224716187 -0.7054263353347778
-0.24826133251190186 -0.10077518224716187 -0.6899224519729614
-0.2503321170806885 -0.10077517479658127 -0.674418568611145
-0.2523484528064728 -0.10077518224716187 -0.6589146852493286
-0.25420939922332764 -0.10077518224716187 -0.643410861492157
-0.24110715091228485 -0.10077518224716187 -0.42635661363601685
-0.24233564734458923 -0.10077518224716187 -0.41085273027420044
-0.24115228652954102 -0.10077518224716187 -0.39534884691238403
-0.24053798615932465 -0.10077518224716187 -0.20930230617523193
-0.24121062457561493 -0.10077518224716187 -0.1627907156944275
-0.24203798174858093 -0.10077518224716187 -0.14728683233261108
-0.2426820695400238 -0.10077518224716187 -0.13178294897079468
-0.24344033002853394 -0.10077518224716187 -0.11627906560897827
-0.2446613311767578 -0.10077518224716187 -0.10077518224716187
-0.2446717619895935 -0.10077518224716187 -0.08527129888534546
-0.2436906099319458 -0.10077518224716187 -0.06976741552352905
-0.2466198205947876 -0.10077518224716187 -0.05426359176635742
-0.2508243918418884 -0.10077518224716187 0.007751941680908203
-0.24671442806720734 -0.10077518224716187 0.02325582504272461
-0.2500343322753906 -0.10077518224716187 0.06976747512817383
-0.24657166004180908 -0.10077518224716187 0.08527135848999023
-0.24268965423107147 -0.10077518224716187 0.10077524185180664
-0.2405528724193573 -0.10077518224716187 0.11627912521362305
-0.2403363138437271 -0.10077518224716187 0.1317828893661499
-0.2505694329738617 -0.10077518224716187 0.3488372564315796
-0.25410550832748413 -0.10077518224716187 0.364341139793396
-0.24277889728546143 -0.08527129888534546 -0.8604651093482971
-0.2505384683609009 -0.08527129888534546 -0.7209302186965942
-0.24774865806102753 -0.08527129888534546 -0.7054263353347778
-0.2493979036808014 -0.08527129888534546 -0.6899224519729614
-0.2530161738395691 -0.08527129888534546 -0.674418568611145
-0.24137409031391144 -0.08527129888534546 -0.6124030947685242
-0.24066729843616486 -0.08527129888534546 -0.5968992114067078
-0.24135708808898926 -0.08527129888534546 -0.42635661363601685
-0.24232307076454163 -0.08527129888534546 -0.41085273027420044
-0.24126899242401123 -0.08527129888534546 -0.39534884691238403
-0.24064448475837708 -0.08527129888534546 -0.22480618953704834
-0.24103818833827972 -0.08527129888534546 -0.20930230617523193
-0.2405651956796646 -0.08527129888534546 -0.19379842281341553
-0.24059073626995087 -0.08527129888534546 -0.1782945990562439
-0.2414708435535431 -0.08527129888534546 -0.1627907156944275
-0.24228449165821075 -0.08527129888534546 -0.14728683233261108
-0.2429485023021698 -0.08527129888534546 -0.13178294897079468
-0.24364051222801208 -0.08527129888534546 -0.11627906560897827
-0.24476322531700134 -0.08527129888534546 -0.10077518224716187
-0.2447889745235443 -0.08527129888534546 -0.08527129888534546
-0.24362525343894958 -0.08527129888534546 -0.06976741552352905
-0.2468280792236328 -0.08527129888534546 -0.05426359176635742
-0.24954330921173096 -0.08527129888534546 0.007751941680908203
-0.24617493152618408 -0.08527129888534546 0.02325582504272461
-0.25035399198532104 -0.08527129888534546 0.06976747512817383
-0.24706554412841797 -0.08527129888534546 0.08527135848999023
-0.24331358075141907 -0.08527129888534546 0.10077524185180664
-0.2411641925573349 -0.08527129888534546 0.11627912521362305
-0.24162769317626953 -0.08527129888534546 0.1317828893661499
-0.24105298519134521 -0.08527129888534546 0.1472867727279663
-0.2514827847480774 -0.08527129888534546 0.348837286233902
-0.2543703615665436 -0.08527129888534546 0.3643411695957184
-0.24476784467697144 -0.06976741552352905 -0.8604651093482971
-0.25113445520401 -0.06976741552352905 -0.7209301590919495
-0.24780020117759705 -0.06976741552352905 -0.7054263353347778
-0.25108468532562256 -0.06976741552352905 -0.6899224519729614
-0.2414131611585617 -0.06976741552352905 -0.6124030947685242
-0.2411840409040451 -0.06976741552352905 -0.42635661363601685
-0.24209201335906982 -0.06976741552352905 -0.41085273027420044
-0.24115464091300964 -0.06976741552352905 -0.39534884691238403
-0.24053938686847687 -0.06976741552352905 -0.27131783962249756
-0.24057798087596893 -0.06976741552352905 -0.25581395626068115
-0.240477055311203 -0.06976741552352905 -0.24031007289886475
-0.24114711582660675 -0.06976741552352905 -0.22480618953704834
-0.24142926931381226 -0.06976741552352905 -0.20930230617523193
-0.2410147488117218 -0.06976741552352905 -0.19379842281341553
-0.24102608859539032 -0.06976741552352905 -0.1782945990562439
-0.24180097877979279 -0.06976741552352905 -0.1627907156944275
-0.24255351722240448 -0.06976741552352905 -0.14728683233261108
-0.2432137280702591 -0.06976741552352905 -0.13178294897079468
-0.24387457966804504 -0.06976741552352905 -0.11627906560897827
-0.24496659636497498 -0.06976741552352905 -0.10077518224716187
-0.24509131908416748 -0.06976741552352905 -0.08527129888534546
-0.24394583702087402 -0.06976741552352905 -0.06976741552352905
-0.24792775511741638 -0.06976741552352905 -0.05426359176635742
-0.24879860877990723 -0.06976741552352905 0.007751941680908203
-0.24619638919830322 -0.06976741552352905 0.02325582504272461
-0.2509494423866272 -0.06976741552352905 0.06976747512817383
-0.247880756855011 -0.06976741552352905 0.08527135848999023
-0.24460823833942413 -0.06976741552352905 0.10077524185180664
-0.24243509769439697 -0.06976741552352905 0.11627912521362305
-0.2441747784614563 -0.06976741552352905 0.1317828893661499
-0.2446773499250412 -0.06976741552352905 0.1472867727279663
-0.2535117268562317 -0.06976741552352905 0.3488372564315796
-0.2550879120826721 -0.06976741552352905 0.364341139793396
-0.24371950328350067 -0.05426359176635742 -0.8604651093482971
-0.24966904520988464 -0.05426359176635742 -0.7209302186965942
-0.24580438435077667 -0.05426359176635742 -0.7054263353347778
-0.24888674914836884 -0.05426359176635742 -0.6899224519729614
-0.253812313079834 -0.05426359176635742 -0.674418568611145
-0.24061648547649384 -0.05426359176635742 -0.42635661363601685
-0.241570845246315 -0.05426359176635742 -0.41085273027420044
-0.24073021113872528 -0.05426359176635742 -0.39534884691238403
-0.24051864445209503 -0.05426359176635742 -0.27131783962249756
-0.24067221581935883 -0.05426359176635742 -0.25581395626068115
-0.24060876667499542 -0.05426359176635742 -0.24031007289886475
-0.24116277694702148 -0.05426359176635742 -0.22480618953704834
-0.24138107895851135 -0.05426359176635742 -0.20930230617523193
-0.24097584187984467 -0.05426359176635742 -0.19379842281341553
-0.240962415933609 -0.05426359176635742 -0.1782945990562439
-0.24167461693286896 -0.05426359176635742 -0.1627907156944275
-0.24239054322242737 -0.05426359176635742 -0.14728683233261108
-0.2430359274148941 -0.05426359176635742 -0.13178294897079468
-0.24368754029273987 -0.05426359176635742 -0.11627906560897827
-0.24474918842315674 -0.05426359176635742 -0.10077518224716187
-0.24499210715293884 -0.05426359176635742 -0.08527129888534546
-0.24399200081825256 -0.05426359176635742 -0.06976741552352905
-0.24871540069580078 -0.05426359176635742 -0.05426359176635742
-0.2545470595359802 -0.05426359176635742 -0.007751941680908203
-0.24810512363910675 -0.05426359176635742 0.007751941680908203
-0.2459910660982132 -0.05426359176635742 0.02325582504272461
-0.2514123320579529 -0.05426358804106712 0.06976747512817383
-0.24835684895515442 -0.05426359176635742 0.08527135848999023
-0.24559524655342102 -0.05426359176635742 0.10077524185180664
-0.24357780814170837 -0.05426359176635742 0.11627912521362305
-0.2464503049850464 -0.05426359176635742 0.1317828893661499
-0.24824494123458862 -0.05426359176635742 0.1472867727279663
-0.2549619674682617 -0.05426359176635742 0.3488372564315796
-0.24133114516735077 -0.038759708404541016 -0.8604651093482971
-0.255574494600296 -0.038759708404541016 -0.8449612259864807
-0.24866345524787903 -0.038759708404541016 -0.7209302186965942
-0.24479737877845764 -0.038759708404541016 -0.7054263353347778
-0.24671082198619843 -0.038759708404541016 -0.6899224519729614
-0.25081557035446167 -0.038759708404541016 -0.674418568611145
-0.25479423999786377 -0.038759708404541016 -0.6589146852493286
-0.24090006947517395 -0.038759708404541016 -0.41085273027420044
-0.2405337542295456 -0.038759708404541016 -0.22480618953704834
-0.24068476259708405 -0.038759708404541016 -0.20930230617523193
-0.24092160165309906 -0.038759708404541016 -0.1627907156944275
-0.24165239930152893 -0.038759708404541016 -0.14728683233261108
-0.24229851365089417 -0.038759708404541016 -0.13178294897079468
-0.24298086762428284 -0.038759708404541016 -0.11627906560897827
-0.24408140778541565 -0.038759708404541016 -0.10077518224716187
-0.2444503903388977 -0.038759708404541016 -0.08527129888534546
-0.24354934692382812 -0.038759708404541016 -0.06976741552352905
-0.2485753297805786 -0.038759708404541016 -0.05426359176635742
-0.2543286085128784 -0.038759708404541016 -0.007751941680908203
-0.24829527735710144 -0.038759708404541016 0.007751941680908203
-0.2460976541042328 -0.038759708404541016 0.02325582504272461
-0.25227341055870056 -0.038759708404541016 0.06976747512817383
-0.2490716278553009 -0.038759708404541016 0.08527135848999023
-0.2463977336883545 -0.038759708404541016 0.10077524185180664
-0.2441367655992508 -0.038759708404541016 0.11627912521362305
-0.24738101661205292 -0.038759708404541016 0.1317828893661499
-0.24946504831314087 -0.038759708404541016 0.1472867727279663
-0.24270227551460266 -0.02325582504272461 -0.8604651093482971
-0.253054141998291 -0.02325582318007946 -0.7209302186965942
-0.24800705909729004 -0.02325582504272461 -0.7054263353347778
-0.2516286075115204 -0.02325582504272461 -0.6899224519729614
-0.24075044691562653 -0.02325582504272461 -0.6124030947685242
-0.24103911221027374 -0.02325582504272461 -0.41085273027420044
-0.2404652088880539 -0.02325582504272461 -0.317829430103302
-0.2404908388853073 -0.02325582504272461 -0.30232560634613037
-0.2405385971069336 -0.02325582504272461 -0.28682172298431396
-0.24107038974761963 -0.02325582504272461 -0.27131783962249756
-0.24116429686546326 -0.02325582504272461 -0.25581395626068115
-0.2408582717180252 -0.02325582504272461 -0.24031007289886475
-0.24131308495998383 -0.02325582504272461 -0.22480618953704834
-0.24148106575012207 -0.02325582504272461 -0.20930230617523193
-0.24099180102348328 -0.02325582504272461 -0.19379842281341553
-0.2410029172897339 -0.02325582504272461 -0.1782945990562439
-0.2421553134918213 -0.02325582504272461 -0.1627907156944275
-0.24331657588481903 -0.02325582504272461 -0.14728683233261108
-0.24452786147594452 -0.02325582504272461 -0.13178294897079468
-0.24583852291107178 -0.02325582504272461 -0.11627906560897827
-0.24912941455841064 -0.02325582504272461 -0.10077518224716187
-0.2505142092704773 -0.02325582504272461 -0.08527129888534546
-0.25000664591789246 -0.02325582504272461 -0.06976741552352905
-0.25037866830825806 -0.02325582504272461 0.007751941680908203
-0.2488921582698822 -0.02325582504272461 0.02325582504272461
-0.2514784336090088 -0.02325582690536976 0.08527135848999023
-0.24814748764038086 -0.02325582504272461 0.10077524185180664
-0.24545185267925262 -0.02325582504272461 0.11627912521362305
-0.2484826147556305 -0.02325582504272461 0.1317828893661499
-0.2502014636993408 -0.02325582504272461 0.1472867727279663
-0.24993547797203064 -0.007751941680908203 -0.8604651093482971
-0.24103085696697235 -0.007751941680908203 -0.6279070377349854
-0.24639344215393066 -0.007751941680908203 -0.6124030947685242
-0.24621322751045227 -0.007751941680908203 -0.5968992114067078
-0.24489501118659973 -0.007751941680908203 -0.5813953876495361
-0.24265095591545105 -0.007751941680908203 -0.5658915042877197
-0.24131369590759277 -0.007751941680908203 -0.5503876209259033
-0.24154707789421082 -0.007751941680908203 -0.5348837375640869
-0.24300819635391235 -0.007751941680908203 -0.5193798542022705
-0.24381797015666962 -0.007751941680908203 -0.5038759708404541
-0.2441195249557495 -0.007751941680908203 -0.4883720874786377
-0.24443292617797852 -0.007751941680908203 -0.4728682041168213
-0.24432939291000366 -0.007751941680908203 -0.4573643207550049
-0.24527783691883087 -0.007751941680908203 -0.4418604373931885
-0.249611496925354 -0.007751941680908203 -0.42635661363601685
-0.25404858589172363 -0.007751941680908203 -0.41085273027420044
-0.25270357728004456 -0.007751941680908203 -0.39534884691238403
-0.2501382827758789 -0.007751941680908203 -0.3798449635505676
-0.25139009952545166 -0.007751941680908203 -0.3643410801887512
-0.2503720223903656 -0.007751941680908203 -0.3488371968269348
-0.2520751655101776 -0.007751941680908203 -0.3333333134651184
-0.2534084618091583 -0.007751941680908203 -0.3178294599056244
-0.25283244252204895 -0.007751941680908203 -0.30232560634613037
-0.25352585315704346 -0.007751941680908203 -0.28682172298431396
-0.25526389479637146 -0.007751941680908203 -0.27131783962249756
-0.25573068857192993 -0.007751941215246916 -0.24031005799770355
-0.25506770610809326 -0.00775194214656949 -0.20930230617523193
-0.25338247418403625 -0.007751941215246916 -0.19379840791225433
-0.25314703583717346 -0.007751941215246916 -0.1782945841550827
-0.2540585398674011 -0.00775194214656949 -0.1627907156944275
-0.25453731417655945 -0.007751941215246916 -0.14728683233261108
-0.25489020347595215 -0.00775194214656949 -0.13178294897079468
-0.25168609619140625 -0.00775194214656949 0.00775194214656949
-0.2508927583694458 -0.007751941680908203 0.02325582690536976
-0.24406304955482483 -0.007751941680908203 0.038759708404541016
-0.2550419867038727 -0.007751941680908203 0.11627912521362305
-0.2555510401725769 -0.007751941680908203 0.1317828893661499
-0.25456714630126953 -0.007751941680908203 0.1472867727279663
-0.24719364941120148 0.007751941680908203 -0.8604651093482971
-0.24099911749362946 0.007751941680908203 -0.6279069781303406
-0.2465478628873825 0.007751941680908203 -0.6124030947685242
-0.24587735533714294 0.007751941680908203 -0.5968992114067078
-0.24447810649871826 0.007751941680908203 -0.5813953876495361
-0.24197158217430115 0.007751941680908203 -0.5658915042877197
-0.2405114620923996 0.007751941680908203 -0.5348837375640869
-0.24205544590950012 0.007751941680908203 -0.5193798542022705
-0.2428293228149414 0.007751941680908203 -0.5038759708404541
-0.24304434657096863 0.007751941680908203 -0.4883720874786377
-0.24313631653785706 0.007751941680908203 -0.4728682041168213
-0.24289588630199432 0.007751941680908203 -0.4573643207550049
-0.24362504482269287 0.007751941680908203 -0.4418604373931885
-0.24708706140518188 0.007751941680908203 -0.42635661363601685
-0.25056859850883484 0.007751941680908203 -0.41085273027420044
-0.2493811696767807 0.007751941680908203 -0.39534884691238403
-0.24680253863334656 0.007751941680908203 -0.3798449635505676
-0.24786178767681122 0.007751941680908203 -0.3643410801887512
-0.2473122626543045 0.007751941680908203 -0.3488371968269348
-0.2494715452194214 0.00775194214656949 -0.3333333134651184
-0.25122877955436707 0.007751941680908203 -0.317829430103302
-0.2505589425563812 0.007751941680908203 -0.30232560634613037
-0.2505435049533844 0.007751941680908203 -0.28682172298431396
-0.2519005239009857 0.007751941680908203 -0.27131783962249756
-0.25248321890830994 0.007751941680908203 -0.25581395626068115
-0.25198671221733093 0.007751941680908203 -0.24031007289886475
-0.25319215655326843 0.007751941680908203 -0.22480618953704834
-0.25276419520378113 0.007751941680908203 -0.20930230617523193
-0.2517058849334717 0.007751941680908203 -0.19379842281341553
-0.25171348452568054 0.007751941680908203 -0.1782945990562439
-0.2530520260334015 0.007751941680908203 -0.1627907156944275
-0.2539370656013489 0.00775194214656949 -0.14728683233261108
-0.25458067655563354 0.007751941680908203 -0.13178294897079468
-0.252501904964447 0.007751941680908203 0.007751941680908203
-0.2513794004917145 0.007751941680908203 0.02325582504272461
-0.24343878030776978 0.007751941680908203 0.038759708404541016
-0.2490065097808838 0.007751941680908203 0.11627912521362305
-0.24987119436264038 0.007751941215246916 0.1317828893661499
-0.2485639452934265 0.007751941680908203 0.1472867727279663
-0.24114355444908142 0.02325582504272461 -0.8604651093482971
-0.2522413432598114 0.02325582504272461 -0.7209302186965942
-0.24935956299304962 0.02325582504272461 -0.7054263353347778
-0.2498558610677719 0.02325582504272461 -0.6899224519729614
-0.2532208561897278 0.02325582504272461 -0.674418568611145
-0.25493568181991577 0.02325582504272461 -0.6589146852493286
-0.25433170795440674 0.02325582504272461 -0.643410861492157
-0.25128331780433655 0.02325582504272461 -0.6279069781303406
-0.24091577529907227 0.02325582504272461 -0.14728683233261108
-0.24196624755859375 0.02325582504272461 -0.13178294897079468
-0.24316978454589844 0.02325582504272461 -0.11627906560897827
-0.245552659034729 0.02325582504272461 -0.10077518224716187
-0.24611635506153107 0.02325582504272461 -0.08527129888534546
-0.24295902252197266 0.02325582504272461 -0.06976741552352905
-0.25138014554977417 0.02325582504272461 -0.05426359176635742
-0.25564298033714294 0.02325582504272461 -0.007751941680908203
-0.2513524889945984 0.02325582504272461 0.007751941680908203
-0.24810552597045898 0.02325582504272461 0.02325582504272461
-0.25267359614372253 0.02325582504272461 0.06976747512817383
-0.24841265380382538 0.02325582504272461 0.08527135848999023
-0.24469450116157532 0.02325582504272461 0.10077524185180664
-0.2418348342180252 0.02325582504272461 0.11627912521362305
-0.243149995803833 0.02325582504272461 0.1317828893661499
-0.24273991584777832 0.02325582504272461 0.1472867727279663
-0.25411543250083923 0.038759708404541016 -0.8449612855911255
-0.24946975708007812 0.038759708404541016 -0.7209302186965942
-0.24747049808502197 0.038759708404541016 -0.7054263353347778
-0.24748650193214417 0.038759708404541016 -0.6899224519729614
-0.2491973638534546 0.038759708404541016 -0.674418568611145
-0.25043874979019165 0.038759708404541016 -0.6589146852493286
-0.25022345781326294 0.038759708404541016 -0.6434109210968018
-0.24836993217468262 0.038759708404541016 -0.6279069781303406
-0.24065181612968445 0.038759708404541016 -0.11627906560897827
-0.24247238039970398 0.038759708404541016 -0.10077518224716187
-0.24264033138751984 0.038759708404541016 -0.08527129888534546
-0.24332332611083984 0.038759708404541016 -0.05426359176635742
-0.2537349462509155 0.038759708404541016 -0.007751941680908203
-0.24931207299232483 0.038759708404541016 0.007751941680908203
-0.24558839201927185 0.038759708404541016 0.02325582504272461
-0.255119651556015 0.038759708404541016 0.05426359176635742
-0.24937847256660461 0.038759708404541016 0.06976747512817383
-0.24523591995239258 0.038759708404541016 0.08527135848999023
-0.24207672476768494 0.038759708404541016 0.10077524185180664
-0.24084942042827606 0.038759708404541016 0.1317828893661499
-0.24043624103069305 0.038759708404541016 0.1472867727279663
-0.25308024883270264 0.05426358804106712 -0.8449611663818359
-0.24880251288414001 0.05426359176635742 -0.7209302186965942
-0.24645085632801056 0.05426359176635742 -0.7054263353347778
-0.24710243940353394 0.05426359176635742 -0.6899224519729614
-0.24891091883182526 0.05426359176635742 -0.674418568611145
-0.2503264248371124 0.05426359176635742 -0.6589146852493286
-0.25029900670051575 0.05426359176635742 -0.643410861492157
-0.24876388907432556 0.05426359176635742 -0.6279069781303406
-0.24052175879478455 0.05426359176635742 -0.11627906560897827
-0.24270573258399963 0.05426359176635742 -0.10077518224716187
-0.24273467063903809 0.05426359176635742 -0.08527129888534546
-0.24055702984333038 0.05426359176635742 -0.06976741552352905
-0.2446565330028534 0.05426359176635742 -0.05426359176635742
-0.25537216663360596 0.05426358804106712 -0.038759708404541016
-0.25280725955963135 0.05426358804106712 -0.007751941680908203
-0.24882464110851288 0.05426359176635742 0.007751941680908203
-0.24633555114269257 0.05426359176635742 0.02325582504272461
-0.25185057520866394 0.05426359176635742 0.05426359176635742
-0.24710428714752197 0.05426359176635742 0.06976747512817383
-0.2436555027961731 0.05426359176635742 0.08527135848999023
-0.24118678271770477 0.05426359176635742 0.10077524185180664
-0.25561657547950745 0.05426359549164772 0.3488372564315796
-0.2514006793498993 0.06976747512817383 -0.8449612259864807
-0.24747368693351746 0.06976747512817383 -0.7209302186965942
-0.24555864930152893 0.06976747512817383 -0.7054263353347778
-0.24633117020130157 0.06976747512817383 -0.6899224519729614
-0.2479957789182663 0.06976747512817383 -0.674418568611145
-0.24941980838775635 0.06976747512817383 -0.6589146852493286
-0.24973005056381226 0.06976747512817383 -0.643410861492157
-0.24897313117980957 0.06976747512817383 -0.6279069781303406
-0.25547879934310913 0.06976747512817383 -0.5503876805305481
-0.25577643513679504 0.06976747512817383 -0.5348837375640869
-0.2425684928894043 0.06976747512817383 -0.10077518224716187
-0.24249085783958435 0.06976747512817383 -0.08527129888534546
-0.24044427275657654 0.06976747512817383 -0.06976741552352905
-0.24491789937019348 0.06976747512817383 -0.05426359176635742
-0.25417953729629517 0.06976747512817383 -0.038759708404541016
-0.253292053937912 0.06976747512817383 -0.007751941680908203
-0.24863684177398682 0.06976747512817383 0.007751941680908203
-0.24641236662864685 0.06976747512817383 0.02325582504272461
-0.2508785128593445 0.06976747512817383 0.05426359176635742
-0.24686019122600555 0.06976747512817383 0.06976747512817383
-0.2436172217130661 0.06976747512817383 0.08527135848999023
-0.2410731017589569 0.06976747512817383 0.10077524185180664
-0.2534121572971344 0.06976747512817383 0.3488372266292572
-0.2515273988246918 0.08527135848999023 -0.8449612259864807
-0.24747583270072937 0.08527135848999023 -0.7209302186965942
-0.24590927362442017 0.08527135848999023 -0.7054263353347778
-0.2466856837272644 0.08527135848999023 -0.6899224519729614
-0.24806727468967438 0.08527135848999023 -0.674418568611145
-0.24943667650222778 0.08527135848999023 -0.6589146852493286
-0.25011664628982544 0.08527135848999023 -0.6434109210968018
-0.2506868243217468 0.08527135848999023 -0.6279069185256958
-0.24253615736961365 0.08527135848999023 -0.10077518224716187
-0.24246875941753387 0.08527135848999023 -0.08527129888534546
-0.24065661430358887 0.08527135848999023 -0.06976741552352905
-0.24491822719573975 0.08527135848999023 -0.05426359176635742
-0.2541872560977936 0.08527135848999023 -0.038759708404541016
-0.2545478940010071 0.08527136594057083 -0.00775194214656949
-0.24895384907722473 0.08527135848999023 0.007751941680908203
-0.24625873565673828 0.08527135848999023 0.02325582504272461
-0.2528024911880493 0.08527135848999023 0.05426359549164772
-0.248291015625 0.08527135848999023 0.06976747512817383
-0.2448626309633255 0.08527135848999023 0.08527135848999023
-0.2417324334383011 0.08527135848999023 0.10077524185180664
-0.25032204389572144 0.08527135848999023 0.3488372564315796
-0.2555444836616516 0.08527136594057083 0.364341139793396
-0.2545727491378784 0.10077524185180664 -0.8449612259864807
-0.24842007458209991 0.10077524185180664 -0.7209302186965942
-0.24704177677631378 0.10077524185180664 -0.7054263353347778
-0.2475549727678299 0.10077524185180664 -0.6899224519729614
-0.24865120649337769 0.10077524185180664 -0.674418568611145
-0.25005006790161133 0.10077524185180664 -0.6589146852493286
-0.2508780360221863 0.10077524185180664 -0.6434108018875122
-0.2528480589389801 0.10077524185180664 -0.6279069781303406
-0.24065783619880676 0.10077524185180664 -0.41085273027420044
-0.2414827048778534 0.10077524185180664 -0.11627906560897827
-0.24338646233081818 0.10077524185180664 -0.10077518224716187
-0.24344006180763245 0.10077524185180664 -0.08527129888534546
-0.2422059327363968 0.10077524185180664 -0.06976741552352905
-0.24633705615997314 0.10077524185180664 -0.05426359176635742
-0.25054091215133667 0.10077524185180664 0.007751941680908203
-0.2473149299621582 0.10077524185180664 0.02325582504272461
-0.25068557262420654 0.10077524185180664 0.06976747512817383
-0.2477695494890213 0.10077524185180664 0.08527135848999023
-0.24421486258506775 0.10077524185180664 0.10077524185180664
-0.24155564606189728 0.10077524185180664 0.11627912521362305
-0.24186845123767853 0.10077524185180664 0.1317828893661499
-0.24184079468250275 0.10077524185180664 0.1472867727279663
-0.24634501338005066 0.10077524185180664 0.3488372564315796
-0.252346009016037 0.10077524185180664 0.364341139793396
-0.2557787299156189 0.10077524185180664 0.37984490394592285
-0.24238009750843048 0.11627912521362305 -0.8604651093482971
-0.248898446559906 0.11627912521362305 -0.7209302186965942
-0.2478017508983612 0.11627912521362305 -0.7054263353347778
-0.24806837737560272 0.11627912521362305 -0.6899224519729614
-0.24890246987342834 0.11627912521362305 -0.674418568611145
-0.250272661447525 0.11627912521362305 -0.6589146852493286
-0.2511095404624939 0.11627912521362305 -0.643410861492157
-0.25353100895881653 0.11627911776304245 -0.6279069185256958
-0.24124525487422943 0.11627912521362305 -0.41085273027420044
-0.2406235635280609 0.11627912521362305 -0.1627907156944275
-0.24122226238250732 0.11627912521362305 -0.14728683233261108
-0.24167339503765106 0.11627912521362305 -0.13178294897079468
-0.24260413646697998 0.11627912521362305 -0.11627906560897827
-0.24407508969306946 0.11627912521362305 -0.10077518224716187
-0.24432580173015594 0.11627912521362305 -0.08527129888534546
-0.24362656474113464 0.11627912521362305 -0.06976741552352905
-0.248135045170784 0.11627912521362305 -0.05426359176635742
-0.25209295749664307 0.11627912521362305 0.007751941680908203
-0.2484365552663803 0.11627912521362305 0.02325582504272461
-0.2416049689054489 0.11627912521362305 0.038759708404541016
-0.253364235162735 0.11627911776304245 0.06976747512817383
-0.24966055154800415 0.11627912521362305 0.08527135848999023
-0.24704939126968384 0.11627912521362305 0.10077524185180664
-0.24406680464744568 0.11627912521362305 0.11627912521362305
-0.24487940967082977 0.11627912521362305 0.1317828893661499
-0.24548085033893585 0.11627912521362305 0.1472867727279663
-0.24255043268203735 0.11627912521362305 0.3488372564315796
-0.24583733081817627 0.11627912521362305 0.364341139793396
-0.25170937180519104 0.11627912521362305 0.37984490394592285
-0.24450019001960754 0.1317828893661499 -0.8604651093482971
