0.19441308081150055 0.24031007289886475 0.06976747512817383
0.20597106218338013 0.24031007289886475 0.08527135848999023
0.20827817916870117 0.24031007289886475 0.10077524185180664
0.20367032289505005 0.24031007289886475 0.11627912521362305
0.1997002512216568 0.24031007289886475 0.1317828893661499
0.19627070426940918 0.24031007289886475 0.37984490394592285
0.1958579421043396 0.25581395626068115 -0.643410861492157
0.20144930481910706 0.25581395626068115 0.10077524185180664
0.20237597823143005 0.25581395626068115 0.11627912521362305
0.20076847076416016 0.25581395626068115 0.1317828893661499
0.20166198909282684 0.27131783962249756 -0.6589146852493286
0.19399377703666687 0.27131783962249756 0.1472867727279663
0.20013749599456787 0.28682172298431396 0.1472867727279663
0.2037566751241684 0.3488372564315796 0.41085267066955566
0.20606060326099396 0.364341139793396 0.1317828893661499
0.19448497891426086 0.37984490394592285 0.08527135848999023
0.19860509037971497 0.39534878730773926 0.08527135848999023
0.20466473698616028 0.39534878730773926 0.10077524185180664
0.20242108404636383 0.39534878730773926 0.11627912521362305
0.19730743765830994 0.39534878730773926 0.1317828893661499
0.19453531503677368 0.41085267066955566 -0.4418604373931885
0.1948482096195221 0.41085267066955566 -0.42635661363601685
0.19466561079025269 0.41085267066955566 -0.41085273027420044
0.19438858330249786 0.41085267066955566 -0.39534884691238403
0.19401180744171143 0.41085267066955566 -0.3798449635505676
0.19956761598587036 0.41085267066955566 0.08527135848999023
0.20105144381523132 0.41085267066955566 0.10077524185180664
0.20048174262046814 0.41085267066955566 0.11627913266420364
0.19999906420707703 0.41085267066955566 0.1317828893661499
0.1986556351184845 0.41085267066955566 0.1472867727279663
0.1968817263841629 0.41085267066955566 0.16279065608978271
0.19644930958747864 0.4108526408672333 0.17829452455043793
0.1967308223247528 0.41085267066955566 0.19379842281341553
0.1966177225112915 0.41085270047187805 0.20930230617523193
0.19542787969112396 0.41085267066955566 0.22480618953704834
0.19603019952774048 0.41085267066955566 0.37984487414360046
0.19722141325473785 0.42635655403137207 0.08527135848999023
0.198520690202713 0.42635655403137207 0.10077524185180664
0.19824206829071045 0.42635655403137207 0.11627912521362305
0.19819435477256775 0.42635655403137207 0.1317828893661499
0.19667428731918335 0.42635655403137207 0.1472867727279663
0.1939752995967865 0.4263565242290497 0.16279065608978271
0.20730382204055786 0.42635655403137207 0.39534878730773926
0.19778990745544434 0.4418604373931885 0.39534878730773926
0.1978675276041031 0.4573643207550049 -0.8294573426246643
0.2055390626192093 0.4573643207550049 -0.7984496355056763
0.21217356622219086 -0.4883720874786377 -0.9844961166381836
0.21721330285072327 -0.42635661363601685 -0.7209302186965942
0.2214859127998352 -0.42635661363601685 0.08527135848999023
0.22064240276813507 -0.42635661363601685 0.10077524185180664
0.21747542917728424 -0.42635661363601685 0.11627912521362305
0.21082213521003723 -0.42635661363601685 0.1317828893661499
0.21053119003772736 -0.42635661363601685 0.39534878730773926
0.21215805411338806 -0.41085273027420044 -0.7054263353347778
0.20949481427669525 -0.41085273027420044 -0.41085273027420044
0.20945413410663605 -0.41085273027420044 -0.39534884691238403
0.20942240953445435 -0.41085273027420044 -0.3798449635505676
0.20938052237033844 -0.41085270047187805 -0.3333333134651184
0.20961156487464905 -0.4108527600765228 -0.317829430103302
0.2099226862192154 -0.41085273027420044 -0.302325576543808
0.21005520224571228 -0.41085270047187805 -0.28682172298431396
0.21018601953983307 -0.41085273027420044 -0.27131783962249756
0.2102217972278595 -0.41085273027420044 -0.25581395626068115
0.21004554629325867 -0.41085273027420044 -0.24031007289886475
0.20982778072357178 -0.41085270047187805 -0.22480617463588715
0.20976552367210388 -0.41085273027420044 -0.20930232107639313
0.20975007116794586 -0.41085273027420044 -0.19379842281341553
0.20960311591625214 -0.41085273027420044 -0.1782946139574051
0.20959952473640442 -0.41085273027420044 0.007751941680908203
0.21110767126083374 -0.41085273027420044 0.02325582504272461
0.21149492263793945 -0.4108527600765228 0.038759708404541016
0.2115875631570816 -0.41085273027420044 0.05426359176635742
0.21807235479354858 -0.41085273027420044 0.06976747512817383
0.22013455629348755 -0.41085273027420044 0.1317828893661499
0.21539023518562317 -0.41085273027420044 0.1472867727279663
0.2100495845079422 -0.41085273027420044 0.16279065608978271
0.22014108300209045 -0.41085273027420044 0.39534878730773926
0.21109639108181 -0.39534884691238403 -0.5968992114067078
0.2120734304189682 -0.39534884691238403 -0.5813953876495361
0.21205414831638336 -0.39534884691238403 -0.5658915042877197
0.2105683535337448 -0.39534884691238403 -0.5503876209259033
0.2097741812467575 -0.39534884691238403 -0.5348837375640869
0.2095545083284378 -0.39534884691238403 -0.5038759708404541
0.20985716581344604 -0.39534881711006165 -0.4883720874786377
0.21016083657741547 -0.39534884691238403 -0.4728682041168213
0.21017931401729584 -0.39534884691238403 -0.4573643207550049
0.20992587506771088 -0.3953488767147064 -0.44186046719551086
0.21635453402996063 -0.39534884691238403 0.1472867727279663
0.21081873774528503 -0.3798449635505676 0.08527135848999023
0.22318287193775177 -0.3643410801887512 -0.6899224519729614
0.2116345912218094 -0.3333333432674408 0.41085267066955566
0.21160635352134705 -0.28682172298431396 0.42635655403137207
0.21176721155643463 -0.25581395626068115 0.10077524185180664
0.20969510078430176 -0.24031007289886475 -0.42635661363601685
0.21020720899105072 -0.24031008780002594 -0.41085273027420044
0.21067401766777039 -0.24031008780002594 -0.39534884691238403
0.21084222197532654 -0.24031007289886475 -0.3798449635505676
0.21095022559165955 -0.24031008780002594 -0.3643411099910736
0.21037395298480988 -0.24031007289886475 -0.3488371968269348
0.21012888848781586 -0.24031007289886475 -0.3333333134651184
0.2101648896932602 -0.24031007289886475 -0.3178294003009796
0.2102358341217041 -0.24031007289886475 -0.30232560634613037
0.21045202016830444 -0.24031007289886475 -0.28682172298431396
0.21023869514465332 -0.24031007289886475 -0.27131783962249756
0.21002255380153656 -0.24031008780002594 -0.25581395626068115
0.20931124687194824 -0.24031007289886475 -0.24031007289886475
0.21805571019649506 -0.24031007289886475 0.08527135848999023
0.2240697294473648 -0.24031007289886475 0.10077524185180664
0.21950921416282654 -0.24031007289886475 0.11627912521362305
0.2177642285823822 -0.24031007289886475 0.1317828893661499
0.2123294472694397 -0.24031007289886475 0.1472867727279663
0.21099039912223816 -0.24031008780002594 0.44186046719551086
0.22244176268577576 -0.22480618953704834 -0.6589146852493286
0.20956654846668243 -0.22480617463588715 -0.5348837375640869
0.21281495690345764 -0.22480618953704834 -0.5193798542022705
0.21570107340812683 -0.22480618953704834 -0.5038759708404541
0.21835777163505554 -0.22480618953704834 -0.4883720874786377
0.2213766723871231 -0.22480618953704834 -0.4728682041168213
0.22430700063705444 -0.22480618953704834 -0.4573643207550049
0.22412599623203278 -0.22480618953704834 -0.25581395626068115
0.22249245643615723 -0.22480618953704834 -0.24031007289886475
0.2201279103755951 -0.22480618953704834 -0.22480618953704834
0.2173578143119812 -0.22480618953704834 -0.20930230617523193
0.21537548303604126 -0.22480618953704834 -0.19379842281341553
0.21386221051216125 -0.22480618953704834 -0.1782945990562439
0.2134912610054016 -0.22480618953704834 -0.1627907156944275
0.2137807011604309 -0.22480618953704834 -0.14728683233261108
0.21385467052459717 -0.22480618953704834 -0.13178294897079468
0.21420544385910034 -0.22480618953704834 -0.11627906560897827
0.21514582633972168 -0.22480618953704834 -0.10077518224716187
0.21606525778770447 -0.22480618953704834 -0.08527129888534546
0.21685725450515747 -0.22480618953704834 -0.06976741552352905
0.21758584678173065 -0.22480618953704834 -0.05426359176635742
0.21832334995269775 -0.22480618953704834 -0.038759708404541016
0.21845248341560364 -0.22480618953704834 -0.02325582504272461
0.21815888583660126 -0.22480618953704834 -0.007751941680908203
0.21821922063827515 -0.22480618953704834 0.007751941680908203
0.21785202622413635 -0.22480618953704834 0.02325582504272461
0.21516470611095428 -0.22480620443820953 0.038759708404541016
0.21425242722034454 -0.22480618953704834 0.05426359176635742
0.21960532665252686 -0.22480618953704834 0.06976747512817383
0.22208291292190552 -0.22480618953704834 0.16279065608978271
0.2095925509929657 -0.22480620443820953 0.17829455435276031
0.22397832572460175 -0.20930230617523193 -0.643410861492157
0.2135915458202362 -0.20930230617523193 -0.6279069185256958
0.2104482501745224 -0.20930230617523193 -0.6124030947685242
0.2096681296825409 -0.20930229127407074 -0.5968992114067078
0.2123139500617981 -0.20930230617523193 -0.5813953876495361
0.2183634489774704 -0.20930230617523193 -0.5658915042877197
0.21601927280426025 -0.20930230617523193 0.19379842281341553
0.21673192083835602 -0.19379842281341553 0.22480618953704834
0.21325236558914185 -0.19379842281341553 0.24031007289886475
0.211533784866333 -0.19379842281341553 0.25581395626068115
0.20996107161045074 -0.19379840791225433 0.27131783962249756
0.21014532446861267 -0.19379842281341553 0.37984490394592285
0.21157079935073853 -0.19379842281341553 0.4573643207550049
0.21960663795471191 -0.1782945990562439 0.28682172298431396
0.21388450264930725 -0.1782945990562439 0.30232560634613037
0.20997828245162964 -0.1782945990562439 0.3178294897079468
0.21804682910442352 -0.1782945990562439 0.37984490394592285
0.22342370450496674 -0.1627907156944275 0.3333333730697632
0.2191014587879181 -0.1627907156944275 0.3488372564315796
0.21864545345306396 -0.1627907156944275 0.364341139793396
0.21930356323719025 -0.11627906560897827 0.4883720874786377
0.21086987853050232 -0.00775194214656949 0.5038759708404541
0.22461169958114624 0.007751941680908203 0.24031007289886475
0.22372090816497803 0.02325582504272461 0.24031007289886475
0.21297411620616913 0.038759708404541016 0.5038759708404541
0.22286558151245117 0.05426359176635742 0.5038759708404541
0.21879512071609497 0.06976747512817383 0.5038759708404541
0.2094138264656067 0.08527135848999023 0.5038759708404541
0.22161135077476501 0.1317828893661499 0.4883720874786377
0.2171681970357895 0.17829453945159912 0.22480618953704834
0.21229788661003113 0.17829453945159912 0.24031007289886475
0.21257106959819794 0.17829453945159912 0.25581395626068115
0.2134958803653717 0.17829453945159912 0.27131783962249756
0.21244896948337555 0.17829453945159912 0.28682172298431396
0.21140065789222717 0.17829453945159912 0.30232560634613037
0.21106268465518951 0.17829452455043793 0.3178294599056244
0.21200866997241974 0.17829453945159912 0.3333333730697632
0.21503019332885742 0.17829453945159912 0.3488372564315796
0.21992990374565125 0.17829453945159912 0.364341139793396
0.2137112319469452 0.17829453945159912 0.4728682041168213
0.2197558879852295 0.19379842281341553 0.37984490394592285
0.22081756591796875 0.20930230617523193 -0.6279069781303406
0.2204720675945282 0.20930230617523193 -0.6124030947685242
0.22251440584659576 0.20930230617523193 -0.5968992114067078
0.21064677834510803 0.20930230617523193 0.1627906709909439
0.2235603928565979 0.20930230617523193 0.4573643207550049
0.21620073914527893 0.22480618953704834 -0.643410861492157
0.21013280749320984 0.22480618953704834 -0.5813953876495361
0.2121254950761795 0.22480618953704834 -0.5658915042877197
0.21489217877388 0.22480618953704834 -0.5503876209259033
0.21736961603164673 0.22480618953704834 -0.5348837375640869
0.21938219666481018 0.22480618953704834 -0.5193798542022705
0.22249996662139893 0.22480618953704834 -0.5038759708404541
0.2234264463186264 0.22480618953704834 -0.20930230617523193
0.22044892609119415 0.22480618953704834 -0.19379842281341553
0.21937265992164612 0.22480618953704834 -0.1782945990562439
0.22055551409721375 0.22480618953704834 -0.1627907156944275
0.2230539619922638 0.22480618953704834 -0.14728683233261108
0.22471271455287933 0.22480618953704834 -0.13178294897079468
0.22253106534481049 0.22480618953704834 0.02325582504272461
0.2172035574913025 0.22480618953704834 0.038759708404541016
0.21412940323352814 0.22480618953704834 0.05426359176635742
0.21663689613342285 0.22480618953704834 0.06976747512817383
0.22200608253479004 0.22480618953704834 0.11627912521362305
0.21367111802101135 0.22480618953704834 0.1317828893661499
0.21018868684768677 0.24031007289886475 -0.4728682041168213
0.21155574917793274 0.24031007289886475 -0.4573643207550049
0.21250927448272705 0.24031007289886475 -0.4418604373931885
0.21295246481895447 0.24031007289886475 -0.42635661363601685
0.21288320422172546 0.24031007289886475 -0.41085270047187805
0.21277129650115967 0.24031007289886475 -0.39534884691238403
0.21169894933700562 0.24031007289886475 -0.3798449635505676
0.21127597987651825 0.24031008780002594 -0.3643410801887512
0.21027357876300812 0.24031007289886475 -0.3488371968269348
0.20942814648151398 0.24031007289886475 -0.3333333134651184
0.20954348146915436 0.24031008780002594 -0.317829430103302
0.20952127873897552 0.24031007289886475 -0.30232560634613037
0.20958271622657776 0.24031007289886475 -0.28682172298431396
0.2093101441860199 0.24031007289886475 -0.27131783962249756
0.22172164916992188 0.25581395626068115 -0.6589146852493286
0.22340130805969238 0.27131783962249756 0.11627912521362305
0.21609684824943542 0.27131783962249756 0.1317828893661499
0.2108314037322998 0.27131783962249756 0.4418604373931885
0.21020232141017914 0.30232560634613037 0.1472867727279663
0.2233944684267044 0.30232560634613037 0.42635655403137207
0.212910458445549 0.364341139793396 0.08527135848999023
0.22330449521541595 0.364341139793396 0.11627912521362305
0.2100747525691986 0.364341139793396 0.1317828893661499
0.214966282248497 0.37984490394592285 0.10077524185180664
0.21171094477176666 0.37984490394592285 0.11627912521362305
0.2096392661333084 0.39534878730773926 -0.7054263353347778
0.2152421623468399 0.41085267066955566 0.39534878730773926
0.21579943597316742 0.42635655403137207 -0.7829457521438599
0.21177050471305847 0.42635655403137207 -0.7209302186965942
0.21837148070335388 0.4418604373931885 -0.8449612259864807
0.20995141565799713 0.4418604373931885 -0.751937985420227
0.21669656038284302 0.4573643207550049 -0.8294574022293091
0.21919257938861847 0.4573643207550049 -0.8139535188674927
0.20981532335281372 0.4573643207550049 -0.7984495759010315
0.22436903417110443 0.4728682041168213 -0.8759689927101135
0.2376573085784912 -0.4728682041168213 -0.8914728760719299
0.22650085389614105 -0.4728682041168213 -0.8759689927101135
0.23378854990005493 -0.4573643207550049 -0.8604651093482971
0.2305673360824585 -0.4573643207550049 -0.8449611663818359
0.22968518733978271 -0.4573643207550049 -0.8294573426246643
0.22843465209007263 -0.42635661363601685 -0.7829457521438599
0.23076064884662628 -0.42635661363601685 -0.7674418687820435
0.23329147696495056 -0.42635661363601685 -0.751937985420227
0.22845511138439178 -0.42635658383369446 -0.7364341020584106
0.2312450408935547 -0.41085273027420044 -0.7209302186965942
0.23314622044563293 -0.41085273027420044 0.08527135848999023
0.22933845221996307 -0.41085273027420044 0.10077524185180664
0.2254273146390915 -0.41085273027420044 0.11627912521362305
0.22588518261909485 -0.39534884691238403 -0.7054263353347778
0.2384803146123886 -0.39534884691238403 0.08527135848999023
0.23699769377708435 -0.39534884691238403 0.10077524185180664
0.23243027925491333 -0.39534884691238403 0.11627912521362305
0.22581632435321808 -0.39534884691238403 0.1317828893661499
0.2312890589237213 -0.39534884691238403 0.39534878730773926
0.23969988524913788 -0.3798449635505676 -0.7054263353347778
0.23146142065525055 -0.3798449635505676 0.08527135848999023
0.23193126916885376 -0.3798449635505676 0.11627912521362305
0.23844072222709656 -0.3643410801887512 0.10077524185180664
0.23863431811332703 -0.3488371968269348 -0.6899224519729614
0.2291852980852127 -0.27131783962249756 0.42635655403137207
0.22520077228546143 -0.22480618953704834 -0.4418604075908661
0.22558657824993134 -0.22480618953704834 -0.42635661363601685
0.22572235763072968 -0.22480618953704834 -0.41085273027420044
0.2259351909160614 -0.22480618953704834 -0.39534884691238403
0.22596870362758636 -0.22480620443820953 -0.3798449635505676
0.2260134071111679 -0.22480617463588715 -0.3643410801887512
0.22552959620952606 -0.22480617463588715 -0.3488371968269348
0.22527195513248444 -0.22480618953704834 -0.3333333134651184
0.22516760230064392 -0.22480618953704834 -0.3178294599056244
0.225044846534729 -0.22480618953704834 -0.30232560634613037
0.22505047917366028 -0.22480618953704834 -0.28682175278663635
0.2248229831457138 -0.22480618953704834 -0.27131783962249756
0.23236125707626343 -0.22480618953704834 0.08527135848999023
0.23519167304039001 -0.22480618953704834 0.10077524185180664
0.23309043049812317 -0.22480618953704834 0.11627912521362305
0.23288089036941528 -0.22480618953704834 0.1317828893661499
0.2290494590997696 -0.22480618953704834 0.1472867727279663
0.22719047963619232 -0.22480617463588715 0.4418604373931885
0.22580748796463013 -0.20930230617523193 -0.5503876209259033
0.22877159714698792 -0.20930230617523193 -0.5348837375640869
0.23054508864879608 -0.20930229127407074 -0.5193798542022705
0.23243533074855804 -0.20930230617523193 -0.5038759708404541
0.2343977987766266 -0.20930230617523193 -0.4883720874786377
0.23641477525234222 -0.20930230617523193 -0.4728682041168213
0.23849892616271973 -0.20930230617523193 -0.4573643207550049
0.23973523080348969 -0.20930230617523193 -0.4418604373931885
0.239971324801445 -0.20930230617523193 -0.3488371968269348
0.23940563201904297 -0.20930230617523193 -0.3333333134651184
0.23903611302375793 -0.20930230617523193 -0.317829430103302
0.23866626620292664 -0.20930230617523193 -0.30232560634613037
0.2386176735162735 -0.20930230617523193 -0.28682172298431396
0.23800905048847198 -0.20930230617523193 -0.27131783962249756
0.23730537295341492 -0.20930230617523193 -0.25581395626068115
0.2359776496887207 -0.20930230617523193 -0.24031007289886475
0.23430511355400085 -0.20930230617523193 -0.22480618953704834
0.23173189163208008 -0.20930230617523193 -0.20930230617523193
0.22988656163215637 -0.20930230617523193 -0.19379842281341553
0.22831520438194275 -0.20930230617523193 -0.1782945990562439
0.2277822345495224 -0.20930230617523193 -0.1627907156944275
0.22788912057876587 -0.20930230617523193 -0.14728683233261108
0.22778822481632233 -0.20930230617523193 -0.13178294897079468
0.22791695594787598 -0.20930229127407074 -0.11627905815839767
0.22840309143066406 -0.20930230617523193 -0.10077518224716187
0.22888988256454468 -0.20930230617523193 -0.08527129143476486
0.2295466512441635 -0.20930230617523193 -0.06976741552352905
0.23046261072158813 -0.20930229127407074 -0.05426359176635742
0.23186764121055603 -0.20930230617523193 -0.038759708404541016
0.23291213810443878 -0.20930230617523193 -0.02325582504272461
0.2334977388381958 -0.20930230617523193 -0.007751941680908203
0.23410268127918243 -0.20930230617523193 0.007751941680908203
0.23414316773414612 -0.20930230617523193 0.02325582504272461
0.2319459617137909 -0.20930230617523193 0.038759708404541016
0.2312401533126831 -0.20930230617523193 0.05426359176635742
0.2355644553899765 -0.20930230617523193 0.06976747512817383
0.2375314086675644 -0.20930230617523193 0.16279065608978271
0.2277657389640808 -0.20930232107639313 0.17829453945159912
0.236683189868927 -0.19379842281341553 -0.6279069781303406
0.23392391204833984 -0.19379842281341553 -0.6124030947685242
0.23440510034561157 -0.19379842281341553 -0.5968992114067078
0.23762056231498718 -0.19379842281341553 -0.5813953876495361
0.23556068539619446 -0.19379842281341553 0.19379842281341553
0.22494623064994812 -0.19379842281341553 0.20930230617523193
0.23488278687000275 -0.1782945990562439 0.22480618953704834
0.22929492592811584 -0.1782945990562439 0.24031005799770355
0.22652997076511383 -0.1782945990562439 0.25581395626068115
0.22481891512870789 -0.1782945990562439 0.27131783962249756
0.23615437746047974 -0.1782945990562439 0.4573643207550049
0.23853060603141785 -0.1627907156944275 0.27131783962249756
0.2330801784992218 -0.1627907156944275 0.28682172298431396
0.2287384271621704 -0.1627907156944275 0.30232560634613037
0.2261662632226944 -0.1627907156944275 0.3178294897079468
0.22833013534545898 -0.1627907156944275 0.37984490394592285
0.23896600306034088 -0.14728683233261108 0.3178294897079468
0.2363031506538391 -0.14728683233261108 0.3333333730697632
0.23484301567077637 -0.14728683233261108 0.3488372564315796
0.2329517900943756 -0.14728683233261108 0.364341139793396
0.23920103907585144 -0.14728683233261108 0.37984490394592285
0.2301361858844757 -0.14728683233261108 0.4728682041168213
0.22882157564163208 -0.06976741552352905 0.5038759708404541
0.2258363664150238 -0.02325582504272461 0.5038759708404541
0.2332131564617157 -0.007751941680908203 0.24031007289886475
0.23705995082855225 -0.007751941680908203 0.25581395626068115
0.2347903847694397 0.007751941680908203 0.22480618953704834
0.231757253408432 0.007751941215246916 0.25581395626068115
0.24022039771080017 0.007751941680908203 0.27131783962249756
0.2306327372789383 0.02325582504272461 0.22480618953704834
0.23050299286842346 0.02325582504272461 0.25581395626068115
0.23936910927295685 0.02325582504272461 0.27131783962249756
0.23663869500160217 0.038759708404541016 0.24031007289886475
0.23717838525772095 0.11627912521362305 0.4883720874786377
0.23980362713336945 0.16279065608978271 0.25581395626068115
0.23643366992473602 0.16279065608978271 0.27131783962249756
0.23253904283046722 0.16279065608978271 0.28682172298431396
0.22988083958625793 0.16279065608978271 0.30232560634613037
0.22891348600387573 0.16279065608978271 0.3178294897079468
0.2293323278427124 0.16279065608978271 0.3333333730697632
0.23135963082313538 0.16279065608978271 0.3488372564315796
0.23507723212242126 0.16279065608978271 0.364341139793396
0.23619849979877472 0.16279065608978271 0.4728682041168213
0.22864197194576263 0.17829453945159912 0.20930230617523193
0.23286262154579163 0.17829453945159912 0.37984490394592285
0.23794695734977722 0.19379842281341553 -0.6279069781303406
0.2369394451379776 0.19379842281341553 -0.6124030947685242
0.23839610815048218 0.19379842281341553 -0.5968992114067078
0.23591485619544983 0.19379842281341553 0.16279065608978271
0.22539617121219635 0.19379842281341553 0.17829453945159912
0.22887584567070007 0.20930232107639313 -0.643410861492157
0.22523489594459534 0.20930230617523193 -0.5813953876495361
0.22688312828540802 0.20930230617523193 -0.5658915042877197
0.2292347550392151 0.20930230617523193 -0.5503876209259033
0.23128092288970947 0.20930230617523193 -0.5348837375640869
0.23281660676002502 0.20930230617523193 -0.5193798542022705
0.23472857475280762 0.20930230617523193 -0.5038759708404541
0.2370549440383911 0.20930230617523193 -0.4883720874786377
0.23958885669708252 0.20930230617523193 -0.4728682041168213
0.23923861980438232 0.20930230617523193 -0.20930230617523193
0.23749271035194397 0.20930230617523193 -0.19379842281341553
0.2367972433567047 0.20930230617523193 -0.1782945990562439
0.2378142774105072 0.20930230617523193 -0.1627907156944275
0.2394435852766037 0.20930230617523193 -0.14728683233261108
0.23984046280384064 0.20930230617523193 -0.13178294897079468
0.23995940387248993 0.20930230617523193 -0.11627906560897827
0.2394079715013504 0.20930230617523193 -0.10077518224716187
0.2386665791273117 0.20930230617523193 -0.08527129888534546
0.2382812350988388 0.20930230617523193 -0.06976741552352905
0.2388380616903305 0.20930230617523193 -0.05426359176635742
0.2382459044456482 0.20930230617523193 0.05426359176635742
0.23379145562648773 0.20930230617523193 0.1317828893661499
0.22538524866104126 0.20930230617523193 0.1472867727279663
0.2383396029472351 0.22480618953704834 -0.6589146852493286
0.22517962753772736 0.22480617463588715 -0.4883720874786377
0.22611942887306213 0.22480618953704834 -0.4728682041168213
0.22727569937705994 0.22480618953704834 -0.4573643207550049
0.22851793467998505 0.22480618953704834 -0.4418604373931885
0.22946831583976746 0.22480618953704834 -0.42635661363601685
0.22991803288459778 0.22480618953704834 -0.41085273027420044
0.23013487458229065 0.22480618953704834 -0.39534884691238403
0.22943417727947235 0.22480618953704834 -0.3798449635505676
0.22909119725227356 0.22480618953704834 -0.3643410801887512
0.2280595600605011 0.22480618953704834 -0.3488371968269348
0.22716335952281952 0.22480618953704834 -0.3333333134651184
0.2270594835281372 0.22480618953704834 -0.317829430103302
0.22696399688720703 0.22480618953704834 -0.302325576543808
0.2270199954509735 0.22480620443820953 -0.28682172298431396
0.22680844366550446 0.22480618953704834 -0.27131783962249756
0.22647596895694733 0.22480618953704834 -0.25581395626068115
0.22590094804763794 0.22480618953704834 -0.24031007289886475
0.22539588809013367 0.22480618953704834 -0.22480618953704834
0.22531644999980927 0.22480618953704834 -0.11627906560897827
0.2258358746767044 0.22480618953704834 -0.10077518224716187
0.22603186964988708 0.22480618953704834 -0.08527129888534546
0.22588926553726196 0.22480618953704834 -0.06976741552352905
0.2257789820432663 0.22480618953704834 -0.05426359176635742
0.22599731385707855 0.22480618953704834 -0.038759708404541016
0.22615297138690948 0.22480618953704834 -0.02325582504272461
0.2256174236536026 0.22480618953704834 -0.007751941680908203
0.2248937338590622 0.22480618953704834 0.007751941215246916
0.22919520735740662 0.22480618953704834 0.08527135848999023
0.2291073501110077 0.22480618953704834 0.10077524185180664
0.23131373524665833 0.24031007289886475 -0.6589146852493286
0.2387806475162506 0.24031007289886475 0.4418604373931885
0.2258162945508957 0.25581395626068115 0.4418604373931885
0.2352810949087143 0.27131783962249756 0.10077524185180664
0.23888786137104034 0.28682172298431396 0.1317828893661499
0.22964876890182495 0.30232560634613037 -0.674418568611145
0.22928784787654877 0.3333333730697632 -0.6899224519729614
0.22940918803215027 0.3333333730697632 0.41085267066955566
0.23559297621250153 0.3488372564315796 0.08527135848999023
0.23118245601654053 0.3488372564315796 0.1317828893661499
0.22912344336509705 0.364341139793396 0.10077524185180664
0.2260509580373764 0.37984490394592285 -0.7054263353347778
0.227687805891037 0.39534878730773926 0.39534878730773926
0.2325088381767273 0.41085267066955566 -0.7829457521438599
0.23854811489582062 0.41085267066955566 -0.7674418687820435
0.22917324304580688 0.41085267066955566 -0.7209302186965942
0.23614704608917236 0.42635655403137207 -0.8604651689529419
0.23306915163993835 0.42635655403137207 -0.8449612259864807
0.22517834603786469 0.42635655403137207 -0.7674418687820435
0.22834786772727966 0.42635655403137207 -0.751937985420227
0.22529281675815582 0.42635655403137207 -0.7364341020584106
0.22520165145397186 0.4418604373931885 -0.8604651093482971
0.22939875721931458 0.4418604373931885 -0.8294574022293091
0.23104219138622284 0.4418604373931885 -0.8139535188674927
0.22982138395309448 0.4418604075908661 -0.7984495759010315
0.2343384027481079 0.4573643207550049 -0.8759689927101135
0.23666393756866455 0.4883720874786377 -0.9844961166381836
0.22632956504821777 0.4883720874786377 -0.9689922332763672
0.2481803297996521 -0.4728682041168213 -0.9844961166381836
0.24260146915912628 -0.4728682041168213 -0.9689922332763672
0.24171121418476105 -0.4728682041168213 -0.9534883499145508
0.24159352481365204 -0.4728682041168213 -0.9379845261573792
0.24127869307994843 -0.4728682041168213 -0.9224806427955627
0.24081936478614807 -0.4728682041168213 -0.9069767594337463
0.2515021860599518 -0.4573643207550049 -0.9689922332763672
0.2521010935306549 -0.4573643207550049 -0.9534883499145508
0.2527438998222351 -0.4573643207550049 -0.9379844665527344
0.25271326303482056 -0.4573643207550049 -0.9224806427955627
0.2521381080150604 -0.4573643207550049 -0.9069767594337463
0.24955680966377258 -0.4573643207550049 -0.8914729356765747
0.24331453442573547 -0.4573643207550049 -0.8759689927101135
0.25219419598579407 -0.4418604373931885 -0.8759689927101135
0.24434185028076172 -0.4418604373931885 -0.8604651093482971
0.2433106154203415 -0.4418604373931885 -0.8449611663818359
0.2450028955936432 -0.4418604373931885 -0.8294574022293091
0.24448993802070618 -0.4418604373931885 -0.8139535188674927
0.24138683080673218 -0.4418604373931885 -0.7984496355056763
0.25305259227752686 -0.42635661363601685 -0.8604651093482971
0.25126826763153076 -0.42635661363601685 -0.8449612259864807
0.2556435465812683 -0.42635661363601685 -0.8294573426246643
0.2555180490016937 -0.42635661363601685 -0.8139535188674927
0.25038689374923706 -0.42635661363601685 -0.7984496355056763
0.24037103354930878 -0.41085273027420044 -0.7829457521438599
0.24305438995361328 -0.41085273027420044 -0.7674418687820435
0.2451571822166443 -0.41085273027420044 -0.751937985420227
0.24210131168365479 -0.41085273027420044 -0.7364341020584106
0.25374388694763184 -0.39534884691238403 -0.7829457521438599
0.2553721070289612 -0.39534884691238403 -0.7364341020584106
0.244447723031044 -0.39534884691238403 -0.7209302186965942
0.24162329733371735 -0.3798449635505676 0.10077524185180664
0.2453213930130005 -0.3798449635505676 0.39534878730773926
0.24970901012420654 -0.3643410801887512 -0.7054263353347778
0.25134485960006714 -0.3333333134651184 -0.6899224519729614
0.24084508419036865 -0.317829430103302 0.41085267066955566
0.24449443817138672 -0.25581395626068115 0.42635655403137207
0.24032385647296906 -0.20930230617523193 -0.42635661363601685
0.24034267663955688 -0.20930230617523193 -0.41085273027420044
0.24042464792728424 -0.20930230617523193 -0.39534884691238403
0.2404085099697113 -0.20930230617523193 -0.37984499335289
0.24046869575977325 -0.20930230617523193 -0.3643410801887512
0.24518291652202606 -0.20930230617523193 0.08527135848999023
0.24639736115932465 -0.20930230617523193 0.10077524185180664
0.24504101276397705 -0.20930230617523193 0.11627911776304245
0.24492143094539642 -0.20930230617523193 0.1317828893661499
0.24245965480804443 -0.20930230617523193 0.1472867876291275
0.24403175711631775 -0.20930230617523193 0.4418604373931885
0.24777141213417053 -0.19379842281341553 -0.643410861492157
0.24167189002037048 -0.19379842281341553 -0.565891444683075
0.24393180012702942 -0.19379842281341553 -0.5503876209259033
0.24545875191688538 -0.19379842281341553 -0.5348837375640869
0.24620816111564636 -0.19379842281341553 -0.5193798542022705
0.2472931444644928 -0.19379842281341553 -0.5038759708404541
0.2484210729598999 -0.19379842281341553 -0.4883720874786377
0.24947494268417358 -0.19379842281341553 -0.4728682041168213
0.2507114112377167 -0.19379842281341553 -0.4573643207550049
0.2515980899333954 -0.19379842281341553 -0.4418604373931885
0.25226864218711853 -0.19379842281341553 -0.42635661363601685
0.25248533487319946 -0.19379842281341553 -0.41085273027420044
0.2529127299785614 -0.19379842281341553 -0.39534884691238403
0.2528991103172302 -0.19379842281341553 -0.3798449635505676
0.25333672761917114 -0.19379842281341553 -0.3643410801887512
0.2528488039970398 -0.19379842281341553 -0.3488371968269348
0.25263193249702454 -0.19379842281341553 -0.3333333134651184
0.2523876428604126 -0.19379842281341553 -0.317829430103302
0.2521134614944458 -0.19379842281341553 -0.30232560634613037
0.25201746821403503 -0.19379842281341553 -0.28682172298431396
0.2513800263404846 -0.19379842281341553 -0.27131783962249756
0.25083887577056885 -0.19379842281341553 -0.25581395626068115
0.249893456697464 -0.19379842281341553 -0.24031007289886475
0.24887418746948242 -0.19379842281341553 -0.22480618953704834
0.24698057770729065 -0.19379842281341553 -0.20930230617523193
0.24577859044075012 -0.19379842281341553 -0.19379842281341553
0.24468283355236053 -0.19379842281341553 -0.1782945990562439
0.24426190555095673 -0.19379842281341553 -0.1627907156944275
0.24429446458816528 -0.19379842281341553 -0.14728683233261108
0.24391159415245056 -0.19379840791225433 -0.13178294897079468
0.24368713796138763 -0.19379842281341553 -0.11627906560897827
0.2437072992324829 -0.19379842281341553 -0.10077518969774246
0.24358317255973816 -0.19379842281341553 -0.08527129888534546
0.24406109750270844 -0.19379842281341553 -0.06976741552352905
0.24514886736869812 -0.19379842281341553 -0.05426359176635742
0.24723273515701294 -0.19379842281341553 -0.038759708404541016
0.2489302158355713 -0.19379842281341553 -0.02325582504272461
0.250083327293396 -0.19379842281341553 -0.007751941680908203
0.25076234340667725 -0.19379842281341553 0.007751941680908203
0.2509029507637024 -0.19379842281341553 0.02325582504272461
0.24954721331596375 -0.19379842281341553 0.038759708404541016
0.24892005324363708 -0.19379842281341553 0.05426359176635742
0.2516250014305115 -0.19379842281341553 0.06976747512817383
0.25472378730773926 -0.19379842281341553 0.1472867727279663
0.2494610846042633 -0.19379842281341553 0.16279065608978271
0.24341559410095215 -0.19379842281341553 0.17829453945159912
0.25376126170158386 -0.1782945990562439 -0.6124030947685242
0.25456199049949646 -0.1782945990562439 -0.5968992114067078
0.2506454586982727 -0.1782945990562439 0.19379842281341553
0.24327698349952698 -0.1782945990562439 0.20930230617523193
0.24873137474060059 -0.1627907156944275 0.22480618953704834
0.24356725811958313 -0.1627907156944275 0.24031007289886475
0.24109482765197754 -0.1627907007932663 0.25581395626068115
0.25374120473861694 -0.14728683233261108 0.24031007289886475
0.25003838539123535 -0.14728683233261108 0.25581395626068115
0.2467513382434845 -0.14728683233261108 0.27131783962249756
0.2437172383069992 -0.14728683233261108 0.28682172298431396
0.24122440814971924 -0.14728683233261108 0.30232560634613037
0.2557218074798584 -0.13178294897079468 0.27131783962249756
0.25263968110084534 -0.13178294897079468 0.28682172298431396
0.2486780881881714 -0.13178294897079468 0.30232560634613037
0.24672181904315948 -0.13178294897079468 0.3178294897079468
0.24682588875293732 -0.13178294897079468 0.3333333730697632
0.2476472556591034 -0.13178294897079468 0.3488372564315796
0.24577221274375916 -0.13178294897079468 0.364341139793396
0.24693287909030914 -0.13178294897079468 0.37984490394592285
0.2543138563632965 -0.13178294897079468 0.4728682041168213
0.25469082593917847 -0.11627906560897827 0.3178294897079468
0.2553993761539459 -0.11627906560897827 0.3333333730697632
0.2534758746623993 -0.11627906560897827 0.364341139793396
0.25303369760513306 -0.11627906560897827 0.37984490394592285
0.2531561255455017 -0.10077518224716187 0.364341139793396
0.25457966327667236 -0.10077518224716187 0.37984490394592285
0.24233877658843994 -0.10077518224716187 0.4883720874786377
0.25532594323158264 -0.08527129888534546 0.3488372564315796
0.25250473618507385 -0.08527129888534546 0.364341139793396
0.25571221113204956 -0.08527129888534546 0.37984490394592285
0.2541504502296448 -0.06976741552352905 0.364341139793396
0.2552452087402344 -0.05426359176635742 0.364341139793396
0.2467154562473297 -0.05426359176635742 0.5038759708404541
0.2553219795227051 -0.038759708404541016 0.3178294897079468
0.2531287670135498 -0.038759708404541016 0.3333333730697632
0.2510683536529541 -0.038759708404541016 0.3488372564315796
0.2506057024002075 -0.038759708404541016 0.364341139793396
0.24397988617420197 -0.038759708404541016 0.5038759708404541
0.25058072805404663 -0.02325582504272461 0.24031007289886475
0.24776804447174072 -0.02325582504272461 0.25581395626068115
0.24926120042800903 -0.02325582504272461 0.27131783962249756
0.2496633231639862 -0.02325582504272461 0.28682172298431396
0.24861633777618408 -0.02325582504272461 0.30232560634613037
0.24801583588123322 -0.02325582504272461 0.3178294897079468
0.24639399349689484 -0.02325582504272461 0.3333333730697632
0.24549651145935059 -0.02325582504272461 0.3488372564315796
0.2458379566669464 -0.02325582504272461 0.364341139793396
0.2451190948486328 -0.007751941680908203 0.22480618953704834
0.24321436882019043 -0.007751941680908203 0.27131783962249756
0.24516364932060242 -0.007751941680908203 0.28682172298431396
0.2447059154510498 -0.007751941680908203 0.30232560634613037
0.24455982446670532 -0.007751941680908203 0.3178294897079468
0.24384206533432007 -0.007751941680908203 0.3333333730697632
0.2440185248851776 -0.007751941680908203 0.3488372564315796
0.2454531341791153 -0.007751941680908203 0.364341139793396
0.2430068552494049 0.007751941680908203 0.28682172298431396
0.24284572899341583 0.007751941680908203 0.30232560634613037
0.24278992414474487 0.007751941680908203 0.31782951951026917
0.2419942170381546 0.007751941680908203 0.3333333730697632
0.2418687790632248 0.007751941680908203 0.3488372564315796
0.2425500452518463 0.007751941680908203 0.364341139793396
0.243053138256073 0.02325582504272461 0.28682172298431396
0.24360710382461548 0.02325582504272461 0.30232560634613037
0.24377040565013885 0.02325582504272461 0.3178294897079468
0.242719829082489 0.02325582504272461 0.3333333730697632
0.24192798137664795 0.02325582504272461 0.3488372564315796
0.24142909049987793 0.02325582504272461 0.364341139793396
0.255045086145401 0.02325582504272461 0.37984490394592285
0.24059386551380157 0.038759708404541016 0.22480620443820953
0.24215397238731384 0.038759708404541016 0.25581395626068115
0.24815627932548523 0.038759708404541016 0.27131783962249756
0.2500714659690857 0.038759708404541016 0.28682172298431396
0.25005877017974854 0.038759708404541016 0.30232560634613037
0.24989119172096252 0.038759708404541016 0.3178294897079468
0.24885869026184082 0.038759708404541016 0.3333333730697632
0.24776096642017365 0.038759708404541016 0.3488372564315796
0.24678272008895874 0.038759708404541016 0.364341139793396
0.25393301248550415 0.05426359176635742 0.22480618953704834
0.2517837584018707 0.05426359176635742 0.24031007289886475
0.2556164860725403 0.05426359176635742 0.25581395626068115
0.2554571330547333 0.05426359176635742 0.364341139793396
0.2500036954879761 0.10077524185180664 0.4883720874786377
0.25527191162109375 0.1317828893661499 0.30232560634613037
0.2541058659553528 0.1317828893661499 0.3178294897079468
0.25554803013801575 0.1317828893661499 0.3333333730697632
0.2550085484981537 0.1472867727279663 0.25581395626068115
0.25164103507995605 0.1472867727279663 0.27131783962249756
0.24731263518333435 0.1472867727279663 0.28682172298431396
0.2440679669380188 0.1472867727279663 0.30232560634613037
0.2428034245967865 0.1472867727279663 0.3178294897079468
0.24305512011051178 0.1472867727279663 0.3333333730697632
0.24421128630638123 0.1472867727279663 0.3488372564315796
0.2457929253578186 0.1472867727279663 0.364341139793396
0.2552926540374756 0.1472867727279663 0.37984490394592285
0.2541255056858063 0.1472867727279663 0.4728682041168213
0.25490882992744446 0.16279065608978271 0.20930230617523193
0.24766144156455994 0.16279065608978271 0.22480618953704834
0.24267852306365967 0.16279065608978271 0.24031007289886475
0.24490365386009216 0.16279065608978271 0.37984490394592285
0.25317615270614624 0.17829453945159912 -0.6124030947685242
0.2533669173717499 0.17829453945159912 -0.5968992114067078
0.2552163004875183 0.17829453945159912 -0.5813953876495361
0.2550305426120758 0.17829453945159912 0.16279065608978271
0.24800235033035278 0.17829453945159912 0.17829453945159912
0.24094143509864807 0.17829453945159912 0.19379842281341553
0.24656306207180023 0.19379842281341553 -0.6434108018875122
0.24068699777126312 0.19379842281341553 -0.5813953280448914
0.24228279292583466 0.19379842281341553 -0.5658915042877197
0.24451035261154175 0.19379842281341553 -0.5503876209259033
0.24627533555030823 0.19379842281341553 -0.5348837375640869
0.24752476811408997 0.19379842281341553 -0.5193798542022705
0.2491007298231125 0.19379842281341553 -0.5038759708404541
0.25066402554512024 0.19379842281341553 -0.4883720874786377
0.2519775629043579 0.19379842281341553 -0.4728682041168213
0.25346052646636963 0.19379842281341553 -0.4573643207550049
0.2549511790275574 0.19379842281341553 -0.4418604373931885
0.2551056146621704 0.19379842281341553 -0.24031007289886475
0.254618376493454 0.19379842281341553 -0.22480618953704834
0.2536192238330841 0.19379842281341553 -0.20930230617523193
0.2532331943511963 0.19379842281341553 -0.19379842281341553
0.25317826867103577 0.19379842281341553 -0.1782945990562439
0.2536795437335968 0.19379842281341553 -0.1627907156944275
0.2541862726211548 0.19379842281341553 -0.14728683233261108
0.2537117302417755 0.19379842281341553 -0.13178294897079468
0.2529849410057068 0.19379842281341553 -0.11627906560897827
0.25185203552246094 0.19379842281341553 -0.10077518224716187
0.2507461905479431 0.19379842281341553 -0.08527129888534546
0.25028473138809204 0.19379842281341553 -0.06976741552352905
0.25090131163597107 0.19379842281341553 -0.05426359176635742
0.25294309854507446 0.19379842281341553 -0.038759708404541016
0.25535181164741516 0.19379842281341553 -0.02325582504272461
0.25078681111335754 0.19379842281341553 0.1317828893661499
0.24330762028694153 0.19379842281341553 0.1472867727279663
0.24267494678497314 0.19379842281341553 0.4573643207550049
0.2506755590438843 0.20930230617523193 -0.6589146852493286
0.2407720386981964 0.20930230617523193 -0.4573643207550049
0.24142204225063324 0.20930230617523193 -0.4418604373931885
0.24207957088947296 0.20930230617523193 -0.42635661363601685
0.24264538288116455 0.20930232107639313 -0.41085273027420044
0.2430107146501541 0.20930230617523193 -0.39534884691238403
0.24267952144145966 0.20930230617523193 -0.3798449635505676
0.2426503598690033 0.20930230617523193 -0.3643410801887512
0.24208970367908478 0.20930230617523193 -0.3488371968269348
0.2416529655456543 0.20930230617523193 -0.3333333134651184
0.2415776252746582 0.20930230617523193 -0.317829430103302
0.24156200885772705 0.20930230617523193 -0.30232560634613037
0.24164316058158875 0.20930230617523193 -0.28682172298431396
0.24154119193553925 0.20930230617523193 -0.27131783962249756
0.24130965769290924 0.20930230617523193 -0.25581395626068115
0.2409152090549469 0.20930230617523193 -0.24031007289886475
0.2406441867351532 0.20930230617523193 -0.22480618953704834
0.24055416882038116 0.20930230617523193 -0.038759708404541016
0.24168336391448975 0.20930230617523193 -0.02325582504272461
0.24239353835582733 0.20930229127407074 -0.007751941215246916
0.2424100935459137 0.20930232107639313 0.007751941680908203
0.24216611683368683 0.20930230617523193 0.02325582504272461
0.240705206990242 0.20930230617523193 0.038759708404541016
0.24068096280097961 0.20930230617523193 0.06976747512817383
0.2467789351940155 0.20930230617523193 0.08527135848999023
0.2462238073348999 0.20930230617523193 0.10077524185180664
0.24102459847927094 0.20930232107639313 0.11627913266420364
0.25131234526634216 0.22480618953704834 0.4418604373931885
0.25447502732276917 0.27131783962249756 0.42635655403137207
0.24710285663604736 0.28682172298431396 -0.674418568611145
0.24234414100646973 0.28682172298431396 0.42635655403137207
0.24953672289848328 0.3178294897079468 0.41085267066955566
0.25384968519210815 0.3333333730697632 0.1317828893661499
0.2550632655620575 0.3488372564315796 0.10077524185180664
0.24520984292030334 0.3488372564315796 0.11627912521362305
0.2414306104183197 0.3643411695957184 -0.7054263353347778
0.24156014621257782 0.37984487414360046 0.39534878730773926
0.24778875708580017 0.39534878730773926 -0.7829457521438599
0.2521807849407196 0.39534878730773926 -0.7674418687820435
0.25241467356681824 0.39534878730773926 -0.7364341020584106
0.24348244071006775 0.39534875750541687 -0.7209302186965942
0.24692445993423462 0.41085267066955566 -0.8604651093482971
0.24451127648353577 0.41085267066955566 -0.8449612855911255
0.2480500042438507 0.41085267066955566 -0.8294573426246643
0.250560998916626 0.41085267066955566 -0.8139535188674927
0.2519807815551758 0.41085267066955566 -0.7984496355056763
0.2428329735994339 0.41085267066955566 -0.7519380450248718
0.2403317391872406 0.41085267066955566 -0.7364341020584106
0.25223308801651 0.42635655403137207 -0.8759690523147583
0.24067755043506622 0.42635655403137207 -0.8294572830200195
0.24182622134685516 0.42635655403137207 -0.8139535188674927
0.24212689697742462 0.42635655403137207 -0.7984496355056763
0.24367564916610718 0.4418604373931885 -0.8759689927101135
0.2501998245716095 0.4573643207550049 -0.9689922332763672
0.25068143010139465 0.4573643207550049 -0.9534883499145508
0.2515299320220947 0.4573643207550049 -0.9379844665527344
0.251386821269989 0.4573643207550049 -0.922480583190918
0.2502203583717346 0.4573643207550049 -0.9069767594337463
0.2469233274459839 0.4573643207550049 -0.8914729356765747
0.24943166971206665 0.4728682041168213 -0.9844961166381836
0.2441381812095642 0.4728682041168213 -0.9689922332763672
0.24341988563537598 0.4728682041168213 -0.9534883499145508
0.2436094880104065 0.4728682041168213 -0.9379844069480896
0.24330514669418335 0.4728682041168213 -0.9224807024002075
0.24262645840644836 0.4728682041168213 -0.9069767594337463
0.24089032411575317 0.4728682041168213 -0.8914728164672852
0.25800827145576477 -0.4573643207550049 -0.9844961166381836
0.2639996111392975 -0.4418604373931885 -0.9844961166381836
0.2600218653678894 -0.44186046719551086 -0.9689922332763672
0.2599485516548157 -0.4418604373931885 -0.9534883499145508
0.2605133056640625 -0.4418604373931885 -0.9379844665527344
0.2605047821998596 -0.4418604373931885 -0.922480583190918
0.26008325815200806 -0.4418604373931885 -0.9069766998291016
0.25856494903564453 -0.44186046719551086 -0.8914729356765747
0.2707931697368622 -0.42635661363601685 -0.9689922332763672
0.2709532678127289 -0.42635661363601685 -0.9534883499145508
0.2710561454296112 -0.42635661363601685 -0.9379844665527344
0.27095234394073486 -0.42635661363601685 -0.9224806427955627
0.270550012588501 -0.42635661363601685 -0.9069767594337463
0.2677052915096283 -0.42635661363601685 -0.8914728760719299
0.2602542042732239 -0.42635661363601685 -0.8759690523147583
0.26106274127960205 -0.41085273027420044 -0.8604651093482971
0.26002037525177 -0.41085273027420044 -0.8449612259864807
0.2619013786315918 -0.41085273027420044 -0.8294573426246643
0.2619818150997162 -0.41085273027420044 -0.8139535188674927
0.2598595917224884 -0.41085273027420044 -0.7984496355056763
0.2569420337677002 -0.39534884691238403 -0.7674418687820435
0.2583213448524475 -0.39534884691238403 -0.751937985420227
0.26481810212135315 -0.3798449635505676 -0.7829457521438599
0.26784783601760864 -0.3798449635505676 -0.7674418687820435
0.26504480838775635 -0.3798449635505676 -0.7364341020584106
0.2580101191997528 -0.3798449635505676 -0.7209302186965942
0.2707764506340027 -0.3643410801887512 -0.7209302186965942
0.2604351043701172 -0.3643410801887512 0.39534878730773926
0.2614653706550598 -0.3488371968269348 -0.7054263353347778
0.2645123302936554 -0.317829430103302 -0.6899224519729614
0.2620663344860077 -0.30232560634613037 0.41085267066955566
0.2574864625930786 -0.24031007289886475 0.4263565242290497
0.2668989896774292 -0.22480618953704834 0.42635655403137207
0.25699326395988464 -0.20930230617523193 -0.6589146852493286
0.25855955481529236 -0.19379842281341553 0.08527135848999023
0.2590489685535431 -0.19379843771457672 0.10077524930238724
0.25753214955329895 -0.19379842281341553 0.11627912521362305
0.2570110261440277 -0.19379842281341553 0.1317828893661499
0.26036834716796875 -0.19379842281341553 0.4418604075908661
0.26466965675354004 -0.1782945990562439 -0.643410861492157
0.25600549578666687 -0.1782946139574051 -0.6279069781303406
0.2561801075935364 -0.1782945990562439 -0.5813953876495361
0.2572946548461914 -0.1782945990562439 -0.5658915042877197
0.2583063244819641 -0.1782945990562439 -0.5503876209259033
0.25910791754722595 -0.1782945990562439 -0.5348837375640869
0.2594313323497772 -0.1782945990562439 -0.5193798542022705
0.26026588678359985 -0.1782945990562439 -0.5038759708404541
0.26107871532440186 -0.1782945990562439 -0.4883720874786377
0.26176178455352783 -0.1782945990562439 -0.4728682041168213
