-0.27131783962249756 0.17202886939048767 0.17829453945159912
-0.27131783962249756 0.16835162043571472 0.19379842281341553
-0.27131783962249756 0.1754598766565323 0.20930230617523193
-0.27131783962249756 0.17568345367908478 0.25581395626068115
-0.27131783962249756 0.17207972705364227 0.4573643207550049
-0.27131783962249756 0.1904877871274948 -0.6124030947685242
-0.27131783962249756 0.17950913310050964 -0.5968992114067078
-0.27131783962249756 0.17905402183532715 -0.05426359176635742
-0.27131783962249756 0.18044035136699677 -0.038759708404541016
-0.27131783962249756 0.18166378140449524 -0.02325582504272461
-0.27131783962249756 0.18249882757663727 -0.007751941680908203
-0.27131783962249756 0.18318410217761993 0.007751941680908203
-0.27131783962249756 0.1832796037197113 0.02325582504272461
-0.27131783962249756 0.18288999795913696 0.038759708404541016
-0.27131783962249756 0.18246398866176605 0.05426359176635742
-0.27131783962249756 0.18232786655426025 0.06976747512817383
-0.27131783962249756 0.18428976833820343 0.08527135848999023
-0.27131783962249756 0.19377662241458893 0.10077524185180664
-0.27131783962249756 0.19152052700519562 0.1317828893661499
-0.27131783962249756 0.179827481508255 0.1472867727279663
-0.27131783962249756 0.1807013750076294 0.22480618953704834
-0.27131786942481995 0.17898614704608917 0.24031007289886475
-0.27131783962249756 0.18161708116531372 0.27131783962249756
-0.27131783962249756 0.18559381365776062 0.28682172298431396
-0.27131783962249756 0.1859891414642334 0.30232560634613037
-0.27131783962249756 0.1907675564289093 0.4418604373931885
-0.27131783962249756 0.20724456012248993 -0.6279069781303406
-0.27131783962249756 0.19773998856544495 0.11627912521362305
-0.27131783962249756 0.19473320245742798 0.3178294897079468
-0.27131783962249756 0.19689518213272095 0.3333333730697632
-0.27131783962249756 0.20045356452465057 0.3488372564315796
-0.27131783962249756 0.22019731998443604 -0.6899224519729614
-0.27131783962249756 0.21670688688755035 -0.674418568611145
-0.27131783962249756 0.21563012897968292 -0.6589146852493286
-0.27131783962249756 0.2171039581298828 -0.643410861492157
-0.27131783962249756 0.21137279272079468 0.42635655403137207
-0.27131783962249756 0.23819825053215027 -0.7674418687820435
-0.27131783962249756 0.23717628419399261 -0.751937985420227
-0.27131783962249756 0.23878130316734314 -0.7364341020584106
-0.27131783962249756 0.2365364283323288 -0.7209302186965942
-0.27131783962249756 0.22896450757980347 -0.7054263353347778
-0.27131780982017517 0.22502575814723969 0.41085267066955566
-0.27131783962249756 0.24892617762088776 -0.8604651093482971
-0.27131783962249756 0.24499061703681946 -0.8449612855911255
-0.27131783962249756 0.24372844398021698 -0.8294573426246643
-0.27131783962249756 0.24279791116714478 -0.8139535188674927
-0.27131783962249756 0.24178242683410645 -0.7984496355056763
-0.27131783962249756 0.24055257439613342 -0.7829457521438599
-0.27131783962249756 0.261460542678833 -0.8759690523147583
-0.27131783962249756 0.26356184482574463 0.39534878730773926
-0.27131783962249756 0.2881869375705719 -0.8914728760719299
-0.27131783962249756 0.31597864627838135 -0.9069767594337463
-0.27131783962249756 0.3271571695804596 0.364341139793396
-0.27131783962249756 0.3184252679347992 0.37984490394592285
-0.27131783962249756 0.3400101363658905 -0.922480583190918
-0.27131783962249756 0.36334240436553955 -0.9534883499145508
-0.27131783962249756 0.3596874177455902 -0.9379844665527344
-0.27131783962249756 0.3686860203742981 -0.9844961762428284
-0.27131783962249756 0.3645212650299072 -0.9689922332763672
-0.25581395626068115 -0.37368232011795044 -0.9844961166381836
-0.25581395626068115 -0.3706470727920532 -0.9689922332763672
-0.25581395626068115 -0.3707558810710907 -0.9534883499145508
-0.25581395626068115 -0.36872586607933044 -0.9379844665527344
-0.25581395626068115 -0.35064733028411865 -0.9224806427955627
-0.25581395626068115 -0.3389175534248352 0.364341139793396
-0.25581395626068115 -0.3298954963684082 -0.9069767594337463
-0.25581395626068115 -0.3293312191963196 0.37984490394592285
-0.25581395626068115 -0.3086906373500824 -0.8914728760719299
-0.25581395626068115 -0.2884127199649811 -0.8759689927101135
-0.25581395626068115 -0.28770554065704346 0.39534878730773926
-0.25581395626068115 -0.27280598878860474 -0.8604651093482971
-0.25581395626068115 -0.26557138562202454 -0.8449611663818359
-0.25581395626068115 -0.2644028663635254 -0.8294574022293091
-0.25581395626068115 -0.2642008662223816 -0.8139535188674927
-0.25581395626068115 -0.26371896266937256 -0.7984496355056763
-0.25581395626068115 -0.26249492168426514 -0.7829457521438599
-0.25581395626068115 -0.26243704557418823 -0.7674418687820435
-0.25581395626068115 -0.2633131444454193 -0.751937985420227
-0.25581395626068115 -0.26625126600265503 -0.7364341020584106
-0.25581395626068115 -0.2635062336921692 -0.7209302186965942
-0.25581395626068115 -0.25430214405059814 -0.7054263353347778
-0.25581395626068115 -0.24358505010604858 -0.6899224519729614
-0.25581395626068115 -0.2404310554265976 -0.674418568611145
-0.25581395626068115 -0.24225640296936035 -0.643410861492157
-0.25581395626068115 -0.25515955686569214 0.41085267066955566
-0.25581395626068115 -0.239435076713562 -0.6589146852493286
-0.25581395626068115 -0.22864755988121033 -0.6279069781303406
-0.25581395626068115 -0.23245999217033386 0.42635655403137207
-0.25581395626068115 -0.20244324207305908 -0.612403154373169
-0.25581395626068115 -0.1968800127506256 0.11627912521362305
-0.25581395626068115 -0.19396419823169708 0.3178294897079468
-0.25581395626068115 -0.19626915454864502 0.3333333730697632
-0.25581395626068115 -0.20211261510849 0.3488372564315796
-0.25581395626068115 -0.2047506719827652 0.4418604075908661
-0.25581395626068115 -0.18560966849327087 -0.5968992114067078
-0.25581395626068115 -0.17964427173137665 -0.5813953876495361
-0.25581395626068115 -0.17880882322788239 -0.5658915042877197
-0.25581395626068115 -0.17852815985679626 -0.28682172298431396
-0.25581395626068115 -0.17878389358520508 -0.27131783962249756
-0.25581395626068115 -0.1789199858903885 -0.25581395626068115
-0.25581395626068115 -0.17889127135276794 -0.24031007289886475
-0.25581395626068115 -0.17874740064144135 -0.22480618953704834
-0.25581395626068115 -0.17861942946910858 -0.20930230617523193
-0.25581395626068115 -0.17863333225250244 -0.19379842281341553
-0.25581395626068115 -0.17861002683639526 -0.1782945990562439
-0.25581395626068115 -0.17862868309020996 -0.1627907156944275
-0.25581395626068115 -0.17879383265972137 -0.14728683233261108
-0.25581395626068115 -0.17885048687458038 -0.13178294897079468
-0.25581395626068115 -0.17913441359996796 -0.11627906560897827
-0.25581395626068115 -0.17983892560005188 -0.10077518224716187
-0.25581395626068115 -0.18080949783325195 -0.08527129888534546
-0.25581395626068115 -0.1824491024017334 -0.06976741552352905
-0.25581395626068115 -0.1835176944732666 -0.05426359176635742
-0.25581395626068115 -0.18459558486938477 -0.038759708404541016
-0.25581395626068115 -0.1854914426803589 -0.02325582504272461
-0.25581395626068115 -0.1862947940826416 -0.007751941215246916
-0.25581395626068115 -0.18680566549301147 0.007751941680908203
-0.25581395626068115 -0.18661558628082275 0.02325582504272461
-0.25581395626068115 -0.1860055774450302 0.038759708404541016
-0.25581395626068115 -0.18473351001739502 0.05426359176635742
-0.25581395626068115 -0.18477892875671387 0.06976747512817383
-0.25581395626068115 -0.18633706867694855 0.08527135848999023
-0.25581395626068115 -0.19375114142894745 0.10077524930238724
-0.25581395626068115 -0.1922721415758133 0.1317828893661499
-0.25581395626068115 -0.18385595083236694 0.1472867727279663
-0.25581395626068115 -0.18011786043643951 0.16279065608978271
-0.25581395626068115 -0.17926007509231567 0.17829453945159912
-0.25581395626068115 -0.18109889328479767 0.20930230617523193
-0.25581395626068115 -0.18636392056941986 0.22480618953704834
-0.25581395626068115 -0.18604886531829834 0.24031007289886475
-0.25581395626068115 -0.18224090337753296 0.25581395626068115
-0.25581395626068115 -0.18888285756111145 0.27131783962249756
-0.25581395626068115 -0.1924760341644287 0.28682172298431396
-0.25581395626068115 -0.18736687302589417 0.30232560634613037
-0.25581395626068115 -0.18158498406410217 0.4573643207550049
-0.25581395626068115 -0.17261165380477905 -0.5503876209259033
-0.25581395626068115 -0.16884282231330872 -0.5348837375640869
-0.25581395626068115 -0.16741105914115906 -0.5193798542022705
-0.25581395626068115 -0.16689853370189667 -0.5038759708404541
-0.25581395626068115 -0.16551709175109863 -0.4883720874786377
-0.25581395626068115 -0.16406208276748657 -0.4728682041168213
-0.25581395626068115 -0.16329491138458252 -0.4573643207550049
-0.25581395626068115 -0.16304847598075867 -0.4418604373931885
-0.25581395626068115 -0.16357435286045074 -0.42635661363601685
-0.25581395626068115 -0.16468177735805511 -0.41085273027420044
-0.25581395626068115 -0.16695323586463928 -0.39534884691238403
-0.25581395626068115 -0.16974149644374847 -0.3798449635505676
-0.25581395626068115 -0.17251525819301605 -0.3643410801887512
-0.25581395626068115 -0.17425966262817383 -0.3488371968269348
-0.25581395626068115 -0.17564310133457184 -0.333333283662796
-0.25581395626068115 -0.17683924734592438 -0.317829430103302
-0.25581395626068115 -0.17773950099945068 -0.30232560634613037
-0.25581395626068115 -0.17778463661670685 0.19379842281341553
-0.25581395626068115 -0.16123421490192413 0.4728682041168213
-0.25581395626068115 -0.14073851704597473 0.4883720874786377
-0.25581395626068115 -0.11622779816389084 0.5038759708404541
-0.25581395626068115 -0.08154568076133728 0.5193798542022705
-0.25581395626068115 -0.042176127433776855 0.5348837375640869
-0.25581395626068115 -0.008312401361763477 0.8449612855911255
-0.25581395626068115 0.008869670331478119 0.8449612855911255
-0.25581395626068115 0.025768768042325974 0.5348837375640869
-0.25581395626068115 0.08919523656368256 0.5193798542022705
-0.25581395626068115 0.11513543128967285 0.5038759708404541
-0.25581395626068115 0.13995128870010376 0.4883720874786377
-0.25581395626068115 0.1590287834405899 -0.4573643207550049
-0.25581395626068115 0.15776327252388 -0.4418604373931885
-0.25581395626068115 0.1579219400882721 -0.42635661363601685
-0.25581395626068115 0.15828022360801697 -0.41085273027420044
-0.25581395626068115 0.1590879261493683 -0.39534884691238403
-0.25581395626068115 0.16063806414604187 -0.3798449635505676
-0.25581395626068115 0.17055602371692657 -0.5503876209259033
-0.25581395626068115 0.16629597544670105 -0.5348837375640869
-0.25581395626068115 0.1670590341091156 -0.5193798542022705
-0.25581395626068115 0.16756676137447357 -0.5038759708404541
-0.25581395626068115 0.16564017534255981 -0.4883720874786377
-0.25581395626068115 0.16284532845020294 -0.4728682339191437
-0.25581395626068115 0.16286607086658478 -0.3643410801887512
-0.25581395626068115 0.16394741833209991 -0.3488371968269348
-0.25581395626068115 0.1659158170223236 -0.3333333134651184
-0.25581395626068115 0.16784079372882843 -0.317829430103302
-0.25581395626068115 0.17022761702537537 -0.30232560634613037
-0.25581395626068115 0.17329272627830505 -0.28682172298431396
-0.25581395626068115 0.17654244601726532 -0.27131783962249756
-0.25581395626068115 0.17783981561660767 -0.25581395626068115
-0.25581395626068115 0.1771383434534073 -0.24031007289886475
-0.25581395626068115 0.1759699285030365 -0.22480618953704834
-0.25581395626068115 0.17428170144557953 -0.20930230617523193
-0.25581395626068115 0.17395883798599243 -0.19379842281341553
-0.25581395626068115 0.17469047009944916 -0.1782945990562439
-0.25581395626068115 0.16478629410266876 0.4728682041168213
-0.25581395626068115 0.18656134605407715 -0.5813953876495361
-0.25581395626068115 0.18052241206169128 -0.5658915042877197
-0.25581395626068115 0.17833620309829712 -0.1627907156944275
-0.25581395626068115 0.17952007055282593 -0.1472868174314499
-0.25581395626068115 0.1808301955461502 -0.13178294897079468
-0.25581395626068115 0.18285685777664185 -0.11627906560897827
-0.25581395626068115 0.1852927803993225 -0.10077518224716187
-0.25581395626068115 0.1886095404624939 -0.08527129888534546
-0.25581395626068115 0.1929914355278015 -0.06976741552352905
-0.25581395626068115 0.1919417828321457 0.17829453945159912
-0.25581395626068115 0.18618884682655334 0.19379842281341553
-0.25581395626068115 0.19317404925823212 0.20930230617523193
-0.25581395626068115 0.18552425503730774 0.4573643207550049
-0.25581395626068115 0.20289549231529236 -0.6124030947685242
-0.25581395626068115 0.1941051483154297 -0.5968992114067078
-0.25581395626068115 0.19438496232032776 -0.05426359176635742
-0.25581395626068115 0.19523198902606964 -0.038759708404541016
-0.25581395626068115 0.19601115584373474 -0.02325582504272461
-0.25581395626068115 0.19666394591331482 -0.007751941680908203
-0.25581395626068115 0.19724547863006592 0.007751941215246916
-0.25581395626068115 0.19753096997737885 0.02325582504272461
-0.25581395626068115 0.19752618670463562 0.038759708404541016
-0.25581395626068115 0.19771113991737366 0.05426359176635742
-0.25581395626068115 0.19900566339492798 0.06976747512817383
-0.25581395626068115 0.20375800132751465 0.08527135848999023
-0.25581395626068115 0.2006528228521347 0.1472867727279663
-0.25581395626068115 0.19480983912944794 0.16279065608978271
-0.25581395626068115 0.2009759247303009 0.22480618953704834
-0.25581395626068115 0.19933611154556274 0.24031007289886475
-0.25581395626068115 0.19560451805591583 0.25581395626068115
-0.25581395626068115 0.20690415799617767 0.27131783962249756
-0.25581395626068115 0.2064548134803772 0.4418604373931885
-0.25581395626068115 0.220436692237854 -0.6279069781303406
-0.25581395626068115 0.21387022733688354 0.10077523440122604
-0.25581395626068115 0.21842773258686066 0.11627912521362305
-0.25581395626068115 0.21441276371479034 0.1317828893661499
-0.25581395626068115 0.21581503748893738 0.28682172298431396
-0.25581395626068115 0.22135557234287262 0.30232560634613037
-0.25581395626068115 0.22153756022453308 0.3488372564315796
-0.25581395626068115 0.2336168736219406 -0.6899224519729614
-0.25581395626068115 0.23013661801815033 -0.674418568611145
-0.25581395626068115 0.22904179990291595 -0.6589146852493286
-0.25581395626068115 0.2310253530740738 -0.6434108018875122
-0.25581395626068115 0.2295377254486084 0.3178294897079468
-0.25581395626068115 0.22679059207439423 0.3333333730697632
-0.25581395626068115 0.2331313192844391 0.42635655403137207
-0.25581395626068115 0.254091739654541 -0.7674418687820435
-0.25581395626068115 0.254472941160202 -0.751937985420227
-0.25581395626068115 0.25528502464294434 -0.7209302186965942
-0.25581395626068115 0.24459531903266907 -0.7054263353347778
-0.25581395626068115 0.2523188889026642 0.41085267066955566
-0.25581395626068115 0.26561757922172546 -0.8604651093482971
-0.25581395626068115 0.25987300276756287 -0.8449611663818359
-0.25581395626068115 0.25815296173095703 -0.8294573426246643
-0.25581395626068115 0.25743368268013 -0.8139535188674927
-0.25581395626068115 0.25674253702163696 -0.7984496355056763
-0.25581395626068115 0.25586631894111633 -0.7829457521438599
-0.25581395626068115 0.2575571537017822 -0.7364341020584106
-0.25581395626068115 0.27976787090301514 -0.8759689927101135
-0.25581395626068115 0.2863849997520447 0.39534878730773926
-0.25581395626068115 0.30405351519584656 -0.8914728760719299
-0.25581395626068115 0.32826969027519226 -0.9069767594337463
-0.25581395626068115 0.33902058005332947 0.364341139793396
-0.25581395626068115 0.33366134762763977 0.37984493374824524
-0.25581395626068115 0.35137009620666504 -0.9224806427955627
-0.25581395626068115 0.37617814540863037 -0.9844961166381836
-0.25581395626068115 0.3728126883506775 -0.9689922332763672
-0.25581395626068115 0.3721429109573364 -0.9534883499145508
-0.25581395626068115 0.36935165524482727 -0.9379844665527344
-0.24031007289886475 -0.38695722818374634 -0.9844961166381836
-0.24031007289886475 -0.38215431571006775 -0.9689922332763672
-0.24031007289886475 -0.3818540573120117 -0.9534883499145508
-0.24031007289886475 -0.3799542188644409 -0.9379844665527344
-0.24031007289886475 -0.36026138067245483 -0.9224806427955627
-0.24031007289886475 -0.35157275199890137 0.364341139793396
-0.24031007289886475 -0.3376116156578064 -0.9069767594337463
-0.24031007289886475 -0.34008798003196716 0.37984490394592285
-0.24031007289886475 -0.3178355097770691 -0.8914728760719299
-0.24031007289886475 -0.298056036233902 -0.8759689927101135
-0.24031007289886475 -0.29986950755119324 0.39534878730773926
-0.24031007289886475 -0.2845088541507721 -0.8604651093482971
-0.24031007289886475 -0.27660202980041504 -0.8449612855911255
-0.24031007289886475 -0.27494925260543823 -0.8294574022293091
-0.24031007289886475 -0.2747134268283844 -0.8139535188674927
-0.24031007289886475 -0.2749842405319214 -0.7984496355056763
-0.24031007289886475 -0.2752940058708191 -0.7829457521438599
-0.24031007289886475 -0.2768973708152771 -0.7674418687820435
-0.24031007289886475 -0.27947497367858887 -0.751937985420227
-0.24031007289886475 -0.28419214487075806 -0.7364341020584106
-0.24031007289886475 -0.2810801863670349 -0.7209302186965942
-0.24031007289886475 -0.2715357542037964 -0.7054263353347778
-0.24031007289886475 -0.27343815565109253 0.41085267066955566
-0.24031007289886475 -0.2594127655029297 -0.6899224519729614
-0.24031007289886475 -0.2569374144077301 -0.643410861492157
-0.24031008780002594 -0.2547123432159424 -0.674418568611145
-0.24031008780002594 -0.2529459297657013 -0.6589146852493286
-0.24031007289886475 -0.24483457207679749 -0.6279069781303406
-0.24031007289886475 -0.25373268127441406 0.42635655403137207
-0.24031007289886475 -0.22716224193572998 0.4418604373931885
-0.24031007289886475 -0.21787339448928833 -0.6124030947685242
-0.24031007289886475 -0.20987427234649658 0.10077524185180664
-0.24031007289886475 -0.2141036093235016 0.11627912521362305
-0.24031007289886475 -0.2116573303937912 0.27131783962249756
-0.24031007289886475 -0.21527928113937378 0.28682172298431396
-0.24031007289886475 -0.21020659804344177 0.30232560634613037
-0.24031007289886475 -0.2176181524991989 0.3178294897079468
-0.24031007289886475 -0.2169518768787384 0.3333333730697632
-0.24031007289886475 -0.21679556369781494 0.3488372564315796
-0.24031007289886475 -0.19948747754096985 -0.5968992114067078
-0.24031007289886475 -0.19434843957424164 -0.5813953876495361
-0.24031007289886475 -0.19448117911815643 -0.10077518224716187
-0.24031007289886475 -0.19540205597877502 -0.08527129888534546
-0.24031007289886475 -0.19696009159088135 -0.06976741552352905
-0.24031007289886475 -0.19788700342178345 -0.05426359176635742
-0.24031007289886475 -0.19869175553321838 -0.038759708404541016
-0.24031007289886475 -0.19928467273712158 -0.02325582504272461
-0.24031007289886475 -0.19989731907844543 -0.007751941680908203
-0.24031007289886475 -0.20026877522468567 0.007751941680908203
-0.24031007289886475 -0.2001945972442627 0.02325582504272461
-0.24031007289886475 -0.1996440291404724 0.038759708404541016
-0.24031007289886475 -0.19896729290485382 0.05426359176635742
-0.24031007289886475 -0.19952329993247986 0.06976747512817383
-0.24031007289886475 -0.20094792544841766 0.08527135848999023
-0.24031008780002594 -0.20886577665805817 0.1317828893661499
-0.24031007289886475 -0.19873002171516418 0.1472867727279663
-0.24031007289886475 -0.19516074657440186 0.16279065608978271
-0.24031007289886475 -0.194383442401886 0.17829453945159912
-0.24031007289886475 -0.19606277346611023 0.20930230617523193
-0.24031007289886475 -0.2037358433008194 0.22480618953704834
-0.24031007289886475 -0.20480264723300934 0.24031007289886475
-0.24031007289886475 -0.2004113346338272 0.25581395626068115
-0.24031007289886475 -0.19860446453094482 0.4573643207550049
-0.24031007289886475 -0.19313061237335205 -0.5658915042877197
-0.24031008780002594 -0.18721505999565125 -0.5503876209259033
-0.24031007289886475 -0.18434685468673706 -0.5348837375640869
-0.24031007289886475 -0.18348479270935059 -0.5193798542022705
-0.24031007289886475 -0.18308144807815552 -0.5038759708404541
-0.24031007289886475 -0.1815701723098755 -0.4883720874786377
-0.24031007289886475 -0.1799379289150238 -0.4728682041168213
-0.24031007289886475 -0.17901182174682617 -0.4573643207550049
-0.24031007289886475 -0.17855441570281982 -0.4418604373931885
-0.24031007289886475 -0.1788598895072937 -0.42635661363601685
-0.24031007289886475 -0.17971666157245636 -0.41085273027420044
-0.24031007289886475 -0.1815803050994873 -0.39534884691238403
-0.24031007289886475 -0.18359142541885376 -0.3798449635505676
-0.24031007289886475 -0.18549972772598267 -0.3643410801887512
-0.24031007289886475 -0.18665876984596252 -0.3488371968269348
-0.24031007289886475 -0.18763454258441925 -0.3333333134651184
-0.24031007289886475 -0.1886402666568756 -0.317829430103302
-0.24031007289886475 -0.18921932578086853 -0.30232560634613037
-0.24031007289886475 -0.1904417723417282 -0.28682172298431396
-0.24031007289886475 -0.1912730187177658 -0.27131783962249756
-0.24031007289886475 -0.19169695675373077 -0.25581395626068115
-0.24031007289886475 -0.19128307700157166 -0.24031007289886475
-0.24031007289886475 -0.1905169039964676 -0.22480618953704834
-0.24031007289886475 -0.1898988038301468 -0.20930230617523193
-0.24031007289886475 -0.18978723883628845 -0.19379842281341553
-0.24031007289886475 -0.18972396850585938 -0.1782945990562439
-0.24031005799770355 -0.1900331825017929 -0.1627907156944275
-0.24031007289886475 -0.19119372963905334 -0.14728683233261108
-0.24031007289886475 -0.19197633862495422 -0.13178294897079468
-0.24031007289886475 -0.1933911293745041 -0.11627906560897827
-0.24031007289886475 -0.19156542420387268 0.19379842281341553
-0.24031007289886475 -0.17384982109069824 0.4728682041168213
-0.24031007289886475 -0.15277671813964844 0.4883720874786377
-0.24031007289886475 -0.12943686544895172 0.5038759708404541
-0.24031005799770355 -0.09710592031478882 0.5193798542022705
-0.24031007289886475 -0.060829926282167435 0.5348837375640869
-0.24031007289886475 0.001869026804342866 0.8604651689529419
-0.24031007289886475 0.00801818072795868 0.8604651689529419
-0.24031007289886475 0.06881237775087357 0.5348837375640869
-0.24031007289886475 0.10573527216911316 0.5193798542022705
-0.24031007289886475 0.13049128651618958 0.5038759708404541
-0.24031007289886475 0.15377216041088104 0.4883720874786377
-0.24031007289886475 0.17733056843280792 -0.4573643207550049
-0.24031007289886475 0.17487509548664093 -0.4418604373931885
-0.24031007289886475 0.17401309311389923 -0.42635661363601685
-0.24031007289886475 0.17359738051891327 -0.41085273027420044
-0.24031007289886475 0.17365631461143494 -0.39534884691238403
-0.24031007289886475 0.1746465563774109 -0.3798449635505676
-0.24031007289886475 0.17672064900398254 -0.3643410801887512
-0.24031007289886475 0.1870608627796173 -0.5503876209259033
-0.24031007289886475 0.183025524020195 -0.5348837375640869
-0.24031007289886475 0.18385475873947144 -0.5193798542022705
-0.24031007289886475 0.1844271719455719 -0.5038759708404541
-0.24031008780002594 0.18255560100078583 -0.4883720874786377
-0.24031007289886475 0.17974098026752472 -0.4728682041168213
-0.24031007289886475 0.17890192568302155 -0.3488371968269348
-0.24031005799770355 0.18093393743038177 -0.3333333134651184
-0.24031007289886475 0.18288473784923553 -0.317829430103302
-0.24031007289886475 0.18471717834472656 -0.30232560634613037
-0.24031007289886475 0.18717336654663086 -0.28682172298431396
-0.24031007289886475 0.18982858955860138 -0.27131783962249756
-0.24031007289886475 0.19102612137794495 -0.25581395626068115
-0.24031007289886475 0.19069217145442963 -0.24031007289886475
-0.24031007289886475 0.18999987840652466 -0.22480618953704834
-0.24031007289886475 0.18862369656562805 -0.20930230617523193
-0.24031007289886475 0.18818312883377075 -0.19379842281341553
-0.24031007289886475 0.18895018100738525 -0.1782945990562439
-0.24031007289886475 0.19228273630142212 -0.1627907156944275
-0.24031007289886475 0.17873603105545044 0.4728682041168213
-0.24031007289886475 0.2064594030380249 -0.5968992114067078
-0.24031007289886475 0.2006792426109314 -0.5813953876495361
-0.24031007289886475 0.1963852196931839 -0.5658915042877197
-0.24031005799770355 0.19491802155971527 -0.14728683233261108
-0.24031007289886475 0.19633379578590393 -0.13178294897079468
-0.24031007289886475 0.19846490025520325 -0.11627906560897827
-0.24031007289886475 0.2011716067790985 -0.10077518224716187
-0.24031007289886475 0.20428553223609924 -0.08527129888534546
-0.24031007289886475 0.20807212591171265 -0.06976741552352905
-0.24031007289886475 0.2038002908229828 0.19379842281341553
-0.24031007289886475 0.20158453285694122 0.4573643207550049
-0.24031007289886475 0.21686109900474548 -0.6124030947685242
-0.24031007289886475 0.20957818627357483 -0.05426359549164772
-0.24031008780002594 0.2102934867143631 -0.038759708404541016
-0.24031007289886475 0.2109319567680359 -0.02325582504272461
-0.24031007289886475 0.21154257655143738 -0.007751941680908203
-0.24031007289886475 0.21212249994277954 0.007751941680908203
-0.24031007289886475 0.2125583440065384 0.02325582504272461
-0.24031007289886475 0.21274958550930023 0.038759708404541016
-0.24031007289886475 0.21365690231323242 0.05426359176635742
-0.24031007289886475 0.21641971170902252 0.06976747512817383
-0.24031007289886475 0.2210935801267624 0.08527135848999023
-0.24031007289886475 0.2188814878463745 0.1472867727279663
-0.24031005799770355 0.21220079064369202 0.16279065608978271
-0.24031007289886475 0.21059371531009674 0.17829453945159912
-0.24031007289886475 0.21036134660243988 0.20930229127407074
-0.24031007289886475 0.22294259071350098 0.24031007289886475
-0.24031007289886475 0.2152208685874939 0.25581395626068115
-0.24031007289886475 0.23581713438034058 -0.6279069781303406
-0.24031007289886475 0.2298043966293335 0.10077524185180664
-0.24031007289886475 0.2341638207435608 0.11627912521362305
-0.24031007289886475 0.230942964553833 0.1317828893661499
-0.24031007289886475 0.22502240538597107 0.22480618953704834
-0.24031007289886475 0.23257328569889069 0.27131783962249756
-0.24031007289886475 0.22861996293067932 0.4418604373931885
-0.24031007289886475 0.2512405514717102 -0.6899224519729614
-0.24031007289886475 0.24603693187236786 -0.674418568611145
-0.24031007289886475 0.2444726526737213 -0.6589146852493286
-0.24031007289886475 0.24726656079292297 -0.643410861492157
-0.24031007289886475 0.2424180954694748 0.28682172298431396
-0.24031007289886475 0.2470308393239975 0.30232560634613037
-0.24031007289886475 0.24792426824569702 0.3488372564315796
-0.24031007289886475 0.2662118077278137 -0.7054263353347778
-0.24031007289886475 0.2563846707344055 0.3178294897079468
-0.24031005799770355 0.25592687726020813 0.3333333432674408
-0.24031007289886475 0.25812608003616333 0.42635655403137207
-0.24031007289886475 0.2800672948360443 -0.8604651093482971
-0.24031008780002594 0.2741335928440094 -0.8449612259864807
-0.24031007289886475 0.27247563004493713 -0.8294573426246643
-0.24031007289886475 0.2722603380680084 -0.8139535188674927
-0.24031005799770355 0.27257439494132996 -0.7984496355056763
-0.24031007289886475 0.2732847034931183 -0.7829457521438599
-0.24031007289886475 0.27415797114372253 -0.7674418687820435
-0.24031007289886475 0.2766273319721222 -0.751937985420227
-0.24031007289886475 0.28286296129226685 -0.7364341020584106
-0.24031007289886475 0.2799774408340454 -0.7209302186965942
-0.24031007289886475 0.2759752869606018 0.41085267066955566
-0.24031005799770355 0.29335150122642517 -0.8759689927101135
-0.24031007289886475 0.29745250940322876 0.39534878730773926
-0.24031007289886475 0.31525492668151855 -0.8914728760719299
-0.24031007289886475 0.33916139602661133 -0.9069768190383911
-0.24031007289886475 0.3431134521961212 0.37984490394592285
-0.24031007289886475 0.36142295598983765 -0.9224806427955627
-0.24031007289886475 0.35115647315979004 0.364341139793396
-0.24031007289886475 0.3876696825027466 -0.9844961166381836
-0.24031007289886475 0.38352084159851074 -0.9689922332763672
-0.24031007289886475 0.3821799159049988 -0.9534883499145508
-0.24031008780002594 0.380097359418869 -0.9379844665527344
-0.22480618953704834 -0.3979538083076477 -0.9844961166381836
-0.22480618953704834 -0.39132899045944214 -0.9689922332763672
-0.22480618953704834 -0.39137256145477295 -0.9534883499145508
-0.22480618953704834 -0.3880014419555664 -0.9379844665527344
-0.22480618953704834 -0.36940571665763855 -0.9224806427955627
-0.22480618953704834 -0.36567720770835876 0.364341139793396
-0.22480618953704834 -0.351012647151947 0.37984490394592285
-0.22480618953704834 -0.34513598680496216 -0.9069767594337463
-0.22480618953704834 -0.3236074447631836 -0.8914728760719299
-0.22480618953704834 -0.3060588836669922 -0.8759689331054688
-0.22480618953704834 -0.31052011251449585 0.39534878730773926
-0.22480618953704834 -0.2923523187637329 -0.8604650497436523
-0.22480618953704834 -0.28757449984550476 -0.8449612259864807
-0.22480618953704834 -0.287222683429718 -0.7829457521438599
-0.22480618953704834 -0.2887313961982727 -0.7674418687820435
-0.22480618953704834 -0.29070165753364563 -0.751937985420227
-0.22480618953704834 -0.29354536533355713 -0.7364341020584106
-0.22480618953704834 -0.2925451397895813 -0.7209302186965942
-0.22480618953704834 -0.28806453943252563 0.41085267066955566
-0.22480618953704834 -0.2851317524909973 -0.8294573426246643
-0.22480618953704834 -0.2843841314315796 -0.8139535188674927
-0.22480618953704834 -0.2857567071914673 -0.7984495759010315
-0.22480617463588715 -0.2859469950199127 -0.7054263353347778
-0.22480618953704834 -0.27423474192619324 -0.6899224519729614
-0.22480618953704834 -0.27190497517585754 0.42635655403137207
-0.22480618953704834 -0.2680318057537079 -0.6744186282157898
-0.22480618953704834 -0.26547354459762573 -0.6589146852493286
-0.22480618953704834 -0.2699567973613739 -0.643410861492157
-0.22480618953704834 -0.2593499422073364 -0.6279069781303406
-0.22480618953704834 -0.24470534920692444 0.3178294897079468
-0.22480618953704834 -0.24584797024726868 0.3333333730697632
-0.22480618953704834 -0.2487877607345581 0.4418604373931885
-0.22480618953704834 -0.2347525656223297 -0.6124030947685242
-0.22480618953704834 -0.2248564511537552 0.06976747512817383
-0.22480618953704834 -0.2294830083847046 0.10077524185180664
-0.22480618953704834 -0.2333000898361206 0.11627912521362305
-0.22480618953704834 -0.22710895538330078 0.1317828893661499
-0.22480618953704834 -0.2275099754333496 0.22480618953704834
-0.22480618953704834 -0.22718164324760437 0.24031007289886475
-0.22480618953704834 -0.23290076851844788 0.27131783962249756
-0.22480620443820953 -0.23831450939178467 0.28682172298431396
-0.22480618953704834 -0.2362329363822937 0.30232560634613037
-0.22480618953704834 -0.23696312308311462 0.3488372564315796
-0.22480618953704834 -0.21583735942840576 -0.5968992114067078
-0.22480618953704834 -0.2115294188261032 -0.5813953876495361
-0.22480618953704834 -0.21107588708400726 -0.5658915042877197
-0.22480618953704834 -0.21058212220668793 -0.11627906560897827
-0.22480618953704834 -0.21286293864250183 -0.10077518224716187
-0.22480618953704834 -0.21472345292568207 -0.08527129888534546
-0.22480618953704834 -0.2173258364200592 -0.06976741552352905
-0.22480618953704834 -0.21884943544864655 -0.05426359176635742
-0.22480618953704834 -0.21972355246543884 -0.038759708404541016
-0.22480618953704834 -0.22024573385715485 -0.02325582504272461
-0.22480618953704834 -0.22155454754829407 -0.007751941680908203
-0.22480618953704834 -0.22277814149856567 0.00775194214656949
-0.22480618953704834 -0.2229853719472885 0.02325582504272461
-0.22480618953704834 -0.22172395884990692 0.038759708404541016
-0.22480618953704834 -0.22284643352031708 0.05426359176635742
-0.22480618953704834 -0.22478897869586945 0.08527135848999023
-0.22480618953704834 -0.2163494974374771 0.1472867727279663
-0.22480618953704834 -0.2134914994239807 0.16279065608978271
-0.22480618953704834 -0.212543785572052 0.17829453945159912
-0.22480618953704834 -0.21527212858200073 0.20930230617523193
-0.22480618953704834 -0.21949148178100586 0.25581395626068115
-0.22480618953704834 -0.22216440737247467 0.4573643207550049
-0.22480618953704834 -0.20382291078567505 -0.5503876209259033
-0.22480618953704834 -0.20098799467086792 -0.5348837375640869
-0.22480618953704834 -0.20073235034942627 -0.5193798542022705
-0.22480618953704834 -0.20062203705310822 -0.5038759708404541
-0.22480618953704834 -0.19853085279464722 -0.4883720874786377
-0.22480618953704834 -0.19626079499721527 -0.4728682041168213
-0.22480618953704834 -0.19465839862823486 -0.4573643207550049
-0.22480618953704834 -0.19384820759296417 -0.42635661363601685
-0.22480618953704834 -0.19471444189548492 -0.41085273027420044
-0.22480618953704834 -0.19642280042171478 -0.39534884691238403
-0.22480618953704834 -0.19809278845787048 -0.3798449635505676
-0.22480618953704834 -0.19976279139518738 -0.3643410801887512
-0.22480618953704834 -0.20076599717140198 -0.3488371968269348
-0.22480618953704834 -0.20186927914619446 -0.3333333134651184
-0.22480618953704834 -0.20329326391220093 -0.317829430103302
-0.22480618953704834 -0.2042449712753296 -0.30232560634613037
-0.22480618953704834 -0.20573745667934418 -0.28682172298431396
-0.22480618953704834 -0.20695887506008148 -0.27131783962249756
-0.22480618953704834 -0.20760872960090637 -0.25581395626068115
-0.22480618953704834 -0.20707833766937256 -0.24031007289886475
-0.22480618953704834 -0.20586664974689484 -0.22480618953704834
-0.22480618953704834 -0.20475944876670837 -0.20930230617523193
-0.22480620443820953 -0.20444634556770325 -0.19379843771457672
-0.22480618953704834 -0.20446309447288513 -0.1782945990562439
-0.22480618953704834 -0.2050759643316269 -0.1627907156944275
-0.22480618953704834 -0.2068546712398529 -0.14728683233261108
-0.22480620443820953 -0.20860432088375092 -0.13178294897079468
-0.22480620443820953 -0.2090362310409546 0.19379842281341553
-0.22480618953704834 -0.19346337020397186 -0.4418604373931885
-0.22480618953704834 -0.1912308931350708 0.4728682041168213
-0.22480618953704834 -0.16628022491931915 0.4883720874786377
-0.22480618953704834 -0.14370371401309967 0.5038759708404541
-0.22480618953704834 -0.11441535502672195 0.5193798542022705
-0.22480618953704834 -0.07809491455554962 0.5348837375640869
-0.22480618953704834 -0.03891775757074356 0.5503876209259033
-0.22480618953704834 0.016077164560556412 0.5503876209259033
-0.22480618953704834 0.09023687243461609 0.5348837375640869
-0.22480618953704834 0.12195837497711182 0.5193798542022705
-0.22480618953704834 0.14515992999076843 0.5038759708404541
-0.22480618953704834 0.16753917932510376 0.4883720874786377
-0.22480618953704834 0.19182394444942474 -0.4418604373931885
-0.22480618953704834 0.19100286066532135 -0.42635661363601685
-0.22480618953704834 0.19085055589675903 -0.41085273027420044
-0.22480618953704834 0.19163423776626587 -0.39534884691238403
-0.22480618953704834 0.19306141138076782 -0.3798449635505676
-0.22480618953704834 0.19354797899723053 0.4728682041168213
-0.22480618953704834 0.2049315869808197 -0.5503876209259033
-0.22480618953704834 0.20010557770729065 -0.5348837375640869
-0.22480618953704834 0.2001030445098877 -0.5193798542022705
-0.22480618953704834 0.20077469944953918 -0.5038759708404541
-0.22480618953704834 0.19912317395210266 -0.4883720874786377
-0.22480618953704834 0.19633296132087708 -0.4728682041168213
-0.22480618953704834 0.19421598315238953 -0.45736435055732727
-0.22480617463588715 0.19494390487670898 -0.3643410801887512
-0.22480618953704834 0.196632981300354 -0.3488371968269348
-0.22480618953704834 0.19857852160930634 -0.3333333134651184
-0.22480618953704834 0.20103798806667328 -0.317829430103302
-0.22480618953704834 0.20328401029109955 -0.30232560634613037
-0.22480618953704834 0.20623089373111725 -0.28682172298431396
-0.22480618953704834 0.20886948704719543 -0.27131783962249756
-0.22480618953704834 0.21996398270130157 -0.5968992114067078
-0.22480618953704834 0.2159116566181183 -0.5813953876495361
-0.22480618953704834 0.21280431747436523 -0.5658915042877197
-0.22480618953704834 0.20963630080223083 -0.25581395626068115
-0.22480618953704834 0.2097833752632141 -0.24031007289886475
-0.22480618953704834 0.20976276695728302 -0.22480618953704834
-0.22480618953704834 0.2095293253660202 -0.20930230617523193
-0.22480618953704834 0.2095918357372284 -0.19379842281341553
-0.22480620443820953 0.21005398035049438 -0.1782946139574051
-0.22480618953704834 0.2110992968082428 -0.1627907156944275
-0.22480618953704834 0.21264168620109558 -0.14728683233261108
-0.22480618953704834 0.21425047516822815 -0.13178294897079468
-0.22480618953704834 0.21704185009002686 -0.11627906560897827
-0.22480618953704834 0.2204192578792572 -0.10077518224716187
-0.22480618953704834 0.22323544323444366 -0.08527129888534546
-0.22480618953704834 0.2213071584701538 0.4573643207550049
-0.22480618953704834 0.23115065693855286 -0.6124030947685242
-0.22480618953704834 0.22521674633026123 -0.06976741552352905
-0.22480618953704834 0.22565017640590668 -0.05426359176635742
-0.22480618953704834 0.2261906862258911 -0.038759708404541016
-0.22480618953704834 0.22672533988952637 -0.02325582504272461
-0.22480618953704834 0.2273702323436737 -0.007751941215246916
-0.22480618953704834 0.22808460891246796 0.007751941680908203
-0.22480618953704834 0.22868573665618896 0.02325582504272461
-0.22480618953704834 0.2292059361934662 0.038759708404541016
-0.22480618953704834 0.23187237977981567 0.05426359176635742
-0.22480618953704834 0.23626185953617096 0.06976747512817383
-0.22480618953704834 0.23859134316444397 0.08527135848999023
-0.22480618953704834 0.23368078470230103 0.1472867727279663
-0.22480618953704834 0.22971102595329285 0.16279065608978271
-0.22480618953704834 0.22912999987602234 0.17829453945159912
-0.22480618953704834 0.2255372405052185 0.19379840791225433
-0.22480618953704834 0.2291712611913681 0.20930230617523193
-0.22480618953704834 0.2345018833875656 0.25581395626068115
-0.22480618953704834 0.252596378326416 -0.6279069781303406
-0.22480618953704834 0.24411064386367798 0.10077524185180664
-0.22480618953704834 0.24860945343971252 0.11627912521362305
-0.22480620443820953 0.24445568025112152 0.1317828893661499
-0.22480618953704834 0.24287620186805725 0.22480618953704834
-0.22480618953704834 0.2415749728679657 0.24031008780002594
-0.22480618953704834 0.24796605110168457 0.27131783962249756
-0.22480618953704834 0.2510797083377838 0.4418604373931885
-0.22480618953704834 0.2650891840457916 -0.674418568611145
-0.22480618953704834 0.2624780833721161 -0.6589146852493286
-0.22480618953704834 0.2656964063644409 -0.643410861492157
-0.22480618953704834 0.2561282813549042 0.28682172298431396
-0.22480617463588715 0.25791746377944946 0.30232560634613037
-0.22480618953704834 0.2634480595588684 0.3178294897079468
-0.22480618953704834 0.26446980237960815 0.3333333730697632
-0.22480618953704834 0.2602253258228302 0.3488372564315796
-0.22480618953704834 0.28603842854499817 -0.8449612855911255
-0.22480618953704834 0.2836720943450928 -0.8294573426246643
-0.22480618953704834 0.2837981879711151 -0.8139535188674927
-0.22480618953704834 0.2863951623439789 -0.7984496355056763
-0.22480618953704834 0.2721915543079376 -0.6899224519729614
-0.22480618953704834 0.2753719091415405 0.42635655403137207
-0.22480618953704834 0.2909235656261444 -0.8604651093482971
-0.22480618953704834 0.28826725482940674 -0.7829457521438599
-0.22480618953704834 0.29010048508644104 -0.7674418687820435
-0.22480618953704834 0.2935044765472412 -0.751937985420227
-0.22480618953704834 0.30064019560813904 -0.7364341020584106
-0.22480618953704834 0.2980666756629944 -0.7209302186965942
-0.22480618953704834 0.2872399389743805 -0.7054263353347778
-0.22480618953704834 0.28775668144226074 0.41085267066955566
-0.22480617463588715 0.30373018980026245 -0.8759689331054688
-0.22480618953704834 0.3053596615791321 0.39534878730773926
-0.22480618953704834 0.3241797387599945 -0.8914729356765747
-0.22480618953704834 0.3496447205543518 -0.9069767594337463
-0.22480618953704834 0.35165509581565857 0.37984490394592285
-0.22480618953704834 0.3700714707374573 -0.9224807024002075
-0.22480620443820953 0.3643639087677002 0.3643411695957184
-0.22480618953704834 0.39462679624557495 -0.9689922332763672
-0.22480618953704834 0.3926873505115509 -0.9534883499145508
-0.22480618953704834 0.3877367675304413 -0.9379844665527344
-0.22480618953704834 0.3987105190753937 -0.9844961166381836
-0.20930230617523193 -0.40621834993362427 -0.9844961166381836
-0.20930230617523193 -0.40236896276474 -0.9689922332763672
-0.20930230617523193 -0.4018654227256775 -0.9534883499145508
-0.20930230617523193 -0.39896541833877563 -0.9379844665527344
-0.20930230617523193 -0.3807789087295532 -0.9224806427955627
-0.20930230617523193 -0.37925320863723755 0.3643411099910736
-0.20930230617523193 -0.35488617420196533 -0.9069767594337463
-0.20930230617523193 -0.36109745502471924 0.37984490394592285
-0.20930230617523193 -0.33139705657958984 -0.8914728760719299
-0.20930230617523193 -0.32182517647743225 0.39534878730773926
-0.20930230617523193 -0.31386610865592957 -0.8759689927101135
-0.20930230617523193 -0.3029927909374237 -0.8604651093482971
-0.20930230617523193 -0.30380523204803467 -0.7364341020584106
-0.20930230617523193 -0.30333125591278076 -0.7209302186965942
-0.20930230617523193 -0.2955029010772705 -0.8449612855911255
-0.20930230617523193 -0.2926667332649231 -0.8294573426246643
-0.20930230617523193 -0.29191985726356506 -0.8139535188674927
-0.20930230617523193 -0.292460560798645 -0.7984496355056763
-0.20930230617523193 -0.2936219274997711 -0.7829457521438599
-0.20930230617523193 -0.2969866693019867 -0.7674418687820435
-0.20930230617523193 -0.3023015558719635 -0.751937985420227
-0.20930230617523193 -0.29431939125061035 -0.7054263353347778
-0.20930230617523193 -0.2881374955177307 -0.6899224519729614
-0.20930230617523193 -0.30106666684150696 0.41085267066955566
-0.20930230617523193 -0.2808058261871338 -0.674418568611145
-0.20930230617523193 -0.27755892276763916 -0.6589146852493286
-0.20930230617523193 -0.28103527426719666 -0.643410861492157
-0.20930230617523193 -0.27297329902648926 -0.6279069781303406
-0.20930230617523193 -0.2867721915245056 0.42635655403137207
-0.20930230617523193 -0.26065027713775635 0.3178294897079468
-0.20930230617523193 -0.26514914631843567 0.3333333730697632
-0.20930230617523193 -0.25753578543663025 0.3488372564315796
-0.20930230617523193 -0.26791760325431824 0.4418604373931885
-0.20930230617523193 -0.2482955902814865 -0.6124030947685242
-0.20930230617523193 -0.2404921054840088 -0.5658915042877197
-0.20930230617523193 -0.24094164371490479 -0.06976741552352905
-0.20930230617523193 -0.24160733819007874 -0.05426359176635742
-0.20930230617523193 -0.24199262261390686 -0.038759708404541016
-0.20930230617523193 -0.24234694242477417 -0.02325582504272461
-0.20930230617523193 -0.24327190220355988 -0.007751941680908203
-0.20930230617523193 -0.24432852864265442 0.007751941680908203
-0.20930230617523193 -0.2449932098388672 0.02325582504272461
-0.20930230617523193 -0.2451983243227005 0.038759708404541016
-0.20930230617523193 -0.24866582453250885 0.05426359176635742
-0.20930230617523193 -0.25137779116630554 0.06976747512817383
-0.20930230617523193 -0.2476636916399002 0.08527135848999023
-0.20930230617523193 -0.24731379747390747 0.10077524185180664
-0.20930230617523193 -0.24836763739585876 0.11627912521362305
-0.20930230617523193 -0.24368378520011902 0.1317828893661499
-0.20930230617523193 -0.24188590049743652 0.20930230617523193
-0.20930230617523193 -0.25308966636657715 0.22480618953704834
-0.20930230617523193 -0.2489277422428131 0.24031007289886475
-0.20930230617523193 -0.24040241539478302 0.25581395626068115
-0.20930230617523193 -0.24859127402305603 0.27131783962249756
-0.20930230617523193 -0.2514494061470032 0.28682172298431396
-0.20930229127407074 -0.2529914379119873 0.30232560634613037
-0.20930230617523193 -0.2441907674074173 0.4573643207550049
-0.20930230617523193 -0.23643016815185547 -0.5968992114067078
-0.20930232107639313 -0.23727336525917053 -0.5813953876495361
-0.20930230617523193 -0.23106420040130615 -0.5503876209259033
-0.20930230617523193 -0.22670616209506989 -0.5348837375640869
-0.20930230617523193 -0.22663846611976624 -0.5193798542022705
-0.20930230617523193 -0.2266838252544403 -0.5038759708404541
-0.20930230617523193 -0.2251979112625122 -0.4883720874786377
-0.20930230617523193 -0.22602321207523346 -0.3488371968269348
-0.20930230617523193 -0.2278793454170227 -0.3333333134651184
-0.20930230617523193 -0.22991299629211426 -0.317829430103302
-0.20930230617523193 -0.23174268007278442 -0.30232560634613037
-0.20930230617523193 -0.23336316645145416 -0.28682172298431396
-0.20930230617523193 -0.23492053151130676 -0.27131783962249756
-0.20930230617523193 -0.23535391688346863 -0.25581395626068115
-0.20930230617523193 -0.23532390594482422 -0.24031007289886475
-0.20930230617523193 -0.23391562700271606 -0.22480618953704834
-0.20930230617523193 -0.2322523295879364 -0.20930230617523193
-0.20930230617523193 -0.23146985471248627 -0.19379842281341553
-0.20930230617523193 -0.23063474893569946 -0.1782945990562439
-0.20930230617523193 -0.2304936945438385 -0.1627907156944275
-0.20930230617523193 -0.2311323881149292 -0.14728683233261108
-0.20930230617523193 -0.23234349489212036 -0.13178294897079468
-0.20930229127407074 -0.2346356213092804 -0.11627906560897827
-0.20930230617523193 -0.23739871382713318 -0.10077518224716187
-0.20930230617523193 -0.23947423696517944 -0.08527129888534546
-0.20930230617523193 -0.23961026966571808 0.1472867727279663
-0.20930230617523193 -0.23837286233901978 0.16279065608978271
-0.20930230617523193 -0.23797057569026947 0.17829453945159912
-0.20930230617523193 -0.23397397994995117 0.19379842281341553
-0.20930230617523193 -0.2206162065267563 -0.4728682041168213
-0.20930230617523193 -0.21760880947113037 -0.4573643207550049
-0.20930230617523193 -0.21509328484535217 -0.4418604373931885
-0.20930230617523193 -0.21401859819889069 -0.42635661363601685
-0.20930230617523193 -0.21478521823883057 -0.41085273027420044
-0.20930230617523193 -0.21738272905349731 -0.39534884691238403
-0.20930230617523193 -0.22019712626934052 -0.3798449635505676
-0.20930230617523193 -0.22408173978328705 -0.3643410801887512
-0.20930230617523193 -0.21249546110630035 0.4728682041168213
-0.20930230617523193 -0.18108631670475006 0.4883720874786377
-0.20930230617523193 -0.15743058919906616 0.5038759708404541
-0.20930230617523193 -0.1298980414867401 0.5193798542022705
-0.20930230617523193 -0.09657986462116241 0.5348837375640869
-0.20930230617523193 -0.06428311765193939 0.5503876209259033
-0.20930230617523193 -0.03646997734904289 0.5658915042877197
-0.20930230617523193 0.026270702481269836 0.5658915042877197
-0.20930230617523193 0.07646869122982025 0.5503876209259033
-0.20930230617523193 0.1098451092839241 0.5348837375640869
-0.20930230617523193 0.13734790682792664 0.5193798542022705
-0.20930230617523193 0.1594262719154358 0.5038759708404541
-0.20930230617523193 0.1818220615386963 0.4883720874786377
-0.20930230617523193 0.22335700690746307 -0.5503876209259033
-0.20930230617523193 0.21746617555618286 -0.5348837375640869
-0.20930230617523193 0.21661214530467987 -0.5193798542022705
-0.20930230617523193 0.21751324832439423 -0.5038759708404541
-0.20930230617523193 0.2161877453327179 -0.4883720874786377
-0.20930230617523193 0.21355237066745758 -0.4728682041168213
-0.20930230617523193 0.2115563005208969 -0.4573643207550049
-0.20930230617523193 0.21027323603630066 -0.4418604373931885
-0.20930230617523193 0.20996521413326263 -0.42635661363601685
-0.20930232107639313 0.20987874269485474 -0.41085273027420044
-0.20930230617523193 0.21036727726459503 -0.3953488767147064
-0.20930230617523193 0.21105451881885529 -0.3798449635505676
-0.20930230617523193 0.21224215626716614 -0.3643410801887512
-0.20930230617523193 0.21353764832019806 -0.3488371968269348
-0.20930230617523193 0.21515846252441406 -0.3333333134651184
-0.20930230617523193 0.21776209771633148 -0.317829430103302
-0.20930230617523193 0.22036924958229065 -0.30232560634613037
-0.20930230617523193 0.2231995016336441 -0.28682172298431396
