0.19565558433532715 -0.1782945990562439 -0.038759708404541016
0.19517016410827637 -0.1782945841550827 -0.02325582504272461
0.19496174156665802 -0.1782945990562439 -0.007751941680908203
0.1947048455476761 -0.1782945990562439 0.007751941680908203
0.19479863345623016 -0.1782945990562439 0.02325582504272461
0.1950514316558838 -0.1782945990562439 0.03875970467925072
0.1954118311405182 -0.1782945990562439 0.05426359176635742
0.19564473628997803 -0.1782945990562439 0.06976747512817383
0.1956656277179718 -0.1782946139574051 0.08527135848999023
0.19556553661823273 -0.1782945990562439 0.10077524185180664
0.19542834162712097 -0.1782945990562439 0.11627913266420364
0.19511575996875763 -0.1782945990562439 0.1317828893661499
0.19487662613391876 -0.1782945990562439 0.1472867727279663
0.19459347426891327 -0.1782945990562439 0.16279065608978271
0.19439417123794556 -0.1782945841550827 0.17829452455043793
0.19410285353660583 -0.1782945990562439 0.19379842281341553
0.1948052942752838 -0.1782945990562439 0.20930229127407074
0.1946450024843216 -0.1782945990562439 0.22480618953704834
0.19561997056007385 -0.1627907156944275 -0.20930230617523193
0.19586330652236938 -0.1627907156944275 -0.19379842281341553
0.19621197879314423 -0.1627907156944275 -0.1782945990562439
0.1963973045349121 -0.1627907156944275 -0.1627907156944275
0.19618600606918335 -0.16279073059558868 -0.14728683233261108
0.19566820561885834 -0.1627907156944275 -0.13178294897079468
0.19500038027763367 -0.16279073059558868 -0.11627907305955887
0.19451309740543365 -0.1627907156944275 -0.10077518969774246
0.19442641735076904 -0.1627907156944275 -0.08527130633592606
0.19500933587551117 -0.1627907156944275 -0.06976741552352905
0.19585390388965607 -0.1627907156944275 -0.05426359549164772
0.19556410610675812 -0.1627907156944275 -0.038759708404541016
0.1951581835746765 -0.1627907156944275 -0.02325582318007946
0.19498683512210846 -0.1627907156944275 -0.007751941680908203
0.19469721615314484 -0.1627907156944275 0.007751941680908203
0.1947861909866333 -0.1627907156944275 0.02325582504272461
0.1951351761817932 -0.1627907156944275 0.038759708404541016
0.19560042023658752 -0.1627907156944275 0.05426359176635742
0.19589342176914215 -0.1627907156944275 0.06976747512817383
0.19596143066883087 -0.1627907156944275 0.08527135848999023
0.1959422081708908 -0.1627907156944275 0.10077523440122604
0.19586487114429474 -0.1627907156944275 0.11627912521362305
0.19544103741645813 -0.1627907156944275 0.1317828893661499
0.19502584636211395 -0.1627907156944275 0.1472867727279663
0.19461201131343842 -0.1627907156944275 0.16279065608978271
0.19427905976772308 -0.1627907156944275 0.17829453945159912
0.19398190081119537 -0.1627907156944275 0.19379842281341553
0.19476859271526337 -0.1627907156944275 0.20930229127407074
0.19484393298625946 -0.1627907156944275 0.22480618953704834
0.19577842950820923 -0.14728683233261108 -0.20930230617523193
0.1960400491952896 -0.14728683233261108 -0.19379842281341553
0.19637851417064667 -0.14728683233261108 -0.1782945990562439
0.1964970827102661 -0.14728683233261108 -0.1627907156944275
0.1961904764175415 -0.14728683233261108 -0.14728683233261108
0.19553610682487488 -0.14728683233261108 -0.13178294897079468
0.1948109269142151 -0.14728683233261108 -0.11627906560897827
0.19439485669136047 -0.14728683233261108 -0.10077518224716187
0.194364994764328 -0.14728683233261108 -0.08527129888534546
0.1949925720691681 -0.14728683233261108 -0.06976741552352905
0.19576087594032288 -0.14728683233261108 -0.05426358804106712
0.19547827541828156 -0.14728683233261108 -0.038759708404541016
0.19514109194278717 -0.14728683233261108 -0.02325582504272461
0.19508929550647736 -0.1472868174314499 -0.007751941680908203
0.19486276805400848 -0.14728683233261108 0.007751941680908203
0.19502605497837067 -0.14728683233261108 0.02325582504272461
0.19545844197273254 -0.14728683233261108 0.038759708404541016
0.19601541757583618 -0.14728683233261108 0.05426359176635742
0.19634614884853363 -0.14728683233261108 0.06976747512817383
0.1964184045791626 -0.14728683233261108 0.08527135848999023
0.1964351236820221 -0.14728683233261108 0.10077524185180664
0.1964462697505951 -0.14728683233261108 0.11627912521362305
0.19607654213905334 -0.1472868174314499 0.1317828893661499
0.1956077367067337 -0.14728683233261108 0.1472867727279663
0.19503019750118256 -0.14728683233261108 0.16279065608978271
0.1944369375705719 -0.14728683233261108 0.17829453945159912
0.19396959245204926 -0.14728683233261108 0.19379842281341553
0.19479426741600037 -0.14728683233261108 0.20930230617523193
0.19495582580566406 -0.14728683233261108 0.22480618953704834
0.1960023194551468 -0.13178294897079468 -0.20930230617523193
0.19623985886573792 -0.13178294897079468 -0.19379842281341553
0.19649821519851685 -0.13178294897079468 -0.1782945990562439
0.19645965099334717 -0.13178294897079468 -0.1627907156944275
0.1959463357925415 -0.13178294897079468 -0.14728683233261108
0.19516867399215698 -0.13178294897079468 -0.13178294897079468
0.194552943110466 -0.13178296387195587 -0.11627907305955887
0.19423425197601318 -0.13178294897079468 -0.10077518224716187
0.19423836469650269 -0.13178293406963348 -0.08527129888534546
0.19488689303398132 -0.13178294897079468 -0.06976741552352905
0.19560198485851288 -0.13178294897079468 -0.05426359176635742
0.1953727900981903 -0.13178294897079468 -0.038759708404541016
0.1949940025806427 -0.13178294897079468 -0.02325582504272461
0.1950332075357437 -0.13178294897079468 -0.007751941680908203
0.194819375872612 -0.13178294897079468 0.007751941680908203
0.19501523673534393 -0.13178294897079468 0.02325582504272461
0.19545388221740723 -0.13178294897079468 0.038759708404541016
0.19600240886211395 -0.13178294897079468 0.05426359176635742
0.1963188648223877 -0.13178294897079468 0.06976747512817383
0.19641463458538055 -0.13178294897079468 0.08527135848999023
0.19649945199489594 -0.13178294897079468 0.10077524185180664
0.196579709649086 -0.13178294897079468 0.11627912521362305
0.19628827273845673 -0.13178294897079468 0.1317828893661499
0.1958703249692917 -0.13178294897079468 0.1472867727279663
0.1952863186597824 -0.13178294897079468 0.16279065608978271
0.19461889564990997 -0.13178294897079468 0.17829452455043793
0.1940537393093109 -0.13178294897079468 0.19379840791225433
0.19480577111244202 -0.13178294897079468 0.20930230617523193
0.19493499398231506 -0.13178294897079468 0.22480617463588715
0.19618923962116241 -0.11627906560897827 -0.20930230617523193
0.1963515728712082 -0.11627906560897827 -0.19379842281341553
0.19641993939876556 -0.11627906560897827 -0.1782945990562439
0.1961713433265686 -0.11627905815839767 -0.1627907156944275
0.19559592008590698 -0.11627906560897827 -0.1472868174314499
0.19495339691638947 -0.11627907305955887 -0.13178294897079468
0.19448985159397125 -0.11627906560897827 -0.11627906560897827
0.19418957829475403 -0.11627906560897827 -0.10077518224716187
0.19417515397071838 -0.11627906560897827 -0.08527129143476486
0.19478386640548706 -0.11627906560897827 -0.06976741552352905
0.19547459483146667 -0.11627906560897827 -0.05426359176635742
0.19528527557849884 -0.11627906560897827 -0.038759708404541016
0.1949177086353302 -0.11627906560897827 -0.02325582504272461
0.19505243003368378 -0.11627906560897827 -0.007751941680908203
0.1948055475950241 -0.11627906560897827 0.007751941680908203
0.19497931003570557 -0.11627907305955887 0.02325582504272461
0.195364847779274 -0.11627906560897827 0.038759708404541016
0.19582894444465637 -0.11627906560897827 0.05426359176635742
0.19609466195106506 -0.11627906560897827 0.06976747512817383
0.19622987508773804 -0.11627906560897827 0.08527135848999023
0.1964157223701477 -0.11627905815839767 0.10077523440122604
0.19656705856323242 -0.11627906560897827 0.11627912521362305
0.1963164508342743 -0.11627906560897827 0.1317828893661499
0.19591809809207916 -0.11627906560897827 0.1472867727279663
0.1953316032886505 -0.11627906560897827 0.16279065608978271
0.19465355575084686 -0.11627906560897827 0.17829453945159912
0.19413362443447113 -0.11627906560897827 0.19379842281341553
0.1948021948337555 -0.11627906560897827 0.20930229127407074
0.1948990523815155 -0.11627907305955887 0.22480620443820953
0.19622953236103058 -0.10077518224716187 -0.20930232107639313
0.19628240168094635 -0.10077518224716187 -0.19379842281341553
0.19617338478565216 -0.10077517479658127 -0.1782945990562439
0.19578087329864502 -0.10077518224716187 -0.1627907156944275
0.19532766938209534 -0.10077518224716187 -0.14728683233261108
0.19486941397190094 -0.10077518224716187 -0.13178294897079468
0.19447609782218933 -0.10077518224716187 -0.11627906560897827
0.1941772699356079 -0.10077518224716187 -0.10077518224716187
0.1941569745540619 -0.10077518224716187 -0.08527129888534546
0.19474518299102783 -0.10077518969774246 -0.06976741552352905
0.19541580975055695 -0.10077518969774246 -0.05426359176635742
0.19521869719028473 -0.10077518224716187 -0.038759708404541016
0.19490286707878113 -0.10077518224716187 -0.02325582504272461
0.1951235830783844 -0.10077518224716187 -0.007751941680908203
0.1948755830526352 -0.10077518969774246 0.007751941680908203
0.1949968785047531 -0.10077518224716187 0.02325582504272461
0.19531172513961792 -0.10077518224716187 0.038759708404541016
0.19569514691829681 -0.10077518224716187 0.05426359176635742
0.19592756032943726 -0.10077518224716187 0.06976747512817383
0.19609099626541138 -0.10077517479658127 0.08527135103940964
0.1963520646095276 -0.10077518224716187 0.10077524930238724
0.19653820991516113 -0.10077518224716187 0.11627912521362305
0.19627395272254944 -0.10077517479658127 0.1317828893661499
0.19587241113185883 -0.10077518224716187 0.1472867727279663
0.19529812037944794 -0.10077517479658127 0.16279065608978271
0.1946394145488739 -0.10077518224716187 0.17829453945159912
0.19421420991420746 -0.10077518224716187 0.19379842281341553
0.1947663575410843 -0.10077518224716187 0.20930230617523193
0.19482555985450745 -0.10077517479658127 0.22480618953704834
0.19614356756210327 -0.08527129888534546 -0.20930232107639313
0.19613003730773926 -0.08527129888534546 -0.19379842281341553
0.19592176377773285 -0.08527129888534546 -0.1782945990562439
0.195454403758049 -0.08527129888534546 -0.1627907156944275
0.1951131522655487 -0.08527129888534546 -0.14728683233261108
0.19480524957180023 -0.08527129888534546 -0.13178294897079468
0.19445614516735077 -0.08527129888534546 -0.11627906560897827
0.19418169558048248 -0.08527129888534546 -0.10077518224716187
0.1941952109336853 -0.08527129888534546 -0.08527129888534546
0.1947832703590393 -0.08527129888534546 -0.06976741552352905
0.19543379545211792 -0.08527129888534546 -0.05426359176635742
0.19519983232021332 -0.08527129888534546 -0.038759708404541016
0.1949111521244049 -0.08527129888534546 -0.02325582504272461
0.19511820375919342 -0.08527129888534546 -0.007751941680908203
0.19486282765865326 -0.08527129888534546 0.007751941680908203
0.19496847689151764 -0.08527129888534546 0.02325582504272461
0.1952812671661377 -0.08527130633592606 0.038759708404541016
0.19569334387779236 -0.08527129888534546 0.05426359176635742
0.1959572732448578 -0.08527129888534546 0.06976747512817383
0.19614194333553314 -0.08527129888534546 0.08527135848999023
0.19640539586544037 -0.08527129888534546 0.10077524185180664
0.19656279683113098 -0.08527129888534546 0.11627911776304245
0.19625331461429596 -0.08527129143476486 0.1317828893661499
0.19581931829452515 -0.08527129888534546 0.1472867727279663
0.19523264467716217 -0.08527129888534546 0.16279064118862152
0.19458870589733124 -0.08527130633592606 0.17829453945159912
0.19423100352287292 -0.08527129888534546 0.19379842281341553
0.19471395015716553 -0.08527129888534546 0.20930230617523193
0.1947118192911148 -0.08527129888534546 0.22480618953704834
0.19603502750396729 -0.06976741552352905 -0.20930230617523193
0.19603614509105682 -0.06976741552352905 -0.19379842281341553
0.1957874596118927 -0.06976741552352905 -0.1782945990562439
0.19536574184894562 -0.06976741552352905 -0.1627907156944275
0.19507691264152527 -0.06976741552352905 -0.1472868174314499
0.19476571679115295 -0.06976741552352905 -0.13178294897079468
0.1944229006767273 -0.06976741552352905 -0.11627906560897827
0.19421900808811188 -0.06976741552352905 -0.10077518969774246
0.19434331357479095 -0.06976741552352905 -0.08527129888534546
0.19485469162464142 -0.06976741552352905 -0.06976741552352905
0.19545412063598633 -0.06976741552352905 -0.05426359176635742
0.1952282041311264 -0.06976741552352905 -0.038759708404541016
0.1949213147163391 -0.06976741552352905 -0.02325582318007946
0.19502563774585724 -0.06976741552352905 -0.007751941680908203
0.1947568655014038 -0.06976741552352905 0.00775194214656949
0.19485321640968323 -0.06976741552352905 0.02325582504272461
0.19516314566135406 -0.06976741552352905 0.038759708404541016
0.19561922550201416 -0.06976741552352905 0.05426359176635742
0.19593872129917145 -0.06976741552352905 0.06976747512817383
0.19613447785377502 -0.06976741552352905 0.08527135848999023
0.19633905589580536 -0.06976741552352905 0.10077524930238724
0.19645515084266663 -0.06976741552352905 0.11627912521362305
0.1961517035961151 -0.06976741552352905 0.1317828893661499
0.19572249054908752 -0.06976741552352905 0.1472867727279663
0.1951466202735901 -0.06976741552352905 0.16279065608978271
0.19452710449695587 -0.06976741552352905 0.17829453945159912
0.19419439136981964 -0.06976741552352905 0.19379842281341553
0.19465622305870056 -0.06976741552352905 0.20930232107639313
0.19460976123809814 -0.06976741552352905 0.22480620443820953
0.1960456520318985 -0.05426359176635742 -0.20930230617523193
0.1961231529712677 -0.05426359176635742 -0.19379843771457672
0.1958996206521988 -0.05426359176635742 -0.1782945990562439
0.1955406814813614 -0.05426359176635742 -0.1627907156944275
0.19531038403511047 -0.05426359176635742 -0.14728683233261108
0.19499576091766357 -0.05426358804106712 -0.13178294897079468
0.19458843767642975 -0.05426359176635742 -0.11627906560897827
0.19438289105892181 -0.05426359176635742 -0.10077518224716187
0.19457274675369263 -0.05426359176635742 -0.08527129888534546
0.1949950009584427 -0.05426359176635742 -0.06976741552352905
0.19556081295013428 -0.05426359176635742 -0.05426359176635742
0.19536828994750977 -0.05426359176635742 -0.03875970467925072
0.19499574601650238 -0.05426359176635742 -0.02325582504272461
0.19500549137592316 -0.05426359176635742 -0.007751941680908203
0.19475333392620087 -0.05426359176635742 0.007751941680908203
0.19482700526714325 -0.05426359176635742 0.02325582504272461
0.19508570432662964 -0.05426359176635742 0.038759708404541016
0.1955030858516693 -0.05426359176635742 0.05426359176635742
0.1958070993423462 -0.05426359549164772 0.06976747512817383
0.19597630202770233 -0.05426359176635742 0.08527135848999023
0.19608628749847412 -0.05426359176635742 0.10077524185180664
0.1961294263601303 -0.05426359176635742 0.11627912521362305
0.19587355852127075 -0.05426359176635742 0.1317828893661499
0.19550806283950806 -0.05426359176635742 0.1472867727279663
0.195015087723732 -0.05426359176635742 0.16279065608978271
0.1944725215435028 -0.05426358804106712 0.17829453945159912
0.1941571831703186 -0.05426359176635742 0.19379842281341553
0.1946130096912384 -0.05426359549164772 0.20930232107639313
0.19453831017017365 -0.05426359176635742 0.22480618953704834
0.1960553526878357 -0.038759708404541016 -0.20930232107639313
0.19625817239284515 -0.038759708404541016 -0.19379843771457672
0.19611655175685883 -0.038759708404541016 -0.1782945990562439
0.19578669965267181 -0.038759708404541016 -0.1627907156944275
0.19551780819892883 -0.038759708404541016 -0.14728683233261108
0.19516457617282867 -0.038759708404541016 -0.13178294897079468
0.1947088986635208 -0.038759708404541016 -0.11627906560897827
0.19449679553508759 -0.038759708404541016 -0.10077517479658127
0.1947033554315567 -0.038759708404541016 -0.08527129888534546
0.19516071677207947 -0.038759708404541016 -0.06976741552352905
0.1957683563232422 -0.038759708404541016 -0.05426358804106712
0.19558633863925934 -0.038759708404541016 -0.038759708404541016
0.19519411027431488 -0.038759708404541016 -0.02325582504272461
0.1950874924659729 -0.038759708404541016 -0.007751941680908203
0.19485613703727722 -0.038759708404541016 0.007751941215246916
0.19496046006679535 -0.038759708404541016 0.02325582504272461
0.19523417949676514 -0.038759708404541016 0.038759708404541016
0.19565622508525848 -0.038759708404541016 0.05426359176635742
0.19595317542552948 -0.038759708404541016 0.06976747512817383
0.1961185187101364 -0.038759708404541016 0.08527135848999023
0.19618646800518036 -0.038759708404541016 0.10077524930238724
0.1961827427148819 -0.038759708404541016 0.11627912521362305
0.19591805338859558 -0.038759708404541016 0.1317828893661499
0.1955367922782898 -0.038759708404541016 0.1472867727279663
0.19502946734428406 -0.038759708404541016 0.16279065608978271
0.1944892853498459 -0.038759712129831314 0.17829453945159912
0.19414277374744415 -0.038759708404541016 0.19379842281341553
0.19456136226654053 -0.038759708404541016 0.20930230617523193
0.19443824887275696 -0.038759712129831314 0.22480618953704834
0.19606414437294006 -0.02325582504272461 -0.20930230617523193
0.1963382363319397 -0.02325582504272461 -0.19379842281341553
0.19626133143901825 -0.02325582504272461 -0.1782945990562439
0.19596712291240692 -0.02325582504272461 -0.1627907156944275
0.19565051794052124 -0.02325582504272461 -0.14728683233261108
0.19523948431015015 -0.02325582504272461 -0.13178294897079468
0.19476598501205444 -0.02325582504272461 -0.11627906560897827
0.19455063343048096 -0.02325582504272461 -0.10077518224716187
0.19474785029888153 -0.02325582504272461 -0.08527129888534546
0.19530333578586578 -0.02325582504272461 -0.06976741552352905
0.1959989368915558 -0.02325582504272461 -0.05426359176635742
0.19579637050628662 -0.02325582504272461 -0.038759708404541016
0.19549015164375305 -0.02325582504272461 -0.02325582504272461
0.19527886807918549 -0.02325582690536976 -0.007751941680908203
0.19504965841770172 -0.02325582504272461 0.007751941215246916
0.1952250450849533 -0.02325582504272461 0.02325582504272461
0.19558782875537872 -0.02325582504272461 0.038759708404541016
0.19607873260974884 -0.02325582318007946 0.05426359176635742
0.1963965743780136 -0.02325582504272461 0.06976747512817383
0.19657373428344727 -0.02325582504272461 0.08527135848999023
0.19665643572807312 -0.02325582504272461 0.10077523440122604
0.1966683715581894 -0.02325582504272461 0.11627912521362305
0.19637441635131836 -0.02325582504272461 0.1317828893661499
0.1959092766046524 -0.02325582504272461 0.1472867727279663
0.19526618719100952 -0.02325582318007946 0.16279065608978271
0.19462335109710693 -0.02325582504272461 0.17829453945159912
0.19418112933635712 -0.02325582504272461 0.19379842281341553
0.19456377625465393 -0.02325582318007946 0.20930229127407074
0.1943880021572113 -0.02325582504272461 0.22480618953704834
0.1960197538137436 -0.007751941680908203 -0.20930230617523193
0.1963077187538147 -0.007751941215246916 -0.19379840791225433
0.19623877108097076 -0.007751941680908203 -0.1782945990562439
0.19598086178302765 -0.007751941680908203 -0.1627907156944275
0.19569945335388184 -0.007751941680908203 -0.14728683233261108
0.19530415534973145 -0.007751941680908203 -0.13178294897079468
0.1948227435350418 -0.007751941680908203 -0.11627906560897827
0.19454197585582733 -0.007751941680908203 -0.10077517479658127
0.19466204941272736 -0.007751941215246916 -0.08527129143476486
0.1953009068965912 -0.007751941680908203 -0.06976741552352905
0.1960843801498413 -0.007751941680908203 -0.05426359176635742
0.19585898518562317 -0.007751941680908203 -0.038759708404541016
0.19561456143856049 -0.007751941680908203 -0.02325582318007946
0.1953609734773636 -0.007751941680908203 -0.007751941680908203
0.19508221745491028 -0.00775194214656949 0.00775194214656949
0.19525080919265747 -0.007751941680908203 0.02325582504272461
0.19561736285686493 -0.007751941215246916 0.038759708404541016
0.1961064338684082 -0.007751941680908203 0.05426359176635742
0.19640877842903137 -0.007751941680908203 0.06976747512817383
0.19658325612545013 -0.007751941680908203 0.08527135848999023
0.19667579233646393 -0.007751941680908203 0.10077524185180664
0.19671466946601868 -0.007751941680908203 0.11627912521362305
0.19643720984458923 -0.007751941215246916 0.1317828893661499
0.19595345854759216 -0.007751941680908203 0.1472867727279663
0.19527891278266907 -0.007751941680908203 0.16279065608978271
0.19462114572525024 -0.007751941680908203 0.17829453945159912
0.19415169954299927 -0.007751941680908203 0.19379843771457672
0.19451555609703064 -0.007751941680908203 0.20930230617523193
0.19428521394729614 -0.007751941680908203 0.22480618953704834
0.19605553150177002 0.007751941680908203 -0.20930230617523193
0.19635555148124695 0.007751941680908203 -0.19379842281341553
0.19630953669548035 0.007751941680908203 -0.1782945990562439
0.196061372756958 0.007751941680908203 -0.1627907156944275
0.19577477872371674 0.007751941680908203 -0.14728683233261108
0.19545216858386993 0.007751941680908203 -0.13178294897079468
0.19496117532253265 0.007751941680908203 -0.11627906560897827
0.19463026523590088 0.00775194214656949 -0.10077518224716187
0.19465914368629456 0.007751941680908203 -0.08527129888534546
0.19531041383743286 0.007751941680908203 -0.06976741552352905
0.19616428017616272 0.007751941680908203 -0.05426359549164772
0.1959918737411499 0.007751941680908203 -0.038759708404541016
0.19577240943908691 0.007751941680908203 -0.02325582504272461
0.19545957446098328 0.007751941680908203 -0.007751941680908203
0.1951320469379425 0.007751941680908203 0.007751941680908203
0.19526275992393494 0.007751941680908203 0.02325582504272461
0.19559860229492188 0.007751941680908203 0.038759708404541016
0.1960671842098236 0.007751941680908203 0.05426359176635742
0.19635416567325592 0.007751941680908203 0.06976747512817383
0.19651958346366882 0.007751941680908203 0.08527135848999023
0.19661438465118408 0.00775194214656949 0.10077524185180664
0.19666354358196259 0.007751941680908203 0.11627912521362305
0.19639310240745544 0.007751941680908203 0.1317828893661499
0.19590222835540771 0.00775194214656949 0.1472867727279663
0.19523683190345764 0.007751941680908203 0.16279065608978271
0.1946043074131012 0.007751941680908203 0.17829455435276031
0.194132000207901 0.007751941680908203 0.19379842281341553
0.19451740384101868 0.007751941680908203 0.20930230617523193
0.19420479238033295 0.007751941680908203 0.22480618953704834
0.19590972363948822 0.02325582504272461 -0.20930230617523193
0.19613251090049744 0.02325582504272461 -0.19379842281341553
0.19603614509105682 0.02325582504272461 -0.1782945841550827
0.19580809772014618 0.02325582504272461 -0.1627907156944275
0.19564077258110046 0.02325582504272461 -0.14728683233261108
0.19545526802539825 0.02325582504272461 -0.13178294897079468
0.1950322836637497 0.02325582504272461 -0.11627906560897827
0.19470615684986115 0.02325582504272461 -0.10077518969774246
0.19463220238685608 0.02325582504272461 -0.08527129888534546
0.19519300758838654 0.02325582318007946 -0.06976741552352905
0.19600477814674377 0.02325582318007946 -0.05426358804106712
0.1958603709936142 0.02325582504272461 -0.038759708404541016
0.19555437564849854 0.02325582504272461 -0.02325582504272461
0.1952633261680603 0.02325582504272461 -0.00775194214656949
0.19494275748729706 0.02325582690536976 0.00775194214656949
0.19508789479732513 0.02325582504272461 0.02325582504272461
0.1954280585050583 0.02325582504272461 0.038759708404541016
0.19588854908943176 0.02325582504272461 0.05426359176635742
0.19617068767547607 0.02325582504272461 0.06976747512817383
0.1963232457637787 0.02325582504272461 0.08527136594057083
0.19642555713653564 0.02325582504272461 0.10077524185180664
0.19648395478725433 0.02325582504272461 0.11627912521362305
0.19620564579963684 0.02325582504272461 0.1317828893661499
0.19572953879833221 0.02325582504272461 0.1472867727279663
0.1950949877500534 0.02325582504272461 0.16279065608978271
0.19448599219322205 0.02325582690536976 0.17829453945159912
0.19402970373630524 0.02325582690536976 0.19379842281341553
0.19440296292304993 0.02325582504272461 0.20930232107639313
0.19403433799743652 0.02325582504272461 0.22480620443820953
0.19569994509220123 0.038759708404541016 -0.20930230617523193
0.19587677717208862 0.038759708404541016 -0.19379842281341553
0.19579753279685974 0.038759708404541016 -0.1782945990562439
0.19563546776771545 0.038759712129831314 -0.1627907156944275
0.19552768766880035 0.038759712129831314 -0.14728683233261108
0.19537492096424103 0.038759708404541016 -0.13178294897079468
0.1950080245733261 0.038759708404541016 -0.11627906560897827
0.19476880133152008 0.038759708404541016 -0.10077518224716187
0.19465486705303192 0.038759708404541016 -0.08527129888534546
0.19508814811706543 0.038759708404541016 -0.06976741552352905
0.19586847722530365 0.03875970467925072 -0.05426358804106712
0.1957303136587143 0.038759708404541016 -0.038759708404541016
0.19533392786979675 0.038759708404541016 -0.02325582504272461
0.19508251547813416 0.038759708404541016 -0.007751941680908203
0.19477465748786926 0.038759708404541016 0.007751941680908203
0.19493433833122253 0.03875970467925072 0.02325582504272461
0.19527918100357056 0.038759708404541016 0.038759708404541016
0.19574975967407227 0.038759708404541016 0.05426358804106712
0.1960468739271164 0.038759708404541016 0.06976747512817383
0.19622059166431427 0.03875970467925072 0.08527135848999023
0.1963491439819336 0.038759708404541016 0.10077524185180664
0.19643978774547577 0.038759708404541016 0.11627912521362305
0.19619621336460114 0.038759708404541016 0.1317828893661499
0.19576388597488403 0.038759708404541016 0.1472867727279663
0.1951574683189392 0.038759712129831314 0.16279065608978271
0.19452570378780365 0.038759708404541016 0.17829453945159912
0.19404208660125732 0.038759712129831314 0.19379842281341553
0.1944269984960556 0.038759708404541016 0.20930230617523193
0.1940159797668457 0.038759708404541016 0.22480618953704834
0.19557619094848633 0.05426359176635742 -0.20930229127407074
0.1957387924194336 0.05426359176635742 -0.19379842281341553
0.19566033780574799 0.05426359549164772 -0.1782945990562439
0.19549264013767242 0.05426359176635742 -0.1627907156944275
0.19537611305713654 0.05426359176635742 -0.14728683233261108
0.19523227214813232 0.05426359176635742 -0.13178294897079468
0.19489021599292755 0.05426359176635742 -0.11627906560897827
0.1946665346622467 0.05426359176635742 -0.10077518224716187
0.19455665349960327 0.05426358804106712 -0.08527129888534546
0.19493384659290314 0.05426359176635742 -0.06976741552352905
0.19567760825157166 0.05426359176635742 -0.05426359176635742
0.1955275684595108 0.05426359176635742 -0.038759708404541016
0.1951308697462082 0.05426359549164772 -0.02325582504272461
0.1949828565120697 0.05426359549164772 -0.007751941680908203
0.19463662803173065 0.05426359176635742 0.007751941680908203
0.19477300345897675 0.05426359176635742 0.02325582504272461
0.1950860321521759 0.05426359176635742 0.038759712129831314
0.19553247094154358 0.05426359176635742 0.05426359176635742
0.19582128524780273 0.05426359176635742 0.06976747512817383
0.19600066542625427 0.05426359176635742 0.08527135848999023
0.1961342692375183 0.05426359176635742 0.10077524185180664
0.19622871279716492 0.05426359176635742 0.11627912521362305
0.19601336121559143 0.05426359176635742 0.1317828893661499
0.1956338882446289 0.05426358804106712 0.1472867727279663
0.19509117305278778 0.05426359176635742 0.16279064118862152
0.19450117647647858 0.05426358804106712 0.17829453945159912
0.19404038786888123 0.05426359176635742 0.19379840791225433
0.1944504678249359 0.05426359176635742 0.20930230617523193
0.19399885833263397 0.05426359176635742 0.22480618953704834
0.19569891691207886 0.06976747512817383 -0.20930230617523193
0.19587266445159912 0.06976747512817383 -0.19379842281341553
0.1957186758518219 0.06976747512817383 -0.1782945990562439
0.19544617831707 0.06976747512817383 -0.1627907156944275
0.19526776671409607 0.06976747512817383 -0.14728683233261108
0.19511602818965912 0.06976747512817383 -0.13178294897079468
0.1947675496339798 0.06976747512817383 -0.11627906560897827
0.19447650015354156 0.06976747512817383 -0.10077518224716187
0.19438782334327698 0.06976747512817383 -0.08527129888534546
0.1948118805885315 0.06976746767759323 -0.06976741552352905
0.19553488492965698 0.06976747512817383 -0.05426359176635742
0.19539116322994232 0.06976747512817383 -0.038759708404541016
0.19501374661922455 0.06976747512817383 -0.02325582504272461
0.19491781294345856 0.06976747512817383 -0.00775194214656949
0.1945706605911255 0.06976746767759323 0.007751941680908203
0.19470366835594177 0.06976747512817383 0.02325582504272461
0.19499796628952026 0.06976747512817383 0.038759708404541016
0.19544364511966705 0.06976747512817383 0.05426359176635742
0.19573920965194702 0.06976747512817383 0.06976747512817383
0.19594046473503113 0.06976747512817383 0.08527136594057083
0.19609951972961426 0.06976747512817383 0.10077524185180664
0.19620893895626068 0.06976747512817383 0.11627912521362305
0.1960141360759735 0.06976747512817383 0.1317828893661499
0.19564667344093323 0.06976747512817383 0.1472867727279663
0.19510860741138458 0.06976747512817383 0.16279065608978271
0.19451904296875 0.06976747512817383 0.17829453945159912
0.19404703378677368 0.06976747512817383 0.19379842281341553
0.19452250003814697 0.06976747512817383 0.20930230617523193
0.19405922293663025 0.06976747512817383 0.22480618953704834
0.19600926339626312 0.08527135103940964 -0.20930229127407074
0.1962551772594452 0.08527135848999023 -0.19379842281341553
0.19600561261177063 0.08527135848999023 -0.1782946139574051
0.19559317827224731 0.08527135848999023 -0.1627907156944275
0.195322185754776 0.08527135848999023 -0.14728683233261108
0.1950865536928177 0.08527135848999023 -0.13178294897079468
0.19466395676136017 0.08527135848999023 -0.11627906560897827
0.19429925084114075 0.08527135848999023 -0.10077518224716187
0.19428379833698273 0.08527135848999023 -0.08527129888534546
0.1947869509458542 0.08527135848999023 -0.06976741552352905
0.19546419382095337 0.08527135848999023 -0.05426359176635742
0.1952762007713318 0.08527135848999023 -0.03875970467925072
0.19491347670555115 0.08527135103940964 -0.02325582318007946
0.19482369720935822 0.08527135848999023 -0.007751941680908203
0.19450436532497406 0.08527135848999023 0.007751941680908203
0.19465097784996033 0.08527135848999023 0.02325582504272461
0.1949472278356552 0.08527135848999023 0.038759708404541016
0.19540126621723175 0.08527135848999023 0.05426359176635742
0.19570693373680115 0.08527135848999023 0.06976747512817383
0.19592274725437164 0.08527135848999023 0.08527135848999023
0.19610252976417542 0.08527136594057083 0.10077524185180664
0.19621486961841583 0.08527135848999023 0.11627912521362305
0.19601823389530182 0.08527135848999023 0.1317828893661499
0.195640429854393 0.08527135103940964 0.1472867727279663
0.19509516656398773 0.08527135848999023 0.16279065608978271
0.19451051950454712 0.08527135848999023 0.17829453945159912
0.19404342770576477 0.08527135103940964 0.19379842281341553
0.194576233625412 0.08527135103940964 0.20930229127407074
0.19411629438400269 0.08527136594057083 0.22480618953704834
0.1960941106081009 0.10077524185180664 -0.20930232107639313
0.1962767392396927 0.10077524185180664 -0.19379842281341553
0.1957636922597885 0.10077524185180664 -0.1782945990562439
0.19526256620883942 0.10077524930238724 -0.1627907156944275
0.19515357911586761 0.10077524185180664 -0.14728683233261108
0.19490274786949158 0.10077524930238724 -0.13178294897079468
0.1945149004459381 0.10077524185180664 -0.11627906560897827
0.19422569870948792 0.10077524185180664 -0.10077518224716187
0.19429783523082733 0.10077524185180664 -0.08527129888534546
0.19478364288806915 0.10077524185180664 -0.06976741552352905
0.19540360569953918 0.10077524185180664 -0.05426359176635742
0.1951887458562851 0.10077523440122604 -0.03875970467925072
0.19487841427326202 0.10077524185180664 -0.02325582504272461
0.19482660293579102 0.10077524185180664 -0.007751941215246916
0.19450105726718903 0.10077524185180664 0.007751941680908203
0.1946411430835724 0.10077524185180664 0.02325582504272461
0.19493205845355988 0.10077523440122604 0.038759708404541016
0.19538185000419617 0.10077524185180664 0.05426359176635742
0.1956806480884552 0.10077524185180664 0.06976747512817383
0.19587740302085876 0.10077524185180664 0.08527135848999023
0.19601909816265106 0.10077524185180664 0.10077524185180664
0.1960957646369934 0.10077524185180664 0.11627912521362305
0.19589152932167053 0.10077524185180664 0.1317828893661499
0.19553878903388977 0.10077524185180664 0.1472867727279663
0.19504784047603607 0.10077524185180664 0.16279065608978271
0.19452016055583954 0.10077524185180664 0.17829453945159912
0.19409571588039398 0.10077523440122604 0.19379842281341553
0.19465085864067078 0.10077524185180664 0.20930230617523193
0.19420461356639862 0.10077524185180664 0.22480618953704834
0.19593383371829987 0.11627912521362305 -0.20930230617523193
0.19592873752117157 0.11627912521362305 -0.19379842281341553
0.19523414969444275 0.11627911776304245 -0.1782945841550827
0.19470229744911194 0.11627911776304245 -0.1627907007932663
0.19464896619319916 0.11627911776304245 -0.14728683233261108
0.19466397166252136 0.11627912521362305 -0.13178294897079468
0.19439895451068878 0.11627912521362305 -0.11627906560897827
0.1942564845085144 0.11627912521362305 -0.10077518224716187
0.19443079829216003 0.11627912521362305 -0.08527129143476486
0.19475996494293213 0.11627912521362305 -0.06976741552352905
0.19530773162841797 0.11627912521362305 -0.05426359176635742
0.19513651728630066 0.11627912521362305 -0.038759708404541016
0.194827601313591 0.11627912521362305 -0.02325582504272461
0.19477085769176483 0.11627912521362305 -0.007751941680908203
0.1944642961025238 0.11627913266420364 0.007751941680908203
0.19456811249256134 0.11627912521362305 0.02325582504272461
0.19479937851428986 0.11627912521362305 0.038759708404541016
0.1951848864555359 0.11627911776304245 0.05426359176635742
0.19544817507266998 0.11627913266420364 0.06976747512817383
0.19560205936431885 0.11627912521362305 0.08527135848999023
0.19562597572803497 0.11627912521362305 0.10077524185180664
0.19560901820659637 0.11627912521362305 0.11627912521362305
0.19544920325279236 0.11627912521362305 0.1317828893661499
0.19522333145141602 0.11627912521362305 0.1472867727279663
0.19489669799804688 0.11627912521362305 0.16279065608978271
0.19451287388801575 0.11627912521362305 0.17829453945159912
0.19416697323322296 0.11627912521362305 0.19379842281341553
0.19471709430217743 0.11627912521362305 0.20930230617523193
0.19428612291812897 0.11627912521362305 0.22480618953704834
0.19571998715400696 0.1317828893661499 -0.20930230617523193
0.19565755128860474 0.1317828893661499 -0.19379842281341553
0.1950072944164276 0.1317828893661499 -0.1782945990562439
0.19450131058692932 0.1317828893661499 -0.1627907156944275
0.19445256888866425 0.1317828893661499 -0.14728683233261108
0.1946091651916504 0.1317828893661499 -0.13178294897079468
0.19444699585437775 0.1317829042673111 -0.11627907305955887
0.1944494992494583 0.1317828893661499 -0.10077518224716187
0.19465316832065582 0.1317828893661499 -0.08527129888534546
0.19486920535564423 0.1317828893661499 -0.06976741552352905
0.195387601852417 0.1317828893661499 -0.05426359176635742
0.19536663591861725 0.1317828893661499 -0.038759708404541016
0.19484952092170715 0.1317828893661499 -0.02325582504272461
0.19477884471416473 0.1317828893661499 -0.007751941680908203
0.1945960819721222 0.1317828893661499 0.007751941680908203
0.19477501511573792 0.1317828893661499 0.02325582504272461
0.1949143260717392 0.1317828893661499 0.038759712129831314
0.19517001509666443 0.1317828893661499 0.05426359176635742
0.19535741209983826 0.1317828893661499 0.06976747512817383
0.19550006091594696 0.1317828893661499 0.08527135848999023
0.195493683218956 0.1317828893661499 0.10077524185180664
0.19543704390525818 0.1317828893661499 0.11627912521362305
0.1953485608100891 0.1317828893661499 0.1317828893661499
0.19519823789596558 0.1317828893661499 0.1472867727279663
0.1949499547481537 0.1317828893661499 0.16279065608978271
0.19468946754932404 0.1317828893661499 0.17829453945159912
0.19433210790157318 0.1317828893661499 0.19379843771457672
0.19485008716583252 0.1317828893661499 0.20930230617523193
0.1943831741809845 0.1317828893661499 0.22480618953704834
0.1957743912935257 0.1472867727279663 -0.20930230617523193
0.1957976073026657 0.1472867727279663 -0.19379842281341553
0.19518041610717773 0.1472867727279663 -0.1782945990562439
0.19464120268821716 0.1472867727279663 -0.1627907156944275
0.19457024335861206 0.1472867727279663 -0.14728683233261108
0.19479946792125702 0.1472867727279663 -0.13178294897079468
0.19466109573841095 0.1472867727279663 -0.11627906560897827
0.19472017884254456 0.1472867727279663 -0.10077518224716187
0.19494198262691498 0.1472867727279663 -0.08527129888534546
0.19518747925758362 0.1472867727279663 -0.06976741552352905
0.19569040834903717 0.1472867727279663 -0.05426359176635742
0.19569166004657745 0.1472867727279663 -0.038759708404541016
0.1949988305568695 0.1472867727279663 -0.02325582504272461
0.1949450522661209 0.1472867727279663 -0.007751941680908203
0.19489064812660217 0.1472867727279663 0.007751941680908203
0.1951165348291397 0.1472867727279663 0.02325582504272461
0.19519363343715668 0.1472867727279663 0.038759708404541016
0.1953916698694229 0.1472867727279663 0.05426359176635742
0.19556403160095215 0.1472867727279663 0.06976747512817383
0.19573929905891418 0.1472867727279663 0.08527135848999023
0.1957305669784546 0.1472867727279663 0.10077524185180664
0.1956406533718109 0.1472867727279663 0.11627912521362305
0.1955583542585373 0.1472867727279663 0.1317828893661499
0.19538335502147675 0.1472867727279663 0.1472867727279663
0.1951265186071396 0.1472867727279663 0.16279065608978271
0.19489003717899323 0.14728675782680511 0.17829453945159912
0.19449268281459808 0.1472867727279663 0.19379840791225433
0.19500583410263062 0.1472867727279663 0.20930230617523193
0.19450806081295013 0.1472867727279663 0.22480620443820953
0.19605131447315216 0.16279065608978271 -0.20930230617523193
0.19607505202293396 0.16279065608978271 -0.19379842281341553
0.1954180747270584 0.16279065608978271 -0.1782945990562439
0.1948680877685547 0.16279065608978271 -0.1627907156944275
0.19477055966854095 0.16279065608978271 -0.14728683233261108
0.19500450789928436 0.16279065608978271 -0.13178294897079468
0.19484861195087433 0.16279065608978271 -0.11627906560897827
0.19489257037639618 0.16279065608978271 -0.10077518224716187
0.19518081843852997 0.16279065608978271 -0.08527129888534546
0.1954636424779892 0.16279065608978271 -0.06976741552352905
0.19590650498867035 0.16279064118862152 -0.05426358804106712
0.19579440355300903 0.16279065608978271 -0.038759712129831314
0.1952265053987503 0.16279065608978271 -0.02325582504272461
0.19508148729801178 0.16279065608978271 -0.007751941215246916
0.1949348747730255 0.16279065608978271 0.007751941680908203
0.19517940282821655 0.16279065608978271 0.02325582504272461
0.1953403651714325 0.16279064118862152 0.038759708404541016
0.1956091821193695 0.16279065608978271 0.05426359176635742
0.1957872062921524 0.16279065608978271 0.06976747512817383
0.19591282308101654 0.16279065608978271 0.08527135848999023
0.19588463008403778 0.16279065608978271 0.10077524185180664
0.1958376169204712 0.16279065608978271 0.11627913266420364
0.19580033421516418 0.16279065608978271 0.1317828893661499
0.19562587141990662 0.16279064118862152 0.14728675782680511
0.19530056416988373 0.16279065608978271 0.16279065608978271
0.19498024880886078 0.16279064118862152 0.17829453945159912
0.19456107914447784 0.16279065608978271 0.19379842281341553
0.1951068490743637 0.16279065608978271 0.20930230617523193
0.19461308419704437 0.16279065608978271 0.22480618953704834
0.19640152156352997 0.17829453945159912 -0.20930230617523193
0.19641898572444916 0.17829453945159912 -0.19379842281341553
0.19578410685062408 0.17829453945159912 -0.1782945990562439
0.19523677229881287 0.17829455435276031 -0.1627907156944275
0.19510148465633392 0.17829453945159912 -0.14728683233261108
0.19528105854988098 0.17829453945159912 -0.13178294897079468
0.19507038593292236 0.17829453945159912 -0.11627906560897827
0.19495633244514465 0.17829453945159912 -0.10077518224716187
0.19533967971801758 0.17829453945159912 -0.08527129888534546
0.1957748830318451 0.17829452455043793 -0.06976741552352905
0.19625809788703918 0.17829453945159912 -0.05426359176635742
0.19606831669807434 0.17829455435276031 -0.038759708404541016
0.195712149143219 0.17829453945159912 -0.02325582504272461
0.19552168250083923 0.17829453945159912 -0.007751941680908203
0.1951981633901596 0.17829453945159912 0.007751941680908203
0.1953040063381195 0.17829453945159912 0.02325582318007946
0.19557282328605652 0.17829452455043793 0.038759708404541016
0.19604654610157013 0.17829453945159912 0.05426359176635742
0.19636422395706177 0.17829453945159912 0.06976747512817383
0.19652482867240906 0.17829453945159912 0.08527135848999023
0.19650965929031372 0.17829453945159912 0.10077524185180664
0.19654305279254913 0.17829453945159912 0.11627911776304245
0.19646060466766357 0.17829453945159912 0.1317828893661499
0.1961008459329605 0.17829453945159912 0.1472867727279663
0.19551359117031097 0.17829453945159912 0.16279065608978271
0.1949775516986847 0.17829455435276031 0.17829455435276031
0.1945493370294571 0.17829453945159912 0.19379840791225433
0.19516268372535706 0.17829453945159912 0.20930229127407074
0.1947196125984192 0.17829453945159912 0.22480618953704834
0.19678723812103271 0.19379842281341553 -0.20930230617523193
0.1968006044626236 0.19379842281341553 -0.19379842281341553
0.1961621344089508 0.19379842281341553 -0.1782945990562439
0.19558100402355194 0.19379843771457672 -0.1627907156944275
0.19540798664093018 0.19379842281341553 -0.14728683233261108
0.19551941752433777 0.19379842281341553 -0.13178294897079468
0.19521109759807587 0.19379843771457672 -0.11627906560897827
0.19484519958496094 0.19379843771457672 -0.10077518224716187
0.1951049119234085 0.19379842281341553 -0.08527129888534546
0.19575880467891693 0.19379840791225433 -0.06976741552352905
0.1963934451341629 0.19379842281341553 -0.05426359176635742
0.19620196521282196 0.19379842281341553 -0.038759708404541016
0.19585296511650085 0.19379842281341553 -0.02325582504272461
0.19574964046478271 0.19379840791225433 -0.007751941680908203
0.195333331823349 0.19379842281341553 0.007751941680908203
0.1953699290752411 0.19379843771457672 0.02325582504272461
0.19566479325294495 0.19379842281341553 0.038759708404541016
0.1961616724729538 0.19379842281341553 0.05426359176635742
0.19645364582538605 0.19379842281341553 0.06976747512817383
0.19659407436847687 0.19379842281341553 0.08527135848999023
0.19663310050964355 0.19379842281341553 0.10077524185180664
0.1966656744480133 0.19379842281341553 0.11627912521362305
0.1964520961046219 0.19379842281341553 0.1317828893661499
0.19595013558864594 0.19379842281341553 0.1472867727279663
0.19531139731407166 0.19379842281341553 0.16279065608978271
0.19486093521118164 0.19379842281341553 0.17829453945159912
0.19451415538787842 0.19379842281341553 0.19379842281341553
0.19515357911586761 0.19379842281341553 0.20930230617523193
0.19469626247882843 0.19379843771457672 0.22480618953704834
0.19707387685775757 0.20930230617523193 -0.20930230617523193
0.19708290696144104 0.20930230617523193 -0.19379842281341553
0.19641000032424927 0.20930229127407074 -0.1782945990562439
0.1957855224609375 0.20930230617523193 -0.1627907156944275
0.19557949900627136 0.20930230617523193 -0.14728683233261108
0.19560706615447998 0.20930230617523193 -0.13178294897079468
0.19529323279857635 0.20930230617523193 -0.11627906560897827
0.19483904540538788 0.20930230617523193 -0.10077518224716187
0.1949613392353058 0.20930230617523193 -0.08527129143476486
0.19568462669849396 0.20930232107639313 -0.06976741552352905
0.19634860754013062 0.20930232107639313 -0.05426359549164772
0.19616687297821045 0.20930230617523193 -0.038759708404541016
0.19596058130264282 0.20930230617523193 -0.02325582504272461
0.19583161175251007 0.20930230617523193 -0.00775194214656949
0.19540107250213623 0.20930230617523193 0.007751941680908203
0.19540151953697205 0.20930230617523193 0.02325582504272461
0.1956486999988556 0.20930230617523193 0.038759708404541016
0.1960979402065277 0.20930230617523193 0.05426359176635742
0.1963413953781128 0.20930229127407074 0.06976747512817383
0.19645445048809052 0.20930230617523193 0.08527135848999023
0.1964837908744812 0.20930232107639313 0.10077524185180664
0.19646179676055908 0.20930230617523193 0.11627913266420364
0.19617733359336853 0.20930230617523193 0.1317828893661499
0.1957189291715622 0.20930230617523193 0.1472867727279663
0.1952000856399536 0.20930232107639313 0.16279065608978271
0.19482822716236115 0.20930230617523193 0.17829453945159912
0.19452087581157684 0.20930230617523193 0.19379842281341553
0.19517460465431213 0.20930232107639313 0.20930232107639313
0.19470597803592682 0.20930230617523193 0.22480618953704834
0.19704414904117584 0.22480618953704834 -0.20930230617523193
0.19710037112236023 0.22480618953704834 -0.19379842281341553
0.19643785059452057 0.22480618953704834 -0.1782945990562439
0.19581374526023865 0.22480618953704834 -0.1627907156944275
0.19557639956474304 0.22480618953704834 -0.14728683233261108
0.19557201862335205 0.22480617463588715 -0.13178294897079468
0.19527548551559448 0.22480618953704834 -0.11627906560897827
0.19484122097492218 0.22480620443820953 -0.10077518224716187
0.19492968916893005 0.22480618953704834 -0.08527129888534546
0.1955208033323288 0.22480618953704834 -0.06976741552352905
0.19602547585964203 0.22480618953704834 -0.05426359176635742
0.19593437016010284 0.22480620443820953 -0.038759708404541016
0.1959965080022812 0.22480618953704834 -0.02325582504272461
0.1959303468465805 0.22480618953704834 -0.007751941680908203
0.1957312524318695 0.22480618953704834 0.00775194214656949
0.19547563791275024 0.22480618953704834 0.02325582318007946
0.19553402066230774 0.22480618953704834 0.038759708404541016
0.19586387276649475 0.22480620443820953 0.05426359176635742
0.19603922963142395 0.22480618953704834 0.06976747512817383
0.19606909155845642 0.22480618953704834 0.08527135848999023
0.1960028111934662 0.22480618953704834 0.10077524185180664
0.19590966403484344 0.22480617463588715 0.11627912521362305
0.1956765204668045 0.22480618953704834 0.1317828893661499
0.195404514670372 0.22480618953704834 0.1472867727279663
0.19508498907089233 0.22480618953704834 0.16279065608978271
0.1947963386774063 0.22480618953704834 0.17829453945159912
0.1945427656173706 0.22480620443820953 0.19379842281341553
0.19513612985610962 0.22480617463588715 0.20930230617523193
0.1946735978126526 0.22480618953704834 0.22480618953704834
0.1969088613986969 0.24031007289886475 -0.20930230617523193
0.19706979393959045 0.24031007289886475 -0.19379842281341553
0.19645634293556213 0.24031007289886475 -0.1782945990562439
0.1958279311656952 0.24031007289886475 -0.1627907007932663
0.19559362530708313 0.24031007289886475 -0.14728683233261108
0.19561654329299927 0.24031007289886475 -0.13178294897079468
0.19528540968894958 0.24031007289886475 -0.11627906560897827
0.19490180909633636 0.24031007289886475 -0.10077518224716187
0.1950031965970993 0.24031007289886475 -0.08527129888534546
0.1954486072063446 0.24031008780002594 -0.06976741552352905
0.1958589404821396 0.24031007289886475 -0.05426358804106712
0.19597187638282776 0.24031007289886475 -0.038759708404541016
0.19609335064888 0.24031007289886475 -0.02325582504272461
0.1958928257226944 0.24031007289886475 -0.007751941680908203
0.19607935845851898 0.24031007289886475 0.007751941680908203
0.19584336876869202 0.24031007289886475 0.02325582504272461
0.19566750526428223 0.24031007289886475 0.038759708404541016
0.19589635729789734 0.24031007289886475 0.05426359549164772
0.19607877731323242 0.24031007289886475 0.06976747512817383
0.19614219665527344 0.24031007289886475 0.08527135848999023
