0.05426359176635742 -0.1627907156944275 -0.2238806188106537
0.05426359176635742 -0.1627907156944275 -0.17058882117271423
0.05426359176635742 -0.1627907156944275 0.29492348432540894
0.05426359176635742 -0.16279073059558868 0.33507654070854187
0.05426359176635742 -0.14728683233261108 -0.22488799691200256
0.05426359176635742 -0.14728683233261108 -0.16993528604507446
0.05426359176635742 -0.14728683233261108 0.29445403814315796
0.05426359176635742 -0.14728683233261108 0.3351404368877411
0.05426359176635742 -0.13178294897079468 -0.22525405883789062
0.05426359176635742 -0.13178294897079468 -0.17054592072963715
0.05426359176635742 -0.13178294897079468 0.2941151559352875
0.05426359176635742 -0.13178294897079468 0.3351552188396454
0.05426359176635742 -0.11627906560897827 -0.22538740932941437
0.05426359176635742 -0.11627906560897827 -0.17165541648864746
0.05426359176635742 -0.11627906560897827 0.29411956667900085
0.05426359176635742 -0.11627906560897827 0.3352150619029999
0.05426359176635742 -0.10077518224716187 -0.22516602277755737
0.05426358804106712 -0.10077518224716187 -0.17258068919181824
0.05426359176635742 -0.10077518224716187 0.2943686842918396
0.05426358804106712 -0.10077518224716187 0.335317999124527
0.05426359176635742 -0.08527129888534546 -0.22505967319011688
0.05426359176635742 -0.08527129888534546 -0.17368380725383759
0.05426359176635742 -0.08527129888534546 0.2943340241909027
0.05426359176635742 -0.08527129888534546 0.33540982007980347
0.05426359176635742 -0.06976741552352905 -0.22489763796329498
0.05426359176635742 -0.06976741552352905 -0.17434877157211304
0.05426359176635742 -0.06976741552352905 0.2942216992378235
0.05426359176635742 -0.06976741552352905 0.3354448676109314
0.05426359176635742 -0.05426359176635742 -0.22468586266040802
0.05426359176635742 -0.05426359176635742 -0.17463144659996033
0.05426359176635742 -0.05426359176635742 0.2941252589225769
0.05426359176635742 -0.05426359176635742 0.33550170063972473
0.05426359176635742 -0.038759708404541016 -0.22482654452323914
0.05426358804106712 -0.038759708404541016 -0.17463678121566772
0.05426359176635742 -0.038759708404541016 0.2940517067909241
0.05426359176635742 -0.038759708404541016 0.33547961711883545
0.05426359176635742 -0.02325582504272461 -0.22488278150558472
0.05426358804106712 -0.02325582318007946 -0.17445361614227295
0.05426359176635742 -0.02325582504272461 0.29397276043891907
0.05426359176635742 -0.02325582318007946 0.335504412651062
0.05426359176635742 -0.007751941680908203 -0.22457966208457947
0.05426359176635742 -0.007751941680908203 -0.172677144408226
0.05426359176635742 -0.007751941680908203 0.2939326763153076
0.05426359176635742 -0.007751941680908203 0.3355260491371155
0.05426359176635742 0.007751941680908203 -0.22367364168167114
0.05426359176635742 0.007751941680908203 -0.17168894410133362
0.05426359176635742 0.007751941680908203 0.2939358353614807
0.05426359176635742 0.007751941680908203 0.33554017543792725
0.05426359176635742 0.02325582504272461 -0.2229144275188446
0.05426359176635742 0.02325582504272461 -0.17116597294807434
0.05426359176635742 0.02325582504272461 0.29383909702301025
0.05426359176635742 0.02325582318007946 0.33555352687835693
0.05426359176635742 0.038759708404541016 -0.22180508077144623
0.05426359176635742 0.038759708404541016 -0.17166881263256073
0.05426359176635742 0.038759708404541016 0.2940078377723694
0.05426359176635742 0.038759708404541016 0.3355861008167267
0.05426359176635742 0.05426359176635742 -0.2215522825717926
0.05426359176635742 0.05426359176635742 -0.1729818880558014
0.05426359176635742 0.05426359176635742 0.2944830656051636
0.05426359176635742 0.05426359176635742 0.33565181493759155
0.05426359176635742 0.06976747512817383 -0.22136127948760986
0.05426359176635742 0.06976747512817383 -0.17483225464820862
0.05426359176635742 0.06976747512817383 0.2948160767555237
0.05426359176635742 0.06976747512817383 0.33571118116378784
0.05426359549164772 0.08527135848999023 -0.2213221788406372
0.05426359176635742 0.08527135848999023 -0.17638465762138367
0.05426359176635742 0.08527135848999023 0.2949005365371704
0.05426358804106712 0.08527135103940964 0.33573848009109497
0.05426359176635742 0.10077524185180664 -0.22151124477386475
0.05426359176635742 0.10077524185180664 -0.17725245654582977
0.05426359176635742 0.10077524185180664 0.29491961002349854
0.05426359176635742 0.10077524185180664 0.3357314169406891
0.05426359176635742 0.11627912521362305 -0.22162282466888428
0.05426358804106712 0.11627912521362305 -0.17769746482372284
0.05426359176635742 0.11627912521362305 0.29475826025009155
0.05426359176635742 0.11627912521362305 0.3356911838054657
0.05426359176635742 0.1317828893661499 -0.22144579887390137
0.05426359176635742 0.1317828893661499 -0.17750445008277893
0.05426359176635742 0.1317828893661499 0.29455307126045227
0.05426359176635742 0.1317828893661499 0.33558931946754456
0.05426359176635742 0.1472867727279663 -0.2213587462902069
0.05426359176635742 0.1472867727279663 -0.17709873616695404
0.05426359176635742 0.1472867727279663 0.29441624879837036
0.05426358804106712 0.1472867727279663 0.3355010747909546
0.05426359176635742 0.16279065608978271 -0.221451997756958
0.05426359176635742 0.16279065608978271 -0.17668545246124268
0.05426359176635742 0.16279065608978271 0.29441291093826294
0.05426359176635742 0.16279065608978271 0.33542853593826294
0.05426359176635742 0.17829453945159912 -0.2214394360780716
0.05426358804106712 0.17829453945159912 -0.17571216821670532
0.05426359176635742 0.17829453945159912 0.29448893666267395
0.05426359176635742 0.17829453945159912 0.3354068994522095
0.05426359176635742 0.19379842281341553 -0.2212749719619751
0.05426359176635742 0.19379842281341553 -0.17441649734973907
0.05426359176635742 0.19379842281341553 0.2947692275047302
0.05426359176635742 0.19379842281341553 0.3354254364967346
0.05426359176635742 0.20930230617523193 -0.22119075059890747
0.05426359549164772 0.20930230617523193 -0.1728581339120865
0.05426359176635742 0.20930230617523193 0.29496288299560547
0.05426358804106712 0.20930230617523193 0.3354629874229431
0.05426359176635742 0.22480618953704834 -0.22135578095912933
0.05426359176635742 0.22480618953704834 -0.1720055192708969
0.05426359176635742 0.22480618953704834 0.29534173011779785
0.05426359176635742 0.22480618953704834 0.33548179268836975
0.05426359176635742 0.24031007289886475 -0.22146758437156677
0.05426359176635742 0.24031007289886475 -0.17205488681793213
0.05426359176635742 0.24031007289886475 0.2957651615142822
0.05426359176635742 0.24031007289886475 0.33561012148857117
0.05426358804106712 0.25581395626068115 -0.22160053253173828
0.05426359176635742 0.25581395626068115 -0.17252331972122192
0.05426359176635742 0.25581395626068115 0.2960470914840698
0.05426359176635742 0.25581395626068115 0.3356695771217346
0.05426359176635742 0.27131783962249756 -0.22159630060195923
0.05426359549164772 0.27131783962249756 -0.17388534545898438
0.05426359176635742 0.27131783962249756 0.29652708768844604
0.05426359176635742 0.27131783962249756 0.33574092388153076
0.05426359176635742 0.28682172298431396 -0.22127175331115723
0.05426359176635742 0.28682172298431396 -0.17504093050956726
0.05426359176635742 0.28682172298431396 0.2969929575920105
0.05426359176635742 0.28682172298431396 0.3358168601989746
0.05426359549164772 0.30232560634613037 -0.22111138701438904
0.05426359176635742 0.30232560634613037 -0.17614826560020447
0.05426359176635742 0.30232560634613037 0.296919047832489
0.05426359176635742 0.30232560634613037 0.3357580304145813
0.05426359176635742 0.3178294897079468 -0.2207614928483963
0.05426359176635742 0.3178294897079468 -0.17736195027828217
0.05426359176635742 0.3178294897079468 0.29693228006362915
0.05426359176635742 0.3178294897079468 0.33565986156463623
0.05426359176635742 0.3333333730697632 -0.21997150778770447
0.05426359176635742 0.3333333730697632 -0.17965321242809296
0.05426359176635742 0.3333333730697632 0.2972520589828491
0.05426358804106712 0.3333333730697632 0.3355480432510376
0.05426359176635742 0.3488372564315796 -0.21928107738494873
0.05426359176635742 0.3488372564315796 -0.18251380324363708
0.05426359176635742 0.3488372564315796 0.29750514030456543
0.05426359176635742 0.3488372564315796 0.33535924553871155
0.05426359176635742 0.364341139793396 -0.21823301911354065
0.05426359176635742 0.364341139793396 -0.18452492356300354
0.05426359176635742 0.364341139793396 0.2977583706378937
0.05426359176635742 0.364341139793396 0.33511483669281006
0.05426359176635742 0.37984490394592285 -0.21706132590770721
0.05426359176635742 0.37984490394592285 -0.18566465377807617
0.05426359176635742 0.37984490394592285 0.29797375202178955
0.05426359176635742 0.37984490394592285 0.3349514305591583
0.05426359176635742 0.39534878730773926 -0.21603107452392578
0.05426359176635742 0.39534878730773926 -0.18636800348758698
0.05426359176635742 0.39534878730773926 0.29815512895584106
0.05426359176635742 0.39534875750541687 0.33477529883384705
0.05426359176635742 0.41085267066955566 -0.21482163667678833
0.05426359176635742 0.41085267066955566 -0.18634161353111267
0.05426359176635742 0.41085267066955566 0.2980949878692627
0.05426359176635742 0.41085267066955566 0.33469393849372864
0.05426359176635742 0.42635655403137207 -0.21344761550426483
0.05426359176635742 0.42635655403137207 -0.18680807948112488
0.05426359176635742 0.42635655403137207 0.2980635464191437
0.05426358804106712 0.4263565242290497 0.33467501401901245
0.05426359176635742 0.4418604373931885 -0.21308472752571106
0.05426359176635742 0.4418604373931885 -0.18863964080810547
0.05426359176635742 0.4418604373931885 0.29830509424209595
0.05426359176635742 0.4418604373931885 0.3347329795360565
0.05426359176635742 0.4573643207550049 -0.2137092798948288
0.05426359176635742 0.4573643207550049 -0.1906769573688507
0.05426359176635742 0.4573643207550049 0.29850444197654724
0.05426359176635742 0.4573643207550049 0.3348105847835541
0.05426359176635742 0.4728682041168213 -0.21425852179527283
0.05426359176635742 0.4728682041168213 -0.19266964495182037
0.05426359176635742 0.4728682041168213 0.2985236644744873
0.05426359176635742 0.4728682041168213 0.3348507285118103
0.05426359176635742 0.4883720874786377 -0.2143433392047882
0.05426359176635742 0.4883720874786377 -0.19586709141731262
0.05426359176635742 0.4883720874786377 0.298631876707077
0.05426359176635742 0.4883720874786377 0.3348237872123718
0.05426359176635742 0.5038759708404541 -0.21307742595672607
0.05426359176635742 0.5038759708404541 -0.19855086505413055
0.05426359176635742 0.5038759708404541 0.2983403205871582
0.05426358804106712 0.5038759708404541 0.3347247838973999
0.05426359176635742 0.5193798542022705 -0.21130724251270294
0.05426359176635742 0.5193798542022705 -0.20025619864463806
0.05426359176635742 0.5193798542022705 0.298000693321228
0.05426359176635742 0.5193798542022705 0.33456650376319885
0.05426359176635742 0.5348837375640869 -0.21081814169883728
0.05426359176635742 0.5348837375640869 -0.19814035296440125
0.05426359176635742 0.5348837375640869 0.29750335216522217
0.05426359176635742 0.5348837375640869 0.33434224128723145
0.05426359176635742 0.5503876209259033 -0.21112370491027832
0.05426359176635742 0.5503876209259033 -0.1933177262544632
0.05426359176635742 0.5503876209259033 0.29722654819488525
0.05426358804106712 0.5503876209259033 0.33415859937667847
0.05426359176635742 0.5658915042877197 -0.21192511916160583
0.05426359176635742 0.5658915042877197 -0.1902865171432495
0.05426359176635742 0.5658915042877197 0.29668107628822327
0.05426359176635742 0.5658915042877197 0.33401480317115784
0.05426359176635742 0.5813953876495361 -0.21301133930683136
0.05426359176635742 0.5813953876495361 -0.18470266461372375
0.05426359176635742 0.5813953876495361 0.2962735593318939
0.05426359176635742 0.5813953876495361 0.33391860127449036
0.05426359176635742 0.5968992710113525 -0.21370723843574524
0.05426359176635742 0.5968992710113525 -0.1762315034866333
0.05426359176635742 0.5968992710113525 0.2960658073425293
0.05426359176635742 0.5968992710113525 0.3337860107421875
0.05426359176635742 0.612403154373169 -0.21378564834594727
0.05426359176635742 0.612403154373169 -0.1726337969303131
0.05426359176635742 0.612403154373169 0.2960078716278076
0.05426359176635742 0.612403154373169 0.33371591567993164
0.05426359176635742 0.6279069185256958 -0.213545024394989
0.05426359176635742 0.6279069185256958 -0.17326673865318298
0.05426359176635742 0.6279069185256958 0.29587656259536743
0.05426359176635742 0.6279069185256958 0.33373138308525085
0.05426359176635742 0.6434108018875122 -0.21331463754177094
0.05426359176635742 0.6434108018875122 -0.17561231553554535
0.05426359176635742 0.6434108018875122 0.2956874966621399
0.05426359176635742 0.6434108018875122 0.33380556106567383
0.05426359176635742 0.6589146852493286 -0.2133735865354538
0.05426359176635742 0.6589146852493286 -0.17700152099132538
0.05426359176635742 0.6589146852493286 0.29603147506713867
0.05426359176635742 0.6589146852493286 0.33385056257247925
0.05426359176635742 0.674418568611145 -0.21348536014556885
0.05426359176635742 0.6744185090065002 -0.17587795853614807
0.05426359176635742 0.674418568611145 0.29594144225120544
0.05426359549164772 0.674418568611145 0.3339602053165436
0.05426359176635742 0.6899224519729614 -0.21353842318058014
0.05426359176635742 0.6899224519729614 -0.1744920164346695
0.05426359176635742 0.6899224519729614 0.2955856919288635
0.05426359549164772 0.6899224519729614 0.33398839831352234
0.05426359176635742 0.7054263353347778 -0.2134990394115448
0.05426359549164772 0.7054263353347778 -0.17406904697418213
0.05426359176635742 0.7054263353347778 0.29499518871307373
0.05426358804106712 0.7054263353347778 0.3339404761791229
0.05426359176635742 0.7209302186965942 -0.21334360539913177
0.05426359176635742 0.7209302186965942 -0.17462258040905
0.05426359176635742 0.7209302186965942 0.29401928186416626
0.05426359176635742 0.7209302186965942 0.33389198780059814
0.05426359176635742 0.7364341020584106 -0.21319453418254852
0.05426359176635742 0.7364341020584106 -0.17749841511249542
0.05426359176635742 0.7364341020584106 0.2928048372268677
0.05426359549164772 0.7364341616630554 0.3338622450828552
0.05426359176635742 0.751937985420227 -0.21308264136314392
0.05426359176635742 0.751937985420227 -0.18061459064483643
0.05426359176635742 0.751937985420227 0.2914348542690277
0.05426359176635742 0.751937985420227 0.33382466435432434
0.05426359176635742 0.7674418687820435 -0.21275264024734497
0.05426359176635742 0.7674418687820435 -0.18178045749664307
0.05426359549164772 0.7674418687820435 0.29001572728157043
0.05426359176635742 0.7674418687820435 0.33379217982292175
0.05426359176635742 0.7829457521438599 -0.21212054789066315
0.05426359176635742 0.7829457521438599 -0.18110722303390503
0.05426359176635742 0.7829457521438599 0.28836360573768616
0.05426359176635742 0.7829457521438599 0.3337905704975128
0.05426359176635742 0.7984496355056763 -0.21135884523391724
0.05426359176635742 0.7984496355056763 -0.17923150956630707
0.05426359176635742 0.798449695110321 0.287001371383667
0.05426359176635742 0.7984495759010315 0.3337552547454834
0.05426359176635742 0.8139535188674927 -0.21048814058303833
0.05426358804106712 0.8139535188674927 -0.1752883642911911
0.05426359176635742 0.8139535188674927 0.2856036424636841
0.05426359176635742 0.8139535188674927 0.3338039815425873
0.05426359176635742 0.8294574022293091 -0.20972765982151031
0.05426359176635742 0.8294574022293091 -0.1704849898815155
0.05426359176635742 0.8294574022293091 0.28422319889068604
0.05426359176635742 0.8294574022293091 0.33386290073394775
0.05426359176635742 0.8449612855911255 -0.2089787870645523
0.05426359176635742 0.8449612855911255 -0.1672990322113037
0.05426359176635742 0.8449612855911255 0.2827127277851105
0.05426359176635742 0.8449612855911255 0.3339724838733673
0.05426359176635742 0.8604651689529419 -0.20723824203014374
0.05426359176635742 0.8604651689529419 -0.16411654651165009
0.05426359176635742 0.8604651689529419 0.09680984169244766
0.05426359176635742 0.8604651689529419 0.11312025785446167
0.05426359176635742 0.8604651689529419 0.2790865898132324
0.05426359176635742 0.8604651689529419 0.33398547768592834
0.05426359549164772 0.8759689331054688 -0.20640374720096588
0.05426358804106712 0.8759689331054688 -0.162514790892601
0.05426359176635742 0.8759689331054688 0.08052004873752594
0.05426359176635742 0.8759689331054688 0.11436551809310913
0.05426359176635742 0.8759689331054688 0.274516761302948
0.05426359176635742 0.8759689331054688 0.3339090347290039
0.05426359176635742 0.8914728164672852 -0.2062072455883026
0.05426359176635742 0.8914728164672852 -0.15960192680358887
0.05426359176635742 0.8914728164672852 0.06496541202068329
0.05426359176635742 0.8914728164672852 0.11529355496168137
0.05426359176635742 0.8914728164672852 0.265663743019104
0.05426358804106712 0.8914728164672852 0.33375993371009827
0.05426359176635742 0.9069766998291016 -0.2061757892370224
0.05426359176635742 0.9069766998291016 -0.15874874591827393
0.05426359176635742 0.9069766998291016 0.04933987930417061
0.05426359176635742 0.9069766998291016 0.11905381083488464
0.05426359176635742 0.9069766998291016 0.2611044645309448
0.05426359176635742 0.9069766998291016 0.33356183767318726
0.05426359176635742 0.9224805235862732 -0.20674662292003632
0.05426359176635742 0.922480583190918 -0.1603722870349884
0.05426359176635742 0.922480583190918 0.014938502572476864
0.05426359176635742 0.922480583190918 0.12623301148414612
0.05426359176635742 0.922480583190918 0.26134759187698364
0.05426359176635742 0.922480583190918 0.33322301506996155
0.05426359176635742 0.9379844665527344 -0.20771874487400055
0.05426359176635742 0.9379844665527344 -0.15424790978431702
0.05426359176635742 0.9379844665527344 -0.0013333484530448914
0.05426359176635742 0.9379844665527344 0.2021532505750656
0.05426359176635742 0.9379844665527344 0.2547185719013214
0.05426359176635742 0.9379844665527344 0.33204758167266846
0.05426359176635742 0.9534883499145508 -0.20839065313339233
0.05426359176635742 0.9534883499145508 0.3295917809009552
0.05426359176635742 0.9689922332763672 -0.20974916219711304
0.05426359176635742 0.9689922332763672 0.3272300958633423
0.05426359176635742 0.9844961166381836 -0.20810066163539886
0.05426359176635742 0.9844961166381836 0.31379348039627075
0.06976747512817383 -0.9689922332763672 -0.2263103425502777
0.06976747512817383 -0.9689922332763672 0.26883774995803833
0.06976747512817383 -0.9534883499145508 -0.21980717778205872
0.06976747512817383 -0.9534883499145508 0.3084827661514282
0.06976747512817383 -0.9379844665527344 -0.217412531375885
0.06976746767759323 -0.9379844665527344 0.319014310836792
0.06976747512817383 -0.9224807024002075 -0.21572303771972656
0.06976747512817383 -0.9224806427955627 -0.07712040096521378
0.06976747512817383 -0.9224807024002075 -0.01641904003918171
0.06976747512817383 -0.922480583190918 0.24789592623710632
0.06976747512817383 -0.9224806427955627 0.259610652923584
0.06976747512817383 -0.9224806427955627 0.3261502981185913
0.06976747512817383 -0.9069768190383911 -0.21468843519687653
0.06976747512817383 -0.9069767594337463 -0.08571798354387283
0.06976747512817383 -0.9069767594337463 -0.009147116914391518
0.06976747512817383 -0.9069766998291016 0.24427755177021027
0.06976747512817383 -0.9069767594337463 0.27587440609931946
0.06976747512817383 -0.9069768190383911 0.32784441113471985
0.06976747512817383 -0.8914728760719299 -0.213968425989151
0.06976747512817383 -0.8914728760719299 -0.11388668417930603
0.06976747512817383 -0.8914728760719299 0.007135301828384399
0.06976747512817383 -0.8914728760719299 0.20454277098178864
0.06976747512817383 -0.8914728164672852 0.21319082379341125
0.06976747512817383 -0.8914728760719299 0.2468075156211853
0.06976747512817383 -0.8914729356765747 0.28104209899902344
0.06976747512817383 -0.8914728760719299 0.32895535230636597
0.06976747512817383 -0.8759690523147583 -0.21331560611724854
0.06976747512817383 -0.8759689927101135 -0.14333514869213104
0.06976747512817383 -0.8759689927101135 0.06677411496639252
0.06976747512817383 -0.8759689927101135 0.18867045640945435
0.06976747512817383 -0.8759689927101135 0.21942225098609924
0.06976747512817383 -0.8759690523147583 0.247709721326828
0.06976747512817383 -0.8759689927101135 0.2822910249233246
0.06976747512817383 -0.8759689927101135 0.3301159143447876
0.06976747512817383 -0.8604651093482971 -0.21300256252288818
0.06976747512817383 -0.8604650497436523 -0.15106600522994995
0.06976747512817383 -0.8604650497436523 0.1339302510023117
0.06976747512817383 -0.8604651093482971 0.1753997504711151
0.06976747512817383 -0.8604651093482971 0.22459003329277039
0.06976747512817383 -0.8604650497436523 0.24582576751708984
0.06976747512817383 -0.8604651093482971 0.2819689214229584
0.06976747512817383 -0.8604651093482971 0.33089035749435425
0.06976747512817383 -0.8449612259864807 -0.21305689215660095
0.06976747512817383 -0.8449612259864807 -0.15901833772659302
0.06976747512817383 -0.8449612259864807 0.14580821990966797
0.06976747512817383 -0.8449611663818359 0.16353018581867218
0.06976747512817383 -0.8449612259864807 0.28330835700035095
0.06976747512817383 -0.8449612259864807 0.3313639760017395
0.06976747512817383 -0.8294573426246643 -0.21358680725097656
0.06976747512817383 -0.8294573426246643 -0.16405729949474335
0.06976747512817383 -0.8294573426246643 0.2846018075942993
0.06976747512817383 -0.8294573426246643 0.33160069584846497
0.06976747512817383 -0.8139535188674927 -0.21468302607536316
0.06976747512817383 -0.8139535188674927 -0.16689087450504303
0.06976747512817383 -0.8139535188674927 0.2862047553062439
0.06976747512817383 -0.8139535188674927 0.33165764808654785
0.06976747512817383 -0.7984496355056763 -0.2160172015428543
0.06976747512817383 -0.7984496355056763 -0.16935309767723083
0.06976747512817383 -0.7984496355056763 0.2877989709377289
0.06976747512817383 -0.7984496355056763 0.3316550850868225
0.06976747512817383 -0.7829457521438599 -0.21685007214546204
0.06976747512817383 -0.7829457521438599 -0.17027032375335693
0.06976747512817383 -0.7829458117485046 0.28822067379951477
0.06976747512817383 -0.7829457521438599 0.3316909074783325
0.06976747512817383 -0.7674418687820435 -0.2169027030467987
0.06976747512817383 -0.7674418687820435 -0.17069709300994873
0.06976747512817383 -0.7674418687820435 0.2891870439052582
0.06976747512817383 -0.7674418687820435 0.331691175699234
0.06976747512817383 -0.751937985420227 -0.21576067805290222
0.06976747512817383 -0.751937985420227 -0.1689777374267578
0.06976747512817383 -0.751937985420227 0.2899407148361206
0.06976747512817383 -0.751937985420227 0.33173325657844543
0.06976747512817383 -0.7364341020584106 -0.21396774053573608
0.06976747512817383 -0.7364341020584106 -0.17032171785831451
0.06976747512817383 -0.7364341020584106 0.29103532433509827
0.06976747512817383 -0.7364341020584106 0.3318457007408142
0.06976747512817383 -0.7209302186965942 -0.2129073441028595
0.06976747512817383 -0.7209302186965942 -0.18064303696155548
0.06976747512817383 -0.7209302186965942 0.2923165261745453
0.06976747512817383 -0.7209302186965942 0.33215397596359253
0.06976747512817383 -0.7054263353347778 -0.2126462310552597
0.06976747512817383 -0.7054263353347778 -0.18118420243263245
0.06976747512817383 -0.7054263353347778 0.2934038043022156
0.06976747512817383 -0.7054263353347778 0.33249640464782715
0.06976747512817383 -0.6899224519729614 -0.21225181221961975
0.06976747512817383 -0.6899224519729614 -0.17883743345737457
0.06976747512817383 -0.6899224519729614 0.29396530985832214
0.06976747512817383 -0.6899224519729614 0.33280909061431885
0.06976747512817383 -0.674418568611145 -0.21184858679771423
0.06976747512817383 -0.674418568611145 -0.17817296087741852
0.06976747512817383 -0.674418568611145 0.29450875520706177
0.06976747512817383 -0.674418568611145 0.33299651741981506
0.06976747512817383 -0.6589146852493286 -0.21181124448776245
0.06976747512817383 -0.6589146852493286 -0.1803862750530243
0.06976747512817383 -0.6589146852493286 0.2951991856098175
0.06976747512817383 -0.6589146852493286 0.3330470025539398
0.06976747512817383 -0.643410861492157 -0.21187329292297363
0.06976747512817383 -0.643410861492157 -0.18196909129619598
0.06976747512817383 -0.643410861492157 0.29506680369377136
0.06976747512817383 -0.643410861492157 0.3327983319759369
0.06976747512817383 -0.6279069781303406 -0.21208366751670837
0.06976747512817383 -0.6279069781303406 -0.18482622504234314
0.06976747512817383 -0.6279069781303406 0.2949240207672119
0.06976747512817383 -0.6279069781303406 0.33250629901885986
0.06976747512817383 -0.6124030947685242 -0.21257121860980988
0.06976747512817383 -0.6124030947685242 -0.18669816851615906
0.06976747512817383 -0.6124030947685242 0.29484766721725464
0.06976747512817383 -0.6124030947685242 0.33238932490348816
0.06976747512817383 -0.5968992114067078 -0.21321535110473633
0.06976747512817383 -0.596899151802063 -0.18708255887031555
0.06976747512817383 -0.5968992114067078 0.29493045806884766
0.06976747512817383 -0.5968992114067078 0.33218929171562195
0.06976747512817383 -0.5813953876495361 -0.21434476971626282
0.06976747512817383 -0.5813953876495361 -0.18505117297172546
0.06976747512817383 -0.5813953876495361 0.29500776529312134
0.06976747512817383 -0.5813953876495361 0.3324253559112549
0.06976747512817383 -0.5658915042877197 -0.2160385400056839
0.06976747512817383 -0.5658915042877197 -0.18443545699119568
0.06976747512817383 -0.5658915042877197 0.2953208088874817
0.06976747512817383 -0.5658915042877197 0.3329038918018341
0.06976747512817383 -0.5503876209259033 -0.2161642611026764
0.06976747512817383 -0.5503876209259033 -0.1897553950548172
0.06976747512817383 -0.5503876209259033 0.2957598567008972
0.06976746767759323 -0.5503876209259033 0.33339211344718933
0.06976747512817383 -0.5348837375640869 -0.21491512656211853
0.06976747512817383 -0.5348837375640869 -0.19597157835960388
0.06976747512817383 -0.5348837375640869 0.2956490218639374
0.06976747512817383 -0.5348837375640869 0.33360394835472107
0.06976747512817383 -0.5193798542022705 -0.2167809009552002
0.06976747512817383 -0.5193798542022705 -0.1928796023130417
0.06976747512817383 -0.5193798542022705 0.29589948058128357
0.06976747512817383 -0.5193798542022705 0.33370688557624817
0.06976747512817383 -0.5038759708404541 -0.2196524441242218
0.06976747512817383 -0.5038759708404541 -0.18821680545806885
0.06976747512817383 -0.5038759708404541 0.29659685492515564
0.06976747512817383 -0.5038759708404541 0.33366355299949646
0.06976747512817383 -0.4883720874786377 -0.21951115131378174
0.06976747512817383 -0.4883720874786377 -0.1868552714586258
0.06976747512817383 -0.4883720874786377 0.29718145728111267
0.06976746767759323 -0.4883720576763153 0.3337470591068268
0.06976747512817383 -0.4728682041168213 -0.21892723441123962
0.06976747512817383 -0.4728682041168213 -0.18740129470825195
0.06976747512817383 -0.4728682041168213 0.2974448800086975
0.06976747512817383 -0.4728681743144989 0.3338543474674225
0.06976747512817383 -0.4573643207550049 -0.21889153122901917
0.06976747512817383 -0.45736435055732727 -0.18823941051959991
0.06976747512817383 -0.4573643207550049 0.2974523603916168
0.06976747512817383 -0.4573643207550049 0.3338870406150818
0.06976747512817383 -0.4418604373931885 -0.2191755771636963
0.06976747512817383 -0.4418604373931885 -0.1876445710659027
0.06976747512817383 -0.4418604373931885 0.2976094186306
0.06976746767759323 -0.4418604373931885 0.33393141627311707
0.06976747512817383 -0.42635661363601685 -0.21992579102516174
0.06976747512817383 -0.42635661363601685 -0.18680289387702942
0.06976747512817383 -0.42635661363601685 0.29754573106765747
0.06976748257875443 -0.42635664343833923 0.3338961899280548
0.06976747512817383 -0.41085273027420044 -0.2205117791891098
0.06976747512817383 -0.41085273027420044 -0.18617624044418335
0.06976747512817383 -0.41085273027420044 0.29766523838043213
0.06976747512817383 -0.41085273027420044 0.3338269591331482
0.06976747512817383 -0.39534884691238403 -0.2199089527130127
0.06976747512817383 -0.39534884691238403 -0.18541036546230316
0.06976747512817383 -0.39534884691238403 0.29775160551071167
0.06976746767759323 -0.39534884691238403 0.3337297737598419
0.06976747512817383 -0.3798449635505676 -0.22045201063156128
0.06976747512817383 -0.3798449635505676 -0.1849806308746338
0.06976747512817383 -0.3798449635505676 0.2982040345668793
0.06976748257875443 -0.37984499335289 0.33381187915802
0.06976747512817383 -0.3643410801887512 -0.2212820053100586
0.06976747512817383 -0.3643410801887512 -0.18457327783107758
0.06976747512817383 -0.3643410801887512 0.2984408438205719
0.06976747512817383 -0.36434105038642883 0.3339233994483948
0.06976747512817383 -0.3488371968269348 -0.2209111750125885
0.06976747512817383 -0.3488371968269348 -0.18363621830940247
0.06976747512817383 -0.3488371968269348 0.2983853816986084
0.06976747512817383 -0.3488371968269348 0.3339478671550751
0.06976747512817383 -0.3333333134651184 -0.22057048976421356
0.06976747512817383 -0.3333333134651184 -0.1829875409603119
0.06976747512817383 -0.3333333134651184 0.29852139949798584
0.06976747512817383 -0.3333333134651184 0.334005743265152
0.06976747512817383 -0.317829430103302 -0.22052475810050964
0.06976747512817383 -0.317829430103302 -0.1824200600385666
0.06976747512817383 -0.317829430103302 0.2985677719116211
0.06976747512817383 -0.317829430103302 0.3341485261917114
0.06976747512817383 -0.30232560634613037 -0.22094424068927765
0.06976747512817383 -0.30232560634613037 -0.18260814249515533
0.06976747512817383 -0.30232560634613037 0.298450767993927
0.06976747512817383 -0.30232560634613037 0.33425262570381165
0.06976747512817383 -0.28682172298431396 -0.22168338298797607
0.06976747512817383 -0.28682172298431396 -0.1831030249595642
0.06976747512817383 -0.28682172298431396 0.29800111055374146
0.06976747512817383 -0.28682172298431396 0.3342898190021515
0.06976747512817383 -0.27131783962249756 -0.22227729856967926
0.06976747512817383 -0.27131783962249756 -0.18337482213974
0.06976747512817383 -0.27131783962249756 0.2972700595855713
0.06976747512817383 -0.27131783962249756 0.3342522978782654
0.06976747512817383 -0.25581395626068115 -0.2223896086215973
0.06976747512817383 -0.25581395626068115 -0.1831728219985962
0.06976747512817383 -0.25581395626068115 0.296489953994751
0.06976747512817383 -0.25581395626068115 0.33422330021858215
0.06976747512817383 -0.24031007289886475 -0.22239339351654053
0.06976747512817383 -0.24031007289886475 -0.1827792078256607
0.06976747512817383 -0.24031007289886475 0.29580676555633545
0.06976747512817383 -0.24031007289886475 0.3342326283454895
0.06976747512817383 -0.22480618953704834 -0.22242143750190735
0.06976747512817383 -0.22480618953704834 -0.18166318535804749
0.06976747512817383 -0.22480618953704834 0.2950431704521179
0.06976747512817383 -0.22480618953704834 0.33423689007759094
0.06976747512817383 -0.20930230617523193 -0.22242045402526855
0.06976747512817383 -0.20930230617523193 -0.17825432121753693
0.06976747512817383 -0.20930230617523193 0.2944646179676056
0.06976747512817383 -0.20930230617523193 0.3342379331588745
0.06976747512817383 -0.19379840791225433 -0.2223062515258789
0.06976747512817383 -0.19379842281341553 -0.1737779676914215
0.06976747512817383 -0.19379842281341553 0.2942540645599365
0.06976747512817383 -0.19379842281341553 0.3343711495399475
0.06976747512817383 -0.1782945990562439 -0.22249487042427063
0.06976747512817383 -0.1782945990562439 -0.16845831274986267
0.06976747512817383 -0.1782945990562439 0.2938889265060425
0.06976748257875443 -0.1782945990562439 0.33445146679878235
0.06976747512817383 -0.1627907156944275 -0.22335831820964813
0.06976747512817383 -0.1627907156944275 -0.16475491225719452
0.06976747512817383 -0.1627907156944275 0.293449729681015
0.06976747512817383 -0.1627907156944275 0.3344331681728363
0.06976747512817383 -0.14728683233261108 -0.22450074553489685
0.06976747512817383 -0.14728683233261108 -0.16395795345306396
0.06976747512817383 -0.14728683233261108 0.29304778575897217
0.06976747512817383 -0.14728683233261108 0.33449724316596985
0.06976747512817383 -0.13178294897079468 -0.22506888210773468
0.06976747512817383 -0.13178294897079468 -0.1647370606660843
0.06976747512817383 -0.13178294897079468 0.29274043440818787
0.06976747512817383 -0.13178294897079468 0.33451664447784424
0.06976747512817383 -0.11627906560897827 -0.22523364424705505
0.06976747512817383 -0.11627906560897827 -0.166221022605896
0.06976747512817383 -0.11627906560897827 0.29280489683151245
0.06976747512817383 -0.11627907305955887 0.33458107709884644
0.06976747512817383 -0.10077518224716187 -0.225041463971138
0.06976747512817383 -0.10077518224716187 -0.16745378077030182
0.06976747512817383 -0.10077518224716187 0.2931191325187683
0.06976747512817383 -0.10077518224716187 0.3346787989139557
0.06976747512817383 -0.08527129888534546 -0.2249269038438797
0.06976747512817383 -0.08527129888534546 -0.16880019009113312
0.06976747512817383 -0.08527129888534546 0.29309582710266113
0.06976747512817383 -0.08527129888534546 0.33475950360298157
0.06976747512817383 -0.06976742297410965 -0.22467182576656342
0.06976747512817383 -0.06976741552352905 -0.16950824856758118
0.06976747512817383 -0.06976741552352905 0.29293882846832275
0.06976747512817383 -0.06976741552352905 0.33478111028671265
0.06976747512817383 -0.05426359176635742 -0.22427886724472046
0.06976747512817383 -0.05426359176635742 -0.16984842717647552
0.06976747512817383 -0.05426359176635742 0.2928062379360199
0.06976747512817383 -0.05426359176635742 0.33482474088668823
0.06976747512817383 -0.038759708404541016 -0.22441647946834564
0.06976747512817383 -0.038759708404541016 -0.16986680030822754
0.06976747512817383 -0.038759708404541016 0.2926900386810303
0.06976747512817383 -0.038759708404541016 0.3347919285297394
0.06976746767759323 -0.02325582318007946 -0.2245434820652008
0.06976747512817383 -0.02325582504272461 -0.16987088322639465
0.06976747512817383 -0.02325582504272461 0.2926141023635864
0.06976746767759323 -0.02325582504272461 0.3348168730735779
0.06976747512817383 -0.007751941680908203 -0.22420737147331238
0.06976747512817383 -0.007751941680908203 -0.1681348830461502
0.06976747512817383 -0.007751941215246916 0.29257896542549133
0.06976747512817383 -0.007751941680908203 0.33483630418777466
0.06976747512817383 0.007751941680908203 -0.22336821258068085
0.06976747512817383 0.007751941680908203 -0.16716068983078003
0.06976747512817383 0.007751941680908203 0.29261118173599243
0.06976747512817383 0.007751941680908203 0.33484888076782227
0.06976747512817383 0.02325582504272461 -0.22264328598976135
0.06976747512817383 0.02325582504272461 -0.1665690541267395
0.06976747512817383 0.02325582504272461 0.2925049662590027
0.06976747512817383 0.02325582504272461 0.33485934138298035
0.06976747512817383 0.038759708404541016 -0.221542090177536
0.06976747512817383 0.038759708404541016 -0.16734349727630615
0.06976747512817383 0.038759708404541016 0.29270994663238525
0.06976747512817383 0.038759708404541016 0.3348909616470337
0.06976747512817383 0.05426358804106712 -0.22127805650234222
0.06976747512817383 0.05426359176635742 -0.1690729260444641
0.06976747512817383 0.05426359549164772 0.29327428340911865
0.06976747512817383 0.05426359176635742 0.3349572718143463
0.06976747512817383 0.06976747512817383 -0.22109344601631165
0.06976747512817383 0.06976747512817383 -0.17136400938034058
0.06976747512817383 0.06976747512817383 0.2936810255050659
0.06976747512817383 0.06976747512817383 0.33502328395843506
0.06976747512817383 0.08527135848999023 -0.22102640569210052
0.06976747512817383 0.08527135848999023 -0.17324702441692352
0.06976747512817383 0.08527135848999023 0.2938390374183655
0.06976747512817383 0.08527135848999023 0.33505967259407043
0.06976747512817383 0.10077524185180664 -0.221144437789917
0.06976747512817383 0.10077524185180664 -0.17426155507564545
0.06976747512817383 0.10077524185180664 0.29391229152679443
0.06976747512817383 0.10077524185180664 0.3350578844547272
0.06976747512817383 0.11627912521362305 -0.22115543484687805
0.06976747512817383 0.11627912521362305 -0.17475128173828125
0.06976747512817383 0.11627912521362305 0.29378095269203186
0.06976747512817383 0.11627912521362305 0.33502644300460815
0.06976747512817383 0.1317828893661499 -0.22092080116271973
0.06976747512817383 0.1317828893661499 -0.17457954585552216
0.06976747512817383 0.1317828893661499 0.2935868799686432
0.06976747512817383 0.1317828893661499 0.3349396884441376
0.06976747512817383 0.1472867727279663 -0.22080901265144348
0.06976747512817383 0.1472867727279663 -0.17423272132873535
0.06976747512817383 0.1472867727279663 0.2934454679489136
0.06976747512817383 0.1472867727279663 0.33486253023147583
0.06976747512817383 0.16279065608978271 -0.22088748216629028
0.06976747512817383 0.16279065608978271 -0.17395097017288208
0.06976747512817383 0.16279065608978271 0.29343634843826294
0.06976747512817383 0.16279065608978271 0.334800124168396
0.06976747512817383 0.17829453945159912 -0.22093163430690765
0.06976747512817383 0.17829453945159912 -0.17316338419914246
0.06976747512817383 0.17829453945159912 0.2934735417366028
0.06976747512817383 0.17829453945159912 0.33478084206581116
0.06976747512817383 0.19379842281341553 -0.220853790640831
0.06976747512817383 0.19379842281341553 -0.1719321757555008
0.06976747512817383 0.19379842281341553 0.2937542200088501
0.06976747512817383 0.19379843771457672 0.3347981572151184
0.06976747512817383 0.20930230617523193 -0.22081437706947327
0.06976747512817383 0.20930230617523193 -0.17022323608398438
0.06976747512817383 0.20930230617523193 0.293911874294281
0.06976747512817383 0.20930230617523193 0.33482348918914795
0.06976747512817383 0.22480618953704834 -0.2209526002407074
0.06976747512817383 0.22480618953704834 -0.16916918754577637
0.06976747512817383 0.22480618953704834 0.2943045496940613
0.06976747512817383 0.22480618953704834 0.3348311185836792
0.06976747512817383 0.24031005799770355 -0.2210598886013031
0.06976747512817383 0.24031007289886475 -0.16912321746349335
0.06976747512817383 0.24031007289886475 0.2947876453399658
0.06976747512817383 0.24031007289886475 0.33494284749031067
0.06976747512817383 0.25581395626068115 -0.2211916148662567
0.06976747512817383 0.25581395626068115 -0.16957706212997437
0.06976747512817383 0.25581395626068115 0.29512515664100647
0.06976747512817383 0.25581395626068115 0.3349885046482086
0.06976747512817383 0.27131783962249756 -0.22114622592926025
0.06976747512817383 0.27131783962249756 -0.17112883925437927
0.06976747512817383 0.27131783962249756 0.295716792345047
0.06976747512817383 0.27131783962249756 0.3350493609905243
0.06976747512817383 0.28682172298431396 -0.22076939046382904
0.06976747512817383 0.28682172298431396 -0.1723819375038147
0.06976747512817383 0.28682172298431396 0.296260267496109
0.06976747512817383 0.28682172298431396 0.33511704206466675
0.06976747512817383 0.30232560634613037 -0.22047244012355804
0.06976747512817383 0.30232560634613037 -0.17347727715969086
0.06976747512817383 0.30232560634613037 0.2961767911911011
0.06976747512817383 0.30232560634613037 0.3350527286529541
0.06976747512817383 0.3178294897079468 -0.2199411690235138
0.06976747512817383 0.3178294897079468 -0.17475420236587524
0.06976747512817383 0.3178294897079468 0.29619407653808594
0.06976747512817383 0.3178294897079468 0.3349496126174927
0.06976747512817383 0.3333333730697632 -0.21903693675994873
0.06976747512817383 0.3333333730697632 -0.176486998796463
0.06976747512817383 0.3333333730697632 0.29653626680374146
0.06976747512817383 0.3333333730697632 0.3348369300365448
0.06976747512817383 0.3488372564315796 -0.21828868985176086
0.06976747512817383 0.3488372564315796 -0.17854256927967072
0.06976747512817383 0.3488372564315796 0.296783983707428
0.06976747512817383 0.3488372564315796 0.3346571624279022
0.06976747512817383 0.364341139793396 -0.21727046370506287
0.06976747512817383 0.364341139793396 -0.18113639950752258
0.06976747512817383 0.364341139793396 0.29705551266670227
0.06976747512817383 0.364341139793396 0.3344292640686035
0.06976747512817383 0.37984490394592285 -0.21607288718223572
0.06976747512817383 0.37984490394592285 -0.18259888887405396
0.06976747512817383 0.37984490394592285 0.29726117849349976
0.06976747512817383 0.37984490394592285 0.3342771828174591
0.06976747512817383 0.39534878730773926 -0.21485796570777893
0.06976747512817383 0.39534878730773926 -0.1835906058549881
0.06976747512817383 0.39534878730773926 0.2973887324333191
0.06976747512817383 0.39534878730773926 0.33411237597465515
0.06976747512817383 0.41085267066955566 -0.21336729824543
0.06976747512817383 0.41085267066955566 -0.18364793062210083
0.06976747512817383 0.41085267066955566 0.29724830389022827
0.06976747512817383 0.41085267066955566 0.3340294361114502
0.06976747512817383 0.42635655403137207 -0.2118045538663864
0.06976747512817383 0.42635655403137207 -0.18448153138160706
0.06976747512817383 0.42635655403137207 0.297185480594635
0.06976747512817383 0.42635655403137207 0.33400607109069824
0.06976747512817383 0.4418604373931885 -0.21126289665699005
0.06976747512817383 0.4418604373931885 -0.18727290630340576
0.06976747512817383 0.4418604373931885 0.29744166135787964
0.06976747512817383 0.4418604373931885 0.33405911922454834
0.06976747512817383 0.4573643207550049 -0.21158601343631744
0.06976747512817383 0.4573643207550049 -0.19004026055335999
0.06976747512817383 0.4573643207550049 0.29765528440475464
0.06976747512817383 0.4573643207550049 0.3341427445411682
0.06976747512817383 0.4728682041168213 -0.21167153120040894
0.06976747512817383 0.4728682041168213 -0.192654088139534
0.06976747512817383 0.4728682041168213 0.2977258861064911
0.06976747512817383 0.4728682041168213 0.33419355750083923
0.06976747512817383 0.4883720874786377 -0.21086257696151733
0.06976747512817383 0.4883720874786377 -0.20180141925811768
0.06976747512817383 0.4883720874786377 0.29790234565734863
0.06976747512817383 0.4883720874786377 0.33418014645576477
0.06976747512817383 0.5038759708404541 0.2976039946079254
0.06976747512817383 0.5038759708404541 0.33409449458122253
0.06976747512817383 0.5193798542022705 0.29727476835250854
0.06976747512817383 0.5193798542022705 0.3339567184448242
0.06976747512817383 0.5348837375640869 0.296734482049942
0.06976747512817383 0.5348837971687317 0.333753377199173
0.06976747512817383 0.5503876209259033 0.29648280143737793
0.06976747512817383 0.5503876209259033 0.3335961103439331
0.06976747512817383 0.5658915042877197 -0.20949560403823853
0.06976747512817383 0.5658915042877197 -0.1913565993309021
0.06976747512817383 0.5658915042877197 0.2958921194076538
0.06976747512817383 0.5658915042877197 0.3334634304046631
0.06976747512817383 0.5813953876495361 -0.21108852326869965
0.06976747512817383 0.5813953876495361 -0.18207548558712006
0.06976747512817383 0.5813953876495361 0.2954550087451935
0.06976747512817383 0.5813953280448914 0.3333701491355896
0.06976747512817383 0.5968992710113525 -0.2120654135942459
0.06976747512817383 0.5968992710113525 -0.17056138813495636
0.06976747512817383 0.5968992710113525 0.2951343059539795
0.06976747512817383 0.5968992710113525 0.3330056369304657
0.06976747512817383 0.612403154373169 -0.212360680103302
0.06976747512817383 0.612403154373169 -0.16654963791370392
0.06976747512817383 0.612403154373169 0.295005738735199
0.06976747512817383 0.612403154373169 0.33279654383659363
0.06976747512817383 0.6279069185256958 -0.2123134732246399
0.06976747512817383 0.6279069185256958 -0.16675613820552826
0.06976747512817383 0.6279069185256958 0.29485464096069336
0.06976747512817383 0.6279069185256958 0.332852840423584
0.06976747512817383 0.6434108018875122 -0.2122502624988556
0.06976747512817383 0.6434108018875122 -0.1686995029449463
0.06976747512817383 0.6434108018875122 0.2947300672531128
0.06976747512817383 0.6434108018875122 0.33306968212127686
0.06976747512817383 0.6589146852493286 -0.2124381959438324
0.06976747512817383 0.6589146852493286 -0.17003095149993896
0.06976747512817383 0.6589146852493286 0.2952588200569153
0.06976747512817383 0.6589146852493286 0.33319613337516785
0.06976747512817383 0.674418568611145 -0.212688148021698
0.06976747512817383 0.674418568611145 -0.1690678894519806
0.06976747512817383 0.674418568611145 0.29525309801101685
0.06976747512817383 0.674418568611145 0.33338916301727295
0.06976747512817383 0.6899224519729614 -0.21286597847938538
0.06976747512817383 0.6899224519729614 -0.1679079830646515
0.06976747512817383 0.6899224519729614 0.29495489597320557
0.06976747512817383 0.6899224519729614 0.33341121673583984
0.06976747512817383 0.7054263353347778 -0.21295373141765594
0.06976747512817383 0.7054263353347778 -0.16784320771694183
0.06976747512817383 0.7054263353347778 0.2943947911262512
0.06976747512817383 0.7054263353347778 0.3333623707294464
0.06976747512817383 0.7209302186965942 -0.21296310424804688
0.06976747512817383 0.7209302186965942 -0.16845956444740295
0.06976747512817383 0.7209302186965942 0.2933974266052246
0.06976747512817383 0.7209302186965942 0.3332847058773041
0.06976747512817383 0.7364341020584106 -0.21293944120407104
0.06976747512817383 0.7364341020584106 -0.17110604047775269
0.06976747512817383 0.7364341020584106 0.2921445965766907
0.06976747512817383 0.7364341020584106 0.33320844173431396
0.06976747512817383 0.751937985420227 -0.21288280189037323
0.06976747512817383 0.751937985420227 -0.17535217106342316
0.06976747512817383 0.751937985420227 0.29076942801475525
0.06976747512817383 0.751937985420227 0.333119660615921
0.06976747512817383 0.7674418687820435 -0.21258629858493805
0.06976747512817383 0.7674418687820435 -0.17770171165466309
0.06976747512817383 0.7674418687820435 0.28930994868278503
0.06976747512817383 0.7674418687820435 0.3330448269844055
0.06976747512817383 0.7829457521438599 -0.21198102831840515
0.06976747512817383 0.7829457521438599 -0.1765533685684204
0.06976747512817383 0.7829456925392151 0.28754663467407227
0.06976747512817383 0.7829457521438599 0.33305293321609497
0.06976747512817383 0.7984496355056763 -0.21122807264328003
0.06976747512817383 0.7984496355056763 -0.1728443205356598
0.06976747512817383 0.7984496355056763 0.28599098324775696
0.06976747512817383 0.7984496355056763 0.33298778533935547
0.06976747512817383 0.8139535188674927 -0.21038560569286346
0.06976747512817383 0.8139535188674927 -0.16885793209075928
0.06976747512817383 0.8139535188674927 0.0900009423494339
0.06976747512817383 0.8139535784721375 0.10517614334821701
0.06976747512817383 0.8139535188674927 0.28436392545700073
0.06976747512817383 0.8139535188674927 0.3331175148487091
0.06976747512817383 0.8294574022293091 -0.2096601277589798
0.06976747512817383 0.8294574022293091 -0.1654154509305954
0.06976747512817383 0.8294574022293091 0.0866004079580307
0.06976747512817383 0.8294574022293091 0.11090599000453949
0.06976747512817383 0.8294574022293091 0.28264927864074707
0.06976747512817383 0.8294574022293091 0.3332597017288208
0.06976747512817383 0.8449612855911255 -0.20874156057834625
0.06976747512817383 0.8449612855911255 -0.16317851841449738
0.06976747512817383 0.8449612855911255 0.0886322557926178
0.06976747512817383 0.8449612855911255 0.1095685064792633
0.06976747512817383 0.8449612855911255 0.28092023730278015
0.06976747512817383 0.8449612855911255 0.3334082067012787
0.06976747512817383 0.8604651689529419 -0.20710980892181396
0.06976747512817383 0.8604651689529419 -0.1602742224931717
0.06976747512817383 0.8604651689529419 0.08282442390918732
0.06976747512817383 0.8604651689529419 0.1093120127916336
0.06976747512817383 0.8604651689529419 0.27708080410957336
0.06976747512817383 0.8604651689529419 0.3334202170372009
0.06976747512817383 0.8759689331054688 -0.20636186003684998
0.06976747512817383 0.8759689331054688 -0.1589154750108719
0.06976747512817383 0.8759689331054688 0.07489621639251709
0.06976747512817383 0.8759689331054688 0.10702332109212875
0.06976747512817383 0.8759689331054688 0.2725292444229126
0.06976747512817383 0.8759689331054688 0.3333466947078705
0.06976747512817383 0.8914728760719299 -0.20619705319404602
0.06976747512817383 0.8914728164672852 -0.1560310572385788
0.06976747512817383 0.8914728164672852 0.06523754447698593
