-0.9379844665527344 -0.1627907156944275 -0.13178737461566925
-0.9379844665527344 -0.14728683233261108 -0.14899806678295135
-0.9379844665527344 -0.14728683233261108 -0.13294526934623718
-0.9379844665527344 -0.08527129888534546 -0.1320999711751938
-0.9379844665527344 -0.08527130633592606 -0.1292354315519333
-0.9379844665527344 -0.06976741552352905 -0.13414810597896576
-0.9379844665527344 -0.06976741552352905 -0.11769942939281464
-0.9379844665527344 -0.05426359176635742 -0.13660798966884613
-0.9379844665527344 -0.05426359176635742 -0.11193244904279709
-0.9379844665527344 -0.038759708404541016 -0.13867279887199402
-0.9379844665527344 -0.038759708404541016 -0.10518310964107513
-0.9379844665527344 -0.02325582504272461 -0.14059382677078247
-0.9379844665527344 -0.02325582504272461 -0.09784610569477081
-0.9379845261573792 -0.00775194214656949 -0.14180460572242737
-0.9379844665527344 -0.007751941680908203 -0.0918714627623558
-0.9379844665527344 0.007751941680908203 -0.14120405912399292
-0.9379844665527344 0.007751941680908203 -0.09149854630231857
-0.9379844665527344 0.02325582504272461 -0.13889682292938232
-0.9379844665527344 0.02325582504272461 -0.0860474482178688
-0.9379844665527344 0.038759708404541016 -0.13636988401412964
-0.9379844665527344 0.038759708404541016 -0.10056901723146439
-0.9379844665527344 0.05426359176635742 -0.13445280492305756
-0.9379844665527344 0.05426359176635742 -0.1099778264760971
-0.9379844665527344 0.06976747512817383 -0.13313977420330048
-0.9379844665527344 0.06976747512817383 -0.11751598119735718
-0.9379844665527344 0.08527135848999023 -0.13226327300071716
-0.9379844665527344 0.08527135848999023 -0.12676624953746796
-0.9379844665527344 0.10077524185180664 -0.13253991305828094
-0.9379844665527344 0.10077524185180664 -0.12699177861213684
-0.9379844665527344 0.11627912521362305 -0.1348651796579361
-0.9379844665527344 0.11627912521362305 -0.12213097512722015
-0.9379844665527344 0.1317828893661499 -0.14356514811515808
-0.9379844665527344 0.1317828893661499 -0.119605652987957
-0.9379844665527344 0.1472867727279663 -0.14899569749832153
-0.9379844665527344 0.1472867727279663 -0.11967381834983826
-0.9379844665527344 0.16279065608978271 -0.151231586933136
-0.9379844665527344 0.16279065608978271 -0.12005353718996048
-0.9379844665527344 0.17829453945159912 -0.1525987833738327
-0.9379844665527344 0.17829453945159912 -0.11927296966314316
-0.9224807024002075 -0.19379842281341553 -0.14841137826442719
-0.9224807024002075 -0.19379842281341553 -0.13764134049415588
-0.9224806427955627 -0.19379842281341553 -0.11550623178482056
-0.9224807024002075 -0.19379842281341553 -0.06506223976612091
-0.922480583190918 -0.1782945990562439 -0.15102744102478027
-0.922480583190918 -0.1782945990562439 0.048581063747406006
-0.9224806427955627 -0.1627907156944275 -0.14860841631889343
-0.922480583190918 -0.1627907156944275 0.0435945987701416
-0.9224807024002075 -0.14728683233261108 -0.14210399985313416
-0.9224807024002075 -0.14728684723377228 0.040886033326387405
-0.9224806427955627 -0.13178294897079468 -0.1387448012828827
-0.9224806427955627 -0.13178294897079468 0.04028841853141785
-0.922480583190918 -0.11627906560897827 -0.1371954083442688
-0.9224806427955627 -0.11627906560897827 0.03989988565444946
-0.9224806427955627 -0.10077518224716187 -0.13647271692752838
-0.922480583190918 -0.10077518224716187 0.03916722536087036
-0.9224806427955627 -0.08527129888534546 -0.1361510455608368
-0.9224806427955627 -0.08527129888534546 0.040252383798360825
-0.9224806427955627 -0.06976741552352905 -0.13641329109668732
-0.9224806427955627 -0.06976741552352905 0.04017643257975578
-0.9224806427955627 -0.05426359176635742 -0.13695837557315826
-0.9224806427955627 -0.05426359176635742 0.04036042466759682
-0.9224807024002075 -0.038759708404541016 -0.1373278945684433
-0.9224806427955627 -0.03875970467925072 0.04082149267196655
-0.922480583190918 -0.02325582504272461 -0.13765308260917664
-0.9224806427955627 -0.02325582504272461 0.04283341020345688
-0.9224806427955627 -0.007751941680908203 -0.13777732849121094
-0.922480583190918 -0.007751941215246916 0.04622701555490494
-0.9224806427955627 0.007751941680908203 -0.1374453902244568
-0.9224806427955627 0.007751941680908203 0.04750773310661316
-0.9224806427955627 0.02325582504272461 -0.13672612607479095
-0.9224807024002075 0.02325582504272461 0.0497610941529274
-0.9224806427955627 0.038759708404541016 -0.13603588938713074
-0.9224806427955627 0.038759708404541016 0.05094631016254425
-0.9224806427955627 0.05426359176635742 -0.1355874240398407
-0.9224807024002075 0.05426359176635742 0.051614418625831604
-0.9224807024002075 0.06976747512817383 -0.13535158336162567
-0.9224806427955627 0.06976747512817383 0.05122074857354164
-0.9224806427955627 0.08527135848999023 -0.1354537010192871
-0.9224806427955627 0.08527135848999023 0.05039316415786743
-0.9224806427955627 0.10077524185180664 -0.13642120361328125
-0.9224806427955627 0.10077524185180664 0.04777047783136368
-0.9224806427955627 0.11627912521362305 -0.13840699195861816
-0.9224806427955627 0.11627912521362305 0.044274136424064636
-0.9224807024002075 0.1317828893661499 -0.1411026269197464
-0.9224806427955627 0.1317828893661499 0.04143872484564781
-0.9224806427955627 0.1472867727279663 -0.1462630331516266
-0.9224807024002075 0.1472867727279663 0.04089580476284027
-0.9224806427955627 0.16279065608978271 -0.14961735904216766
-0.9224807024002075 0.16279065608978271 0.043905775994062424
-0.9224807024002075 0.17829453945159912 -0.15096984803676605
-0.9224806427955627 0.17829453945159912 0.04758729040622711
-0.9069767594337463 -0.19379842281341553 -0.14796383678913116
-0.9069767594337463 -0.19379842281341553 -0.12162362784147263
-0.9069767594337463 -0.19379842281341553 0.004958778619766235
-0.9069766998291016 -0.19379842281341553 0.08780760318040848
-0.9069768190383911 -0.1782945990562439 -0.14975406229496002
-0.9069766998291016 -0.1782945990562439 0.12086939066648483
-0.9069767594337463 -0.1627907156944275 -0.13874173164367676
-0.9069767594337463 -0.1627907156944275 0.10923665761947632
-0.9069767594337463 -0.14728683233261108 -0.13605500757694244
-0.9069768190383911 -0.14728683233261108 0.1068621575832367
-0.9069767594337463 -0.13178294897079468 -0.1345737725496292
-0.9069768190383911 -0.13178294897079468 0.11011973023414612
-0.9069767594337463 -0.11627906560897827 -0.1333918273448944
-0.9069767594337463 -0.11627906560897827 0.11490783840417862
-0.9069767594337463 -0.10077518224716187 -0.1328842043876648
-0.9069766998291016 -0.10077517479658127 0.11805004626512527
-0.9069767594337463 -0.08527129888534546 -0.1328185498714447
-0.9069767594337463 -0.08527129888534546 0.12037515640258789
-0.9069767594337463 -0.06976741552352905 -0.1331997960805893
-0.9069766998291016 -0.06976741552352905 0.12093546241521835
-0.9069768190383911 -0.05426359176635742 -0.13359497487545013
-0.9069766998291016 -0.05426359176635742 0.12155400216579437
-0.9069766998291016 -0.038759708404541016 -0.1337299793958664
-0.9069768190383911 -0.038759708404541016 0.12206857651472092
-0.9069767594337463 -0.02325582504272461 -0.13384056091308594
-0.9069766998291016 -0.02325582504272461 0.123167023062706
-0.9069767594337463 -0.007751941680908203 -0.13391946256160736
-0.9069768190383911 -0.007751941680908203 0.12503798305988312
-0.9069767594337463 0.007751941680908203 -0.13378450274467468
-0.9069767594337463 0.007751941680908203 0.12562841176986694
-0.9069767594337463 0.02325582504272461 -0.1334238499403
-0.9069766998291016 0.02325582504272461 0.12667012214660645
-0.9069766998291016 0.038759708404541016 -0.13292193412780762
-0.9069768190383911 0.038759708404541016 0.12711875140666962
-0.9069767594337463 0.05426359176635742 -0.13249585032463074
-0.9069767594337463 0.05426359176635742 0.1272517293691635
-0.9069767594337463 0.06976747512817383 -0.13227729499340057
-0.9069767594337463 0.06976747512817383 0.1264919489622116
-0.9069767594337463 0.08527135848999023 -0.1322271227836609
-0.9069767594337463 0.08527135848999023 0.12559527158737183
-0.9069767594337463 0.10077524185180664 -0.13289585709571838
-0.9069767594337463 0.10077524185180664 0.1234990656375885
-0.9069767594337463 0.11627912521362305 -0.1343896985054016
-0.9069767594337463 0.11627912521362305 0.11989706754684448
-0.9069767594337463 0.1317828893661499 -0.1361265480518341
-0.9069767594337463 0.1317828893661499 0.11497154086828232
-0.9069766998291016 0.1472867727279663 -0.1379404515028
-0.9069767594337463 0.1472867727279663 0.1100011020898819
-0.9069766998291016 0.16279065608978271 -0.1424916684627533
-0.9069766998291016 0.16279065608978271 0.11110374331474304
-0.9069768190383911 0.17829453945159912 -0.14987371861934662
-0.9069767594337463 0.17829453945159912 0.11714915186166763
-0.8914728760719299 -0.19379842281341553 -0.14745882153511047
-0.8914729356765747 -0.19379842281341553 -0.1218702644109726
-0.8914728760719299 -0.19379842281341553 0.055563315749168396
-0.8914728760719299 -0.19379842281341553 0.16258521378040314
-0.8914728760719299 -0.1782945990562439 -0.14812758564949036
-0.8914728760719299 -0.1782945990562439 0.1872788667678833
-0.8914728760719299 -0.1627907156944275 -0.1334887146949768
-0.8914728760719299 -0.1627907156944275 0.1745845079421997
-0.8914728164672852 -0.14728683233261108 -0.12682867050170898
-0.8914729356765747 -0.14728683233261108 0.17272543907165527
-0.8914728760719299 -0.13178294897079468 -0.12276044487953186
-0.8914728760719299 -0.13178294897079468 0.17415887117385864
-0.8914729356765747 -0.11627906560897827 -0.12171143293380737
-0.8914728760719299 -0.11627906560897827 0.17619889974594116
-0.8914728164672852 -0.10077518224716187 -0.12246739119291306
-0.8914728760719299 -0.10077518224716187 0.1775754690170288
-0.8914728760719299 -0.08527129888534546 -0.12341243028640747
-0.8914728164672852 -0.08527129888534546 0.17856821417808533
-0.8914729356765747 -0.06976741552352905 -0.12506434321403503
-0.8914728760719299 -0.06976741552352905 0.17872531712055206
-0.8914728760719299 -0.05426359176635742 -0.1264306753873825
-0.8914728164672852 -0.05426359176635742 0.1792418509721756
-0.8914728760719299 -0.038759708404541016 -0.12642765045166016
-0.8914728760719299 -0.038759708404541016 0.17932073771953583
-0.8914728164672852 -0.02325582504272461 -0.1259947568178177
-0.8914728760719299 -0.02325582504272461 0.17966517806053162
-0.8914729356765747 -0.007751941680908203 -0.1252482831478119
-0.8914728760719299 -0.007751941680908203 0.1808779239654541
-0.8914728164672852 0.007751941680908203 -0.12476420402526855
-0.8914728164672852 0.007751941215246916 0.18168534338474274
-0.8914728164672852 0.02325582504272461 -0.12413285672664642
-0.8914729356765747 0.02325582690536976 0.18279078602790833
-0.8914728760719299 0.038759708404541016 -0.1233023852109909
-0.8914728760719299 0.038759708404541016 0.18331366777420044
-0.8914728760719299 0.05426359176635742 -0.12243373692035675
-0.8914729356765747 0.05426359176635742 0.18354374170303345
-0.8914729356765747 0.06976747512817383 -0.12196426093578339
-0.8914728164672852 0.06976747512817383 0.1829824149608612
-0.8914728760719299 0.08527135848999023 -0.12125134468078613
-0.8914728760719299 0.08527135848999023 0.18265467882156372
-0.8914728760719299 0.10077524185180664 -0.12181567400693893
-0.8914728760719299 0.10077524185180664 0.18190735578536987
-0.8914729356765747 0.11627912521362305 -0.12514854967594147
-0.8914728760719299 0.11627912521362305 0.18021360039710999
-0.8914729356765747 0.1317828893661499 -0.13127297163009644
-0.8914728760719299 0.1317828893661499 0.17823942005634308
-0.8914728760719299 0.1472867727279663 -0.13277806341648102
-0.8914728760719299 0.1472867727279663 0.1762363463640213
-0.8914728760719299 0.16279065608978271 -0.13470065593719482
-0.8914729356765747 0.16279065608978271 0.17882484197616577
-0.8914728760719299 0.17829453945159912 -0.14877258241176605
-0.8914729356765747 0.17829453945159912 0.19245599210262299
-0.8759690523147583 -0.19379842281341553 -0.1403820514678955
-0.8759690523147583 -0.19379842281341553 -0.12275698781013489
-0.8759689331054688 -0.19379842281341553 0.05978899449110031
-0.8759689927101135 -0.19379842281341553 0.12045463919639587
-0.8759689927101135 -0.19379842281341553 0.18570226430892944
-0.8759690523147583 -0.19379842281341553 0.19872774183750153
-0.8759689927101135 -0.1782945990562439 -0.1474122405052185
-0.8759689331054688 -0.1782945990562439 0.24224057793617249
-0.8759689927101135 -0.1627907156944275 -0.12722767889499664
-0.8759689331054688 -0.1627907156944275 0.2456221878528595
-0.8759689927101135 -0.14728683233261108 -0.11766409128904343
-0.8759690523147583 -0.14728683233261108 0.24627088010311127
-0.8759689331054688 -0.13178294897079468 -0.11505630612373352
-0.8759690523147583 -0.13178294897079468 0.24627402424812317
-0.8759689927101135 -0.11627906560897827 -0.1182078868150711
-0.8759690523147583 -0.11627907305955887 0.24643392860889435
-0.8759690523147583 -0.10077518224716187 -0.12182019650936127
-0.8759690523147583 -0.10077518224716187 0.24658533930778503
-0.8759689927101135 -0.08527129888534546 -0.12374281138181686
-0.8759690523147583 -0.08527129888534546 0.24675747752189636
-0.8759689331054688 -0.06976741552352905 -0.12568038702011108
-0.8759689331054688 -0.06976741552352905 0.24689897894859314
-0.8759689331054688 -0.05426358804106712 -0.12682807445526123
-0.8759690523147583 -0.05426359176635742 0.24713134765625
-0.8759689927101135 -0.038759708404541016 -0.12639912962913513
-0.8759690523147583 -0.038759708404541016 0.24730771780014038
-0.8759689331054688 -0.02325582504272461 -0.12522420287132263
-0.8759689927101135 -0.02325582504272461 0.24749445915222168
-0.8759689927101135 -0.007751941680908203 -0.12372657656669617
-0.8759689927101135 -0.007751941680908203 0.2476957142353058
-0.8759689927101135 0.007751941680908203 -0.12295705080032349
-0.8759689331054688 0.007751941680908203 0.24785470962524414
-0.8759689331054688 0.02325582504272461 -0.12226220965385437
-0.8759689927101135 0.02325582504272461 0.24794048070907593
-0.8759690523147583 0.038759708404541016 -0.12159185111522675
-0.8759690523147583 0.038759708404541016 0.24790114164352417
-0.8759689927101135 0.05426359176635742 -0.12053850293159485
-0.8759689331054688 0.05426359176635742 0.2478320598602295
-0.8759689331054688 0.06976747512817383 -0.11974018812179565
-0.8759690523147583 0.06976747512817383 0.247627854347229
-0.8759689927101135 0.08527135848999023 -0.11805574595928192
-0.8759689927101135 0.08527135848999023 0.24745962023735046
-0.8759689927101135 0.10077524185180664 -0.11706703901290894
-0.8759689331054688 0.10077524185180664 0.24732114374637604
-0.8759689927101135 0.11627912521362305 -0.11828720569610596
-0.8759689927101135 0.11627912521362305 0.24708408117294312
-0.8759689331054688 0.1317828893661499 -0.12029693275690079
-0.8759689927101135 0.1317828893661499 0.24693945050239563
-0.8759690523147583 0.1472867727279663 -0.12166860699653625
-0.8759689331054688 0.1472867727279663 0.24692989885807037
-0.8759690523147583 0.16279065608978271 -0.13075217604637146
-0.8759689927101135 0.16279065608978271 0.24650821089744568
-0.8759689927101135 0.17829453945159912 -0.1483585387468338
-0.8759689927101135 0.17829453945159912 0.24434733390808105
-0.8604651093482971 -0.19379842281341553 -0.13797713816165924
-0.8604651093482971 -0.19379842281341553 -0.12332530319690704
-0.8604651689529419 -0.19379842281341553 0.06719217449426651
-0.8604651093482971 -0.19379842281341553 0.12258289754390717
-0.8604651093482971 -0.1782945990562439 -0.14767314493656158
-0.8604650497436523 -0.1782945990562439 0.24351736903190613
-0.8604650497436523 -0.1627907156944275 -0.12506794929504395
-0.8604651689529419 -0.1627907156944275 0.2469787448644638
-0.8604651093482971 -0.14728683233261108 -0.11477416753768921
-0.8604651093482971 -0.14728683233261108 0.2473488301038742
-0.8604650497436523 -0.13178294897079468 -0.11703424155712128
-0.8604651093482971 -0.13178294897079468 0.24758237600326538
-0.8604651093482971 -0.11627906560897827 -0.12241890281438828
-0.8604651093482971 -0.11627906560897827 0.24773843586444855
-0.8604650497436523 -0.10077518224716187 -0.12738388776779175
-0.8604651689529419 -0.10077518224716187 0.24794945120811462
-0.8604651093482971 -0.08527129888534546 -0.12990997731685638
-0.8604651093482971 -0.08527129888534546 0.24820172786712646
-0.8604651093482971 -0.06976741552352905 -0.13184887170791626
-0.8604651093482971 -0.06976741552352905 0.2483515441417694
-0.8604651093482971 -0.05426359176635742 -0.13200294971466064
-0.8604651093482971 -0.05426359176635742 0.2484719157218933
-0.8604651093482971 -0.038759708404541016 -0.13186998665332794
-0.8604651093482971 -0.038759708404541016 0.24867315590381622
-0.8604651093482971 -0.02325582504272461 -0.13069948554039001
-0.8604651093482971 -0.02325582504272461 0.24882939457893372
-0.8604651093482971 -0.007751941680908203 -0.12898404896259308
-0.8604651093482971 -0.007751941680908203 0.24899613857269287
-0.8604651093482971 0.007751941680908203 -0.12821829319000244
-0.8604651093482971 0.007751941680908203 0.24911971390247345
-0.8604651093482971 0.02325582504272461 -0.12741541862487793
-0.8604651093482971 0.02325582504272461 0.24926555156707764
-0.8604650497436523 0.038759708404541016 -0.12625427544116974
-0.8604651093482971 0.038759708404541016 0.24919597804546356
-0.8604651093482971 0.05426359176635742 -0.12453518807888031
-0.8604651093482971 0.05426359176635742 0.24908718466758728
-0.8604651093482971 0.06976747512817383 -0.12322764098644257
-0.8604651093482971 0.06976747512817383 0.24900883436203003
-0.8604650497436523 0.08527135848999023 -0.12085449695587158
-0.8604651093482971 0.08527135848999023 0.24885886907577515
-0.8604651093482971 0.10077524185180664 -0.11926368623971939
-0.8604651093482971 0.10077524185180664 0.24862676858901978
-0.8604650497436523 0.11627912521362305 -0.11938799917697906
-0.8604651093482971 0.11627912521362305 0.24833998084068298
-0.8604651093482971 0.1317828893661499 -0.11931505054235458
-0.8604651093482971 0.1317828893661499 0.24800121784210205
-0.8604651093482971 0.1472867727279663 -0.1192152127623558
-0.8604651689529419 0.1472867727279663 0.24768602848052979
-0.8604650497436523 0.16279065608978271 -0.1280064880847931
-0.8604650497436523 0.16279065608978271 0.24751529097557068
-0.8604651093482971 0.17829453945159912 -0.1486438661813736
-0.8604651093482971 0.17829453945159912 0.245425745844841
-0.8449612855911255 -0.19379843771457672 -0.14251604676246643
-0.8449612855911255 -0.19379842281341553 -0.1244584172964096
-0.8449612855911255 -0.19379842281341553 0.08934716880321503
-0.8449612259864807 -0.19379842281341553 0.13887673616409302
-0.8449612855911255 -0.1782945990562439 -0.14851608872413635
-0.8449612855911255 -0.1782945990562439 0.24312599003314972
-0.8449612259864807 -0.1627907156944275 -0.12954804301261902
-0.8449612259864807 -0.1627907156944275 0.24523034691810608
-0.8449612855911255 -0.14728683233261108 -0.11789770424365997
-0.8449611663818359 -0.14728683233261108 0.24516122043132782
-0.8449612259864807 -0.13178294897079468 -0.12098580598831177
-0.8449611663818359 -0.13178294897079468 0.24570724368095398
-0.8449611663818359 -0.11627906560897827 -0.1280902475118637
-0.8449612259864807 -0.11627906560897827 0.24614882469177246
-0.8449612259864807 -0.10077518224716187 -0.1323077231645584
-0.8449612855911255 -0.10077518224716187 0.24649351835250854
-0.8449612259864807 -0.08527129888534546 -0.13273821771144867
-0.8449611663818359 -0.08527129888534546 0.24685674905776978
-0.8449612259864807 -0.06976741552352905 -0.1330905556678772
-0.8449612855911255 -0.06976741552352905 0.24703121185302734
-0.8449612259864807 -0.05426359176635742 -0.13324256241321564
-0.8449611663818359 -0.05426359176635742 0.24713458120822906
-0.8449612855911255 -0.038759708404541016 -0.1332065612077713
-0.8449612855911255 -0.038759708404541016 0.24739141762256622
-0.8449612259864807 -0.02325582504272461 -0.13315677642822266
-0.8449612855911255 -0.02325582504272461 0.24755582213401794
-0.8449611663818359 -0.007751941680908203 -0.13307619094848633
-0.8449612855911255 -0.007751941680908203 0.24772509932518005
-0.8449612259864807 0.007751941680908203 -0.13294276595115662
-0.8449611663818359 0.007751941680908203 0.24781572818756104
-0.8449612259864807 0.02325582504272461 -0.1326611489057541
-0.8449612259864807 0.02325582504272461 0.24796876311302185
-0.8449612259864807 0.038759708404541016 -0.13216102123260498
-0.8449612259864807 0.038759708404541016 0.2478306144475937
-0.8449611663818359 0.05426359176635742 -0.13009947538375854
-0.8449611663818359 0.05426359176635742 0.2476872354745865
-0.8449611663818359 0.06976747512817383 -0.12719158828258514
-0.8449611663818359 0.06976747512817383 0.2475775182247162
-0.8449612259864807 0.08527135848999023 -0.12372797727584839
-0.8449612259864807 0.08527135848999023 0.24737758934497833
-0.8449612259864807 0.10077524185180664 -0.12188784778118134
-0.8449612259864807 0.10077524185180664 0.24706977605819702
-0.8449612259864807 0.11627912521362305 -0.12235328555107117
-0.8449612259864807 0.11627912521362305 0.24668419361114502
-0.8449612259864807 0.1317828893661499 -0.12224779278039932
-0.8449612855911255 0.1317828893661499 0.24617131054401398
-0.8449611663818359 0.1472867727279663 -0.12149031460285187
-0.8449612855911255 0.1472867727279663 0.2456386685371399
-0.8449612259864807 0.16279065608978271 -0.1322759985923767
-0.8449612259864807 0.16279065608978271 0.24535253643989563
-0.8449612259864807 0.17829453945159912 -0.14945757389068604
-0.8449611663818359 0.17829453945159912 0.2441714107990265
-0.8294573426246643 -0.19379842281341553 -0.14740638434886932
-0.8294573426246643 -0.19379842281341553 -0.12337959557771683
-0.8294573426246643 -0.19379842281341553 0.1082911342382431
-0.8294573426246643 -0.19379842281341553 0.16372402012348175
-0.8294572830200195 -0.1782945990562439 -0.14901503920555115
-0.8294573426246643 -0.1782945990562439 0.24319109320640564
-0.8294573426246643 -0.1627907156944275 -0.13233093917369843
-0.8294573426246643 -0.1627907156944275 0.24510949850082397
-0.8294572830200195 -0.14728683233261108 -0.12014845013618469
-0.8294573426246643 -0.14728683233261108 0.24486635625362396
-0.8294574022293091 -0.13178294897079468 -0.12469439208507538
-0.8294573426246643 -0.13178294897079468 0.24532873928546906
-0.8294573426246643 -0.11627906560897827 -0.13216754794120789
-0.8294573426246643 -0.11627906560897827 0.2457737773656845
-0.8294572830200195 -0.10077518224716187 -0.13331565260887146
-0.8294572830200195 -0.10077518224716187 0.24607524275779724
-0.8294573426246643 -0.08527129888534546 -0.13369911909103394
-0.8294572830200195 -0.08527129888534546 0.2463705837726593
-0.8294573426246643 -0.06976741552352905 -0.13403604924678802
-0.8294573426246643 -0.06976741552352905 0.2464497834444046
-0.8294573426246643 -0.05426359176635742 -0.13420575857162476
-0.8294573426246643 -0.05426359176635742 0.24647417664527893
-0.8294573426246643 -0.038759708404541016 -0.13428547978401184
-0.8294574022293091 -0.038759708404541016 0.24668288230895996
-0.8294572830200195 -0.02325582504272461 -0.13437485694885254
-0.8294573426246643 -0.02325582504272461 0.2468218207359314
-0.8294574022293091 -0.007751941680908203 -0.13444826006889343
-0.8294572830200195 -0.007751941680908203 0.24700886011123657
-0.8294572830200195 0.007751941680908203 -0.13427351415157318
-0.8294573426246643 0.007751941680908203 0.11154013127088547
-0.8294573426246643 0.007751941680908203 0.13323606550693512
-0.8294573426246643 0.007751941680908203 0.24712759256362915
-0.8294573426246643 0.02325582504272461 -0.13384082913398743
-0.8294572830200195 0.02325582504272461 0.10825552046298981
-0.8294573426246643 0.02325582504272461 0.13534227013587952
-0.8294572830200195 0.02325582504272461 0.24731923639774323
-0.8294573426246643 0.038759708404541016 -0.13313576579093933
-0.8294573426246643 0.038759708404541016 0.10635771602392197
-0.8294573426246643 0.038759708404541016 0.13756179809570312
-0.8294574022293091 0.038759708404541016 0.2472110390663147
-0.8294573426246643 0.05426359176635742 -0.13229478895664215
-0.8294572830200195 0.05426359176635742 0.10825346410274506
-0.8294573426246643 0.05426359176635742 0.137419655919075
-0.8294572830200195 0.05426359176635742 0.2470768541097641
-0.8294573426246643 0.06976747512817383 -0.12996631860733032
-0.8294573426246643 0.06976747512817383 0.11516492068767548
-0.8294573426246643 0.06976747512817383 0.13373157382011414
-0.8294573426246643 0.06976747512817383 0.24690836668014526
-0.8294572830200195 0.08527135848999023 -0.12528875470161438
-0.8294573426246643 0.08527135848999023 -0.055362094193696976
-0.8294573426246643 0.08527135848999023 -0.052668336778879166
-0.8294573426246643 0.08527135848999023 0.005833045579493046
-0.8294573426246643 0.08527135848999023 0.024909943342208862
-0.8294573426246643 0.08527135848999023 0.24663546681404114
-0.8294573426246643 0.10077524185180664 -0.12328296899795532
-0.8294573426246643 0.10077524185180664 -0.05628376081585884
-0.8294573426246643 0.10077524185180664 -0.05257318168878555
-0.8294573426246643 0.10077524185180664 0.24623537063598633
-0.8294572830200195 0.11627912521362305 -0.12405066937208176
-0.8294573426246643 0.11627912521362305 0.24579016864299774
-0.8294573426246643 0.1317828893661499 -0.12443507462739944
-0.8294573426246643 0.1317828893661499 0.24536290764808655
-0.8294573426246643 0.1472867727279663 -0.12433980405330658
-0.8294573426246643 0.1472867727279663 0.24502991139888763
-0.8294573426246643 0.16279065608978271 -0.1336136907339096
-0.8294572830200195 0.16279065608978271 0.24493305385112762
-0.8294573426246643 0.17829453945159912 -0.15003859996795654
-0.8294574022293091 0.17829453945159912 0.24379563331604004
-0.8139535188674927 -0.19379842281341553 -0.14745543897151947
-0.8139535188674927 -0.19379842281341553 -0.12310607731342316
-0.8139535188674927 -0.19379842281341553 0.11119624227285385
-0.8139535188674927 -0.19379842281341553 0.16815675795078278
-0.8139535188674927 -0.1782945990562439 -0.149229034781456
-0.8139535188674927 -0.1782945990562439 0.24299487471580505
-0.8139535188674927 -0.1627907156944275 -0.13269762694835663
-0.8139535188674927 -0.1627907156944275 0.24506503343582153
-0.8139535188674927 -0.14728683233261108 -0.12096679210662842
-0.8139535188674927 -0.14728683233261108 0.24485135078430176
-0.8139535188674927 -0.13178294897079468 -0.12737776339054108
-0.8139535188674927 -0.13178294897079468 0.24529683589935303
-0.8139535188674927 -0.11627906560897827 -0.1326994001865387
-0.8139535188674927 -0.11627906560897827 0.005165097303688526
-0.8139535188674927 -0.11627906560897827 0.025344179943203926
-0.8139535188674927 -0.11627906560897827 0.24576157331466675
-0.8139535188674927 -0.10077518224716187 -0.1337137669324875
-0.8139535188674927 -0.10077518224716187 -0.07187031954526901
-0.8139535188674927 -0.10077518224716187 0.04126526042819023
-0.8139535188674927 -0.10077518224716187 0.11247578263282776
-0.8139535188674927 -0.10077518224716187 0.13328205049037933
-0.8139535188674927 -0.10077518224716187 0.24606510996818542
-0.8139535188674927 -0.08527129888534546 -0.1340455561876297
-0.8139535188674927 -0.08527129888534546 -0.0699986144900322
-0.8139535188674927 -0.08527129888534546 0.04105911776423454
-0.8139535188674927 -0.08527129888534546 0.10855269432067871
-0.8139535188674927 -0.08527129888534546 0.13597595691680908
-0.8139535188674927 -0.08527129888534546 0.2463441789150238
-0.8139535188674927 -0.06976741552352905 -0.134464830160141
-0.8139535188674927 -0.06976741552352905 -0.06263063102960587
-0.8139535188674927 -0.06976741552352905 0.02876453846693039
-0.8139535188674927 -0.06976741552352905 0.1056414544582367
-0.8139535188674927 -0.06976741552352905 0.13888496160507202
-0.8139535188674927 -0.06976741552352905 0.24639880657196045
-0.8139535188674927 -0.05426359176635742 -0.1347418576478958
-0.8139535188674927 -0.05426359176635742 -0.05526299774646759
-0.8139535188674927 -0.05426359176635742 -0.03717043995857239
-0.8139535188674927 -0.05426359176635742 0.10085705667734146
-0.8139535188674927 -0.05426359176635742 0.1424812227487564
-0.8139535188674927 -0.05426358804106712 0.24640902876853943
-0.8139535188674927 -0.038759708404541016 -0.1350463181734085
-0.8139535188674927 -0.038759708404541016 0.09622985124588013
-0.8139535188674927 -0.038759708404541016 0.143914133310318
-0.8139535188674927 -0.038759708404541016 0.24658609926700592
-0.8139535188674927 -0.02325582504272461 -0.13527287542819977
-0.8139535188674927 -0.02325582504272461 0.09092399477958679
-0.8139535188674927 -0.02325582504272461 0.14404410123825073
-0.8139535188674927 -0.02325582504272461 0.24671563506126404
-0.8139535188674927 -0.007751941680908203 -0.13541604578495026
-0.8139535188674927 -0.007751941680908203 0.08785875141620636
-0.8139535188674927 -0.007751941680908203 0.1436355859041214
-0.8139535188674927 -0.007751941680908203 0.24689881503582
-0.8139535188674927 0.007751941680908203 -0.1351802796125412
-0.8139535188674927 0.007751941680908203 0.08198179304599762
-0.8139535188674927 0.007751941680908203 0.1454407274723053
-0.8139535188674927 0.007751941680908203 0.24702900648117065
-0.8139535188674927 0.02325582504272461 -0.13458366692066193
-0.8139535188674927 0.02325582504272461 0.07773853838443756
-0.8139535188674927 0.02325582318007946 0.14844496548175812
-0.8139535188674927 0.02325582504272461 0.24723589420318604
-0.8139535188674927 0.038759708404541016 -0.13366666436195374
-0.8139535188674927 0.038759708404541016 0.00631643645465374
-0.8139535188674927 0.038759712129831314 0.024325422942638397
-0.8139535188674927 0.038759708404541016 0.07058677077293396
-0.8139535188674927 0.038759708404541016 0.15167443454265594
-0.8139535188674927 0.038759708404541016 0.24711725115776062
-0.8139535188674927 0.05426359176635742 -0.13256226480007172
-0.8139535188674927 0.05426359176635742 -0.05493398383259773
-0.8139535188674927 0.05426359176635742 -0.038252852857112885
-0.8139535188674927 0.05426359176635742 -0.018488992005586624
-0.8139535188674927 0.05426359549164772 0.15247423946857452
-0.8139535188674927 0.05426359176635742 0.24697569012641907
-0.8139535188674927 0.06976747512817383 -0.12972486019134521
-0.8139535188674927 0.06976747512817383 -0.06803488731384277
-0.8139535188674927 0.06976747512817383 0.1510828733444214
-0.8139535188674927 0.06976747512817383 0.24676541984081268
-0.8139535188674927 0.08527135848999023 -0.12438122183084488
-0.8139535188674927 0.08527135848999023 -0.07492103427648544
-0.8139535784721375 0.08527135848999023 0.14751502871513367
-0.8139535188674927 0.08527135848999023 0.2464568018913269
-0.8139535188674927 0.10077524185180664 -0.12217594683170319
-0.8139535188674927 0.10077524185180664 -0.07732789218425751
-0.8139535188674927 0.10077524185180664 0.14053596556186676
-0.8139535188674927 0.10077524185180664 0.2460213452577591
-0.8139535188674927 0.11627912521362305 -0.12277421355247498
-0.8139535188674927 0.11627912521362305 -0.0744946151971817
-0.8139535188674927 0.11627912521362305 -0.029188599437475204
-0.8139535188674927 0.11627912521362305 -0.015254883095622063
-0.8139535188674927 0.11627912521362305 0.05859004333615303
-0.8139535188674927 0.11627912521362305 0.11118157207965851
-0.8139535188674927 0.11627912521362305 0.13270723819732666
-0.8139535188674927 0.11627912521362305 0.2455732822418213
-0.8139535188674927 0.1317828893661499 -0.12267883121967316
-0.8139535188674927 0.1317828893661499 0.2451787292957306
-0.8139535188674927 0.1472867727279663 -0.12311195582151413
-0.8139535188674927 0.1472867727279663 0.24488487839698792
-0.8139535188674927 0.16279065608978271 -0.13373830914497375
-0.8139535188674927 0.16279065608978271 0.24483519792556763
-0.8139535188674927 0.17829453945159912 -0.1501312255859375
-0.8139535188674927 0.17829453945159912 0.24358651041984558
-0.7984496355056763 -0.19379842281341553 -0.14736637473106384
-0.7984496355056763 -0.19379842281341553 -0.12642225623130798
-0.7984496355056763 -0.19379842281341553 0.11158730834722519
-0.7984496355056763 -0.19379842281341553 0.16290059685707092
-0.7984496355056763 -0.1782945990562439 -0.1494300663471222
-0.7984496355056763 -0.1782946139574051 0.24259550869464874
-0.7984496355056763 -0.1627907156944275 -0.13298822939395905
-0.7984496355056763 -0.1627907156944275 0.24498939514160156
-0.7984496355056763 -0.14728683233261108 -0.12027202546596527
-0.7984496355056763 -0.14728683233261108 0.24494540691375732
-0.7984496355056763 -0.13178294897079468 -0.12691184878349304
-0.7984496355056763 -0.13178294897079468 0.24541787803173065
-0.7984496355056763 -0.11627906560897827 -0.13248705863952637
-0.7984496355056763 -0.11627906560897827 -0.0784933865070343
-0.7984496355056763 -0.11627906560897827 0.03757733851671219
-0.7984496355056763 -0.11627906560897827 0.10383332520723343
-0.7984496355056763 -0.11627905815839767 0.13255949318408966
-0.7984496355056763 -0.11627906560897827 0.24590077996253967
-0.7984496355056763 -0.10077518224716187 -0.13329511880874634
-0.7984496355056763 -0.10077518224716187 -0.07768110930919647
-0.7984496355056763 -0.10077518224716187 0.06458158791065216
-0.7984496355056763 -0.10077518969774246 0.08588643372058868
-0.7984496355056763 -0.10077518224716187 0.13792234659194946
-0.7984496355056763 -0.10077518224716187 0.2462259829044342
-0.7984496355056763 -0.08527129888534546 -0.13351662456989288
-0.7984496355056763 -0.08527129888534546 -0.07529580593109131
-0.7984496355056763 -0.08527129888534546 0.14165560901165009
-0.7984496355056763 -0.08527129888534546 0.24651697278022766
-0.7984496355056763 -0.06976741552352905 -0.1340664029121399
-0.7984496355056763 -0.06976741552352905 -0.06985921412706375
-0.7984496355056763 -0.06976741552352905 0.0662829577922821
-0.7984496355056763 -0.06976741552352905 0.07175016403198242
-0.7984496355056763 -0.06976741552352905 0.14534492790699005
-0.7984496355056763 -0.06976741552352905 0.2465853989124298
-0.7984496355056763 -0.05426359176635742 -0.1345769315958023
-0.7984496355056763 -0.05426359176635742 -0.061249420046806335
-0.7984496355056763 -0.05426359176635742 0.03441793471574783
-0.7984496355056763 -0.05426359176635742 0.07670128345489502
-0.7984496355056763 -0.05426358804106712 0.148503839969635
-0.7984496355056763 -0.05426359176635742 0.2466185986995697
-0.7984496355056763 -0.038759708404541016 -0.13521358370780945
-0.7984496355056763 -0.038759708404541016 0.07897739857435226
-0.798449695110321 -0.038759708404541016 0.14944222569465637
-0.7984496355056763 -0.038759708404541016 0.2467980980873108
-0.7984496355056763 -0.02325582504272461 -0.1357124149799347
-0.7984496355056763 -0.02325582504272461 0.07834462821483612
-0.7984496355056763 -0.02325582504272461 0.1494111269712448
-0.7984496355056763 -0.02325582504272461 0.24693819880485535
-0.7984496355056763 -0.007751941680908203 -0.13597610592842102
-0.7984496355056763 -0.007751941680908203 0.0780518501996994
-0.7984496355056763 -0.007751941680908203 0.14875413477420807
-0.7984496355056763 -0.007751941680908203 0.24711501598358154
-0.7984496355056763 0.007751941680908203 -0.1357017606496811
-0.7984496355056763 0.007751941215246916 0.07386152446269989
-0.7984496355056763 0.007751941680908203 0.15024618804454803
-0.7984496355056763 0.00775194214656949 0.2472480833530426
-0.7984496355056763 0.02325582504272461 -0.13495905697345734
-0.7984496355056763 0.02325582504272461 0.06979575008153915
-0.7984496355056763 0.02325582690536976 0.15232117474079132
-0.7984496355056763 0.02325582504272461 0.24744918942451477
-0.7984496355056763 0.038759708404541016 -0.13374578952789307
-0.7984496355056763 0.038759708404541016 -0.01652161404490471
-0.7984496355056763 0.038759708404541016 0.15494957566261292
-0.7984496355056763 0.038759708404541016 0.24730294942855835
-0.7984496355056763 0.05426359176635742 -0.13220369815826416
-0.7984496355056763 0.05426359549164772 -0.06544286757707596
-0.7984496355056763 0.05426359176635742 0.15564179420471191
-0.7984496355056763 0.05426359176635742 0.24713954329490662
-0.7984496355056763 0.06976747512817383 -0.12671443819999695
-0.7984496355056763 0.06976747512817383 -0.0759667158126831
-0.7984496355056763 0.06976747512817383 0.1546953171491623
-0.7984496355056763 0.06976747512817383 0.2468942403793335
-0.7984496355056763 0.08527135848999023 -0.12110677361488342
-0.7984496355056763 0.08527135848999023 -0.08144575357437134
-0.7984496355056763 0.08527135848999023 0.15189003944396973
-0.7984496355056763 0.08527135848999023 0.24655771255493164
-0.7984496355056763 0.10077524185180664 -0.1185050755739212
-0.798449695110321 0.10077524185180664 -0.08457132428884506
-0.7984496355056763 0.10077524185180664 0.14626803994178772
-0.7984496355056763 0.10077524185180664 0.24609847366809845
-0.7984496355056763 0.11627912521362305 -0.11878668516874313
-0.7984496355056763 0.11627912521362305 -0.08303800970315933
-0.7984496355056763 0.11627912521362305 0.13864251971244812
-0.7984496355056763 0.11627912521362305 0.24564270675182343
-0.7984496355056763 0.1317828893661499 -0.11869452148675919
-0.7984496355056763 0.1317828893661499 -0.07180769741535187
-0.7984496355056763 0.1317828893661499 -0.041592076420784
-0.7984496355056763 0.1317828893661499 0.004923751577734947
-0.7984496355056763 0.1317828893661499 0.024855172261595726
-0.7984496355056763 0.1317828893661499 0.2452392876148224
-0.7984496355056763 0.1472867727279663 -0.11932958662509918
-0.7984496355056763 0.1472867727279663 0.2449265420436859
-0.7984496355056763 0.16279065608978271 -0.13320063054561615
-0.7984496355056763 0.16279065608978271 0.24483102560043335
-0.7984496355056763 0.17829453945159912 -0.15004335343837738
-0.7984496355056763 0.17829453945159912 0.24335967004299164
-0.7829457521438599 -0.19379842281341553 -0.14203014969825745
-0.7829457521438599 -0.19379842281341553 -0.12794187664985657
-0.7829457521438599 -0.19379842281341553 0.1242390125989914
-0.7829457521438599 -0.19379842281341553 0.15832936763763428
-0.7829457521438599 -0.1782945990562439 -0.14936108887195587
-0.7829456925392151 -0.1782945990562439 0.24215377867221832
-0.7829457521438599 -0.1627907156944275 -0.13321040570735931
-0.7829457521438599 -0.1627907156944275 0.24486792087554932
-0.7829457521438599 -0.14728683233261108 -0.11991743743419647
-0.7829457521438599 -0.14728683233261108 0.24511286616325378
-0.7829457521438599 -0.13178294897079468 -0.12754887342453003
-0.7829457521438599 -0.13178294897079468 -0.07668615132570267
-0.7829457521438599 -0.13178294897079468 -0.037134602665901184
-0.7829457521438599 -0.13178294897079468 0.2456703931093216
-0.7829457521438599 -0.11627906560897827 -0.13263076543807983
-0.7829457521438599 -0.11627906560897827 -0.08171822875738144
-0.7829457521438599 -0.11627906560897827 0.04429113119840622
-0.7829457521438599 -0.11627906560897827 0.0882134661078453
-0.7829457521438599 -0.11627906560897827 0.13618701696395874
-0.7829457521438599 -0.11627906560897827 0.24617812037467957
-0.7829457521438599 -0.10077518224716187 -0.13334810733795166
-0.7829457521438599 -0.10077518224716187 -0.07982032001018524
-0.7829457521438599 -0.10077518224716187 0.1411941647529602
-0.7829457521438599 -0.10077518224716187 0.24652701616287231
-0.7829457521438599 -0.08527129888534546 -0.13349540531635284
-0.7829457521438599 -0.08527129888534546 -0.0771547183394432
-0.7829457521438599 -0.08527129888534546 0.14505794644355774
-0.7829457521438599 -0.08527129888534546 0.24683578312397003
-0.7829457521438599 -0.06976741552352905 -0.13404463231563568
-0.7829457521438599 -0.06976741552352905 -0.07223106920719147
-0.7829457521438599 -0.06976741552352905 0.1487503945827484
-0.7829457521438599 -0.06976741552352905 0.24692422151565552
-0.7829457521438599 -0.05426359176635742 -0.1346324235200882
-0.7829457521438599 -0.05426359176635742 -0.0648457482457161
-0.7829457521438599 -0.05426359176635742 0.15151938796043396
-0.7829457521438599 -0.05426359176635742 0.24697643518447876
-0.7829457521438599 -0.038759708404541016 -0.13548946380615234
-0.7829457521438599 -0.038759708404541016 -0.058007851243019104
-0.7829457521438599 -0.038759708404541016 0.027077218517661095
-0.7829457521438599 -0.038759708404541016 0.07024522870779037
-0.7829457521438599 -0.038759708404541016 0.15259335935115814
-0.7829457521438599 -0.038759708404541016 0.24714212119579315
-0.7829457521438599 -0.02325582504272461 -0.13617253303527832
-0.7829457521438599 -0.02325582504272461 0.0056579867377877235
-0.7829457521438599 -0.02325582504272461 0.009536211378872395
-0.7829457521438599 -0.02325582504272461 0.07217046618461609
-0.7829457521438599 -0.02325582504272461 0.15302234888076782
-0.7829457521438599 -0.02325582504272461 0.24727192521095276
-0.7829457521438599 -0.007751941680908203 -0.13647869229316711
-0.7829457521438599 -0.007751941680908203 0.07307182252407074
-0.7829457521438599 -0.007751941680908203 0.1527014821767807
-0.7829457521438599 -0.007751941680908203 0.2474135160446167
-0.7829457521438599 0.007751941680908203 -0.13616567850112915
-0.7829457521438599 0.007751941680908203 0.06980997323989868
-0.7829457521438599 0.007751941215246916 0.1538885533809662
-0.7829457521438599 0.007751941680908203 0.2475336790084839
-0.7829457521438599 0.02325582504272461 -0.13533608615398407
-0.7829457521438599 0.02325582504272461 -0.006174419075250626
-0.7829458117485046 0.02325582504272461 0.02498902939260006
-0.7829457521438599 0.02325582504272461 0.06009061262011528
-0.7829457521438599 0.02325582504272461 0.15543584525585175
-0.7829457521438599 0.02325582504272461 0.2477072775363922
-0.7829457521438599 0.038759708404541016 -0.1339767873287201
-0.7829457521438599 0.038759708404541016 -0.056812576949596405
-0.7829457521438599 0.038759708404541016 0.15763027966022491
-0.7829457521438599 0.038759708404541016 0.24753698706626892
-0.7829457521438599 0.05426359176635742 -0.13219726085662842
-0.7829457521438599 0.05426359176635742 -0.07122127711772919
-0.7829457521438599 0.05426359176635742 0.15822237730026245
-0.7829457521438599 0.05426359176635742 0.2473602443933487
-0.7829457521438599 0.06976747512817383 -0.1255919337272644
-0.7829457521438599 0.06976747512817383 -0.078781858086586
-0.7829457521438599 0.06976747512817383 0.15740567445755005
-0.7829457521438599 0.06976747512817383 0.24709299206733704
-0.7829457521438599 0.08527135848999023 -0.11909918487071991
-0.7829457521438599 0.08527135103940964 -0.08398322016000748
-0.7829457521438599 0.08527135848999023 0.15498358011245728
-0.7829457521438599 0.08527135848999023 0.2467353343963623
-0.7829457521438599 0.10077524185180664 -0.11557230353355408
-0.7829457521438599 0.10077524185180664 -0.09094873815774918
-0.7829457521438599 0.10077524185180664 0.15027356147766113
-0.7829457521438599 0.10077524185180664 0.24626561999320984
-0.7829457521438599 0.11627912521362305 -0.1163448840379715
-0.7829457521438599 0.11627912521362305 -0.08768415451049805
-0.7829457521438599 0.11627912521362305 0.1431560218334198
-0.7829457521438599 0.11627912521362305 0.2457917332649231
-0.7829457521438599 0.1317828893661499 -0.11679243296384811
-0.7829457521438599 0.1317828893661499 -0.07617226243019104
-0.7829457521438599 0.1317828893661499 -0.028796227648854256
-0.7829457521438599 0.1317828893661499 -0.012151116505265236
-0.7829457521438599 0.1317828893661499 0.0413818359375
-0.7829457521438599 0.1317828893661499 0.09501233696937561
-0.7829458117485046 0.1317828893661499 0.13229626417160034
-0.7829457521438599 0.1317828893661499 0.2453337460756302
-0.7829457521438599 0.1472867727279663 -0.11813924461603165
-0.7829457521438599 0.1472867727279663 0.24497103691101074
-0.7829457521438599 0.16279065608978271 -0.1331966519355774
-0.7829457521438599 0.16279065608978271 0.244820237159729
-0.7829457521438599 0.17829453945159912 -0.14986704289913177
-0.7829457521438599 0.17829453945159912 0.2430613487958908
-0.7674418687820435 -0.19379842281341553 -0.13629041612148285
-0.7674418687820435 -0.19379842281341553 -0.1289495825767517
-0.7674418687820435 -0.19379842281341553 0.12735404074192047
-0.7674418687820435 -0.19379842281341553 0.15660148859024048
-0.7674418687820435 -0.1782945990562439 -0.14928299188613892
-0.7674419283866882 -0.1782945990562439 0.24175944924354553
-0.7674418687820435 -0.1627907156944275 -0.1330045610666275
-0.7674418687820435 -0.1627907156944275 0.24468299746513367
-0.7674418687820435 -0.14728683233261108 -0.1202983409166336
-0.7674418687820435 -0.14728683233261108 0.24520021677017212
-0.7674418687820435 -0.13178294897079468 -0.13008172810077667
-0.7674418687820435 -0.13178294897079468 -0.07848593592643738
-0.7674418687820435 -0.13178294897079468 -0.0294259674847126
-0.7674418687820435 -0.13178294897079468 0.10649324953556061
-0.7674418687820435 -0.13178294897079468 0.12836004793643951
-0.7674418687820435 -0.13178294897079468 0.24588707089424133
-0.7674418687820435 -0.11627906560897827 -0.13313907384872437
-0.7674418687820435 -0.11627906560897827 -0.08193831890821457
-0.7674418687820435 -0.11627906560897827 0.04959212988615036
-0.7674418687820435 -0.11627906560897827 0.07951200008392334
-0.7674418687820435 -0.11627906560897827 0.13943973183631897
-0.7674418687820435 -0.11627906560897827 0.2464430332183838
-0.7674418687820435 -0.10077518224716187 -0.13389933109283447
-0.7674418687820435 -0.10077518224716187 -0.07999147474765778
-0.7674418687820435 -0.10077518224716187 0.14422842860221863
-0.7674418687820435 -0.10077518224716187 0.24682417511940002
-0.7674418687820435 -0.08527129888534546 -0.13407370448112488
-0.7674418687820435 -0.08527129888534546 -0.07736450433731079
-0.7674418687820435 -0.08527129888534546 0.14818347990512848
-0.7674418687820435 -0.08527129888534546 0.24714958667755127
-0.7674418687820435 -0.06976741552352905 -0.1345885545015335
-0.7674418687820435 -0.06976741552352905 -0.07260819524526596
-0.7674418687820435 -0.06976741552352905 0.15157949924468994
-0.7674418687820435 -0.06976741552352905 0.24725325405597687
-0.7674418687820435 -0.05426359176635742 -0.13511498272418976
-0.7674418687820435 -0.05426359176635742 -0.06595610082149506
-0.7674418687820435 -0.05426359176635742 0.15413729846477509
-0.7674418687820435 -0.05426359176635742 0.2473096251487732
-0.7674418687820435 -0.038759708404541016 -0.13598327338695526
-0.7674418687820435 -0.038759708404541016 -0.06017891317605972
-0.7674418687820435 -0.038759708404541016 0.03583706542849541
-0.7674418687820435 -0.038759708404541016 0.05680526793003082
-0.7674418687820435 -0.038759708404541016 0.15524622797966003
-0.7674418687820435 -0.038759708404541016 0.2474537193775177
-0.7674418687820435 -0.02325582504272461 -0.1366836130619049
-0.7674418687820435 -0.02325582504272461 -0.05444485694169998
-0.7674418687820435 -0.02325582504272461 0.02131044492125511
-0.7674418687820435 -0.02325582504272461 0.06348557025194168
-0.7674418687820435 -0.02325582504272461 0.1558535397052765
-0.7674418687820435 -0.02325582504272461 0.24755074083805084
-0.7674418687820435 -0.007751941680908203 -0.13695582747459412
-0.7674418687820435 -0.007751941680908203 0.002516824519261718
-0.7674418091773987 -0.007751941680908203 0.011690225452184677
-0.7674418687820435 -0.007751941680908203 0.06557072699069977
-0.7674418687820435 -0.007751941680908203 0.155663400888443
-0.7674418687820435 -0.007751941215246916 0.2476530224084854
-0.7674418687820435 0.007751941680908203 -0.13660216331481934
-0.7674418687820435 0.007751941680908203 -0.007857320830225945
-0.7674418687820435 0.007751941680908203 0.020754387602210045
-0.7674418687820435 0.007751941680908203 0.05893033370375633
-0.7674418687820435 0.007751941680908203 0.15677504241466522
-0.7674418687820435 0.007751941680908203 0.24776111543178558
-0.7674418687820435 0.02325582504272461 -0.13573706150054932
-0.7674418687820435 0.02325582318007946 -0.02259572595357895
-0.7674418687820435 0.02325582504272461 0.036433517932891846
-0.7674418687820435 0.02325582504272461 0.0440501868724823
-0.7674418687820435 0.02325582504272461 0.15819352865219116
-0.7674418687820435 0.02325582504272461 0.24791008234024048
-0.7674418687820435 0.038759708404541016 -0.1343674212694168
-0.7674418687820435 0.038759708404541016 -0.06095931679010391
-0.7674418687820435 0.038759708404541016 0.16032113134860992
