0.06976747512817383 0.7674418687820435 -0.16376115381717682
0.06976747512817383 0.7674418687820435 -0.009696513414382935
0.06976746767759323 0.7674418687820435 0.009065473452210426
0.06976747512817383 0.7674418687820435 0.04600688815116882
0.06976748257875443 0.7674419283866882 0.17877160012722015
0.06976747512817383 0.7674418687820435 0.2556646168231964
0.06976747512817383 0.7829457521438599 -0.16407965123653412
0.06976747512817383 0.7829457521438599 0.05381684750318527
0.06976747512817383 0.7829457521438599 0.05669425055384636
0.06976747512817383 0.7829457521438599 0.07541850209236145
0.06976747512817383 0.7829457521438599 0.16982290148735046
0.06976747512817383 0.7829457521438599 0.2560146152973175
0.06976747512817383 0.7984496355056763 -0.16413672268390656
0.06976747512817383 0.7984496355056763 0.04223252460360527
0.06976747512817383 0.7984496355056763 0.16692250967025757
0.06976747512817383 0.7984495759010315 0.25608956813812256
0.06976747512817383 0.8139535188674927 -0.1641407012939453
0.06976747512817383 0.8139535188674927 0.010206346400082111
0.06976747512817383 0.8139535188674927 0.16798895597457886
0.06976747512817383 0.8139535188674927 0.25608310103416443
0.06976747512817383 0.8294574022293091 -0.16424013674259186
0.06976747512817383 0.8294574022293091 -0.002985764294862747
0.06976747512817383 0.8294574022293091 0.17224633693695068
0.06976747512817383 0.8294574022293091 0.2560468912124634
0.06976747512817383 0.8449612855911255 -0.16433382034301758
0.06976747512817383 0.8449612855911255 -0.00649458821862936
0.06976747512817383 0.8449612855911255 0.1762245148420334
0.06976747512817383 0.8449612259864807 0.25599849224090576
0.06976747512817383 0.8604651689529419 -0.1644616574048996
0.06976747512817383 0.8604651689529419 -0.0033539358992129564
0.06976747512817383 0.8604651689529419 0.1785253882408142
0.06976747512817383 0.8604651689529419 0.2558916211128235
0.06976747512817383 0.8759689331054688 -0.16476285457611084
0.06976747512817383 0.8759689331054688 0.05049404501914978
0.06976747512817383 0.8759689331054688 0.12212879210710526
0.06976747512817383 0.8759689331054688 0.13280785083770752
0.06976747512817383 0.8759689331054688 0.1737614870071411
0.06976747512817383 0.8759689331054688 0.25579866766929626
0.06976747512817383 0.8914728164672852 -0.16514945030212402
0.06976747512817383 0.8914728164672852 0.25557446479797363
0.06976747512817383 0.9069766998291016 -0.16550686955451965
0.06976747512817383 0.9069766998291016 0.2532199025154114
0.06976747512817383 0.922480583190918 -0.16605114936828613
0.06976747512817383 0.922480583190918 0.24809479713439941
0.06976747512817383 0.9379844665527344 -0.1673472672700882
0.06976747512817383 0.9379844665527344 0.22697317600250244
0.06976747512817383 0.9534883499145508 -0.17017990350723267
0.06976747512817383 0.9534883499145508 -0.039900001138448715
0.06976747512817383 0.9534883499145508 0.02739003673195839
0.06976747512817383 0.9534883499145508 0.17933125793933868
0.06976747512817383 0.9689922332763672 -0.16689017415046692
0.06976747512817383 0.9689922332763672 -0.15040184557437897
0.08527135848999023 -0.9689922332763672 -0.14836260676383972
0.08527136594057083 -0.9689922332763672 -0.1315367966890335
0.08527135848999023 -0.9534883499145508 -0.15295708179473877
0.08527135848999023 -0.9534883499145508 0.00934229139238596
0.08527135848999023 -0.9534883499145508 0.049832768738269806
0.08527135848999023 -0.9534883499145508 0.16768787801265717
0.08527135848999023 -0.9379844665527344 -0.15015031397342682
0.08527135848999023 -0.9379844665527344 0.2025398313999176
0.08527135848999023 -0.9224806427955627 -0.1486503779888153
0.08527135848999023 -0.9224806427955627 0.2296229898929596
0.08527135848999023 -0.9069767594337463 -0.14855219423770905
0.08527135848999023 -0.9069766998291016 0.24583667516708374
0.08527135848999023 -0.8914728760719299 -0.14842598140239716
0.08527135848999023 -0.8914728760719299 0.25220614671707153
0.08527135848999023 -0.8759689927101135 -0.14830614626407623
0.08527135848999023 -0.8759689927101135 0.2548132538795471
0.08527135848999023 -0.8604651093482971 -0.14845234155654907
0.08527135848999023 -0.8604651093482971 0.2548680603504181
0.08527135848999023 -0.8449612259864807 -0.14829634130001068
0.08527135848999023 -0.8449612259864807 0.2548943758010864
0.08527135848999023 -0.8294573426246643 -0.1477379947900772
0.08527135848999023 -0.8294573426246643 0.25463834404945374
0.08527135848999023 -0.8139535188674927 -0.1463867723941803
0.08527135848999023 -0.8139535188674927 0.09995493292808533
0.08527135848999023 -0.8139535188674927 0.13561394810676575
0.08527135848999023 -0.8139535188674927 0.25425446033477783
0.08527135848999023 -0.7984496355056763 -0.1438397467136383
0.08527135848999023 -0.7984496355056763 0.07674679905176163
0.08527135848999023 -0.7984496355056763 0.15304681658744812
0.08527135848999023 -0.7984496355056763 0.2538129687309265
0.08527135848999023 -0.7829457521438599 -0.14102515578269958
0.08527135848999023 -0.7829457521438599 0.061800092458724976
0.08527135848999023 -0.7829457521438599 0.17892101407051086
0.08527135848999023 -0.7829457521438599 0.25334978103637695
0.08527135848999023 -0.7674418687820435 -0.1381567120552063
0.08527135848999023 -0.7674418687820435 0.002792230574414134
0.08527135848999023 -0.7674418687820435 0.18621644377708435
0.08527135848999023 -0.7674418687820435 0.2528931796550751
0.08527135848999023 -0.751937985420227 -0.13645921647548676
0.08527135848999023 -0.751937985420227 -0.046450406312942505
0.08527135848999023 -0.751937985420227 0.19193318486213684
0.08527135848999023 -0.751937985420227 0.25256702303886414
0.08527135848999023 -0.7364341020584106 -0.1354057937860489
0.08527135848999023 -0.7364340424537659 -0.050515398383140564
0.08527135848999023 -0.7364341020584106 0.19525328278541565
0.08527135848999023 -0.7364341020584106 0.25255873799324036
0.08527135848999023 -0.7209302186965942 -0.13509750366210938
0.08527135848999023 -0.7209302186965942 -0.05200101062655449
0.08527135848999023 -0.7209302186965942 0.19805732369422913
0.08527135848999023 -0.7209302186965942 0.25286969542503357
0.08527135848999023 -0.7054263353347778 -0.1352231204509735
0.08527135848999023 -0.7054263353347778 -0.055140454322099686
0.08527135848999023 -0.7054263353347778 0.20089402794837952
0.08527135848999023 -0.7054263353347778 0.2532876431941986
0.08527135848999023 -0.6899224519729614 -0.13555908203125
0.08527135848999023 -0.6899224519729614 -0.05669018626213074
0.08527135848999023 -0.6899224519729614 0.2015216052532196
0.08527135848999023 -0.6899224519729614 0.25375455617904663
0.08527135848999023 -0.674418568611145 -0.13665848970413208
0.08527135848999023 -0.674418568611145 -0.05564378947019577
0.08527135848999023 -0.674418568611145 0.200561061501503
0.08527135848999023 -0.674418568611145 0.25401949882507324
0.08527135848999023 -0.6589146852493286 -0.13817453384399414
0.08527135848999023 -0.6589146852493286 -0.05472635477781296
0.08527135848999023 -0.6589146852493286 0.20074701309204102
0.08527135848999023 -0.6589146852493286 0.2541263997554779
0.08527135848999023 -0.643410861492157 -0.1392991989850998
0.08527135848999023 -0.643410861492157 -0.053468164056539536
0.08527135848999023 -0.643410861492157 0.20097032189369202
0.08527135848999023 -0.643410861492157 0.25431355834007263
0.08527135848999023 -0.6279069185256958 -0.1399974524974823
0.08527135848999023 -0.6279069781303406 -0.05593587085604668
0.08527135848999023 -0.6279070377349854 0.20128923654556274
0.08527135848999023 -0.6279069781303406 0.25437819957733154
0.08527135848999023 -0.612403154373169 -0.14092780649662018
0.08527135848999023 -0.6124030947685242 -0.059831421822309494
0.08527135848999023 -0.6124030947685242 0.201497882604599
0.08527135848999023 -0.6124030947685242 0.25427526235580444
0.08527135848999023 -0.5968992114067078 -0.1413254737854004
0.08527135848999023 -0.5968992114067078 -0.062072787433862686
0.08527135848999023 -0.5968992114067078 0.20092320442199707
0.08527135848999023 -0.5968992114067078 0.2539842128753662
0.08527135848999023 -0.5813953876495361 -0.14062701165676117
0.08527135848999023 -0.5813953876495361 -0.06337612867355347
0.08527135848999023 -0.5813953876495361 0.19936637580394745
0.08527135848999023 -0.5813953876495361 0.25374749302864075
0.08527135848999023 -0.5658915042877197 -0.13886219263076782
0.08527135848999023 -0.5658915042877197 -0.06469544023275375
0.08527135848999023 -0.5658915042877197 0.19838130474090576
0.08527135848999023 -0.5658915042877197 0.2533951699733734
0.08527135848999023 -0.5503876209259033 -0.13718844950199127
0.08527135848999023 -0.5503876209259033 -0.062420353293418884
0.08527135848999023 -0.5503876209259033 0.1987306773662567
0.08527135848999023 -0.5503876209259033 0.25327810645103455
0.08527135848999023 -0.5348837375640869 -0.1359812319278717
0.08527135848999023 -0.5348837375640869 -0.059555865824222565
0.08527135848999023 -0.5348837375640869 0.19971439242362976
0.08527135848999023 -0.5348837375640869 0.2534604072570801
0.08527135848999023 -0.5193798542022705 -0.13465240597724915
0.08527135848999023 -0.5193798542022705 -0.0587320402264595
0.08527135848999023 -0.5193798542022705 0.19962535798549652
0.08527135848999023 -0.5193798542022705 0.2537531852722168
0.08527135848999023 -0.5038759708404541 -0.13324829936027527
0.08527135848999023 -0.5038759708404541 -0.059197522699832916
0.08527135848999023 -0.5038759708404541 0.20026111602783203
0.08527135848999023 -0.5038759708404541 0.2540045976638794
0.08527135848999023 -0.4883720874786377 -0.13229762017726898
0.08527135848999023 -0.4883720874786377 -0.058927617967128754
0.08527135848999023 -0.4883720874786377 0.20108595490455627
0.08527135848999023 -0.4883720874786377 0.2542460560798645
0.08527135848999023 -0.4728682041168213 -0.13198529183864594
0.08527135848999023 -0.4728682041168213 -0.05974969267845154
0.08527135848999023 -0.4728682041168213 0.2004367560148239
0.08527135848999023 -0.4728682041168213 0.25446954369544983
0.08527135848999023 -0.4573643207550049 -0.13241922855377197
0.08527135848999023 -0.4573643207550049 -0.06122096627950668
0.08527135848999023 -0.4573643207550049 0.19961826503276825
0.08527135848999023 -0.4573643207550049 0.2544208765029907
0.08527135848999023 -0.4418604373931885 -0.13291656970977783
0.08527135848999023 -0.4418604373931885 -0.062022268772125244
0.08527135848999023 -0.4418604373931885 0.19915759563446045
0.08527135848999023 -0.4418604373931885 0.2543172240257263
0.08527135848999023 -0.42635661363601685 -0.13326877355575562
0.08527135848999023 -0.42635661363601685 -0.06258555501699448
0.08527135848999023 -0.42635658383369446 0.19931378960609436
0.08527135848999023 -0.42635661363601685 0.2542029023170471
0.08527135848999023 -0.41085273027420044 -0.13343986868858337
0.08527135848999023 -0.41085273027420044 -0.06323441863059998
0.08527135848999023 -0.41085273027420044 0.2001408487558365
0.08527135848999023 -0.41085273027420044 0.25409969687461853
0.08527135848999023 -0.39534884691238403 -0.13354018330574036
0.08527135848999023 -0.39534884691238403 -0.06337671726942062
0.08527135848999023 -0.39534884691238403 0.20136763155460358
0.08527135848999023 -0.39534884691238403 0.25396087765693665
0.08527135848999023 -0.3798449635505676 -0.1333000212907791
0.08527135848999023 -0.3798449635505676 -0.06472936272621155
0.08527135848999023 -0.3798449635505676 0.20278993248939514
0.08527135848999023 -0.3798449635505676 0.253898561000824
0.08527135848999023 -0.3643410801887512 -0.13309907913208008
0.08527135103940964 -0.36434105038642883 -0.06654459983110428
0.08527135848999023 -0.3643410801887512 0.2041563093662262
0.08527135848999023 -0.3643410801887512 0.25394734740257263
0.08527135848999023 -0.3488371968269348 -0.1327286660671234
0.08527135848999023 -0.3488372266292572 -0.06896601617336273
0.08527135848999023 -0.3488371968269348 0.20584332942962646
0.08527135848999023 -0.3488371968269348 0.25404053926467896
0.08527135848999023 -0.3333333134651184 -0.1321306824684143
0.08527135848999023 -0.3333333134651184 -0.07182174921035767
0.08527135848999023 -0.3333333134651184 0.2073858231306076
0.08527135848999023 -0.3333333134651184 0.2542635202407837
0.08527135848999023 -0.317829430103302 -0.12966184318065643
0.08527135848999023 -0.317829430103302 -0.07337934523820877
0.08527135848999023 -0.317829430103302 0.2080508917570114
0.08527135848999023 -0.317829430103302 0.2546447515487671
0.08527135848999023 -0.30232560634613037 -0.1283070296049118
0.08527135848999023 -0.30232560634613037 -0.0740266963839531
0.08527135848999023 -0.30232560634613037 0.20823445916175842
0.08527135848999023 -0.30232560634613037 0.25516176223754883
0.08527135848999023 -0.28682172298431396 -0.13210855424404144
0.08527135848999023 -0.28682172298431396 -0.07409607619047165
0.08527135848999023 -0.28682172298431396 0.2086462825536728
0.08527135848999023 -0.28682172298431396 0.25558099150657654
0.08527135848999023 -0.27131783962249756 -0.1348162293434143
0.08527135848999023 -0.27131783962249756 -0.07380463927984238
0.08527135848999023 -0.27131783962249756 0.20863573253154755
0.08527135848999023 -0.27131780982017517 0.25582319498062134
0.08527135848999023 -0.25581395626068115 -0.13848447799682617
0.08527135848999023 -0.25581395626068115 -0.07277420163154602
0.08527135848999023 -0.25581395626068115 0.2085338681936264
0.08527135848999023 -0.25581392645835876 0.2560141086578369
0.08527135848999023 -0.24031007289886475 -0.14204788208007812
0.08527135848999023 -0.24031007289886475 -0.07137204706668854
0.08527135848999023 -0.24031007289886475 0.20789450407028198
0.08527135848999023 -0.24031007289886475 0.2561063766479492
0.08527135103940964 -0.22480618953704834 -0.1462274044752121
0.08527135848999023 -0.22480618953704834 -0.06968909502029419
0.08527135848999023 -0.22480618953704834 0.20685701072216034
0.08527136594057083 -0.22480618953704834 0.25602394342422485
0.08527135848999023 -0.20930230617523193 -0.14777380228042603
0.08527135848999023 -0.20930230617523193 -0.06787664443254471
0.08527135848999023 -0.20930230617523193 0.20568697154521942
0.08527135848999023 -0.20930230617523193 0.2559361755847931
0.08527135848999023 -0.19379842281341553 -0.14808927476406097
0.08527136594057083 -0.19379842281341553 -0.0670817419886589
0.08527135848999023 -0.19379842281341553 0.20499873161315918
0.08527135848999023 -0.19379843771457672 0.25594082474708557
0.08527135848999023 -0.1782945990562439 -0.1482078731060028
0.08527135848999023 -0.1782945990562439 -0.06765849888324738
0.08527135848999023 -0.1782945990562439 0.2049407958984375
0.08527135848999023 -0.1782945990562439 0.2559342682361603
0.08527135848999023 -0.1627907156944275 -0.1480274349451065
0.08527135848999023 -0.1627907156944275 -0.0678706169128418
0.08527135848999023 -0.1627907156944275 0.20597827434539795
0.08527135848999023 -0.1627907156944275 0.25593629479408264
0.08527135848999023 -0.14728683233261108 -0.1472301036119461
0.08527135103940964 -0.14728683233261108 -0.06728751957416534
0.08527135848999023 -0.14728683233261108 0.20769855380058289
0.08527136594057083 -0.14728683233261108 0.2560659348964691
0.08527135848999023 -0.13178294897079468 -0.1421532928943634
0.08527135848999023 -0.13178294897079468 -0.06687084585428238
0.08527135848999023 -0.13178294897079468 0.20900949835777283
0.08527135848999023 -0.13178294897079468 0.25618988275527954
0.08527135848999023 -0.11627906560897827 -0.1387777179479599
0.08527135848999023 -0.11627906560897827 -0.06704909354448318
0.08527135848999023 -0.11627906560897827 0.20928460359573364
0.08527135848999023 -0.11627907305955887 0.2563328742980957
0.08527135848999023 -0.10077518224716187 -0.13788065314292908
0.08527135848999023 -0.10077518224716187 -0.0685717761516571
0.08527135848999023 -0.10077518224716187 0.20928199589252472
0.08527135848999023 -0.10077518224716187 0.2563741207122803
0.08527135848999023 -0.08527129888534546 -0.1389724314212799
0.08527135848999023 -0.08527129888534546 -0.0719539150595665
0.08527135848999023 -0.08527129888534546 0.21012724936008453
0.08527135848999023 -0.08527129143476486 0.25639864802360535
0.08527135848999023 -0.06976741552352905 -0.1421082764863968
0.08527135848999023 -0.06976741552352905 -0.07067646086215973
0.08527135848999023 -0.06976741552352905 0.21127361059188843
0.08527136594057083 -0.06976741552352905 0.25648921728134155
0.08527135848999023 -0.05426359176635742 -0.14692610502243042
0.08527135848999023 -0.05426359176635742 -0.06830102205276489
0.08527135848999023 -0.05426359176635742 0.2111821174621582
0.08527135848999023 -0.05426359176635742 0.2565755546092987
0.08527135848999023 -0.038759708404541016 -0.14826630055904388
0.08527135848999023 -0.038759708404541016 -0.06811834871768951
0.08527135848999023 -0.038759708404541016 0.21014545857906342
0.08527136594057083 -0.038759708404541016 0.2566203474998474
0.08527135848999023 -0.02325582504272461 -0.14864425361156464
0.08527135848999023 -0.02325582504272461 -0.06812460720539093
0.08527135848999023 -0.02325582690536976 0.2095181792974472
0.08527135848999023 -0.02325582504272461 0.2566249966621399
0.08527135848999023 -0.007751941680908203 -0.1486680805683136
0.08527135848999023 -0.007751941680908203 -0.06758677214384079
0.08527135848999023 -0.00775194214656949 0.20940706133842468
0.08527135848999023 -0.007751941680908203 0.2565774917602539
0.08527135848999023 0.007751941680908203 -0.14855223894119263
0.08527135848999023 0.00775194214656949 -0.06817033141851425
0.08527136594057083 0.007751941680908203 0.21027140319347382
0.08527135848999023 0.007751941680908203 0.25653189420700073
0.08527135848999023 0.02325582504272461 -0.1485927253961563
0.08527135848999023 0.02325582504272461 -0.0689702183008194
0.08527135848999023 0.02325582504272461 0.2112054079771042
0.08527135848999023 0.02325582504272461 0.2565189301967621
0.08527135848999023 0.038759708404541016 -0.14857326447963715
0.08527135848999023 0.038759708404541016 -0.0706947073340416
0.08527135848999023 0.038759708404541016 0.2129194736480713
0.08527136594057083 0.038759708404541016 0.2564784288406372
0.08527135848999023 0.05426359176635742 -0.14842799305915833
0.08527135848999023 0.05426359176635742 -0.07285957783460617
0.08527135848999023 0.05426359176635742 0.21429690718650818
0.08527135848999023 0.05426358804106712 0.2565148174762726
0.08527135848999023 0.06976747512817383 -0.14824455976486206
0.08527135848999023 0.06976747512817383 -0.07465830445289612
0.08527135848999023 0.06976747512817383 0.21494516730308533
0.08527135848999023 0.06976747512817383 0.2565799653530121
0.08527135848999023 0.08527135848999023 -0.14836880564689636
0.08527135848999023 0.08527135848999023 -0.07500162720680237
0.08527135848999023 0.08527135848999023 0.21479539573192596
0.08527135848999023 0.08527135848999023 0.25660985708236694
0.08527135848999023 0.10077524185180664 -0.14945341646671295
0.08527135848999023 0.10077524185180664 -0.07389497011899948
0.08527135848999023 0.10077524185180664 0.21401025354862213
0.08527135103940964 0.10077524185180664 0.256631463766098
0.08527135848999023 0.11627912521362305 -0.15103857219219208
0.08527135848999023 0.11627912521362305 -0.07281585782766342
0.08527135848999023 0.11627911776304245 0.21285444498062134
0.08527136594057083 0.11627912521362305 0.25660866498947144
0.08527135848999023 0.1317828893661499 -0.15252695977687836
0.08527135848999023 0.1317828893661499 -0.07185105234384537
0.08527135848999023 0.1317828893661499 0.21215464174747467
0.08527135103940964 0.1317828893661499 0.2566569745540619
0.08527135848999023 0.1472867727279663 -0.15359973907470703
0.08527135848999023 0.1472867727279663 -0.07192589342594147
0.08527135103940964 0.1472867727279663 0.21105220913887024
0.08527136594057083 0.1472867727279663 0.2567172050476074
0.08527135848999023 0.16279065608978271 -0.15447276830673218
0.08527135848999023 0.16279065608978271 -0.07263968884944916
0.08527135848999023 0.16279065608978271 0.20964498817920685
0.08527135848999023 0.16279065608978271 0.2567152678966522
0.08527135848999023 0.17829453945159912 -0.1549251228570938
0.08527135848999023 0.17829453945159912 -0.07222189754247665
0.08527135848999023 0.17829453945159912 0.2086413949728012
0.08527135848999023 0.17829453945159912 0.25672563910484314
0.08527135848999023 0.19379842281341553 -0.15470090508460999
0.08527135848999023 0.19379842281341553 -0.0720069482922554
0.08527135848999023 0.19379842281341553 0.20756760239601135
0.08527135848999023 0.19379842281341553 0.2566841244697571
0.08527135848999023 0.20930230617523193 -0.15385028719902039
0.08527135848999023 0.20930230617523193 -0.07115858048200607
0.08527135848999023 0.20930230617523193 0.20663383603096008
0.08527136594057083 0.20930230617523193 0.25656452775001526
0.08527135848999023 0.22480618953704834 -0.15227386355400085
0.08527135848999023 0.22480618953704834 -0.06958173215389252
0.08527135848999023 0.22480618953704834 0.20651878416538239
0.08527135848999023 0.22480617463588715 0.2564581036567688
0.08527135848999023 0.24031007289886475 -0.1508692055940628
0.08527135848999023 0.24031007289886475 -0.06882058084011078
0.08527135848999023 0.24031007289886475 0.2070133239030838
0.08527135848999023 0.24031007289886475 0.2564302980899811
0.08527135848999023 0.25581395626068115 -0.1495918333530426
0.08527135848999023 0.25581395626068115 -0.06863408535718918
0.08527135848999023 0.25581395626068115 0.2074802815914154
0.08527135848999023 0.25581395626068115 0.25632306933403015
0.08527135848999023 0.27131783962249756 -0.14820286631584167
0.08527135848999023 0.27131780982017517 -0.06897174566984177
0.08527135848999023 0.27131783962249756 0.2082151472568512
0.08527136594057083 0.27131783962249756 0.2562136948108673
0.08527135848999023 0.28682172298431396 -0.1474636346101761
0.08527135848999023 0.28682172298431396 -0.06910239905118942
0.08527135848999023 0.28682172298431396 0.2085113525390625
0.08527135848999023 0.28682172298431396 0.2561090886592865
0.08527135848999023 0.30232560634613037 -0.14728055894374847
0.08527135103940964 0.30232560634613037 -0.06878034770488739
0.08527135848999023 0.30232560634613037 0.208057701587677
0.08527135848999023 0.30232560634613037 0.2559412717819214
0.08527135848999023 0.3178294897079468 -0.14757025241851807
0.08527135848999023 0.3178294897079468 -0.0684986263513565
0.08527135848999023 0.3178294897079468 0.20769166946411133
0.08527135848999023 0.3178294897079468 0.2558479607105255
0.08527135848999023 0.3333333730697632 -0.14770223200321198
0.08527135848999023 0.3333333730697632 -0.06828708946704865
0.08527135848999023 0.3333333730697632 0.2069203108549118
0.08527135848999023 0.3333333730697632 0.25574126839637756
0.08527135848999023 0.3488372564315796 -0.14501529932022095
0.08527135848999023 0.348837286233902 -0.06826737523078918
0.08527135848999023 0.3488372564315796 0.20550821721553802
0.08527135848999023 0.3488372564315796 0.25572469830513
0.08527135848999023 0.364341139793396 -0.14035262167453766
0.08527135848999023 0.364341139793396 -0.06865990161895752
0.08527135848999023 0.364341139793396 0.20428021252155304
0.08527135848999023 0.364341139793396 0.25562116503715515
0.08527135848999023 0.37984490394592285 -0.13793644309043884
0.08527135848999023 0.37984490394592285 -0.0692899078130722
0.08527135848999023 0.37984490394592285 0.20298460125923157
0.08527135848999023 0.37984490394592285 0.25560495257377625
0.08527135848999023 0.39534878730773926 -0.13436923921108246
0.08527135848999023 0.39534878730773926 -0.07085779309272766
0.08527135848999023 0.39534878730773926 0.20226401090621948
0.08527135848999023 0.39534878730773926 0.25553715229034424
0.08527135848999023 0.41085267066955566 -0.12698929011821747
0.08527135848999023 0.41085267066955566 -0.07249314337968826
0.08527135848999023 0.41085267066955566 0.20157410204410553
0.08527135848999023 0.41085267066955566 0.25530681014060974
0.08527135848999023 0.42635655403137207 -0.12376172840595245
0.08527135848999023 0.42635655403137207 -0.0739835873246193
0.08527135848999023 0.42635655403137207 0.20182564854621887
0.08527135848999023 0.42635655403137207 0.2550964057445526
0.08527135848999023 0.4418604373931885 -0.12527000904083252
0.08527135848999023 0.4418604373931885 -0.07509512454271317
0.08527135848999023 0.4418604373931885 0.20275142788887024
0.08527135848999023 0.4418604373931885 0.255148708820343
0.08527135848999023 0.4573643207550049 -0.13129688799381256
0.08527135848999023 0.4573643207550049 -0.07581471651792526
0.08527135848999023 0.4573643207550049 0.2035408765077591
0.08527135848999023 0.4573643207550049 0.255227655172348
0.08527135848999023 0.4728682041168213 -0.13528893887996674
0.08527135848999023 0.4728682041168213 -0.07614020258188248
0.08527135848999023 0.4728682041168213 0.2038179486989975
0.08527135848999023 0.4728682041168213 0.2550927698612213
0.08527135848999023 0.4883720874786377 -0.13866707682609558
0.08527135848999023 0.4883720874786377 -0.075505331158638
0.08527135848999023 0.4883720874786377 0.20361396670341492
0.08527135848999023 0.4883720874786377 0.25496095418930054
0.08527135848999023 0.5038759708404541 -0.14187508821487427
0.08527135848999023 0.5038759708404541 -0.07406724989414215
0.08527135848999023 0.5038759708404541 0.2033368945121765
0.08527135848999023 0.5038759708404541 0.2547711133956909
0.08527135848999023 0.5193798542022705 -0.14467161893844604
0.08527135848999023 0.5193798542022705 -0.07304277271032333
0.08527135848999023 0.5193798542022705 0.2034841924905777
0.08527135848999023 0.5193798542022705 0.2547752559185028
0.08527135848999023 0.5348837375640869 -0.14748403429985046
0.08527135848999023 0.5348837375640869 -0.07316425442695618
0.08527135848999023 0.5348837375640869 0.20306061208248138
0.08527135848999023 0.5348837375640869 0.25475406646728516
0.08527135848999023 0.5503876209259033 -0.1483147144317627
0.08527135848999023 0.5503876209259033 -0.07524965703487396
0.08527135848999023 0.5503876209259033 0.20278307795524597
0.08527135848999023 0.5503876209259033 0.2546992897987366
0.08527135848999023 0.5658915042877197 -0.14868851006031036
0.08527135848999023 0.5658915042877197 -0.07502292096614838
0.08527135848999023 0.5658915042877197 0.20208367705345154
0.08527135848999023 0.5658915042877197 0.2548695504665375
0.08527135848999023 0.5813953876495361 -0.14847436547279358
0.08527135848999023 0.5813953876495361 -0.07380694150924683
0.08527135848999023 0.5813953876495361 0.20116853713989258
0.08527135848999023 0.5813953876495361 0.2549170255661011
0.08527135848999023 0.5968992710113525 -0.148481547832489
0.08527135848999023 0.5968992710113525 -0.07293269038200378
0.08527135848999023 0.5968992710113525 0.058855898678302765
0.08527135848999023 0.5968992710113525 0.08310014009475708
0.08527135848999023 0.5968992710113525 0.20007263123989105
0.08527135848999023 0.5968992710113525 0.25470471382141113
0.08527135848999023 0.612403154373169 -0.14950571954250336
0.08527135848999023 0.612403154373169 -0.07268235832452774
0.08527135848999023 0.612403154373169 0.06323537230491638
0.08527135848999023 0.612403154373169 0.07659080624580383
0.08527135848999023 0.612403154373169 0.2006077766418457
0.08527135848999023 0.612403154373169 0.25444579124450684
0.08527135848999023 0.6279069185256958 -0.15138769149780273
0.08527135848999023 0.6279069185256958 -0.06998289376497269
0.08527135848999023 0.6279069185256958 0.20080488920211792
0.08527135848999023 0.6279069185256958 0.25422513484954834
0.08527135848999023 0.6434108018875122 -0.15351629257202148
0.08527135848999023 0.6434108018875122 -0.06702086329460144
0.08527135848999023 0.6434108018875122 0.19997267425060272
0.08527135848999023 0.6434108018875122 0.254030704498291
0.08527135848999023 0.6589146852493286 -0.15500493347644806
0.08527135848999023 0.6589146852493286 -0.0664605125784874
0.08527135848999023 0.6589146852493286 0.19950902462005615
0.08527135848999023 0.6589146852493286 0.2538921535015106
0.08527135848999023 0.674418568611145 -0.15632998943328857
0.08527135848999023 0.674418568611145 -0.0629107728600502
0.08527135848999023 0.674418568611145 0.19803205132484436
0.08527135848999023 0.674418568611145 0.2538086473941803
0.08527135848999023 0.6899224519729614 -0.15739372372627258
0.08527135848999023 0.6899224519729614 -0.05736217647790909
0.08527135848999023 0.6899225115776062 0.1957627534866333
0.08527135848999023 0.6899224519729614 0.2536357641220093
0.08527135848999023 0.7054263353347778 -0.1582363247871399
0.08527135848999023 0.7054263353347778 -0.05156627297401428
0.08527135848999023 0.7054263353347778 0.19386883080005646
0.08527135848999023 0.7054263353347778 0.2535439133644104
0.08527135848999023 0.7209302186965942 -0.15924610197544098
0.08527136594057083 0.720930278301239 -0.053590986877679825
0.08527135848999023 0.7209302186965942 0.19225555658340454
0.08527135848999023 0.7209302186965942 0.25354456901550293
0.08527135848999023 0.7364340424537659 -0.16052083671092987
0.08527135848999023 0.7364341020584106 -0.06221529096364975
0.08527135848999023 0.7364341020584106 0.1896708756685257
0.08527135848999023 0.7364341020584106 0.2537679970264435
0.08527135848999023 0.751937985420227 -0.16255030035972595
0.08527135848999023 0.751937985420227 -0.06174176186323166
0.08527135848999023 0.751937985420227 0.18576011061668396
0.08527135848999023 0.751937985420227 0.2541971206665039
0.08527135848999023 0.7674418687820435 -0.1631973832845688
0.08527135848999023 0.7674418687820435 -0.04182873293757439
0.08527135848999023 0.7674419283866882 -0.03819163143634796
0.08527135848999023 0.7674418687820435 -0.010431839153170586
0.08527135848999023 0.7674418687820435 0.00023894826881587505
0.08527135848999023 0.7674418091773987 0.039073821157217026
0.08527136594057083 0.7674418687820435 0.18085895478725433
0.08527135848999023 0.7674418687820435 0.25468191504478455
0.08527135848999023 0.7829457521438599 -0.16353702545166016
0.08527135848999023 0.7829457521438599 0.04762350022792816
0.08527135848999023 0.7829457521438599 0.17464467883110046
0.08527135848999023 0.7829457521438599 0.2551696002483368
0.08527135848999023 0.7984496355056763 -0.1636776179075241
0.08527135848999023 0.7984496355056763 0.03980796039104462
0.08527135848999023 0.7984496355056763 0.17110876739025116
0.08527135848999023 0.7984496355056763 0.25529128313064575
0.08527135848999023 0.8139535188674927 -0.1638820469379425
0.08527135848999023 0.8139535188674927 0.015845879912376404
0.08527135848999023 0.8139535188674927 0.17203271389007568
0.08527135848999023 0.8139535188674927 0.25528445839881897
0.08527135848999023 0.8294574022293091 -0.1642048954963684
0.08527135848999023 0.8294574022293091 -0.0010182159021496773
0.08527135848999023 0.8294574022293091 0.17698487639427185
0.08527135848999023 0.8294574022293091 0.2552374601364136
0.08527135848999023 0.8449612855911255 -0.16444532573223114
0.08527136594057083 0.8449612855911255 -0.005837179720401764
0.08527135848999023 0.8449612855911255 0.18011809885501862
0.08527135848999023 0.8449612855911255 0.2551579773426056
0.08527135848999023 0.8604651689529419 -0.16467420756816864
0.08527135848999023 0.8604652285575867 -0.004140377044677734
0.08527135103940964 0.8604651689529419 0.18167662620544434
0.08527135848999023 0.8604651689529419 0.25495943427085876
0.08527135848999023 0.8759689331054688 -0.16503246128559113
0.08527135848999023 0.8759689331054688 0.006966354325413704
0.08527135848999023 0.8759689927101135 0.18001048266887665
0.08527135848999023 0.8759689331054688 0.25477778911590576
0.08527135848999023 0.8914728164672852 -0.16544127464294434
0.08527135848999023 0.8914728164672852 0.16164235770702362
0.08527135848999023 0.8914728164672852 0.16383321583271027
0.08527135848999023 0.8914728164672852 0.25457215309143066
0.08527135848999023 0.9069766998291016 -0.16580112278461456
0.08527135848999023 0.9069766998291016 0.25202178955078125
0.08527135848999023 0.922480583190918 -0.16635680198669434
0.08527135848999023 0.922480583190918 0.247558131814003
0.08527135848999023 0.9379844665527344 -0.16759352385997772
0.08527135848999023 0.9379844665527344 0.22667516767978668
0.08527135848999023 0.9534883499145508 -0.17025603353977203
0.08527135848999023 0.9534883499145508 -0.05743382126092911
0.08527135848999023 0.9534883499145508 0.034386083483695984
0.08527135848999023 0.9534883499145508 0.17967072129249573
0.08527135848999023 0.9689922332763672 -0.1662759929895401
0.08527135848999023 0.9689922332763672 -0.15135589241981506
0.10077524185180664 -0.9689922332763672 -0.1526627093553543
0.10077524930238724 -0.9689922332763672 -0.13177984952926636
0.10077524185180664 -0.9534884095191956 -0.15851467847824097
0.10077524185180664 -0.9534883499145508 0.007479078136384487
0.10077524185180664 -0.9534883499145508 0.053713954985141754
0.10077524185180664 -0.9534883499145508 0.16817888617515564
0.10077524185180664 -0.9379844665527344 -0.15288303792476654
0.10077524185180664 -0.9379844665527344 0.20337599515914917
0.10077524185180664 -0.9224806427955627 -0.15101879835128784
0.10077524185180664 -0.922480583190918 0.22951027750968933
0.10077524185180664 -0.9069767594337463 -0.15112407505512238
0.10077523440122604 -0.9069766998291016 0.24511215090751648
0.10077524185180664 -0.8914728164672852 -0.15059642493724823
0.10077524185180664 -0.8914728760719299 0.25142860412597656
0.10077524185180664 -0.8759689927101135 -0.14987212419509888
0.10077524185180664 -0.8759689927101135 0.2535872161388397
0.10077524185180664 -0.8604651093482971 -0.14981067180633545
0.10077524185180664 -0.8604651093482971 0.25368279218673706
0.10077524185180664 -0.8449612259864807 -0.14946918189525604
0.10077524185180664 -0.8449612259864807 0.25369077920913696
0.10077524185180664 -0.8294573426246643 -0.14870883524417877
0.10077524185180664 -0.8294573426246643 0.11060181260108948
0.10077524185180664 -0.8294574022293091 0.12699835002422333
0.10077524185180664 -0.8294573426246643 0.25347331166267395
0.10077524185180664 -0.8139535188674927 -0.1479846090078354
0.10077524185180664 -0.8139535188674927 0.09861350804567337
0.10077524185180664 -0.8139535188674927 0.13811853528022766
0.10077524185180664 -0.8139535188674927 0.25309833884239197
0.10077524185180664 -0.7984496355056763 -0.14744125306606293
0.10077524185180664 -0.7984496355056763 0.0853668600320816
0.10077524185180664 -0.7984496355056763 0.15543970465660095
0.10077524185180664 -0.7984496355056763 0.2526414692401886
0.10077524185180664 -0.7829457521438599 -0.14416757225990295
0.10077524185180664 -0.7829457521438599 0.07754451781511307
0.10077524930238724 -0.7829457521438599 0.18197762966156006
0.10077524185180664 -0.7829457521438599 0.25216731429100037
0.10077524185180664 -0.7674418687820435 -0.13984432816505432
0.10077524185180664 -0.7674418687820435 0.0704655721783638
0.10077524185180664 -0.7674418687820435 0.1889474093914032
0.10077524185180664 -0.7674418687820435 0.2517116963863373
0.10077524185180664 -0.751937985420227 -0.1374904066324234
0.10077524185180664 -0.751937985420227 0.011722567491233349
0.10077524185180664 -0.7519380450248718 0.02675980143249035
0.10077524185180664 -0.751937985420227 0.04490731284022331
0.10077524185180664 -0.7519380450248718 0.1940934807062149
0.10077524185180664 -0.751937985420227 0.2513740360736847
0.10077524185180664 -0.7364341020584106 -0.1361994743347168
0.10077524185180664 -0.7364341020584106 -0.04163017123937607
0.10077524185180664 -0.7364341020584106 0.19678828120231628
0.10077524185180664 -0.7364341020584106 0.2513124942779541
0.10077524185180664 -0.7209302186965942 -0.13586610555648804
0.10077524185180664 -0.7209302186965942 -0.04761594533920288
0.10077524185180664 -0.7209302186965942 0.1994020640850067
0.10077524185180664 -0.7209302186965942 0.25151363015174866
0.10077524185180664 -0.7054263353347778 -0.13602381944656372
0.10077524185180664 -0.7054263353347778 -0.054592594504356384
0.10077524185180664 -0.7054263353347778 0.20193013548851013
0.10077524185180664 -0.7054263353347778 0.2518196105957031
0.10077524185180664 -0.6899224519729614 -0.1365516036748886
0.10077524185180664 -0.6899224519729614 -0.056453052908182144
0.10077524185180664 -0.6899224519729614 0.2024243175983429
0.10077524185180664 -0.6899224519729614 0.2522161602973938
0.10077524185180664 -0.674418568611145 -0.13802072405815125
0.10077524185180664 -0.674418568611145 -0.05524025112390518
0.10077524185180664 -0.674418568611145 0.20150446891784668
0.10077524185180664 -0.674418568611145 0.25250691175460815
0.10077524185180664 -0.6589146852493286 -0.14008896052837372
0.10077524185180664 -0.6589146852493286 -0.053538620471954346
0.10077524185180664 -0.6589146852493286 0.20161929726600647
0.10077524185180664 -0.6589146852493286 0.25267231464385986
0.10077524185180664 -0.643410861492157 -0.14191392064094543
0.10077524185180664 -0.643410861492157 -0.046674858778715134
0.10077524185180664 -0.643410861492157 0.20147734880447388
0.10077524185180664 -0.643410861492157 0.25288769602775574
0.10077524185180664 -0.6279070377349854 -0.14319241046905518
0.10077524185180664 -0.6279069781303406 -0.046401530504226685
0.10077524185180664 -0.6279069185256958 0.20152145624160767
0.10077524185180664 -0.6279069781303406 0.25295087695121765
0.10077524185180664 -0.6124030947685242 -0.14474551379680634
0.10077524185180664 -0.6124030947685242 -0.0570850744843483
0.10077524185180664 -0.6124030947685242 0.20156942307949066
0.10077524185180664 -0.6124030947685242 0.25281813740730286
0.10077523440122604 -0.5968992114067078 -0.1455719769001007
0.10077524185180664 -0.5968992114067078 -0.0613669790327549
0.10077524185180664 -0.5968992114067078 0.20084595680236816
0.10077524185180664 -0.5968992114067078 0.25251927971839905
0.10077524185180664 -0.5813953876495361 -0.14467820525169373
0.10077524185180664 -0.5813953876495361 -0.06391255557537079
0.10077523440122604 -0.5813953876495361 0.1989915519952774
0.10077524185180664 -0.5813953876495361 0.25226935744285583
0.10077524185180664 -0.5658915042877197 -0.1418951153755188
0.10077523440122604 -0.5658915042877197 -0.06576954573392868
0.10077524185180664 -0.5658915042877197 0.19764530658721924
0.10077524185180664 -0.5658915042877197 0.25189530849456787
0.10077524185180664 -0.5503876209259033 -0.13943269848823547
0.10077524185180664 -0.5503876209259033 -0.06291553378105164
0.10077524185180664 -0.5503876209259033 0.19784823060035706
0.10077524185180664 -0.5503876209259033 0.2517443299293518
0.10077524185180664 -0.5348837375640869 -0.13768494129180908
0.10077524185180664 -0.5348837375640869 -0.059551071375608444
0.10077524185180664 -0.5348837375640869 0.19870629906654358
0.10077524185180664 -0.5348837375640869 0.25190144777297974
0.10077524185180664 -0.5193798542022705 -0.1358555108308792
0.10077524185180664 -0.5193798542022705 -0.05859113484621048
0.10077524185180664 -0.5193798542022705 0.19828614592552185
0.10077524185180664 -0.5193798542022705 0.2521687150001526
0.10077524185180664 -0.5038759708404541 -0.1341448575258255
0.10077524185180664 -0.5038759708404541 -0.05920960381627083
0.10077524185180664 -0.5038759708404541 0.19887688755989075
0.10077524185180664 -0.5038759708404541 0.2523723840713501
0.10077524185180664 -0.4883720874786377 -0.1330128312110901
0.10077524185180664 -0.4883720874786377 -0.058811005204916
0.10077524185180664 -0.4883720874786377 0.20003661513328552
0.10077524185180664 -0.4883720874786377 0.25258970260620117
0.10077524185180664 -0.4728682041168213 -0.132579043507576
0.10077524185180664 -0.4728682041168213 -0.059495873749256134
0.10077524185180664 -0.4728682041168213 0.19956693053245544
0.10077524185180664 -0.4728682041168213 0.25283047556877136
0.10077524185180664 -0.4573643207550049 -0.13300752639770508
0.10077524185180664 -0.4573643207550049 -0.060984089970588684
0.10077524185180664 -0.45736435055732727 0.1986633539199829
0.10077524185180664 -0.4573643207550049 0.25283053517341614
0.10077524185180664 -0.4418604373931885 -0.13356292247772217
0.10077524185180664 -0.4418604373931885 -0.061542339622974396
0.10077524185180664 -0.4418604373931885 0.19792857766151428
0.10077524185180664 -0.4418604373931885 0.25276803970336914
0.10077524185180664 -0.42635661363601685 -0.13392800092697144
0.10077524185180664 -0.42635661363601685 -0.061770521104335785
0.10077524185180664 -0.42635661363601685 0.19790980219841003
0.10077524185180664 -0.42635661363601685 0.2526737451553345
0.10077524185180664 -0.41085273027420044 -0.1340666562318802
0.10077524185180664 -0.41085273027420044 -0.062139131128787994
0.10077524185180664 -0.41085273027420044 0.1988571137189865
0.10077524185180664 -0.41085273027420044 0.25257277488708496
0.10077524185180664 -0.39534884691238403 -0.13420513272285461
0.10077524185180664 -0.39534884691238403 -0.06180041283369064
0.10077524185180664 -0.39534884691238403 0.2000933736562729
0.10077524185180664 -0.39534884691238403 0.2524178624153137
0.10077524185180664 -0.3798449635505676 -0.1340053379535675
0.10077524185180664 -0.3798449635505676 -0.06294161081314087
0.10077524185180664 -0.3798449635505676 0.20146054029464722
0.10077524185180664 -0.3798449635505676 0.2522948086261749
0.10077524185180664 -0.3643410801887512 -0.13379034399986267
0.10077524185180664 -0.3643410801887512 -0.06465548276901245
0.10077524185180664 -0.3643410801887512 0.2027016282081604
0.10077524185180664 -0.3643410801887512 0.2522820234298706
0.10077524185180664 -0.3488371968269348 -0.13332752883434296
0.10077524185180664 -0.3488371968269348 -0.06738603860139847
0.10077524185180664 -0.3488371968269348 0.204384908080101
0.10077524185180664 -0.3488371968269348 0.2522900402545929
0.10077524185180664 -0.3333333134651184 -0.1325467973947525
0.10077524185180664 -0.3333333134651184 -0.07036939263343811
0.10077524185180664 -0.3333333134651184 0.20595784485340118
0.10077524185180664 -0.3333333134651184 0.25241565704345703
0.10077524930238724 -0.317829430103302 -0.13020232319831848
0.10077524185180664 -0.317829430103302 -0.0722799003124237
0.10077524185180664 -0.317829430103302 0.20665286481380463
0.10077524185180664 -0.317829430103302 0.25271356105804443
0.10077524185180664 -0.30232560634613037 -0.12860234081745148
0.10077524185180664 -0.30232560634613037 -0.07318465411663055
0.10077524185180664 -0.30232560634613037 0.2070014327764511
0.10077524185180664 -0.30232560634613037 0.2531765103340149
0.10077524185180664 -0.28682172298431396 -0.13251881301403046
0.10077524185180664 -0.28682172298431396 -0.0735345110297203
0.10077524185180664 -0.28682172298431396 0.20775100588798523
0.10077524185180664 -0.28682172298431396 0.2535860538482666
0.10077524185180664 -0.27131783962249756 -0.1358080804347992
0.10077524185180664 -0.27131783962249756 -0.07342716306447983
0.10077524185180664 -0.27131783962249756 0.2078082114458084
0.10077524185180664 -0.27131783962249756 0.25390732288360596
0.10077524185180664 -0.25581395626068115 -0.14073315262794495
0.10077524185180664 -0.25581395626068115 -0.07245440036058426
0.10077524185180664 -0.25581395626068115 0.20775564014911652
0.10077524185180664 -0.25581395626068115 0.2544250190258026
0.10077524185180664 -0.24031007289886475 -0.14702782034873962
0.10077524185180664 -0.24031007289886475 -0.07123463600873947
0.10077524185180664 -0.24031007289886475 0.2072090208530426
0.10077524185180664 -0.24031007289886475 0.254680335521698
0.10077524185180664 -0.22480618953704834 -0.1486159861087799
0.10077524185180664 -0.22480618953704834 -0.06979259103536606
0.10077524185180664 -0.22480618953704834 0.20618942379951477
0.10077524185180664 -0.22480618953704834 0.25450265407562256
0.10077524185180664 -0.20930230617523193 -0.1495622843503952
0.10077524185180664 -0.20930230617523193 -0.06811892241239548
0.10077524185180664 -0.20930230617523193 0.20497670769691467
0.10077524185180664 -0.20930230617523193 0.2542935013771057
0.10077524185180664 -0.19379842281341553 -0.15001249313354492
0.10077524185180664 -0.19379842281341553 -0.06747700273990631
0.10077524185180664 -0.19379842281341553 0.20416700839996338
0.10077524185180664 -0.19379842281341553 0.25429049134254456
0.10077524185180664 -0.1782945990562439 -0.1501622498035431
0.10077524930238724 -0.1782945990562439 -0.06824594736099243
0.10077524185180664 -0.1782945990562439 0.20392295718193054
0.10077524185180664 -0.1782945990562439 0.2542535066604614
0.10077524185180664 -0.1627907156944275 -0.14995096623897552
0.10077524185180664 -0.1627907156944275 -0.06855706125497818
0.10077524185180664 -0.1627907156944275 0.20488974452018738
0.10077524185180664 -0.1627907156944275 0.25425785779953003
0.10077524185180664 -0.14728683233261108 -0.1490328013896942
0.10077524185180664 -0.14728683233261108 -0.06793801486492157
0.10077524185180664 -0.14728683233261108 0.20663417875766754
0.10077524185180664 -0.14728683233261108 0.2545825242996216
0.10077524185180664 -0.13178296387195587 -0.14706572890281677
0.10077524185180664 -0.13178294897079468 -0.06752879172563553
0.10077524185180664 -0.13178294897079468 0.2078990787267685
0.10077524185180664 -0.13178294897079468 0.2548882067203522
0.10077524185180664 -0.11627906560897827 -0.14129632711410522
0.10077523440122604 -0.11627905815839767 -0.06768892705440521
0.10077524185180664 -0.11627906560897827 0.20821736752986908
0.10077524185180664 -0.11627906560897827 0.2552582919597626
0.10077524185180664 -0.10077518224716187 -0.13997504115104675
0.10077524185180664 -0.10077518224716187 -0.06937752664089203
0.10077524185180664 -0.10077518224716187 0.20818129181861877
0.10077524185180664 -0.10077518224716187 0.2553936839103699
0.10077524930238724 -0.08527129888534546 -0.14148558676242828
0.10077524185180664 -0.08527129888534546 -0.07354843616485596
0.10077524185180664 -0.08527129888534546 0.2085334211587906
0.10077524185180664 -0.08527129888534546 0.2555127739906311
0.10077524185180664 -0.06976741552352905 -0.1464918702840805
0.10077524185180664 -0.06976741552352905 -0.07227583229541779
0.10077524185180664 -0.06976741552352905 0.20940811932086945
0.10077524185180664 -0.06976741552352905 0.2557482123374939
0.10077524185180664 -0.05426359176635742 -0.14872583746910095
0.10077524185180664 -0.05426359176635742 -0.06893864274024963
0.10077524185180664 -0.05426358804106712 0.2095358967781067
0.10077524185180664 -0.05426359176635742 0.25586414337158203
0.10077524185180664 -0.038759708404541016 -0.1499626189470291
0.10077524185180664 -0.038759708404541016 -0.06861512362957001
0.10077524185180664 -0.038759708404541016 0.20868904888629913
0.10077524185180664 -0.038759708404541016 0.2558997869491577
0.10077524185180664 -0.02325582504272461 -0.15041957795619965
0.10077524185180664 -0.02325582504272461 -0.06855886429548264
0.10077524185180664 -0.02325582504272461 0.2082732617855072
0.10077524930238724 -0.02325582504272461 0.25588458776474
0.10077524185180664 -0.007751941680908203 -0.150454580783844
0.10077524185180664 -0.007751941680908203 -0.06792508065700531
0.10077524185180664 -0.007751941680908203 0.20814625918865204
0.10077524185180664 -0.007751941680908203 0.2558094263076782
0.10077524185180664 0.007751941680908203 -0.15025624632835388
0.10077524185180664 0.007751941680908203 -0.06833246350288391
0.10077524185180664 0.007751941680908203 0.20858123898506165
0.10077524185180664 0.007751941680908203 0.25561103224754333
0.10077524185180664 0.02325582504272461 -0.15024760365486145
0.10077524185180664 0.02325582504272461 -0.06888917088508606
0.10077524185180664 0.02325582504272461 0.20900551974773407
0.10077524185180664 0.02325582504272461 0.2555157244205475
0.10077524185180664 0.038759708404541016 -0.15020906925201416
0.10077524185180664 0.038759708404541016 -0.07028526812791824
0.10077524185180664 0.038759708404541016 0.21055889129638672
0.10077524185180664 0.038759708404541016 0.2553601562976837
0.10077524185180664 0.05426359176635742 -0.1500442624092102
0.10077524185180664 0.05426359176635742 -0.0724758580327034
0.10077524185180664 0.05426359176635742 0.21213945746421814
0.10077524185180664 0.05426359176635742 0.2554222643375397
0.10077524185180664 0.06976747512817383 -0.14983731508255005
0.10077524185180664 0.06976747512817383 -0.07447229325771332
0.10077524185180664 0.06976747512817383 0.2130165696144104
0.10077524185180664 0.06976747512817383 0.25559478998184204
0.10077524185180664 0.08527135848999023 -0.15001030266284943
0.10077524185180664 0.08527135848999023 -0.0750422477722168
