0.10077524185180664 0.13612279295921326 0.875968873500824
0.11627912521362305 -0.11929507553577423 0.7984496355056763
0.11627912521362305 -0.12296804785728455 0.8139535188674927
0.11627912521362305 -0.12515833973884583 0.8294574022293091
0.11627913266420364 -0.12599250674247742 0.8449612855911255
0.11627912521362305 -0.12536075711250305 0.8604651689529419
0.11627912521362305 -0.12285543233156204 0.8759689331054688
0.11627912521362305 -0.11869050562381744 0.8914728164672852
0.11627912521362305 -0.10614093393087387 0.751937985420227
0.11627912521362305 -0.11082926392555237 0.7674418687820435
0.11627912521362305 -0.11422695964574814 0.7829457521438599
0.11627912521362305 -0.10932612419128418 0.9069766998291016
0.11627912521362305 -0.08572831004858017 0.7209302186965942
0.11627913266420364 -0.0967421904206276 0.7364341020584106
0.11627912521362305 -0.09561433643102646 0.922480583190918
0.11627912521362305 -0.0751219242811203 0.9379844665527344
0.11627912521362305 -0.06693975627422333 0.7054263353347778
0.11627912521362305 -0.03841540962457657 0.6899224519729614
0.11627912521362305 -0.033838897943496704 0.953488290309906
0.11627912521362305 0.03428308665752411 0.9534883499145508
0.11627912521362305 0.04698013886809349 0.6899224519729614
0.11627912521362305 0.07309706509113312 0.7054263353347778
0.11627912521362305 0.07548362016677856 0.9379845261573792
0.11627912521362305 0.0872287005186081 0.7209302186965942
0.11627912521362305 0.09641727805137634 0.7364341020584106
0.11627912521362305 0.09474677592515945 0.922480583190918
0.11627912521362305 0.10430008172988892 0.751937985420227
0.11627912521362305 0.11051421612501144 0.7674418687820435
0.11627912521362305 0.11541017144918442 0.7829457521438599
0.11627912521362305 0.10882110893726349 0.9069766998291016
0.11627912521362305 0.12058709561824799 0.7984496355056763
0.11627912521362305 0.12421853840351105 0.8139535188674927
0.11627912521362305 0.12603235244750977 0.8294574022293091
0.11627912521362305 0.12649857997894287 0.8449612855911255
0.11627912521362305 0.1252993792295456 0.8604651689529419
0.11627912521362305 0.1225098967552185 0.8759689331054688
0.11627912521362305 0.11673971265554428 0.8914728164672852
0.1317828893661499 -0.10519222915172577 0.8139535188674927
0.1317828893661499 -0.10826584696769714 0.8294574022293091
0.1317828893661499 -0.1092071682214737 0.8449612855911255
0.1317828893661499 -0.10812963545322418 0.8604651689529419
0.1317828893661499 -0.10496994853019714 0.8759689331054688
0.1317828893661499 -0.08858095109462738 0.7674418687820435
0.1317828893661499 -0.09492506831884384 0.7829457521438599
0.1317828893661499 -0.09956113994121552 0.7984496355056763
0.1317828893661499 -0.09880220144987106 0.8914728164672852
0.1317828893661499 -0.08900247514247894 0.9069766998291016
0.1317828893661499 -0.07801982760429382 0.751937985420227
0.1317828893661499 -0.07026294618844986 0.922480583190918
0.1317828893661499 -0.06331177800893784 0.7364341020584106
0.1317828893661499 -0.04065519571304321 0.7209302186965942
0.1317828893661499 -0.04188702255487442 0.9379844665527344
0.1317828893661499 0.05416017770767212 0.7209302186965942
0.1317828893661499 0.04313916340470314 0.9379844665527344
0.1317828893661499 0.06953737139701843 0.7364341020584106
0.1317828893661499 0.08077496290206909 0.751937985420227
0.1317828893661499 0.07107317447662354 0.922480583190918
0.1317828893661499 0.09008094668388367 0.7674418687820435
0.1317828893661499 0.09657025337219238 0.7829457521438599
0.1317828893661499 0.09808561205863953 0.8914728164672852
0.1317828893661499 0.08784385025501251 0.9069766998291016
0.1317828893661499 0.1017400324344635 0.7984496355056763
0.1317828893661499 0.10601337254047394 0.8139535188674927
0.1317828893661499 0.1083161011338234 0.8294574022293091
0.1317828893661499 0.10877660661935806 0.8449612855911255
0.1317828893661499 0.10727201402187347 0.8604651689529419
0.1317828893661499 0.10373775660991669 0.8759689331054688
0.1472867727279663 -0.07634907215833664 0.8139535188674927
0.1472867727279663 -0.08023747056722641 0.8294574022293091
0.1472867727279663 -0.08182955533266068 0.8449612855911255
0.1472867727279663 -0.08153354376554489 0.8604651689529419
0.1472867727279663 -0.07650110125541687 0.8759689331054688
0.1472867727279663 -0.07046288251876831 0.8914728164672852
0.1472867727279663 -0.06002882868051529 0.7829457521438599
0.1472867727279663 -0.06847012042999268 0.7984495759010315
0.1472867727279663 -0.05532212182879448 0.9069766998291016
0.1472867727279663 -0.045921750366687775 0.7674418687820435
0.1472867727279663 -0.027001528069376945 0.922480583190918
0.1472867727279663 -0.021961228922009468 0.751937985420227
0.1472867727279663 0.03722666949033737 0.751937985420227
0.1472867727279663 0.026412654668092728 0.9224805235862732
0.1472867727279663 0.054816920310258865 0.7674418091773987
0.1472867727279663 0.06525244563817978 0.7829457521438599
0.1472867727279663 0.06928278505802155 0.8914728164672852
0.1472867727279663 0.054887209087610245 0.9069766998291016
0.1472867727279663 0.07303333282470703 0.7984496355056763
0.1472867727279663 0.07902136445045471 0.8139535188674927
0.1472867727279663 0.08229303359985352 0.8294574022293091
0.1472867727279663 0.08330667018890381 0.8449612855911255
0.1472867727279663 0.0823967456817627 0.8604651689529419
0.1472867727279663 0.07814620435237885 0.8759689331054688
0.16279065608978271 -0.032315827906131744 0.8294574022293091
0.16279065608978271 -0.036778464913368225 0.8449613451957703
0.16279064118862152 -0.03567418456077576 0.8604651689529419
0.16279065608978271 -0.02719901129603386 0.8759689331054688
0.16279065608978271 -0.01941290870308876 0.8139534592628479
0.16279065608978271 0.028951961547136307 0.8139535188674927
0.16279065608978271 0.02745749056339264 0.8759689331054688
0.16279065608978271 0.03964940086007118 0.8294574022293091
0.16279065608978271 0.042419638484716415 0.8449612259864807
0.16279065608978271 0.03927815333008766 0.8604651689529419
-0.1627907156944275 -0.02325582504272461 0.8190650939941406
-0.1627907156944275 -0.02325582504272461 0.8741750717163086
-0.1627907156944275 -0.007751941680908203 0.8060286641120911
-0.1627907156944275 -0.007751941680908203 0.8842645883560181
-0.1627907156944275 0.007751941680908203 0.8023102879524231
-0.1627907156944275 0.007751941680908203 0.8853601217269897
-0.1627907156944275 0.02325582504272461 0.8105282783508301
-0.16279073059558868 0.02325582504272461 0.8764737248420715
-0.14728683233261108 -0.06976741552352905 0.8107376098632812
-0.14728683233261108 -0.06976741552352905 0.8854683637619019
-0.14728683233261108 -0.05426359176635742 0.7818846702575684
-0.14728683233261108 -0.05426359176635742 0.9048492908477783
-0.14728683233261108 -0.038759708404541016 0.7658315896987915
-0.14728683233261108 -0.038759708404541016 0.9160538911819458
-0.14728683233261108 -0.02325582504272461 0.7567815184593201
-0.14728683233261108 -0.02325582504272461 0.9216494560241699
-0.14728683233261108 -0.007751941680908203 0.7509660124778748
-0.14728683233261108 -0.007751941680908203 0.9276195764541626
-0.14728683233261108 0.007751941680908203 0.7487459182739258
-0.14728683233261108 0.007751941680908203 0.9283143281936646
-0.14728683233261108 0.02325582504272461 0.7511782646179199
-0.1472868174314499 0.02325582504272461 0.9237585067749023
-0.14728683233261108 0.038759708404541016 0.7591253519058228
-0.14728683233261108 0.038759708404541016 0.916242241859436
-0.14728683233261108 0.05426359176635742 0.7746325731277466
-0.14728684723377228 0.05426359176635742 0.9071234464645386
-0.14728683233261108 0.06976747512817383 0.8055101633071899
-0.14728683233261108 0.06976747512817383 0.8849409818649292
-0.13178294897079468 -0.10077518224716187 0.8106909394264221
-0.13178294897079468 -0.10077518224716187 0.8836115598678589
-0.13178294897079468 -0.08527129888534546 0.7672608494758606
-0.13178294897079468 -0.08527129888534546 0.9088801741600037
-0.13178294897079468 -0.06976741552352905 0.7453975081443787
-0.13178294897079468 -0.06976741552352905 0.9217560291290283
-0.13178294897079468 -0.05426359176635742 0.7316408157348633
-0.13178294897079468 -0.05426359176635742 0.9333702325820923
-0.13178294897079468 -0.038759708404541016 0.7235625386238098
-0.13178294897079468 -0.038759708404541016 0.9377956986427307
-0.13178294897079468 -0.02325582504272461 0.717877984046936
-0.13178294897079468 -0.02325582504272461 0.9436575174331665
-0.13178294897079468 -0.007751941680908203 0.7150241136550903
-0.13178294897079468 -0.007751941680908203 0.9474548101425171
-0.13178294897079468 0.007751941680908203 0.7138559818267822
-0.13178294897079468 0.007751941680908203 0.9478898048400879
-0.13178294897079468 0.02325582504272461 0.7154385447502136
-0.13178294897079468 0.02325582504272461 0.9448524117469788
-0.13178294897079468 0.038759708404541016 0.7197774648666382
-0.13178294897079468 0.038759708404541016 0.9389086961746216
-0.13178294897079468 0.05426359176635742 0.7288985252380371
-0.13178294897079468 0.05426359176635742 0.9334009885787964
-0.13178294897079468 0.06976747512817383 0.7453920245170593
-0.13178296387195587 0.06976747512817383 0.9231117963790894
-0.13178294897079468 0.08527135848999023 0.7707765698432922
-0.13178294897079468 0.08527135848999023 0.9090574979782104
-0.13178294897079468 0.10077524185180664 0.8200846910476685
-0.13178294897079468 0.10077524185180664 0.8720048666000366
-0.11627906560897827 -0.11627906560897827 0.7943024039268494
-0.11627906560897827 -0.11627906560897827 0.8942136764526367
-0.11627906560897827 -0.10077518224716187 0.7450448274612427
-0.11627906560897827 -0.10077518224716187 0.9161504507064819
-0.11627906560897827 -0.08527129888534546 0.7216227054595947
-0.11627906560897827 -0.08527129888534546 0.9321924448013306
-0.11627906560897827 -0.06976741552352905 0.7080015540122986
-0.11627906560897827 -0.06976741552352905 0.9402031898498535
-0.11627906560897827 -0.05426359176635742 0.6985777616500854
-0.11627906560897827 -0.05426359176635742 0.9500188827514648
-0.11627906560897827 -0.038759708404541016 0.6931026577949524
-0.11627906560897827 -0.038759708404541016 0.952370285987854
-0.11627906560897827 -0.02325582504272461 0.6891640424728394
-0.11627906560897827 -0.02325582504272461 0.9555466771125793
-0.11627906560897827 -0.007751941680908203 0.6872648596763611
-0.11627906560897827 -0.007751941680908203 0.9580550193786621
-0.11627906560897827 0.007751941680908203 0.6865471601486206
-0.11627907305955887 0.007751941680908203 0.9583369493484497
-0.11627906560897827 0.02325582504272461 0.6885789036750793
-0.11627906560897827 0.02325582504272461 0.9560312032699585
-0.11627907305955887 0.038759708404541016 0.6928203701972961
-0.11627906560897827 0.038759708404541016 0.9523485898971558
-0.11627906560897827 0.05426359176635742 0.6988163590431213
-0.11627906560897827 0.05426359176635742 0.9502052068710327
-0.11627906560897827 0.06976747512817383 0.709932267665863
-0.11627906560897827 0.06976747512817383 0.9413166642189026
-0.11627907305955887 0.08527135848999023 0.7274697422981262
-0.11627906560897827 0.08527135848999023 0.9326874017715454
-0.11627906560897827 0.10077524185180664 0.755211353302002
-0.11627906560897827 0.10077524185180664 0.9160006046295166
-0.11627906560897827 0.11627912521362305 0.7967383861541748
-0.11627906560897827 0.11627912521362305 0.8877862691879272
-0.10077518224716187 -0.13178294897079468 0.805894672870636
-0.10077518224716187 -0.13178294897079468 0.8899843692779541
-0.10077518224716187 -0.11627906560897827 0.741685152053833
-0.10077518224716187 -0.11627906560897827 0.9164290428161621
-0.10077518224716187 -0.10077518224716187 0.710126519203186
-0.10077518224716187 -0.10077518224716187 0.9335609078407288
-0.10077518224716187 -0.08527129888534546 0.6923124194145203
-0.10077518224716187 -0.08527129888534546 0.9472562074661255
-0.10077518224716187 -0.06976741552352905 0.6796926856040955
-0.10077518224716187 -0.06976741552352905 0.9528341293334961
-0.10077518224716187 -0.05426359176635742 0.6708274483680725
-0.10077518224716187 -0.05426359176635742 0.9600101709365845
-0.10077518224716187 -0.038759708404541016 0.666797935962677
-0.10077518224716187 -0.038759708404541016 0.9657555818557739
-0.10077518224716187 -0.02325582504272461 0.6648613214492798
-0.10077518224716187 -0.02325582504272461 0.9673327207565308
-0.10077518969774246 -0.007751941680908203 0.6629757881164551
-0.10077518224716187 -0.007751941680908203 0.9678688049316406
-0.10077518224716187 0.007751941680908203 0.6617342829704285
-0.10077518224716187 0.007751941680908203 0.9678014516830444
-0.10077518224716187 0.02325582504272461 0.6645674705505371
-0.10077518224716187 0.02325582504272461 0.9672373533248901
-0.10077518224716187 0.038759708404541016 0.6688474416732788
-0.10077518224716187 0.038759708404541016 0.9660887122154236
-0.10077518969774246 0.05426359176635742 0.6751821041107178
-0.10077518224716187 0.05426359176635742 0.9606449007987976
-0.10077518224716187 0.06976747512817383 0.6837607622146606
-0.10077518224716187 0.06976747512817383 0.9526503682136536
-0.10077518224716187 0.08527135848999023 0.6967290639877319
-0.10077518224716187 0.08527135848999023 0.9485821723937988
-0.10077518224716187 0.10077524185180664 0.7171316742897034
-0.10077518224716187 0.10077524185180664 0.9348113536834717
-0.10077518224716187 0.11627912521362305 0.7491409778594971
-0.10077518224716187 0.11627912521362305 0.9170438647270203
-0.10077518224716187 0.1317828893661499 0.7955325841903687
-0.10077518224716187 0.1317828893661499 0.8848562836647034
-0.08527129888534546 -0.13178294897079468 0.7571415305137634
-0.08527129888534546 -0.13178294897079468 0.9125170707702637
-0.08527129888534546 -0.11627906560897827 0.7123859524726868
-0.08527129888534546 -0.11627906560897827 0.9318404197692871
-0.08527129888534546 -0.10077518224716187 0.6864508986473083
-0.08527129888534546 -0.10077518224716187 0.9475085735321045
-0.08527129888534546 -0.08527129888534546 0.6694250106811523
-0.08527129888534546 -0.08527129888534546 0.9544678926467896
-0.08527129888534546 -0.06976741552352905 0.6569250226020813
-0.08527129888534546 -0.06976741552352905 0.9649686813354492
-0.08527129888534546 -0.05426359176635742 0.6497423648834229
-0.08527129888534546 -0.05426359176635742 0.9678730964660645
-0.08527130633592606 -0.038759708404541016 0.6442686319351196
-0.08527129888534546 -0.038759708404541016 0.9701550006866455
-0.08527129888534546 -0.02325582504272461 0.6418561339378357
-0.08527129143476486 -0.02325582318007946 0.9725662469863892
-0.08527129888534546 -0.007751941680908203 0.6405590772628784
-0.08527129888534546 -0.007751941680908203 0.9737306833267212
-0.08527129888534546 0.007751941680908203 0.6403906345367432
-0.08527129888534546 0.007751941680908203 0.9734721779823303
-0.08527129888534546 0.02325582504272461 0.6430016756057739
-0.08527129888534546 0.02325582504272461 0.9720805883407593
-0.08527129888534546 0.038759708404541016 0.648891806602478
-0.08527129888534546 0.038759708404541016 0.9697830677032471
-0.08527129888534546 0.05426359176635742 0.6552895307540894
-0.08527129888534546 0.05426359176635742 0.9677502512931824
-0.08527129888534546 0.06976747512817383 0.6638720035552979
-0.08527129888534546 0.06976747512817383 0.9657220840454102
-0.08527129143476486 0.08527135103940964 0.674521267414093
-0.08527129888534546 0.08527135103940964 0.9548091888427734
-0.08527129888534546 0.10077524185180664 0.6925485134124756
-0.08527129888534546 0.10077524185180664 0.9492168426513672
-0.08527129888534546 0.11627912521362305 0.7188884615898132
-0.08527129888534546 0.11627912521362305 0.9340965151786804
-0.08527129888534546 0.1317828893661499 0.7569333910942078
-0.08527129888534546 0.1317828893661499 0.9123444557189941
-0.08527129888534546 0.1472867727279663 0.8184434175491333
-0.08527129888534546 0.1472867727279663 0.8641272187232971
-0.06976741552352905 -0.14728683233261108 0.7878439426422119
-0.06976741552352905 -0.14728683233261108 0.8983950018882751
-0.06976741552352905 -0.13178294897079468 0.7299036979675293
-0.06976741552352905 -0.13178294897079468 0.9266045093536377
-0.06976741552352905 -0.11627906560897827 0.6941407322883606
-0.06976741552352905 -0.11627906560897827 0.9433599710464478
-0.06976741552352905 -0.10077518224716187 0.6697056889533997
-0.06976741552352905 -0.10077518224716187 0.9531259536743164
-0.06976741552352905 -0.08527129888534546 0.6540680527687073
-0.06976741552352905 -0.08527129888534546 0.9654091596603394
-0.06976741552352905 -0.06976741552352905 0.6418631672859192
-0.06976741552352905 -0.06976741552352905 0.9689021706581116
-0.06976741552352905 -0.05426359549164772 0.6342989206314087
-0.06976741552352905 -0.05426358804106712 0.9731353521347046
-0.06976741552352905 -0.038759708404541016 0.6265304684638977
-0.06976741552352905 -0.038759708404541016 0.976664662361145
-0.06976741552352905 -0.02325582504272461 0.6230233907699585
-0.06976741552352905 -0.02325582504272461 0.9791311025619507
-0.06976741552352905 -0.007751941680908203 0.621346652507782
-0.06976741552352905 -0.007751941680908203 0.9807033538818359
-0.06976741552352905 0.007751941680908203 0.6222814321517944
-0.06976741552352905 0.007751941680908203 0.9802056550979614
-0.06976741552352905 0.02325582504272461 0.6256595849990845
-0.06976741552352905 0.02325582504272461 0.978285551071167
-0.06976741552352905 0.038759708404541016 0.6326180696487427
-0.06976741552352905 0.038759708404541016 0.9759211540222168
-0.06976741552352905 0.05426359176635742 0.6399672031402588
-0.06976741552352905 0.05426359176635742 0.9727896451950073
-0.06976741552352905 0.06976747512817383 0.648398756980896
-0.06976741552352905 0.06976747512817383 0.9683098196983337
-0.06976741552352905 0.08527135848999023 0.6579434275627136
-0.06976741552352905 0.08527135848999023 0.9660852551460266
-0.06976741552352905 0.10077524185180664 0.6741481423377991
-0.06976741552352905 0.10077524185180664 0.9533650279045105
-0.06976741552352905 0.11627912521362305 0.6985865831375122
-0.06976741552352905 0.11627912521362305 0.9442778825759888
-0.06976741552352905 0.1317828893661499 0.7329558730125427
-0.06976741552352905 0.1317828893661499 0.9273533225059509
-0.06976741552352905 0.1472867727279663 0.777427613735199
-0.06976741552352905 0.1472867727279663 0.898036777973175
-0.05426359176635742 -0.1627907156944275 0.8401142358779907
-0.05426359176635742 -0.1627907156944275 0.862080454826355
-0.05426359176635742 -0.14728683233261108 0.7636367678642273
-0.05426359176635742 -0.14728683233261108 0.9130796194076538
-0.05426359176635742 -0.13178294897079468 0.7144075632095337
-0.05426359176635742 -0.13178294897079468 0.9337579011917114
-0.05426359176635742 -0.11627906560897827 0.6812151670455933
-0.05426359176635742 -0.11627906560897827 0.9498717784881592
-0.05426359176635742 -0.10077518224716187 0.6574305295944214
-0.05426359176635742 -0.10077518224716187 0.9620330929756165
-0.05426359176635742 -0.08527129888534546 0.6427263617515564
-0.05426359176635742 -0.08527129888534546 0.9683787822723389
-0.05426359176635742 -0.06976741552352905 0.6329994201660156
-0.05426359176635742 -0.06976741552352905 0.9733129739761353
-0.05426359176635742 -0.05426359176635742 0.6230247616767883
-0.05426359176635742 -0.05426359176635742 0.9777473211288452
-0.05426359176635742 -0.038759708404541016 0.614924430847168
-0.05426359176635742 -0.038759708404541016 0.982080340385437
-0.05426359176635742 -0.02325582504272461 0.6081364750862122
-0.05426359176635742 -0.02325582504272461 0.9853360652923584
-0.05426359176635742 -0.007751941680908203 0.6050881147384644
-0.05426359176635742 -0.007751941215246916 0.9859908819198608
-0.05426359176635742 0.007751941680908203 0.6058586835861206
-0.05426359176635742 0.007751941680908203 0.9858625531196594
-0.05426359176635742 0.02325582504272461 0.61018306016922
-0.05426359176635742 0.02325582318007946 0.9849406480789185
-0.05426359176635742 0.038759708404541016 0.6188005208969116
-0.05426359176635742 0.038759708404541016 0.9808554649353027
-0.05426359176635742 0.05426359176635742 0.6270995140075684
-0.05426359176635742 0.05426359176635742 0.9771523475646973
-0.05426359176635742 0.06976747512817383 0.6375513672828674
-0.05426359176635742 0.06976747512817383 0.9728118777275085
-0.05426359176635742 0.08527135848999023 0.6469182968139648
-0.05426359176635742 0.08527135848999023 0.9679950475692749
-0.05426359176635742 0.10077524185180664 0.6618393659591675
-0.05426359176635742 0.10077524185180664 0.9626274704933167
-0.05426359176635742 0.11627912521362305 0.6849174499511719
-0.05426359176635742 0.11627912521362305 0.9514837265014648
-0.05426359176635742 0.1317828893661499 0.7173961400985718
-0.05426359176635742 0.1317828893661499 0.936002790927887
-0.05426359176635742 0.1472867727279663 0.7573606967926025
-0.05426359176635742 0.1472867727279663 0.914717435836792
-0.05426359176635742 0.16279065608978271 0.8159342408180237
-0.05426359176635742 0.16279065608978271 0.8705358505249023
-0.038759708404541016 -0.1627907156944275 0.8087674379348755
-0.038759708404541016 -0.1627907156944275 0.8884664177894592
-0.038759708404541016 -0.14728683233261108 0.7490337491035461
-0.038759708404541016 -0.14728683233261108 0.9201290011405945
-0.038759708404541016 -0.13178294897079468 0.7024713158607483
-0.03875970467925072 -0.13178294897079468 0.9404049515724182
-0.038759708404541016 -0.11627906560897827 0.6706643104553223
-0.038759708404541016 -0.11627906560897827 0.9530941843986511
-0.038759708404541016 -0.10077518224716187 0.6503159999847412
-0.038759708404541016 -0.10077518224716187 0.9660997986793518
-0.038759708404541016 -0.08527129888534546 0.6369572877883911
-0.038759708404541016 -0.08527129888534546 0.9703530073165894
-0.038759708404541016 -0.06976741552352905 0.6245591044425964
-0.038759708404541016 -0.06976741552352905 0.9760779738426208
-0.038759708404541016 -0.05426359176635742 0.6145093441009521
-0.038759708404541016 -0.05426359176635742 0.9810976982116699
-0.038759708404541016 -0.038759708404541016 0.6050764322280884
-0.038759708404541016 -0.038759708404541016 0.9856564998626709
-0.038759708404541016 -0.02325582504272461 0.5949387550354004
-0.038759708404541016 -0.02325582504272461 0.9873295426368713
-0.038759708404541016 -0.007751941680908203 0.5894829630851746
-0.038759708404541016 -0.007751941680908203 0.9877851009368896
-0.038759708404541016 0.007751941680908203 0.5896707773208618
-0.038759708404541016 0.007751941680908203 0.9876717925071716
-0.038759708404541016 0.02325582504272461 0.5958026647567749
-0.038759708404541016 0.02325582504272461 0.9868150353431702
-0.038759708404541016 0.038759708404541016 0.606734037399292
-0.038759708404541016 0.038759708404541016 0.9850812554359436
-0.038759708404541016 0.05426359176635742 0.6194870471954346
-0.038759708404541016 0.05426359176635742 0.9798420071601868
-0.038759712129831314 0.06976748257875443 0.6291714906692505
-0.038759708404541016 0.06976747512817383 0.975275993347168
-0.038759708404541016 0.08527135848999023 0.6396406292915344
-0.038759708404541016 0.08527135848999023 0.9698599576950073
-0.038759708404541016 0.10077524185180664 0.6536181569099426
-0.038759708404541016 0.10077524185180664 0.9666743278503418
-0.038759708404541016 0.11627912521362305 0.6756289601325989
-0.038759712129831314 0.11627912521362305 0.9536841511726379
-0.038759708404541016 0.1317828893661499 0.7074373960494995
-0.038759708404541016 0.1317828893661499 0.9418580532073975
-0.038759708404541016 0.1472867727279663 0.7441409230232239
-0.038759708404541016 0.1472867727279663 0.9222052097320557
-0.038759708404541016 0.16279065608978271 0.7920294404029846
-0.038759708404541016 0.16279065608978271 0.8919937610626221
-0.02325582504272461 -0.1627907156944275 0.8015803098678589
-0.02325582318007946 -0.1627907156944275 0.8945454359054565
-0.02325582504272461 -0.14728683233261108 0.7432827949523926
-0.02325582504272461 -0.14728683233261108 0.9249674677848816
-0.02325582504272461 -0.13178294897079468 0.6975401043891907
-0.02325582504272461 -0.13178294897079468 0.9440944194793701
-0.02325582504272461 -0.11627906560897827 0.6665141582489014
-0.02325582690536976 -0.11627906560897827 0.9556134343147278
-0.02325582504272461 -0.10077518224716187 0.645254373550415
-0.02325582504272461 -0.10077518224716187 0.9671838879585266
-0.02325582504272461 -0.08527129888534546 0.6332055330276489
-0.02325582504272461 -0.08527129888534546 0.9718642234802246
-0.02325582504272461 -0.06976741552352905 0.6215634942054749
-0.02325582504272461 -0.06976741552352905 0.9773818850517273
-0.02325582504272461 -0.05426359176635742 0.6097358465194702
-0.02325582504272461 -0.05426359176635742 0.9840132594108582
-0.02325582504272461 -0.038759708404541016 0.5967106223106384
-0.02325582318007946 -0.038759708404541016 0.9865777492523193
-0.02325582504272461 -0.02325582504272461 0.5838988423347473
-0.02325582504272461 -0.02325582504272461 0.9878998398780823
-0.02325582504272461 -0.007751941680908203 0.5659950971603394
-0.02325582504272461 -0.007751941680908203 0.9885321855545044
-0.02325582504272461 0.007751941215246916 0.5686095356941223
-0.02325582504272461 0.007751941680908203 0.9881319403648376
-0.02325582504272461 0.02325582504272461 0.5840698480606079
-0.02325582504272461 0.02325582504272461 0.9873083233833313
-0.02325582504272461 0.038759708404541016 0.5993524193763733
-0.02325582504272461 0.038759708404541016 0.9859543442726135
-0.02325582504272461 0.05426359176635742 0.6152495741844177
-0.02325582504272461 0.05426359176635742 0.9816893339157104
-0.02325582504272461 0.06976747512817383 0.6264247894287109
-0.02325582504272461 0.06976747512817383 0.9761631488800049
-0.02325582504272461 0.08527135848999023 0.637740433216095
-0.02325582504272461 0.08527135848999023 0.9713342785835266
-0.02325582504272461 0.10077524185180664 0.6511464715003967
-0.02325582504272461 0.10077524185180664 0.9674875736236572
-0.02325582504272461 0.11627912521362305 0.6716709733009338
-0.02325582504272461 0.11627912521362305 0.9566524028778076
-0.02325582504272461 0.1317828893661499 0.702720046043396
-0.02325582504272461 0.1317828893661499 0.9464503526687622
-0.02325582504272461 0.1472867727279663 0.7388746738433838
-0.02325582504272461 0.1472867727279663 0.9284766912460327
-0.02325582504272461 0.16279065608978271 0.7827116847038269
-0.02325582504272461 0.16279065608978271 0.8998047113418579
-0.007751941680908203 -0.1627907156944275 0.7931390404701233
-0.007751941680908203 -0.1627907156944275 0.8986502885818481
-0.007751941680908203 -0.14728683233261108 0.7349830865859985
-0.007751941680908203 -0.14728683233261108 0.9275161027908325
-0.007751941680908203 -0.13178294897079468 0.6920892000198364
-0.007751941680908203 -0.13178294897079468 0.9459268450737
-0.00775194214656949 -0.11627906560897827 0.6623864769935608
-0.00775194214656949 -0.11627907305955887 0.9577661752700806
-0.007751941680908203 -0.10077518224716187 0.6421894431114197
-0.007751941680908203 -0.10077518224716187 0.9681505560874939
-0.00775194214656949 -0.08527129888534546 0.6301666498184204
-0.007751941680908203 -0.08527129888534546 0.9729701280593872
-0.007751941680908203 -0.06976741552352905 0.6194900870323181
-0.007751941680908203 -0.06976741552352905 0.978675365447998
-0.007751941680908203 -0.05426359176635742 0.6073927879333496
-0.007751941680908203 -0.05426359176635742 0.9851000308990479
-0.007751941680908203 -0.038759708404541016 0.592375636100769
-0.00775194214656949 -0.038759708404541016 0.9872421026229858
-0.007751941680908203 -0.02325582504272461 0.5717601180076599
-0.007751941680908203 -0.02325582504272461 0.9886115789413452
-0.007751941680908203 -0.007751941680908203 -0.9889234900474548
-0.007751941680908203 -0.007751941680908203 0.990115761756897
-0.007751941680908203 0.007751941680908203 -0.9868010878562927
-0.007751941680908203 0.007751941680908203 0.9897943735122681
-0.007751941680908203 0.02325582504272461 0.5753546357154846
-0.007751941680908203 0.02325582504272461 0.9878097176551819
-0.007751941680908203 0.038759708404541016 0.5944046974182129
-0.007751941680908203 0.038759708404541016 0.9867534637451172
-0.007751941680908203 0.05426359176635742 0.6128343939781189
-0.007751941680908203 0.05426359176635742 0.9846405982971191
-0.007751941680908203 0.06976747512817383 0.6256852746009827
-0.007751941680908203 0.06976747512817383 0.9771667718887329
-0.007751941680908203 0.08527135848999023 0.6366586089134216
-0.007751941680908203 0.08527136594057083 0.9721481800079346
-0.007751941680908203 0.10077524185180664 0.649256706237793
-0.007751941680908203 0.10077524185180664 0.9681805968284607
-0.007751941680908203 0.11627912521362305 0.6691545248031616
-0.007751941215246916 0.11627912521362305 0.9586154222488403
-0.007751941680908203 0.1317828893661499 0.6992461681365967
-0.007751941680908203 0.1317828893661499 0.9484319686889648
-0.007751941680908203 0.1472867727279663 0.7336676120758057
-0.007751941680908203 0.1472867727279663 0.9317081570625305
-0.00775194214656949 0.16279065608978271 0.774451732635498
-0.007751941680908203 0.16279065608978271 0.9057784080505371
0.007751941680908203 -0.1627907156944275 0.7951841950416565
0.007751941215246916 -0.1627907156944275 0.8980793356895447
0.007751941680908203 -0.14728683233261108 0.7377127408981323
0.007751941680908203 -0.14728683233261108 0.9270087480545044
0.007751941680908203 -0.13178294897079468 0.6941531896591187
0.007751941680908203 -0.13178294897079468 0.9453573226928711
0.007751941680908203 -0.11627906560897827 0.6641340255737305
0.007751941680908203 -0.11627906560897827 0.9570183157920837
0.007751941680908203 -0.10077518224716187 0.6431367993354797
0.007751941680908203 -0.10077518224716187 0.9676965475082397
0.007751941680908203 -0.08527129888534546 0.6314288377761841
0.007751941680908203 -0.08527129888534546 0.9725019931793213
0.007751941680908203 -0.06976741552352905 0.6199548244476318
0.007751941680908203 -0.06976741552352905 0.977984607219696
0.007751941680908203 -0.05426359176635742 0.6077544689178467
0.007751941680908203 -0.05426359176635742 0.9847840070724487
0.007751941680908203 -0.038759708404541016 0.5931453704833984
0.007751941680908203 -0.03875970467925072 0.9870193004608154
0.007751941680908203 -0.02325582504272461 0.574954092502594
0.007751941680908203 -0.02325582504272461 0.9883706569671631
0.007751941680908203 -0.007751941680908203 -0.9845423102378845
0.007751941680908203 -0.007751941680908203 -0.6100776791572571
0.007751941215246916 -0.007751941215246916 -0.2961180508136749
0.007751941680908203 -0.007751941680908203 0.9897336959838867
0.007751941680908203 0.007751941680908203 -0.8711018562316895
0.007751941680908203 0.007751941680908203 -0.8077393770217896
0.007751941680908203 0.007751941680908203 -0.7922697067260742
0.007751941680908203 0.007751941680908203 -0.7751132249832153
0.007751941680908203 0.007751941680908203 0.4380667209625244
0.007751941215246916 0.007751941215246916 0.9892908334732056
0.007751941680908203 0.02325582504272461 0.5774849653244019
0.007751941680908203 0.02325582504272461 0.9875984191894531
0.007751941680908203 0.038759708404541016 0.5959452390670776
0.007751941680908203 0.038759708404541016 0.9864440560340881
0.007751941680908203 0.05426359176635742 0.6141271591186523
0.007751941680908203 0.05426359176635742 0.9832412004470825
0.007751941680908203 0.06976747512817383 0.6259316802024841
0.007751941680908203 0.06976747512817383 0.976402997970581
0.007751941680908203 0.08527135848999023 0.6367506384849548
0.007751941680908203 0.08527136594057083 0.9716387391090393
0.007751941680908203 0.10077524185180664 0.6494739651679993
0.007751941680908203 0.10077524185180664 0.9676976203918457
0.007751941680908203 0.11627912521362305 0.6696857213973999
0.007751941680908203 0.11627912521362305 0.9577420949935913
0.007751941680908203 0.1317828893661499 0.7003121376037598
0.007751941680908203 0.1317828893661499 0.947475790977478
0.007751941680908203 0.1472867727279663 0.7348901033401489
0.007751941680908203 0.1472867727279663 0.9304144382476807
0.007751941680908203 0.16279065608978271 0.7757440805435181
0.007751941680908203 0.16279065608978271 0.9039924144744873
0.02325582504272461 -0.1627907156944275 0.803935170173645
0.02325582504272461 -0.1627907156944275 0.8945488333702087
0.02325582504272461 -0.14728683233261108 0.7472983002662659
0.02325582504272461 -0.14728683233261108 0.923805832862854
0.02325582504272461 -0.13178294897079468 0.6999121904373169
0.02325582504272461 -0.13178294897079468 0.9428144693374634
0.02325582504272461 -0.11627906560897827 0.6685914993286133
0.02325582504272461 -0.11627906560897827 0.9542622566223145
0.02325582504272461 -0.10077518224716187 0.6479743123054504
0.02325582504272461 -0.10077518224716187 0.9662889242172241
0.02325582504272461 -0.08527129888534546 0.634461522102356
0.02325582318007946 -0.08527129888534546 0.9709035754203796
0.02325582504272461 -0.06976741552352905 0.6216822862625122
0.02325582504272461 -0.06976741552352905 0.9759321212768555
0.02325582504272461 -0.05426359176635742 0.6096802949905396
0.02325582504272461 -0.05426359176635742 0.9809749126434326
0.02325582504272461 -0.038759708404541016 0.5981220006942749
0.02325582504272461 -0.038759708404541016 0.9858858585357666
0.02325582504272461 -0.02325582504272461 0.5874242782592773
0.02325582504272461 -0.02325582504272461 0.9876662492752075
0.02325582504272461 -0.007751941680908203 0.5778242945671082
0.02325582504272461 -0.00775194214656949 0.9882566928863525
0.02325582504272461 0.007751941680908203 0.5787132978439331
0.02325582318007946 0.007751941215246916 0.9878242015838623
0.02325582504272461 0.02325582504272461 0.5897347331047058
0.02325582318007946 0.02325582318007946 0.9867437481880188
0.02325582504272461 0.038759708404541016 0.6040991544723511
0.02325582504272461 0.038759708404541016 0.9848151803016663
0.02325582504272461 0.05426359176635742 0.6184704899787903
0.02325582504272461 0.05426359176635742 0.9783820509910583
0.02325582504272461 0.06976747512817383 0.6278970241546631
0.02325582504272461 0.06976747512817383 0.9742704033851624
0.02325582504272461 0.08527135848999023 0.6382700800895691
0.02325582504272461 0.08527136594057083 0.9701787829399109
0.02325582504272461 0.10077524185180664 0.6514546275138855
0.02325582504272461 0.10077524185180664 0.9665358066558838
0.02325582504272461 0.11627912521362305 0.6723108291625977
0.02325582504272461 0.11627912521362305 0.9547592401504517
0.02325582504272461 0.1317828893661499 0.7041969895362854
0.02325582504272461 0.1317828893661499 0.9439455270767212
0.02325582504272461 0.1472867727279663 0.7402885556221008
0.02325582504272461 0.1472867727279663 0.9255099296569824
0.02325582504272461 0.16279065608978271 0.7841482758522034
0.02325582504272461 0.16279065608978271 0.8976525664329529
0.038759708404541016 -0.1627907156944275 0.8114033937454224
0.038759708404541016 -0.1627907156944275 0.8869802951812744
0.038759708404541016 -0.14728683233261108 0.7534855604171753
0.038759708404541016 -0.14728683233261108 0.9182497262954712
0.038759708404541016 -0.13178294897079468 0.7052493691444397
0.038759708404541016 -0.13178294897079468 0.9382136464118958
0.038759708404541016 -0.11627906560897827 0.6736897230148315
0.038759708404541016 -0.11627906560897827 0.9520975351333618
0.038759708404541016 -0.10077518224716187 0.6529443264007568
0.038759708404541016 -0.10077518224716187 0.9647142291069031
0.038759708404541016 -0.08527129888534546 0.6383152604103088
0.038759708404541016 -0.08527129888534546 0.9694536924362183
0.038759708404541016 -0.06976741552352905 0.6249213218688965
0.038759708404541016 -0.06976741552352905 0.9745103120803833
0.038759708404541016 -0.05426359176635742 0.614051103591919
0.038759708404541016 -0.05426359176635742 0.9783778786659241
0.038759708404541016 -0.038759708404541016 0.6047759056091309
0.03875970467925072 -0.03875970467925072 0.9845396280288696
0.038759708404541016 -0.02325582504272461 0.5958597660064697
0.038759708404541016 -0.02325582504272461 0.9864271879196167
0.038759708404541016 -0.007751941680908203 0.5929672122001648
0.038759708404541016 -0.007751941680908203 0.9872823357582092
0.038759708404541016 0.007751941680908203 0.5938677191734314
0.038759708404541016 0.007751941680908203 0.9869995713233948
0.038759708404541016 0.02325582504272461 0.6002449989318848
0.038759708404541016 0.02325582504272461 0.9855974316596985
0.038759708404541016 0.038759708404541016 0.6096351146697998
0.038759708404541016 0.038759708404541016 0.9809831976890564
0.038759708404541016 0.05426359176635742 0.621798038482666
0.038759708404541016 0.05426359176635742 0.9764858484268188
0.038759708404541016 0.06976747512817383 0.6318680644035339
0.038759708404541016 0.06976747512817383 0.9729425311088562
0.038759708404541016 0.08527135848999023 0.6405995488166809
0.038759708404541016 0.08527135848999023 0.9688000679016113
0.038759708404541016 0.10077524185180664 0.6544408798217773
0.038759708404541016 0.10077524185180664 0.9651006460189819
0.038759712129831314 0.11627912521362305 0.6769042015075684
0.038759708404541016 0.11627912521362305 0.9528552889823914
0.038759708404541016 0.1317828893661499 0.7093358039855957
0.038759712129831314 0.1317828893661499 0.9392402768135071
0.038759708404541016 0.1472867727279663 0.7458544373512268
0.038759708404541016 0.1472867727279663 0.9203477501869202
0.038759708404541016 0.16279065608978271 0.7935508489608765
0.038759708404541016 0.16279065608978271 0.8903980851173401
0.05426359176635742 -0.1627907156944275 0.8418354988098145
0.05426359176635742 -0.16279073059558868 0.8608450889587402
0.05426359176635742 -0.14728683233261108 0.7666957974433899
0.05426359176635742 -0.14728683233261108 0.9113233089447021
0.05426359176635742 -0.13178294897079468 0.7168459296226501
0.05426359176635742 -0.13178294897079468 0.9327032566070557
0.05426359176635742 -0.11627906560897827 0.6838886141777039
0.05426359176635742 -0.11627906560897827 0.9488245248794556
0.05426359176635742 -0.10077518224716187 0.6618468165397644
0.05426359176635742 -0.10077518224716187 0.9596397876739502
0.05426359176635742 -0.08527129888534546 0.6465960741043091
0.05426359176635742 -0.08527129888534546 0.9674142003059387
0.05426359549164772 -0.06976741552352905 0.6343929767608643
0.05426359176635742 -0.06976741552352905 0.9715194702148438
0.05426359176635742 -0.05426359176635742 0.6227957606315613
0.05426359176635742 -0.05426359176635742 0.9755663871765137
0.05426359549164772 -0.038759708404541016 0.6147976517677307
0.05426359176635742 -0.038759708404541016 0.978574275970459
0.05426359176635742 -0.02325582504272461 0.6084257960319519
0.05426359176635742 -0.02325582504272461 0.9823439717292786
0.05426359176635742 -0.007751941680908203 0.6063806414604187
0.05426358804106712 -0.007751941680908203 0.9847999811172485
0.05426359176635742 0.007751941680908203 0.6071785688400269
0.05426359176635742 0.007751941680908203 0.9845506548881531
0.05426359176635742 0.02325582504272461 0.6110773086547852
0.05426359176635742 0.02325582504272461 0.9803057312965393
0.05426359176635742 0.038759708404541016 0.6195991635322571
0.05426359176635742 0.038759708404541016 0.9769883155822754
0.05426359176635742 0.05426359176635742 0.6282651424407959
0.05426359176635742 0.05426359176635742 0.9741241335868835
0.05426359176635742 0.06976747512817383 0.638320803642273
0.05426359176635742 0.06976747512817383 0.9705058932304382
0.05426359176635742 0.08527135848999023 0.6479934453964233
0.05426359176635742 0.08527135848999023 0.9672257304191589
0.05426359176635742 0.10077524185180664 0.6626273393630981
0.05426359176635742 0.10077524185180664 0.9594169855117798
0.05426359176635742 0.11627912521362305 0.6853011250495911
0.05426359176635742 0.11627912521362305 0.9504799246788025
0.05426359176635742 0.1317828893661499 0.7190657258033752
0.05426359176635742 0.1317828893661499 0.935081958770752
0.05426359176635742 0.1472867727279663 0.7590317726135254
0.05426359176635742 0.1472867727279663 0.9133971929550171
0.05426359176635742 0.16279065608978271 0.8164945840835571
0.05426359176635742 0.16279065608978271 0.8709862232208252
0.06976747512817383 -0.14728683233261108 0.7901923656463623
0.06976747512817383 -0.14728683233261108 0.8966672420501709
0.06976747512817383 -0.13178294897079468 0.7330005168914795
0.06976747512817383 -0.13178294897079468 0.925221860408783
0.06976747512817383 -0.11627906560897827 0.6970120668411255
0.06976747512817383 -0.11627905815839767 0.9415304064750671
0.06976747512817383 -0.10077518224716187 0.673474907875061
0.06976747512817383 -0.10077518224716187 0.9520750045776367
0.06976747512817383 -0.08527129888534546 0.6580834984779358
0.06976747512817383 -0.08527129888534546 0.963540256023407
0.06976747512817383 -0.06976741552352905 0.6463038325309753
0.06976747512817383 -0.06976741552352905 0.9679694175720215
0.06976747512817383 -0.05426359176635742 0.6363175511360168
0.06976747512817383 -0.05426359176635742 0.9711385369300842
0.06976747512817383 -0.038759708404541016 0.6275559663772583
0.06976747512817383 -0.038759708404541016 0.9743900299072266
0.06976747512817383 -0.02325582504272461 0.6236721873283386
0.06976747512817383 -0.02325582504272461 0.9761824607849121
0.06976747512817383 -0.007751941680908203 0.6221572160720825
0.06976747512817383 -0.007751941680908203 0.9770623445510864
0.06976747512817383 0.007751941680908203 0.6227964162826538
0.06976747512817383 0.007751941680908203 0.9766406416893005
0.06976747512817383 0.02325582504272461 0.6259225606918335
0.06976747512817383 0.02325582504272461 0.9752475023269653
0.06976747512817383 0.038759708404541016 0.632968544960022
0.06976747512817383 0.038759708404541016 0.9733295440673828
0.06976747512817383 0.05426359176635742 0.6404991149902344
0.06976747512817383 0.05426359176635742 0.9705260992050171
0.06976747512817383 0.06976747512817383 0.6494579315185547
0.06976747512817383 0.06976747512817383 0.9676550626754761
0.06976747512817383 0.08527135848999023 0.659010648727417
0.06976747512817383 0.08527135848999023 0.9640785455703735
0.06976747512817383 0.10077524185180664 0.6743298172950745
0.06976747512817383 0.10077524185180664 0.9523823261260986
0.06976747512817383 0.11627912521362305 0.6981047987937927
0.06976747512817383 0.11627912521362305 0.9421064853668213
0.06976747512817383 0.1317828893661499 0.7342035174369812
0.06976747512817383 0.1317828893661499 0.9255403876304626
0.06976747512817383 0.1472867727279663 0.7789129018783569
0.06976747512817383 0.1472867727279663 0.8976496458053589
0.08527135848999023 -0.13178294897079468 0.7602311372756958
0.08527135848999023 -0.13178294897079468 0.9117125868797302
0.08527135848999023 -0.11627906560897827 0.7145336270332336
0.08527135848999023 -0.11627906560897827 0.9315870404243469
0.08527136594057083 -0.10077518224716187 0.6907876133918762
0.08527135848999023 -0.10077518224716187 0.9464496374130249
0.08527135103940964 -0.08527129888534546 0.6747715473175049
0.08527135848999023 -0.08527129888534546 0.9533674716949463
0.08527135848999023 -0.06976741552352905 0.6633256077766418
0.08527135848999023 -0.06976741552352905 0.963259220123291
0.08527135848999023 -0.05426359176635742 0.653617799282074
0.08527135848999023 -0.05426359176635742 0.9670799374580383
0.08527135848999023 -0.038759708404541016 0.64757239818573
0.08527135848999023 -0.038759708404541016 0.968892514705658
0.08527135848999023 -0.02325582504272461 0.6433465480804443
0.08527135848999023 -0.02325582504272461 0.9707667231559753
0.08527135848999023 -0.007751941680908203 0.6422077417373657
0.08527135848999023 -0.007751941680908203 0.9718904495239258
0.08527135848999023 0.007751941680908203 0.6424927115440369
0.08527135848999023 0.007751941680908203 0.9717443585395813
0.08527135848999023 0.02325582504272461 0.6460744142532349
0.08527135848999023 0.02325582318007946 0.9704732298851013
0.08527135848999023 0.038759708404541016 0.6506586074829102
0.08527135848999023 0.038759708404541016 0.9684887528419495
0.08527135848999023 0.05426359176635742 0.6563286185264587
0.08527135848999023 0.05426359176635742 0.9671135544776917
0.08527135848999023 0.06976747512817383 0.6646604537963867
0.08527135848999023 0.06976747512817383 0.9639445543289185
0.08527136594057083 0.08527136594057083 0.6745384335517883
0.08527135848999023 0.08527135848999023 0.9532281756401062
0.08527135848999023 0.10077524185180664 0.6902734041213989
0.08527135848999023 0.10077524185180664 0.9480006694793701
0.08527135848999023 0.11627912521362305 0.7165746688842773
0.08527135848999023 0.11627912521362305 0.9333997964859009
0.08527135848999023 0.1317828893661499 0.7567201852798462
0.08527135848999023 0.1317828893661499 0.9122486114501953
0.08527135848999023 0.1472867727279663 0.8155423998832703
0.08527135848999023 0.1472867727279663 0.8675574660301208
0.10077524185180664 -0.13178294897079468 0.8051291704177856
0.10077524185180664 -0.13178294897079468 0.8900061845779419
0.10077524185180664 -0.11627906560897827 0.7418885827064514
0.10077524185180664 -0.11627906560897827 0.9168757200241089
0.10077524185180664 -0.10077518224716187 0.711069643497467
0.10077524185180664 -0.10077518224716187 0.933660089969635
0.10077524185180664 -0.08527129888534546 0.6946447491645813
0.10077524185180664 -0.08527129888534546 0.9466452598571777
0.10077524185180664 -0.06976741552352905 0.6822652816772461
0.10077524185180664 -0.06976741552352905 0.9523561596870422
0.10077524185180664 -0.05426359176635742 0.6727117896080017
0.10077524185180664 -0.05426359176635742 0.958932638168335
0.10077524185180664 -0.038759708404541016 0.6671595573425293
0.10077524185180664 -0.038759708404541016 0.964670717716217
0.10077524185180664 -0.02325582504272461 0.6643624901771545
0.10077524185180664 -0.02325582504272461 0.9667778611183167
0.10077524185180664 -0.007751941680908203 0.6627498269081116
0.10077524185180664 -0.007751941680908203 0.9673663973808289
0.10077524185180664 0.007751941680908203 0.6621959805488586
0.10077524185180664 0.007751941680908203 0.9673386216163635
0.10077524185180664 0.02325582504272461 0.6644812226295471
0.10077524185180664 0.02325582504272461 0.9667571783065796
0.10077524185180664 0.038759708404541016 0.6676663756370544
0.10077524185180664 0.038759708404541016 0.9651873707771301
0.10077524185180664 0.05426359176635742 0.6729469299316406
0.10077524185180664 0.05426359176635742 0.959465503692627
0.10077524185180664 0.06976747512817383 0.6815063953399658
0.10077524185180664 0.06976747512817383 0.9520277976989746
0.10077524185180664 0.08527135848999023 0.692987859249115
0.10077524185180664 0.08527135848999023 0.9474704265594482
0.10077524185180664 0.10077524185180664 0.7111111879348755
0.10077524185180664 0.10077524185180664 0.9342713952064514
0.10077524185180664 0.11627912521362305 0.7440794110298157
0.10077524185180664 0.11627912521362305 0.9170107841491699
0.10077524185180664 0.1317828893661499 0.7910189628601074
0.10077524185180664 0.1317828893661499 0.8880279064178467
0.11627912521362305 -0.11627906560897827 0.7894731760025024
0.11627912521362305 -0.11627906560897827 0.8952947854995728
0.11627912521362305 -0.10077518224716187 0.7428187131881714
0.11627912521362305 -0.10077518224716187 0.9173232913017273
0.11627912521362305 -0.08527129888534546 0.7204198241233826
0.11627912521362305 -0.08527129888534546 0.9326430559158325
0.11627912521362305 -0.06976741552352905 0.7074121236801147
0.11627911776304245 -0.06976741552352905 0.9407832622528076
0.11627912521362305 -0.05426359176635742 0.6969143152236938
0.11627912521362305 -0.05426359176635742 0.9498259425163269
0.11627912521362305 -0.03875970467925072 0.6900402307510376
0.11627912521362305 -0.038759708404541016 0.9524147510528564
0.11627912521362305 -0.02325582504272461 0.6854740381240845
0.11627912521362305 -0.02325582504272461 0.9557719230651855
0.11627912521362305 -0.007751941680908203 0.6830357313156128
0.11627911776304245 -0.007751941215246916 0.9582324028015137
0.11627912521362305 0.007751941680908203 0.6818622946739197
0.11627912521362305 0.007751941680908203 0.9584583044052124
0.11627912521362305 0.02325582504272461 0.683183491230011
0.11627912521362305 0.02325582318007946 0.9561520218849182
0.11627912521362305 0.038759708404541016 0.6863875985145569
0.11627912521362305 0.038759708404541016 0.952470600605011
0.11627912521362305 0.05426359176635742 0.6933770775794983
