0.11573521047830582 0.007751941680908203 0.9379844665527344
0.10088891535997391 0.007751941680908203 0.9534883499145508
0.11602503061294556 0.02325582504272461 0.7674418687820435
0.11389337480068207 0.02325582504272461 0.9379844665527344
0.10944373905658722 0.038759708404541016 0.7674418687820435
0.1112847849726677 0.038759708404541016 0.9379844665527344
0.10267934203147888 0.05426359176635742 0.7674418687820435
0.10699784755706787 0.05426359176635742 0.9379844665527344
0.10915334522724152 0.06976747512817383 0.7829457521438599
0.11289970576763153 0.06976747512817383 0.922480583190918
0.10131948441267014 0.06976747512817383 0.9379844665527344
0.10272775590419769 0.08527135848999023 0.7829457521438599
0.11207941174507141 0.08527135848999023 0.7984496355056763
0.10923111438751221 0.08527135848999023 0.922480583190918
0.1033269464969635 0.10077524185180664 0.7984496355056763
0.110813207924366 0.10077524185180664 0.8139535188674927
0.1162419319152832 0.10077524185180664 0.8294574022293091
0.11230811476707458 0.10077524185180664 0.9069766998291016
0.10147964209318161 0.10077524185180664 0.922480583190918
0.10148144513368607 0.11627913266420364 0.8294574022293091
0.10730201005935669 0.11627912521362305 0.8449612855911255
0.1102685034275055 0.11627912521362305 0.8604651689529419
0.11015482246875763 0.11627912521362305 0.8759689331054688
0.10653382539749146 0.11627912521362305 0.8914728164672852
0.11649519205093384 -0.10077518224716187 0.8449613451957703
0.11959101259708405 -0.10077518224716187 0.8604651689529419
0.11991294473409653 -0.10077518224716187 0.8759689331054688
0.11807881295681 -0.10077517479658127 0.8914728164672852
0.11920911073684692 -0.08527129888534546 0.8294574618339539
0.12255658954381943 -0.08527129888534546 0.8449612855911255
0.12429319322109222 -0.08527129888534546 0.8604651689529419
0.12387822568416595 -0.08527129888534546 0.8759689331054688
0.12257177382707596 -0.08527129888534546 0.8914728760719299
0.1178777813911438 -0.08527129888534546 0.9069766998291016
0.11988498270511627 -0.06976741552352905 0.8139535188674927
0.1233377680182457 -0.06976741552352905 0.8294574022293091
0.12576083838939667 -0.06976741552352905 0.8449612855911255
0.12733547389507294 -0.06976741552352905 0.8604651689529419
0.12727034091949463 -0.06976741552352905 0.8759689331054688
0.1251973658800125 -0.06976741552352905 0.8914728164672852
0.12128579616546631 -0.06976741552352905 0.9069766998291016
0.12027692049741745 -0.05426358804106712 0.7984496355056763
0.12466304004192352 -0.05426359176635742 0.8139535188674927
0.1274845153093338 -0.05426359176635742 0.8294574022293091
0.12997841835021973 -0.05426359176635742 0.8449612855911255
0.12981733679771423 -0.05426359176635742 0.8914728164672852
0.12566925585269928 -0.05426359176635742 0.9069766998291016
0.11820066720247269 -0.05426358804106712 0.9224805235862732
0.11894679814577103 -0.038759708404541016 0.7829456925392151
0.12510451674461365 -0.038759708404541016 0.7984496355056763
0.1287676990032196 -0.038759708404541016 0.8139535188674927
0.12873631715774536 -0.038759708404541016 0.9069766998291016
0.12254748493432999 -0.038759708404541016 0.922480583190918
0.12362997978925705 -0.02325582504272461 0.7829457521438599
0.12960991263389587 -0.02325582504272461 0.7984496355056763
0.12561874091625214 -0.02325582504272461 0.922480583190918
0.11724220216274261 -0.007751941680908203 0.7674418687820435
0.1262955516576767 -0.007751941680908203 0.7829457521438599
0.12712329626083374 -0.007751941680908203 0.922480583190918
0.11797082424163818 0.007751941215246916 0.7674418091773987
0.12703517079353333 0.007751941680908203 0.7829457521438599
0.1272188276052475 0.007751941680908203 0.922480583190918
0.12500596046447754 0.02325582504272461 0.7829457521438599
0.12551382184028625 0.02325582504272461 0.922480583190918
0.12122859060764313 0.038759708404541016 0.7829457521438599
0.12742337584495544 0.038759708404541016 0.7984496355056763
0.12844671308994293 0.038759708404541016 0.9069766998291016
0.12163849920034409 0.038759708404541016 0.922480583190918
0.11641804128885269 0.05426359176635742 0.7829457521438599
0.12280315160751343 0.05426359176635742 0.7984496355056763
0.12703043222427368 0.05426359176635742 0.8139535188674927
0.1307290941476822 0.05426359176635742 0.8294574022293091
0.13166740536689758 0.05426359176635742 0.8759689331054688
0.12917111814022064 0.05426359176635742 0.8914728164672852
0.1249886006116867 0.05426359176635742 0.9069766998291016
0.11716201156377792 0.05426359176635742 0.9224805235862732
0.11765886843204498 0.06976748257875443 0.7984496355056763
0.12231574952602386 0.06976747512817383 0.8139535188674927
0.1256200522184372 0.06976747512817383 0.8294574022293091
0.12754890322685242 0.06976747512817383 0.8449612855911255
0.1281675100326538 0.06976747512817383 0.8604651689529419
0.12730802595615387 0.06976747512817383 0.8759689331054688
0.1247815191745758 0.06976747512817383 0.8914728164672852
0.11964017152786255 0.06976747512817383 0.9069766402244568
0.11804519593715668 0.08527135848999023 0.8139535188674927
0.12158949673175812 0.08527135848999023 0.8294574022293091
0.12410756945610046 0.08527135848999023 0.8449612855911255
0.12515214085578918 0.08527135848999023 0.8604651689529419
0.12417440116405487 0.08527135848999023 0.8759689331054688
0.12191824615001678 0.08527135848999023 0.8914728164672852
0.11687353253364563 0.08527135848999023 0.9069766998291016
0.11944602429866791 0.10077524185180664 0.8449612855911255
0.1212199330329895 0.10077524185180664 0.8604651689529419
0.1206708550453186 0.10077524185180664 0.8759689331054688
0.11773696541786194 0.10077524185180664 0.8914728164672852
0.13184140622615814 -0.05426358804106712 0.8604651093482971
0.13180731236934662 -0.05426359176635742 0.8759689927101135
0.1327137053012848 -0.038759708404541016 0.8294574022293091
0.13580439984798431 -0.038759708404541016 0.8449612855911255
0.13730888068675995 -0.038759708404541016 0.8604651689529419
0.13649190962314606 -0.038759708404541016 0.8759689331054688
0.1339428722858429 -0.038759708404541016 0.8914728164672852
0.13480199873447418 -0.02325582504272461 0.8139535188674927
0.1391746997833252 -0.02325582504272461 0.8294574022293091
0.14309291541576385 -0.02325582504272461 0.8449612855911255
0.14459411799907684 -0.02325582504272461 0.8604651689529419
0.14282825589179993 -0.02325582504272461 0.8759689331054688
0.1389821618795395 -0.02325582504272461 0.8914728164672852
0.13271357119083405 -0.02325582318007946 0.9069766402244568
0.1341879516839981 -0.007751941680908203 0.7984496355056763
0.1392979472875595 -0.007751941680908203 0.8139535188674927
0.14468078315258026 -0.007751941680908203 0.8294574022293091
0.14231112599372864 -0.007751941680908203 0.8914728164672852
0.1352348029613495 -0.007751941680908203 0.9069767594337463
0.13478504121303558 0.007751941215246916 0.7984496355056763
0.14019012451171875 0.007751941680908203 0.8139535188674927
0.1460416615009308 0.007751941680908203 0.8294574022293091
0.1424519270658493 0.007751941680908203 0.8914728164672852
0.13508012890815735 0.00775194214656949 0.9069766998291016
0.13244487345218658 0.02325582504272461 0.7984496355056763
0.13740603625774384 0.02325582504272461 0.8139535188674927
0.14201141893863678 0.02325582504272461 0.8294574022293091
0.14559152722358704 0.02325582504272461 0.8449612855911255
0.14613160490989685 0.02325582504272461 0.8604651689529419
0.14334413409233093 0.02325582504272461 0.8759689331054688
0.1390920728445053 0.02325582504272461 0.8914728164672852
0.1323436200618744 0.02325582504272461 0.9069766998291016
0.13291388750076294 0.038759708404541016 0.8139535188674927
0.13644593954086304 0.038759708404541016 0.8294574618339539
0.1388540118932724 0.038759708404541016 0.8449612855911255
0.1389598250389099 0.038759708404541016 0.8604651689529419
0.1371099054813385 0.038759708404541016 0.8759689331054688
0.133488729596138 0.038759708404541016 0.8914728760719299
0.13271880149841309 0.05426359176635742 0.8449612855911255
0.13285744190216064 0.05426359176635742 0.8604651689529419
0.14896565675735474 -0.00775194214656949 0.8449612855911255
0.1500973403453827 -0.007751941680908203 0.8604651689529419
0.14825133979320526 -0.007751941680908203 0.8759689331054688
0.14997677505016327 0.007751941680908203 0.8449612855911255
0.15078361332416534 0.007751941680908203 0.8604651689529419
0.14831720292568207 0.007751941680908203 0.8759689331054688
-0.14728683233261108 -0.012469559907913208 0.8449612855911255
-0.14728683233261108 -0.014459270983934402 0.8604651689529419
-0.14728683233261108 0.014752821996808052 0.8449612855911255
-0.14728683233261108 0.016344314441084862 0.8604651689529419
-0.13178294897079468 -0.04815949127078056 0.8449612855911255
-0.13178294897079468 -0.05326978862285614 0.8604651689529419
-0.13178294897079468 -0.0512317419052124 0.8759689331054688
-0.13178294897079468 -0.04069606587290764 0.8914728164672852
-0.13178294897079468 -0.02667432278394699 0.8139535188674927
-0.13178294897079468 -0.03769886493682861 0.8294574022293091
-0.13178294897079468 -0.014994529075920582 0.9069766998291016
-0.13178294897079468 -0.004653592593967915 0.7984496355056763
-0.13178294897079468 0.0138333635404706 0.7984496355056763
-0.13178294897079468 0.016683204099535942 0.9069766998291016
-0.13178294897079468 0.03432141989469528 0.8139535188674927
-0.13178294897079468 0.04467763006687164 0.8294574022293091
-0.13178294897079468 0.05072644725441933 0.8449612855911255
-0.13178294897079468 0.05203266069293022 0.8604651689529419
-0.13178294897079468 0.049160346388816833 0.8759689331054688
-0.13178294897079468 0.0403117910027504 0.8914728164672852
-0.11627906560897827 -0.10440469533205032 0.8604651689529419
-0.11627906560897827 -0.10619713366031647 0.8759689331054688
-0.11627906560897827 -0.10414906591176987 0.8914728164672852
-0.11627906560897827 -0.09071992337703705 0.8294574022293091
-0.11627906560897827 -0.10043585300445557 0.8449612259864807
-0.11627906560897827 -0.07856827229261398 0.8139535188674927
-0.11627905815839767 -0.0852535292506218 0.9069766998291016
-0.11627906560897827 -0.06376412510871887 0.7984496355056763
-0.11627906560897827 -0.05456863343715668 0.922480583190918
-0.11627906560897827 -0.04198828712105751 0.7829457521438599
-0.11627906560897827 0.04485678672790527 0.7829457521438599
-0.11627906560897827 0.06662541627883911 0.7984496355056763
-0.11627907305955887 0.055581435561180115 0.9224806427955627
-0.11627905815839767 0.08528777211904526 0.8139535188674927
-0.11627906560897827 0.09827612340450287 0.8294574022293091
-0.11627907305955887 0.08583939075469971 0.9069766998291016
-0.11627906560897827 0.10536365211009979 0.8449612855911255
-0.11627906560897827 0.10852199792861938 0.8604651689529419
-0.11627906560897827 0.1078309416770935 0.8759689331054688
-0.11627906560897827 0.103213831782341 0.8914728164672852
-0.10077518224716187 -0.11706151813268661 0.8759689331054688
-0.10077518224716187 -0.11731235682964325 0.8914728164672852
-0.10077518224716187 -0.10154770314693451 0.8139535188674927
-0.10077518224716187 -0.1063825935125351 0.8294574022293091
-0.10077518969774246 -0.11064625531435013 0.8449613451957703
-0.10077518224716187 -0.11490131914615631 0.8604651689529419
-0.10077518224716187 -0.11234816163778305 0.9069766998291016
-0.10077518224716187 -0.09189300239086151 0.7984496355056763
-0.10077518224716187 -0.09911900758743286 0.922480583190918
-0.10077518224716187 -0.07951149344444275 0.7829457521438599
-0.10077518224716187 -0.07183890044689178 0.9379844665527344
-0.10077518224716187 -0.05815880000591278 0.7674418687820435
-0.10077518224716187 -0.009972227737307549 0.9534883499145508
-0.10077518224716187 0.009598233737051487 0.9534883499145508
-0.10077518224716187 0.05299423262476921 0.7674418687820435
-0.10077518224716187 0.07158099859952927 0.9379844665527344
-0.10077518224716187 0.08592276275157928 0.7829457521438599
-0.10077518224716187 0.1025727391242981 0.7984496355056763
-0.10077518224716187 0.11093772947788239 0.8139535188674927
-0.10077518224716187 0.11439557373523712 0.9069766998291016
-0.10077518224716187 0.10224941372871399 0.9224805235862732
-0.10077518224716187 0.1179930791258812 0.8294574618339539
-0.10077518224716187 0.12217618525028229 0.8449612855911255
-0.10077518224716187 0.12421794980764389 0.8604651689529419
-0.10077518224716187 0.12347868829965591 0.8759689331054688
-0.10077518224716187 0.12068791687488556 0.8914728164672852
-0.08527129888534546 -0.11834277957677841 0.8449612855911255
-0.08527129888534546 -0.1210913211107254 0.8604651689529419
-0.08527129888534546 -0.12292184680700302 0.8759689331054688
-0.08527129888534546 -0.12335304915904999 0.8914728164672852
-0.08527129888534546 -0.12141266465187073 0.9069766998291016
-0.08527129888534546 -0.10203293710947037 0.7984496355056763
-0.08527129888534546 -0.10732920467853546 0.8139535188674927
-0.08527129888534546 -0.11316464841365814 0.8294573426246643
-0.08527129888534546 -0.11374890059232712 0.922480583190918
-0.08527129888534546 -0.09093263745307922 0.7829457521438599
-0.08527129888534546 -0.09850146621465683 0.9379844665527344
-0.08527129888534546 -0.07721984386444092 0.7674418687820435
-0.08527129888534546 -0.06941638886928558 0.9534883499145508
-0.08527129888534546 -0.051496610045433044 0.751937985420227
-0.08527129888534546 0.037644386291503906 0.751937985420227
-0.08527129888534546 0.06827539950609207 0.9534883499145508
-0.08527129888534546 0.08341425657272339 0.7674418687820435
-0.08527129888534546 0.09986306726932526 0.9379844665527344
-0.08527129888534546 0.10172978788614273 0.7829457521438599
-0.08527129888534546 0.11119735240936279 0.7984496355056763
-0.08527129888534546 0.11475745588541031 0.922480583190918
-0.08527129888534546 0.12018150091171265 0.8139535188674927
-0.08527129888534546 0.12575915455818176 0.8294574022293091
-0.08527129888534546 0.12987913191318512 0.8449612855911255
-0.08527129888534546 0.13153958320617676 0.8759689331054688
-0.08527129888534546 0.12846560776233673 0.8914728164672852
-0.08527129888534546 0.12312155961990356 0.9069766998291016
-0.08527129888534546 0.13222867250442505 0.8604651689529419
-0.06976741552352905 -0.13204818964004517 0.8914728164672852
-0.06976741552352905 -0.11965416371822357 0.8294574022293091
-0.06976741552352905 -0.12370780110359192 0.8449612855911255
-0.06976741552352905 -0.1275578886270523 0.8604651689529419
-0.06976741552352905 -0.13075576722621918 0.8759689331054688
-0.06976741552352905 -0.1294226497411728 0.9069766402244568
-0.06976741552352905 -0.12367605417966843 0.922480583190918
-0.06976741552352905 -0.10579277575016022 0.7984496355056763
-0.06976741552352905 -0.11382251232862473 0.8139535188674927
-0.06976741552352905 -0.11142556369304657 0.9379844665527344
-0.06976741552352905 -0.08719488978385925 0.7674418687820435
-0.06976741552352905 -0.09818510711193085 0.7829457521438599
-0.06976741552352905 -0.08982484042644501 0.9534883499145508
-0.06976741552352905 -0.06774194538593292 0.751937985420227
-0.06976741552352905 -0.04959637299180031 0.9689922332763672
-0.06976741552352905 0.04281377047300339 0.968992292881012
-0.06976741552352905 0.062066126614809036 0.751937985420227
-0.06976741552352905 0.09695106744766235 0.7674418687820435
-0.06976741552352905 0.08780799806118011 0.953488290309906
-0.06976741552352905 0.1076401025056839 0.7829457521438599
-0.06976741552352905 0.11007893085479736 0.9379844665527344
-0.06976741552352905 0.1192752867937088 0.7984496355056763
-0.06976741552352905 0.12685047090053558 0.8139535188674927
-0.06976741552352905 0.13156764209270477 0.9069766998291016
-0.06976741552352905 0.12313532829284668 0.922480583190918
-0.06976741552352905 0.13419905304908752 0.8294574022293091
-0.06976741552352905 0.13797689974308014 0.8449612855911255
-0.06976741552352905 0.13939529657363892 0.8604651689529419
-0.06976741552352905 0.1382422298192978 0.8759689331054688
-0.06976741552352905 0.13586623966693878 0.8914728164672852
-0.05426359176635742 -0.13215583562850952 0.8449612855911255
-0.05426359176635742 -0.13602662086486816 0.8604651689529419
-0.05426359176635742 -0.13840536773204803 0.8759689331054688
-0.05426359176635742 -0.1389988362789154 0.8914728164672852
-0.05426359176635742 -0.1374582201242447 0.9069766998291016
-0.05426359176635742 -0.11928512156009674 0.8139535188674927
-0.05426359176635742 -0.12455636262893677 0.8294574022293091
-0.05426359176635742 -0.13170331716537476 0.922480583190918
-0.05426359176635742 -0.12131617963314056 0.9379844665527344
-0.05426359176635742 -0.10310567170381546 0.7829457521438599
-0.05426359176635742 -0.11063852906227112 0.7984496355056763
-0.05426359176635742 -0.09351631253957748 0.7674418687820435
-0.05426359176635742 -0.10065124183893204 0.9534883499145508
-0.05426359176635742 -0.07429227232933044 0.751937985420227
-0.05426359549164772 -0.06950291246175766 0.9689922332763672
-0.05426359176635742 0.06223727762699127 0.9689922332763672
-0.05426358804106712 0.08805617690086365 0.751937985420227
-0.05426359176635742 0.09742189943790436 0.9534883499145508
-0.05426359176635742 0.10483446717262268 0.7674418687820435
-0.05426359176635742 0.11688831448554993 0.7829458117485046
-0.05426359176635742 0.12517404556274414 0.7984496355056763
-0.05426359176635742 0.1314399540424347 0.922480583190918
-0.05426358804106712 0.11917697638273239 0.9379844069480896
-0.05426359176635742 0.13544432818889618 0.8139535188674927
-0.05426359176635742 0.14164483547210693 0.8294574022293091
-0.05426359176635742 0.14540676772594452 0.8449612855911255
-0.05426359176635742 0.14720763266086578 0.8604651689529419
-0.05426359176635742 0.1458628624677658 0.8759689331054688
-0.05426359176635742 0.14232319593429565 0.8914728164672852
-0.05426359176635742 0.13799676299095154 0.9069767594337463
-0.038759708404541016 -0.1473430097103119 0.8914728164672852
-0.038759708404541016 -0.13726255297660828 0.8449612855911255
-0.038759708404541016 -0.14273376762866974 0.8604651689529419
-0.038759708404541016 -0.14614041149616241 0.8759689331054688
-0.038759708404541016 -0.14304839074611664 0.9069766998291016
-0.038759708404541016 -0.13809461891651154 0.922480583190918
-0.038759708404541016 -0.11646867543458939 0.7984496355056763
-0.038759708404541016 -0.1222701370716095 0.8139535188674927
-0.038759708404541016 -0.13114099204540253 0.8294574022293091
-0.038759708404541016 -0.12660375237464905 0.9379844665527344
-0.038759708404541016 -0.1010192409157753 0.7674418687820435
-0.038759708404541016 -0.10605527460575104 0.7829457521438599
-0.038759708404541016 -0.10760800540447235 0.9534883499145508
-0.038759708404541016 -0.07960136979818344 0.751937985420227
-0.038759708404541016 -0.0786454975605011 0.9689922332763672
-0.038759708404541016 -0.02394823729991913 0.7364341020584106
-0.038759708404541016 0.013720562681555748 0.7364341020584106
-0.038759708404541016 0.06998191773891449 0.9689921736717224
-0.038759708404541016 0.09207295626401901 0.751937985420227
-0.038759708404541016 0.10799823701381683 0.7674418687820435
-0.038759708404541016 0.10278875380754471 0.9534883499145508
-0.038759708404541016 0.11964710056781769 0.7829457521438599
-0.038759708404541016 0.1245250329375267 0.9379844665527344
-0.03875970467925072 0.1323413997888565 0.7984495759010315
-0.038759708404541016 0.14078199863433838 0.8139535188674927
-0.038759708404541016 0.14292363822460175 0.9069766998291016
-0.038759708404541016 0.1367737054824829 0.922480583190918
-0.038759708404541016 0.14779947698116302 0.8294574022293091
-0.038759708404541016 0.15166664123535156 0.8449612855911255
-0.038759708404541016 0.1528501808643341 0.8604651689529419
-0.038759708404541016 0.15193405747413635 0.8759689331054688
-0.038759708404541016 0.14884275197982788 0.8914727568626404
-0.02325582504272461 -0.1476697474718094 0.8604651689529419
-0.02325582504272461 -0.1503726989030838 0.8759689331054688
-0.02325582504272461 -0.15085621178150177 0.8914728164672852
-0.02325582504272461 -0.14823582768440247 0.9069766998291016
-0.02325582504272461 -0.13292455673217773 0.8294574022293091
-0.02325582504272461 -0.1401578187942505 0.8449612855911255
-0.02325582504272461 -0.14052796363830566 0.922480583190918
-0.02325582504272461 -0.11656862497329712 0.7984496355056763
-0.02325582504272461 -0.12313434481620789 0.8139535188674927
-0.02325582504272461 -0.129390150308609 0.9379844069480896
-0.02325582504272461 -0.10108847916126251 0.7674418687820435
-0.02325582504272461 -0.10619351267814636 0.7829457521438599
-0.02325582504272461 -0.11097561568021774 0.953488290309906
-0.02325582504272461 -0.07979976385831833 0.751937985420227
-0.02325582504272461 -0.08304882049560547 0.9689922332763672
-0.02325582504272461 -0.010474944487214088 0.7364341020584106
-0.02325582504272461 -0.01630561426281929 0.9844961166381836
-0.02325582318007946 0.010006598196923733 0.7364341020584106
-0.02325582504272461 0.00916212610900402 0.9844961166381836
-0.02325582504272461 0.07291122525930405 0.9689922332763672
-0.02325582504272461 0.08788622915744781 0.751937985420227
-0.02325582504272461 0.10514944791793823 0.7674418687820435
-0.02325582504272461 0.1046595349907875 0.9534884095191956
-0.02325582504272461 0.11930277198553085 0.7829457521438599
-0.02325582504272461 0.1266213059425354 0.9379844665527344
-0.02325582504272461 0.13370002806186676 0.7984496355056763
-0.02325582504272461 0.14299951493740082 0.8139535188674927
-0.02325582504272461 0.13888463377952576 0.922480583190918
-0.02325582504272461 0.1504138559103012 0.8294574022293091
-0.02325582504272461 0.15410709381103516 0.8449612855911255
-0.02325582504272461 0.15521439909934998 0.8604651689529419
-0.02325582504272461 0.15435074269771576 0.8759689331054688
-0.02325582504272461 0.15204648673534393 0.8914728164672852
-0.02325582504272461 0.1473379284143448 0.9069766998291016
-0.007751941680908203 -0.15001676976680756 0.8604651689529419
-0.007751941680908203 -0.15345314145088196 0.8759689331054688
-0.007751941680908203 -0.1537555754184723 0.8914728164672852
-0.007751941680908203 -0.1510559767484665 0.9069766998291016
-0.007751941680908203 -0.13381049036979675 0.8294574022293091
-0.007751941680908203 -0.14197558164596558 0.8449612855911255
-0.007751941215246916 -0.14294646680355072 0.922480583190918
-0.007751941680908203 -0.13191287219524384 0.9379844665527344
-0.007751941680908203 -0.11654357612133026 0.7984496355056763
-0.007751941680908203 -0.12377195060253143 0.8139535188674927
-0.007751941680908203 -0.10542109608650208 0.7829457521438599
-0.007751941680908203 -0.1133507639169693 0.9534883499145508
-0.00775194214656949 -0.09937085956335068 0.7674418687820435
-0.007751941680908203 -0.0853588730096817 0.9689922332763672
-0.007751941680908203 -0.0772770419716835 0.751937985420227
-0.007751941680908203 -0.007808385882526636 -0.42635661363601685
-0.007751941680908203 -0.007874884642660618 -0.41085273027420044
-0.007751941680908203 -0.00786843616515398 -0.39534884691238403
-0.007751941680908203 -0.007800351828336716 -0.3798449635505676
-0.007751941680908203 -0.0078001986257731915 -0.3643410801887512
-0.007751941680908203 -0.007835562340915203 -0.3488371968269348
-0.007751941680908203 -0.007920240983366966 -0.3333333134651184
-0.007751941680908203 -0.008056835271418095 -0.317829430103302
-0.007751941680908203 -0.008205251768231392 -0.30232560634613037
-0.007751941680908203 -0.008395307697355747 -0.28682172298431396
-0.007751941680908203 -0.008499679155647755 -0.27131783962249756
-0.007751941680908203 -0.008567997254431248 -0.25581395626068115
-0.007751941680908203 -0.008606057614088058 -0.24031007289886475
-0.007751941680908203 -0.008643913082778454 -0.22480618953704834
-0.007751941680908203 -0.00865604355931282 -0.20930230617523193
-0.007751941680908203 -0.008637514896690845 -0.19379842281341553
-0.007751941680908203 -0.008631007745862007 -0.1782945990562439
-0.007751941680908203 -0.008628576062619686 -0.1627907156944275
-0.007751941680908203 -0.00862414762377739 -0.14728683233261108
-0.007751941680908203 -0.008615944534540176 -0.13178294897079468
-0.007751941680908203 -0.008602960966527462 -0.11627906560897827
-0.007751941680908203 -0.008555806241929531 -0.10077518224716187
-0.007751941680908203 -0.008516672998666763 -0.08527129888534546
-0.007751941680908203 -0.008496953174471855 -0.06976741552352905
-0.007751941680908203 -0.008504193276166916 -0.05426359176635742
-0.007751941680908203 -0.008557161316275597 -0.038759708404541016
-0.007751941680908203 -0.008622814901173115 -0.02325582504272461
-0.007751941680908203 -0.008634384721517563 -0.007751941680908203
-0.007751941680908203 -0.008597170002758503 0.007751941680908203
-0.007751941680908203 -0.008523887023329735 0.02325582504272461
-0.007751941680908203 -0.008480178192257881 0.038759708404541016
-0.007751941680908203 -0.008421503007411957 0.05426359176635742
-0.007751941680908203 -0.008418640121817589 0.06976747512817383
-0.007751941680908203 -0.008407065644860268 0.08527135848999023
-0.007751941680908203 -0.008444666862487793 0.10077524185180664
-0.007751941680908203 -0.00844421423971653 0.11627912521362305
-0.007751941680908203 -0.008378195576369762 0.1317828893661499
-0.007751941680908203 -0.008256889879703522 0.1472867727279663
-0.007751941680908203 -0.008109324611723423 0.16279065608978271
-0.007751941680908203 -0.007972694002091885 0.17829453945159912
-0.007751941680908203 -0.007968645542860031 0.5038759708404541
-0.007751941680908203 -0.00809839740395546 0.5193798542022705
-0.007751941680908203 -0.0083045968785882 0.5348837375640869
-0.007751941680908203 -0.008296209387481213 0.5503876209259033
-0.007751941680908203 -0.008141634985804558 0.5658915042877197
-0.007751941680908203 -0.007960041053593159 0.5813953876495361
-0.007751941680908203 -0.007787518668919802 0.5968992710113525
-0.007751941680908203 -0.007759046275168657 0.6434108018875122
-0.007751941680908203 -0.007953613065183163 0.6589146852493286
-0.007751941680908203 -0.008317007683217525 0.674418568611145
-0.007751941680908203 -0.008821511641144753 0.6899224519729614
-0.007751941680908203 -0.009296702221035957 0.7054263353347778
-0.007751941680908203 -0.01100817508995533 0.7209302186965942
-0.007751941215246916 -0.021381350234150887 0.7364340424537659
-0.007751941680908203 -0.022871024906635284 0.9844961166381836
-0.007751941680908203 0.0041546933352947235 -0.9689922332763672
-0.007751941680908203 0.004585751332342625 -0.9534883499145508
-0.007751941680908203 0.004851422272622585 -0.9379844665527344
-0.007751941680908203 0.004868410527706146 -0.9224806427955627
-0.007751941680908203 0.004990173503756523 -0.9069768190383911
-0.007751941680908203 0.004011812619864941 -0.8914728164672852
-0.007751941680908203 0.003674117848277092 -0.8759689927101135
-0.007751941680908203 0.0027187855448573828 -0.8604651093482971
-0.007751941680908203 0.0018608318641781807 -0.8449612259864807
-0.007751941680908203 0.0009450577199459076 -0.8294573426246643
-0.007751941680908203 0.0004139805678278208 -0.8139535188674927
-0.007751941680908203 -0.00020458921790122986 -0.7984496355056763
-0.007751941680908203 -0.00014198198914527893 -0.7829457521438599
-0.007751941680908203 0.0012734092306345701 -0.7674418687820435
-0.007751941680908203 0.0014074528589844704 -0.751937985420227
-0.007751941680908203 0.0018389029428362846 -0.7364341020584106
-0.007751941680908203 0.0013630203902721405 -0.7209302186965942
-0.007751941680908203 -3.803451545536518e-05 -0.7054263353347778
-0.007751941680908203 -0.0009140491019934416 -0.6899224519729614
-0.007751941680908203 -0.0018287049606442451 -0.674418568611145
-0.007751941680908203 -0.002218971960246563 -0.6589146852493286
-0.007751941680908203 -0.001229769317433238 -0.643410861492157
-0.007751941680908203 0.0008732287678867579 -0.6279069781303406
-0.007751941680908203 0.004194156266748905 -0.6124030947685242
-0.007751941680908203 0.006477149203419685 -0.4418604373931885
-0.007751941680908203 0.00363488239236176 -0.42635661363601685
-0.007751941680908203 0.0017809504643082619 -0.41085273027420044
-0.007751941680908203 0.0036736363545060158 -0.39534884691238403
-0.007751941680908203 -0.00020908843725919724 -0.3798449635505676
-0.007751941680908203 0.0011088186874985695 -0.3643410801887512
-0.007751941680908203 0.0042992280796170235 -0.3488371968269348
-0.007751941680908203 -0.00227450137026608 0.19379842281341553
-0.007751941680908203 -0.00013634958304464817 0.5038759708404541
-0.007751941680908203 0.005013982765376568 0.5193798542022705
-0.007751941680908203 0.00740301888436079 0.5503876209259033
-0.007751941680908203 0.004046723246574402 0.5658915042877197
-0.007751941680908203 0.0006019007414579391 0.5813953876495361
-0.007751941680908203 -0.004181619733572006 0.5968992710113525
-0.007751941680908203 -0.001058703288435936 0.6279069185256958
-0.007751941680908203 0.008406765758991241 -0.9689922332763672
-0.007751941680908203 0.008206593804061413 -0.9534883499145508
-0.007751941215246916 0.008127627894282341 -0.9379844665527344
-0.007751941680908203 0.008108655922114849 -0.9224806427955627
-0.007751941680908203 0.008062354288995266 -0.9069767594337463
-0.007751941680908203 0.008162750862538815 -0.8914728760719299
-0.007751941680908203 0.00817885436117649 -0.8759689927101135
-0.00775194214656949 0.008266214281320572 -0.8604651093482971
-0.007751941680908203 0.008356091566383839 -0.8449612259864807
-0.007751941680908203 0.008466469123959541 -0.8294573426246643
-0.007751941680908203 0.00844747293740511 -0.8139535188674927
-0.007751941680908203 0.008410375565290451 -0.7984496355056763
-0.007751941680908203 0.008389724418520927 -0.7829457521438599
-0.007751941680908203 0.008257449604570866 -0.7674418687820435
-0.007751941680908203 0.008234844543039799 -0.751937985420227
-0.007751941680908203 0.008177654817700386 -0.7364341020584106
-0.007751941680908203 0.008176191709935665 -0.7209302186965942
-0.00775194214656949 0.008233890868723392 -0.7054263353347778
-0.007751941680908203 0.008218535222113132 -0.6899224519729614
-0.007751941680908203 0.008190413005650043 -0.674418568611145
-0.007751941680908203 0.008177526295185089 -0.6589146852493286
-0.007751941680908203 0.008128167130053043 -0.6434108018875122
-0.007751941680908203 0.008034060709178448 -0.6279069781303406
-0.007751941680908203 0.007865553721785545 -0.6124030947685242
-0.00775194214656949 0.007757373154163361 -0.4418604373931885
-0.007751941680908203 0.007798732258379459 -0.3333333432674408
-0.007751941215246916 0.00789720006287098 -0.317829430103302
-0.007751941680908203 0.007996206171810627 -0.30232560634613037
-0.00775194214656949 0.008063522167503834 -0.28682172298431396
-0.00775194214656949 0.00817287527024746 -0.27131783962249756
-0.007751941680908203 0.008182420395314693 -0.25581395626068115
-0.007751941680908203 0.008166957646608353 -0.24031007289886475
-0.007751941680908203 0.008133913390338421 -0.22480620443820953
-0.007751941680908203 0.008120042271912098 -0.20930230617523193
-0.007751941680908203 0.0081183398142457 -0.19379842281341553
-0.007751941680908203 0.008111364208161831 -0.1782945990562439
-0.00775194214656949 0.008111122064292431 -0.16279073059558868
-0.007751941680908203 0.008086015470325947 -0.14728683233261108
-0.007751941680908203 0.008057747036218643 -0.13178293406963348
-0.007751941680908203 0.008007328025996685 -0.11627906560897827
-0.007751941680908203 0.007936711423099041 -0.10077518224716187
-0.007751941680908203 0.00789035763591528 -0.08527129888534546
-0.007751941680908203 0.00787931215018034 -0.06976741552352905
-0.007751941680908203 0.007887600921094418 -0.05426359176635742
-0.007751941215246916 0.007917343638837337 -0.038759708404541016
-0.007751941680908203 0.00798048172146082 -0.02325582504272461
-0.00775194214656949 0.008010972291231155 -0.00775194214656949
-0.007751941680908203 0.008032453246414661 0.007751941680908203
-0.00775194214656949 0.008018333464860916 0.02325582504272461
-0.007751941680908203 0.008003933355212212 0.038759708404541016
-0.007751941680908203 0.007983358576893806 0.05426359176635742
-0.00775194214656949 0.00798631552606821 0.06976747512817383
-0.007751941680908203 0.00797287281602621 0.08527135848999023
-0.007751941680908203 0.00795764196664095 0.10077524185180664
-0.007751941215246916 0.007955003529787064 0.11627912521362305
-0.007751941680908203 0.00797200296074152 0.1317828893661499
-0.007751941680908203 0.007955444045364857 0.1472867727279663
-0.007751941680908203 0.007900707423686981 0.16279065608978271
-0.007751941680908203 0.007852530106902122 0.17829453945159912
-0.007751941680908203 0.007820374332368374 0.19379842281341553
-0.007751941680908203 0.007790401112288237 0.5348837375640869
-0.007751941680908203 0.007909662090241909 0.6279069185256958
-0.007751941680908203 0.008104898035526276 0.6434108018875122
-0.007751941680908203 0.00838977750390768 0.6589146852493286
-0.007751941680908203 0.008783485740423203 0.674418568611145
-0.007751941680908203 0.009355586022138596 0.6899224519729614
-0.007751941680908203 0.009841514751315117 0.7054263353347778
-0.007751941680908203 0.012674650177359581 0.7209302186965942
-0.007751941680908203 0.017960505560040474 0.9844961166381836
-0.007751941680908203 0.03017900325357914 0.7364341020584106
-0.007751941680908203 0.07318100333213806 0.9689922332763672
-0.007751941680908203 0.08603575825691223 0.751937985420227
-0.007751941680908203 0.10391002893447876 0.7674418687820435
-0.007751941680908203 0.10438312590122223 0.9534883499145508
-0.007751941680908203 0.11937864869832993 0.7829457521438599
-0.007751941680908203 0.12732937932014465 0.9379844665527344
-0.007751941680908203 0.13472095131874084 0.7984496355056763
-0.007751941680908203 0.14585867524147034 0.8139535188674927
-0.007751941680908203 0.1403397172689438 0.922480583190918
-0.007751941680908203 0.15236064791679382 0.8294574022293091
-0.007751941680908203 0.15602530539035797 0.8449612855911255
-0.007751941680908203 0.15693725645542145 0.8604651689529419
-0.007751941680908203 0.15602001547813416 0.8759689331054688
-0.007751941215246916 0.15374132990837097 0.8914728164672852
-0.007751941680908203 0.14950773119926453 0.9069766998291016
0.007751941680908203 -0.1502840667963028 0.8604651689529419
0.007751941680908203 -0.1539381742477417 0.8759689331054688
0.007751941680908203 -0.15400639176368713 0.8914728164672852
0.007751941680908203 -0.15106379985809326 0.9069766998291016
0.007751941680908203 -0.13376955687999725 0.8294574022293091
0.007751941680908203 -0.1423097848892212 0.8449612855911255
0.007751941680908203 -0.14281609654426575 0.922480583190918
0.007751941680908203 -0.12353548407554626 0.8139535188674927
0.007751941680908203 -0.13171419501304626 0.9379844665527344
0.007751941680908203 -0.1047823578119278 0.7829457521438599
0.007751941680908203 -0.11580422520637512 0.7984496355056763
0.007751941680908203 -0.11254355311393738 0.9534883499145508
0.007751941680908203 -0.0976097583770752 0.7674418687820435
0.007751941680908203 -0.07589466869831085 0.751937985420227
0.00775194214656949 -0.08459050953388214 0.9689922332763672
0.007751941680908203 -0.007856492884457111 -0.10077518224716187
0.007751941680908203 -0.007999326102435589 -0.08527129888534546
0.007751941680908203 -0.00804497767239809 -0.06976741552352905
0.007751941680908203 -0.008061145432293415 -0.05426359176635742
0.007751941680908203 -0.00812361016869545 -0.038759708404541016
0.007751941680908203 -0.008129949681460857 -0.02325582504272461
0.007751941680908203 -0.008008510805666447 -0.007751941680908203
0.007751941680908203 -0.007813732139766216 0.007751941680908203
0.007751941680908203 -0.007896640338003635 0.5503876209259033
0.007751941680908203 -0.00796225480735302 0.5658915042877197
0.007751941680908203 -0.00780631136149168 0.5813953876495361
0.007751941680908203 -0.007849227637052536 0.674418568611145
0.007751941680908203 -0.008214930072426796 0.6899224519729614
0.007751941680908203 -0.008385507389903069 0.7054263353347778
0.007751941680908203 -0.00942337978631258 0.7209302186965942
0.007751941680908203 -0.01867714896798134 0.7364341020584106
0.007751941680908203 -0.021417537704110146 0.9844960570335388
0.007751941680908203 0.004153174348175526 -0.9689922332763672
0.007751941680908203 0.0037159807980060577 -0.9534883499145508
0.007751941680908203 0.0037179591599851847 -0.9379844665527344
0.007751941680908203 0.003940259106457233 -0.9224806427955627
0.007751941680908203 0.003965108655393124 -0.9069767594337463
0.007751941680908203 0.0037534909788519144 -0.8914728760719299
0.007751941680908203 0.0035322143230587244 -0.8759689927101135
0.007751941680908203 0.0026224181056022644 -0.8604651093482971
0.007751941680908203 0.002201189287006855 -0.8449611663818359
0.007751941680908203 0.0019324831664562225 -0.8294573426246643
0.007751941680908203 0.0017076258081942797 -0.8139535188674927
0.007751941680908203 0.0017907330766320229 -0.7984496355056763
0.007751941680908203 0.002094248542562127 -0.7829457521438599
0.007751941680908203 0.0029740079771727324 -0.7674418687820435
0.007751941680908203 0.003503569168969989 -0.751937985420227
0.007751941680908203 0.003988083451986313 -0.7364341020584106
0.007751941680908203 0.004229443147778511 -0.7209302186965942
0.007751941680908203 0.0039653414860367775 -0.7054263353347778
0.007751941680908203 0.0035498563665896654 -0.6899224519729614
0.007751941680908203 0.003683442249894142 -0.674418568611145
0.007751941680908203 0.003915926441550255 -0.6589146852493286
0.007751941680908203 0.004318918101489544 -0.643410861492157
0.007751941680908203 0.005880643613636494 -0.6279069781303406
0.00775194214656949 -0.001311310101300478 -0.11627906560897827
0.007751941680908203 -0.0016131943557411432 0.02325582504272461
0.007751941680908203 0.0019056973978877068 0.038759708404541016
0.007751941680908203 0.0041546281427145 0.05426359176635742
0.007751941680908203 0.002698759315535426 0.06976747512817383
0.007751941680908203 0.001941676251590252 0.08527135848999023
0.007751941680908203 -0.00041606114245951176 0.10077524185180664
0.007751941680908203 -0.003592396853491664 0.11627912521362305
0.007751941680908203 -0.004386222921311855 0.1317828893661499
0.007751941680908203 -0.0012632275465875864 0.1472867727279663
0.007751941680908203 0.0003420403227210045 0.16279065608978271
0.007751941680908203 0.0022538413759320974 0.17829453945159912
0.007751941680908203 0.004259229637682438 0.19379842281341553
0.007751941680908203 0.005857345648109913 0.20930230617523193
0.007751941680908203 0.007503373548388481 0.22480618953704834
0.007751941680908203 0.007067402824759483 0.3178294897079468
0.007751941680908203 0.0037407800555229187 0.3333333730697632
0.007751941680908203 0.0015931453090161085 0.3488372564315796
0.007751941680908203 -6.4587220549583435e-06 0.364341139793396
0.007751941680908203 0.000682211248204112 0.37984490394592285
0.007751941680908203 0.0022248094901442528 0.39534878730773926
0.007751941680908203 0.004509469494223595 0.41085267066955566
0.007751941680908203 0.00610281340777874 0.42635655403137207
0.007751941680908203 0.007309633307158947 0.4883720874786377
0.007751941680908203 0.003792642615735531 0.5038759708404541
0.007751941680908203 0.0005365319084376097 0.5193798542022705
0.007751941680908203 -0.004357748664915562 0.5348837375640869
0.007751941215246916 -0.004378055687993765 0.5968992710113525
0.007751941680908203 0.0029418261256068945 0.612403154373169
0.007751941680908203 0.001817850163206458 0.6279069185256958
0.007751941680908203 0.0014456259086728096 0.6434108018875122
0.007751941680908203 -0.002371569164097309 0.6589146852493286
0.00775194214656949 0.008436226285994053 -0.968992292881012
0.007751941680908203 0.0084275733679533 -0.9534884095191956
0.007751941680908203 0.008387290872633457 -0.9379844665527344
0.00775194214656949 0.008338919840753078 -0.9224806427955627
0.007751941680908203 0.00832376629114151 -0.9069767594337463
0.007751941680908203 0.008358594961464405 -0.8914729356765747
0.007751941680908203 0.00838641170412302 -0.8759689927101135
0.007751941680908203 0.008528517559170723 -0.8604650497436523
0.00775194214656949 0.008595514111220837 -0.8449612855911255
0.007751941215246916 0.008637653663754463 -0.8294573426246643
0.007751941680908203 0.008634086698293686 -0.8139535188674927
0.007751941680908203 0.008565956726670265 -0.7984496355056763
0.007751941680908203 0.008503120392560959 -0.7829457521438599
0.007751941680908203 0.008361268788576126 -0.7674418687820435
0.007751941680908203 0.008277167566120625 -0.751937985420227
0.007751941680908203 0.00820643175393343 -0.7364341020584106
0.007751941680908203 0.008159659802913666 -0.7209302186965942
0.007751941680908203 0.008175983093678951 -0.7054263353347778
0.007751941680908203 0.008214857429265976 -0.6899224519729614
0.007751941680908203 0.008178183808922768 -0.674418568611145
0.007751941680908203 0.008136121556162834 -0.6589146852493286
0.007751941680908203 0.008091443218290806 -0.643410861492157
0.007751941680908203 0.00792693067342043 -0.6279069781303406
0.007751941680908203 0.007792801130563021 -0.11627906560897827
0.007751941680908203 0.007866602391004562 -0.10077518224716187
0.007751941680908203 0.00792461447417736 -0.08527129888534546
0.007751941680908203 0.007988657802343369 -0.06976741552352905
0.007751941680908203 0.008041027933359146 -0.05426359176635742
0.007751941680908203 0.008112691342830658 -0.038759708404541016
0.007751941680908203 0.008148882538080215 -0.02325582504272461
0.007751941680908203 0.008107162080705166 -0.007751941680908203
0.007751941680908203 0.008013373240828514 0.007751941680908203
0.007751941215246916 0.007932575419545174 0.02325582504272461
0.007751941680908203 0.007892683148384094 0.038759708404541016
0.007751941215246916 0.007848795503377914 0.05426359176635742
0.007751941215246916 0.007895628921687603 0.06976746767759323
0.007751941680908203 0.007911662571132183 0.08527135848999023
0.007751941680908203 0.00793515145778656 0.10077524185180664
0.007751941680908203 0.007983239367604256 0.11627911776304245
0.00775194214656949 0.008062342181801796 0.1317828893661499
0.007751941680908203 0.008031588047742844 0.1472867727279663
0.007751941680908203 0.007990056648850441 0.16279065608978271
0.007751941680908203 0.007945547811686993 0.17829453945159912
0.007751941680908203 0.007915962487459183 0.19379840791225433
0.007751941680908203 0.007848604582250118 0.20930230617523193
0.00775194214656949 0.007764538750052452 0.22480620443820953
0.007751941680908203 0.007780023384839296 0.3178294897079468
0.007751941680908203 0.007922091521322727 0.33333340287208557
0.007751941680908203 0.007984757423400879 0.3488372564315796
0.007751941680908203 0.008023783564567566 0.364341139793396
0.007751941680908203 0.00801431480795145 0.37984487414360046
0.007751941680908203 0.007986090146005154 0.39534878730773926
0.007751941680908203 0.007903335615992546 0.41085267066955566
0.007751941680908203 0.007830050773918629 0.42635655403137207
0.007751941680908203 0.0077728647738695145 0.4883720874786377
0.007751941680908203 0.007931943982839584 0.5038759708404541
0.007751941680908203 0.008120058104395866 0.5193798542022705
0.007751941215246916 0.008271499536931515 0.5348836779594421
0.007751941680908203 0.008288155309855938 0.5503876209259033
0.007751941680908203 0.008174535818397999 0.5658915042877197
0.007751941680908203 0.00803031213581562 0.5813953876495361
0.00775194214656949 0.007878744043409824 0.5968992710113525
0.007751941680908203 0.007830668240785599 0.612403154373169
0.007751941680908203 0.007928776554763317 0.6279069185256958
0.007751941680908203 0.00801178254187107 0.6434107422828674
0.007751941680908203 0.00818842463195324 0.6589146852493286
0.007751941680908203 0.008445492014288902 0.674418568611145
0.007751941680908203 0.008877251297235489 0.6899224519729614
0.007751941680908203 0.009060639888048172 0.7054263949394226
0.007751941680908203 0.011091375723481178 0.7209302186965942
0.007751941680908203 0.01688140444457531 0.9844961166381836
0.00775194214656949 0.025427544489502907 0.7364341020584106
0.007751941680908203 0.07237765938043594 0.9689922332763672
0.007751941680908203 0.0859527438879013 0.751937985420227
0.007751941680908203 0.10352513194084167 0.7674418687820435
0.007751941680908203 0.10361750423908234 0.9534883499145508
0.007751941680908203 0.11891485750675201 0.7829457521438599
0.007751941680908203 0.12637697160243988 0.9379844665527344
0.007751941680908203 0.13455629348754883 0.7984496355056763
0.007751941680908203 0.14577753841876984 0.8139535188674927
0.007751941680908203 0.13963106274604797 0.922480583190918
0.007751941680908203 0.1522030532360077 0.8294574022293091
0.007751941680908203 0.15587295591831207 0.8449612855911255
0.007751941680908203 0.15674038231372833 0.8604651689529419
0.007751941680908203 0.15571457147598267 0.8759689331054688
0.007751941680908203 0.15338176488876343 0.8914728164672852
0.007751941680908203 0.14907142519950867 0.9069766998291016
0.02325582504272461 -0.14770111441612244 0.8604651689529419
0.02325582504272461 -0.15059635043144226 0.8759689331054688
0.02325582504272461 -0.151160329580307 0.8914728164672852
0.02325582504272461 -0.14820405840873718 0.9069766998291016
0.02325582504272461 -0.13256162405014038 0.8294574022293091
0.02325582504272461 -0.14040029048919678 0.8449612855911255
0.02325582504272461 -0.14008164405822754 0.922480583190918
0.02325582504272461 -0.12252707779407501 0.8139535188674927
0.02325582504272461 -0.1283935010433197 0.9379844069480896
0.02325582504272461 -0.10532576590776443 0.7829457521438599
0.02325582690536976 -0.11517201364040375 0.7984496355056763
0.02325582504272461 -0.10891494154930115 0.9534883499145508
0.02325582504272461 -0.09953286498785019 0.7674418687820435
0.02325582504272461 -0.07901888340711594 0.751937985420227
0.02325582504272461 -0.08075838536024094 0.9689922332763672
0.02325582504272461 0.07018919289112091 0.9689921736717224
0.02325582504272461 0.08800256252288818 0.751937985420227
0.02325582504272461 0.10504809021949768 0.7674418687820435
0.02325582504272461 0.10215001553297043 0.9534884095191956
0.02325582504272461 0.11881865561008453 0.7829457521438599
0.02325582504272461 0.12442301958799362 0.9379844665527344
0.02325582504272461 0.13348974287509918 0.7984496355056763
0.02325582504272461 0.14299462735652924 0.8139535188674927
0.02325582504272461 0.1459270864725113 0.9069766998291016
0.02325582504272461 0.13759057223796844 0.922480583190918
0.02325582504272461 0.15004727244377136 0.8294574022293091
0.02325582504272461 0.15366286039352417 0.8449612855911255
0.02325582504272461 0.15466120839118958 0.8604651689529419
0.02325582504272461 0.1538054645061493 0.8759689331054688
0.02325582504272461 0.15137241780757904 0.8914728164672852
0.038759708404541016 -0.1476878821849823 0.8914728164672852
0.038759708404541016 -0.13741964101791382 0.8449612855911255
0.038759708404541016 -0.14347636699676514 0.8604651689529419
0.038759708404541016 -0.14714467525482178 0.8759689331054688
0.038759708404541016 -0.14261287450790405 0.9069766998291016
0.038759708404541016 -0.13698874413967133 0.922480583190918
0.038759708404541016 -0.12150079011917114 0.8139535188674927
0.038759708404541016 -0.12984919548034668 0.8294574022293091
0.038759708404541016 -0.1249973326921463 0.9379844665527344
0.038759708404541016 -0.10469184815883636 0.7829457521438599
0.038759708404541016 -0.11384733021259308 0.7984496355056763
0.038759708404541016 -0.10429031401872635 0.9534883499145508
0.038759708404541016 -0.09749587625265121 0.7674418687820435
0.038759708404541016 -0.07747389376163483 0.751937985420227
0.038759708404541016 -0.07475020736455917 0.9689922332763672
0.038759708404541016 0.06706997007131577 0.9689922332763672
0.038759708404541016 0.09099467843770981 0.751937985420227
0.038759708404541016 0.10024204850196838 0.9534883499145508
0.038759708404541016 0.1076417788863182 0.7674418687820435
0.038759708404541016 0.11942274123430252 0.7829457521438599
0.038759708404541016 0.12228360772132874 0.9379844665527344
0.038759708404541016 0.1319890320301056 0.7984496355056763
0.038759708404541016 0.1406632661819458 0.8139535188674927
0.038759708404541016 0.1417762041091919 0.9069766998291016
0.038759708404541016 0.13518467545509338 0.922480583190918
0.038759708404541016 0.14732520282268524 0.8294574022293091
