-0.09675233066082001 0.11627912521362305 0.8139535188674927
-0.0981728658080101 0.11627912521362305 0.8294574022293091
-0.09852723032236099 0.11627912521362305 0.8449612855911255
-0.09759350121021271 0.11627912521362305 0.8604651689529419
-0.09446844458580017 0.11627912521362305 0.8759689331054688
-0.08931300044059753 0.11627912521362305 0.8914728164672852
-0.07248258590698242 -0.13178294897079468 0.8139535188674927
-0.07476445287466049 -0.13178294897079468 0.8294574022293091
-0.07548563927412033 -0.13178294897079468 0.8449612855911255
-0.07459163665771484 -0.13178294897079468 0.8604651689529419
-0.07189258933067322 -0.13178294897079468 0.8759689331054688
-0.07268934696912766 -0.11627906560897827 0.7364341020584106
-0.07889293879270554 -0.11627906560897827 0.751937985420227
-0.08394014090299606 -0.11627906560897827 0.7674418687820435
-0.08156052976846695 -0.11627906560897827 0.9069766998291016
-0.07087088376283646 -0.11627906560897827 0.922480583190918
-0.0729360580444336 -0.10077518224716187 0.7054263353347778
-0.08194269239902496 -0.10077518224716187 0.7209302186965942
-0.07528375089168549 -0.10077518224716187 0.9379844665527344
-0.07690300047397614 -0.08527129888534546 0.6899224519729614
-0.0707196295261383 -0.08527129888534546 0.9534883499145508
-0.07834333926439285 -0.06976741552352905 0.674418568611145
-0.08450770378112793 -0.06976741552352905 0.9534883499145508
-0.07621152698993683 -0.05426359176635742 0.6589146852493286
-0.07098767906427383 -0.038759708404541016 0.6434108018875122
-0.08223491907119751 -0.038759708404541016 0.6589146256446838
-0.08080829679965973 -0.038759708404541016 0.968992292881012
-0.07419181615114212 -0.02325582504272461 0.6434108018875122
-0.08378122001886368 -0.02325582504272461 0.9689922332763672
-0.07518675923347473 -0.007751941680908203 0.6434108018875122
-0.0743805542588234 0.007751941680908203 0.6434108018875122
-0.07087349891662598 0.02325582504272461 0.6434108018875122
-0.08128494024276733 0.02325582504272461 0.6589146852493286
-0.08222422748804092 0.02325582504272461 0.9689922332763672
-0.07723097503185272 0.038759708404541016 0.6589146852493286
-0.07857691496610641 0.038759708404541016 0.9689922332763672
-0.07199051976203918 0.05426359176635742 0.6589146852493286
-0.08354093134403229 0.05426359176635742 0.674418568611145
-0.07616081833839417 0.06976747512817383 0.674418568611145
-0.08310297876596451 0.06976747512817383 0.9534883499145508
-0.0764862671494484 0.08527135848999023 0.6899224519729614
-0.07282756268978119 0.10077524185180664 0.7054263353347778
-0.08250157535076141 0.10077524930238724 0.7209302186965942
-0.07348951697349548 0.10077524185180664 0.9379844665527344
-0.07231500744819641 0.11627912521362305 0.7364341020584106
-0.07994663715362549 0.11627912521362305 0.751937985420227
-0.08179087936878204 0.11627912521362305 0.9069766402244568
-0.07362157851457596 0.1317828893661499 0.7984496355056763
-0.07716354727745056 0.1317828893661499 0.8139535188674927
-0.07893095910549164 0.1317828893661499 0.8294574022293091
-0.07916208356618881 0.1317828893661499 0.8449612855911255
-0.0771673321723938 0.1317828893661499 0.8604651689529419
-0.0728684663772583 0.1317828893661499 0.8759689331054688
-0.059996895492076874 -0.13178294897079468 0.7674418687820435
-0.06433617323637009 -0.13178294897079468 0.7829457521438599
-0.06855011731386185 -0.13178294897079468 0.7984496355056763
-0.06714380532503128 -0.13178294897079468 0.8914728164672852
-0.05677399784326553 -0.13178294897079468 0.9069766998291016
-0.06084418296813965 -0.11627906560897827 0.7209302186965942
-0.05746883153915405 -0.10077518224716187 0.6899224519729614
-0.0632631927728653 -0.08527129888534546 0.674418568611145
-0.06369096040725708 -0.06976741552352905 0.6589146852493286
-0.056513261049985886 -0.06976741552352905 0.9689922332763672
-0.06005508080124855 -0.05426359176635742 0.6434108018875122
-0.0696171298623085 -0.05426359176635742 0.9689922332763672
-0.054795656353235245 -0.038759708404541016 0.6279069185256958
-0.06130605563521385 -0.02325582504272461 0.6279069185256958
-0.06427633762359619 -0.007751941680908203 0.6279069185256958
-0.057134877890348434 -0.007751941680908203 0.9844961166381836
-0.06306253373622894 0.007751941680908203 0.6279069185256958
-0.05595434457063675 0.007751941680908203 0.9844961166381836
-0.05758459120988846 0.02325582504272461 0.6279069185256958
-0.06308303028345108 0.038759708404541016 0.6434108018875122
-0.05436326935887337 0.05426359176635742 0.6434108018875122
-0.06570202112197876 0.05426359176635742 0.9689922332763672
-0.06018216907978058 0.06976747512817383 0.6589146852493286
-0.062326230108737946 0.08527135848999023 0.674418568611145
-0.06705518066883087 0.08527135848999023 0.9534883499145508
-0.05704828351736069 0.10077524185180664 0.6899224519729614
-0.06072279065847397 0.11627912521362305 0.7209302186965942
-0.06944817304611206 0.11627911776304245 0.9224805235862732
-0.06159333512187004 0.1317828893661499 0.7674418687820435
-0.06867480278015137 0.1317828893661499 0.7829458117485046
-0.06759577989578247 0.1317828893661499 0.8914728164672852
-0.056121524423360825 0.1317828893661499 0.9069766998291016
-0.04297556355595589 -0.14728683233261108 0.8139535188674927
-0.04633389413356781 -0.14728683233261108 0.8294574022293091
-0.04739871621131897 -0.14728683233261108 0.8449612855911255
-0.04575425013899803 -0.14728683233261108 0.8604651689529419
-0.040369197726249695 -0.14728683233261108 0.8759689331054688
-0.039955079555511475 -0.13178294897079468 0.7364341020584106
-0.05234934762120247 -0.13178294897079468 0.751937985420227
-0.03906332328915596 -0.13178294897079468 0.922480583190918
-0.04250987246632576 -0.11627906560897827 0.7054263353347778
-0.04797514155507088 -0.11627906560897827 0.9379844665527344
-0.0464426651597023 -0.10077518224716187 0.9534883499145508
-0.03920649737119675 -0.06976741552352905 0.6434108018875122
-0.04014003276824951 -0.038759708404541016 0.9844961166381836
-0.041850436478853226 -0.02325582504272461 0.612403154373169
-0.05203858017921448 -0.02325582504272461 0.9844961166381836
-0.04767146706581116 -0.007751941680908203 0.612403154373169
-0.047351911664009094 0.007751941680908203 0.612403154373169
-0.04102879762649536 0.02325582504272461 0.612403154373169
-0.048814304172992706 0.02325582504272461 0.9844961166381836
-0.047166138887405396 0.038759708404541016 0.6279069185256958
-0.047049686312675476 0.06976747512817383 0.968992292881012
-0.04131988808512688 0.11627912521362305 0.7054263353347778
-0.0435088574886322 0.11627912521362305 0.9379844665527344
-0.051667798310518265 0.1317828893661499 0.751937985420227
-0.04336422309279442 0.1472867727279663 0.7984496355056763
-0.04875927418470383 0.1472867727279663 0.8139535188674927
-0.05119626224040985 0.1472867727279663 0.8294574022293091
-0.05111899971961975 0.1472867727279663 0.8449612855911255
-0.04847203195095062 0.1472867727279663 0.8604651689529419
-0.0415961928665638 0.1472867727279663 0.8759689331054688
-0.03495820611715317 -0.14728683233261108 0.7984496355056763
-0.025934986770153046 -0.14728683233261108 0.8914728164672852
-0.026011012494564056 -0.10077518224716187 0.674418568611145
-0.03848467767238617 -0.08527129888534546 0.6589146852493286
-0.03790738806128502 -0.05426359176635742 0.6279069185256958
-0.026006195694208145 -0.038759708404541016 0.612403154373169
-0.027281761169433594 0.038759708404541016 0.9844961166381836
-0.026524575427174568 0.06976747512817383 0.6434108018875122
-0.031522780656814575 0.08527135848999023 0.6589146852493286
-0.034976571798324585 0.10077524185180664 0.9534883499145508
-0.03546660393476486 0.1317828893661499 0.7364341020584106
-0.03413324058055878 0.1317828893661499 0.9224805235862732
-0.03315092623233795 0.1472867727279663 0.7829457521438599
-0.028430555015802383 0.1472867727279663 0.8914728164672852
-0.02177952043712139 -0.1472868174314499 0.7829457521438599
-0.022042203694581985 -0.08527129888534546 0.9689922332763672
-0.008141187019646168 -0.007751941680908203 -0.9689922332763672
-0.008417109958827496 -0.007751941680908203 -0.9534883499145508
-0.008741489611566067 -0.007751941680908203 -0.9379844665527344
-0.00904963817447424 -0.007751941680908203 -0.9224806427955627
-0.00916439387947321 -0.007751941680908203 -0.9069767594337463
-0.009138018824160099 -0.007751941680908203 -0.8914728164672852
-0.009094676934182644 -0.007751941680908203 -0.8759689927101135
-0.009111313149333 -0.007751941680908203 -0.8604651093482971
-0.0090775266289711 -0.007751941680908203 -0.8449612259864807
-0.009054961614310741 -0.007751941680908203 -0.8294572830200195
-0.00906422920525074 -0.007751941680908203 -0.8139535188674927
-0.009078999981284142 -0.007751941680908203 -0.7984496355056763
-0.009072341024875641 -0.007751941680908203 -0.7829457521438599
-0.009009009227156639 -0.007751941680908203 -0.7674418687820435
-0.008981956169009209 -0.007751941680908203 -0.751937985420227
-0.008936366066336632 -0.007751941680908203 -0.7364341020584106
-0.00893543753772974 -0.007751941680908203 -0.7209302186965942
-0.00894142035394907 -0.007751941680908203 -0.7054263353347778
-0.008942539803683758 -0.007751941680908203 -0.6899224519729614
-0.0089370496571064 -0.007751941680908203 -0.674418568611145
-0.008896651677787304 -0.007751941680908203 -0.6589146852493286
-0.008852447383105755 -0.007751941680908203 -0.643410861492157
-0.008782283402979374 -0.007751941680908203 -0.6279069781303406
-0.008774283342063427 -0.007751941680908203 -0.6124030947685242
-0.008734626695513725 -0.007751941680908203 -0.5968992114067078
-0.008643768727779388 -0.007751941680908203 -0.5813953876495361
-0.008489266037940979 -0.007751941680908203 -0.5658915042877197
-0.008353124372661114 -0.007751941680908203 -0.5503876209259033
-0.00830214936286211 -0.007751941680908203 -0.5348837375640869
-0.008254781365394592 -0.007751941680908203 -0.5193798542022705
-0.00830819457769394 -0.007751941680908203 -0.5038759708404541
-0.008379423059523106 -0.007751941680908203 -0.4883720874786377
-0.008473661728203297 -0.007751941680908203 -0.4728682041168213
-0.008527559228241444 -0.007751941680908203 -0.4573643207550049
-0.008564958348870277 -0.007751941680908203 -0.4418604373931885
-0.00865307729691267 -0.007751941680908203 -0.42635661363601685
-0.00870576873421669 -0.007751941680908203 -0.41085273027420044
-0.008719487115740776 -0.007751941680908203 -0.39534884691238403
-0.00867902860045433 -0.007751941680908203 -0.3798449635505676
-0.008638951927423477 -0.007751941680908203 -0.3643410801887512
-0.008617102168500423 -0.007751941680908203 -0.3488371968269348
-0.008634071797132492 -0.007751941680908203 -0.3333333134651184
-0.008646250702440739 -0.007751941680908203 -0.317829430103302
-0.008628029376268387 -0.007751941680908203 -0.30232560634613037
-0.008568773046135902 -0.007751941680908203 -0.28682172298431396
-0.008470241911709309 -0.007751941680908203 -0.27131783962249756
-0.008415468037128448 -0.007751941680908203 -0.25581395626068115
-0.008428694680333138 -0.007751941680908203 -0.24031007289886475
-0.008493676781654358 -0.007751941680908203 -0.22480618953704834
-0.008563289418816566 -0.007751941680908203 -0.20930230617523193
-0.008557398803532124 -0.007751941680908203 -0.19379842281341553
-0.008537269197404385 -0.007751941680908203 -0.1782945990562439
-0.008554970845580101 -0.007751941680908203 -0.1627907156944275
-0.008519130758941174 -0.007751941680908203 -0.14728683233261108
-0.008459542877972126 -0.007751941680908203 -0.13178294897079468
-0.00839737243950367 -0.007751941680908203 -0.11627906560897827
-0.00835566408932209 -0.007751941680908203 -0.10077518224716187
-0.008373869583010674 -0.007751941680908203 -0.08527129888534546
-0.008397487923502922 -0.007751941680908203 -0.06976741552352905
-0.008432365022599697 -0.007751941680908203 -0.05426359176635742
-0.0084792859852314 -0.007751941680908203 -0.038759708404541016
-0.008508353494107723 -0.007751941680908203 -0.02325582504272461
-0.008474105969071388 -0.007751941680908203 -0.007751941680908203
-0.008418804965913296 -0.007751941680908203 0.007751941680908203
-0.008362285792827606 -0.007751941680908203 0.02325582504272461
-0.00832398235797882 -0.007751941680908203 0.038759708404541016
-0.00831160880625248 -0.007751941680908203 0.05426359176635742
-0.00829050038009882 -0.007751941680908203 0.06976747512817383
-0.008299380540847778 -0.007751941680908203 0.08527135848999023
-0.008299599401652813 -0.007751941680908203 0.10077524185180664
-0.008281991817057133 -0.007751941680908203 0.11627912521362305
-0.008251368068158627 -0.007751941680908203 0.1317828893661499
-0.008235394954681396 -0.007751941680908203 0.1472867727279663
-0.008206738159060478 -0.007751941680908203 0.16279065608978271
-0.008216817863285542 -0.007751941680908203 0.17829453945159912
-0.008290329948067665 -0.007751941680908203 0.19379842281341553
-0.008370224386453629 -0.007751941680908203 0.20930230617523193
-0.008432626724243164 -0.007751941680908203 0.22480618953704834
-0.008422436192631721 -0.007751941680908203 0.24031007289886475
-0.008386864326894283 -0.007751941680908203 0.25581395626068115
-0.00837087444961071 -0.007751941680908203 0.27131783962249756
-0.00836944580078125 -0.007751941680908203 0.28682172298431396
-0.008365546353161335 -0.007751941680908203 0.30232560634613037
-0.008365318179130554 -0.007751941680908203 0.3178294897079468
-0.008349965326488018 -0.007751941680908203 0.3333333730697632
-0.008371998555958271 -0.007751941680908203 0.3488372564315796
-0.008396299555897713 -0.007751941680908203 0.364341139793396
-0.008436455391347408 -0.007751941680908203 0.37984490394592285
-0.008510750718414783 -0.007751941680908203 0.39534878730773926
-0.0085288742557168 -0.007751941680908203 0.41085267066955566
-0.008556225337088108 -0.007751941680908203 0.42635655403137207
-0.00855190772563219 -0.007751941680908203 0.4418604373931885
-0.008579889312386513 -0.007751941680908203 0.4573643207550049
-0.008617060258984566 -0.007751941680908203 0.4728682041168213
-0.008676126599311829 -0.007751941680908203 0.4883720874786377
-0.008715828880667686 -0.007751941680908203 0.5038759708404541
-0.008726222440600395 -0.007751941680908203 0.5193798542022705
-0.008657998405396938 -0.007751941680908203 0.5348837375640869
-0.008635123260319233 -0.007751941680908203 0.5503876209259033
-0.008255718275904655 -0.007751941680908203 0.5658915042877197
-0.00879720225930214 -0.007751941680908203 0.5813953876495361
-0.02137533202767372 -0.007751941680908203 0.5968992710113525
-0.007885669358074665 0.007751941680908203 -0.9689922332763672
-0.008233897387981415 0.007751941680908203 -0.9534883499145508
-0.008523634634912014 0.007751941680908203 -0.9379844665527344
-0.008870122022926807 0.007751941680908203 -0.9224806427955627
-0.008950903080403805 0.007751941680908203 -0.9069767594337463
-0.00898074358701706 0.007751941680908203 -0.8914728760719299
-0.008920222520828247 0.007751941680908203 -0.8759689927101135
-0.008890981785953045 0.007751941680908203 -0.8604651093482971
-0.008856533095240593 0.007751941680908203 -0.8449612259864807
-0.008864229544997215 0.007751941680908203 -0.8294573426246643
-0.00878809206187725 0.007751941680908203 -0.8139535188674927
-0.00871011707931757 0.007751941680908203 -0.7984496355056763
-0.008696469478309155 0.007751941680908203 -0.7829457521438599
-0.00864136591553688 0.007751941680908203 -0.7674418687820435
-0.008623520843684673 0.007751941680908203 -0.751937985420227
-0.00861449260264635 0.007751941680908203 -0.7364341020584106
-0.00856709573417902 0.007751941680908203 -0.7209302186965942
-0.008544955402612686 0.007751941680908203 -0.7054263353347778
-0.008503616787493229 0.007751941680908203 -0.6899224519729614
-0.00844536256045103 0.007751941680908203 -0.674418568611145
-0.008371011354029179 0.007751941680908203 -0.6589146852493286
-0.00831687543541193 0.007751941680908203 -0.643410861492157
-0.008261041715741158 0.007751941680908203 -0.6279069781303406
-0.00819416530430317 0.007751941680908203 -0.6124030947685242
-0.008163084276020527 0.007751941680908203 -0.5968992114067078
-0.008193707093596458 0.007751941680908203 -0.5813953876495361
-0.008254093118011951 0.007751941680908203 -0.5658915042877197
-0.008298814296722412 0.007751941680908203 -0.5503876209259033
-0.008299050852656364 0.007751941680908203 -0.5348837375640869
-0.008291509933769703 0.007751941680908203 -0.5193798542022705
-0.008276999928057194 0.007751941680908203 -0.5038759708404541
-0.008232790976762772 0.007751941680908203 -0.4883720874786377
-0.008172868750989437 0.007751941680908203 -0.4728682041168213
-0.008143779821693897 0.007751941680908203 -0.4573643207550049
-0.008128901943564415 0.007751941680908203 -0.4418604373931885
-0.008091868832707405 0.007751941680908203 -0.42635661363601685
-0.008092109113931656 0.007751941680908203 -0.41085273027420044
-0.008105996996164322 0.007751941680908203 -0.39534884691238403
-0.008152492344379425 0.007751941680908203 -0.3798449635505676
-0.008151445537805557 0.007751941680908203 -0.3643410801887512
-0.008153382688760757 0.007751941680908203 -0.3488371968269348
-0.00813176017254591 0.007751941680908203 -0.3333333134651184
-0.00810293573886156 0.007751941680908203 -0.317829430103302
-0.008102594874799252 0.007751941680908203 -0.30232560634613037
-0.008081382140517235 0.007751941680908203 -0.28682172298431396
-0.008118052035570145 0.007751941680908203 -0.27131783962249756
-0.00815025344491005 0.007751941680908203 -0.25581395626068115
-0.008216829970479012 0.007751941680908203 -0.24031007289886475
-0.008270327001810074 0.007751941680908203 -0.22480618953704834
-0.008291258476674557 0.007751941680908203 -0.20930230617523193
-0.008329290896654129 0.007751941680908203 -0.19379842281341553
-0.008327852934598923 0.007751941680908203 -0.1782945990562439
-0.008396927267313004 0.007751941680908203 -0.1627907156944275
-0.008419143036007881 0.007751941680908203 -0.14728683233261108
-0.008475379087030888 0.007751941680908203 -0.13178294897079468
-0.008453341200947762 0.007751941680908203 -0.11627906560897827
-0.008444895036518574 0.007751941680908203 -0.10077518224716187
-0.00842558778822422 0.007751941680908203 -0.08527129888534546
-0.008442817255854607 0.007751941680908203 -0.06976741552352905
-0.008449970744550228 0.007751941680908203 -0.05426359176635742
-0.008399691432714462 0.007751941680908203 -0.038759708404541016
-0.008328085765242577 0.007751941680908203 -0.02325582504272461
-0.008238772861659527 0.007751941680908203 -0.007751941680908203
-0.008146297186613083 0.007751941680908203 0.007751941680908203
-0.00807911902666092 0.007751941680908203 0.02325582504272461
-0.008057228289544582 0.007751941680908203 0.038759708404541016
-0.008050038479268551 0.007751941680908203 0.05426359176635742
-0.00808956753462553 0.007751941680908203 0.06976747512817383
-0.008104097098112106 0.007751941680908203 0.08527135848999023
-0.008097516372799873 0.007751941680908203 0.10077524185180664
-0.00806962139904499 0.007751941680908203 0.11627912521362305
-0.008049966767430305 0.007751941680908203 0.1317828893661499
-0.008001274429261684 0.007751941680908203 0.1472867727279663
-0.007960998453199863 0.007751941680908203 0.16279065608978271
-0.007929442450404167 0.007751941680908203 0.17829453945159912
-0.007942674681544304 0.007751941680908203 0.19379842281341553
-0.007950839586555958 0.007751941680908203 0.20930230617523193
-0.007949809543788433 0.007751941680908203 0.22480618953704834
-0.007964936085045338 0.007751941680908203 0.24031007289886475
-0.00797783862799406 0.007751941680908203 0.25581395626068115
-0.007987872697412968 0.007751941680908203 0.27131783962249756
-0.007963146083056927 0.007751941680908203 0.28682172298431396
-0.007965229451656342 0.007751941680908203 0.30232560634613037
-0.007952178828418255 0.007751941680908203 0.3178294897079468
-0.007950317114591599 0.007751941680908203 0.3333333730697632
-0.007890840992331505 0.007751941680908203 0.3488372564315796
-0.007857412099838257 0.007751941680908203 0.364341139793396
-0.007807441521435976 0.007751941680908203 0.37984490394592285
-0.0077910893596708775 0.007751941680908203 0.39534878730773926
-0.007797637488692999 0.007751941680908203 0.41085267066955566
-0.00780686317011714 0.007751941680908203 0.42635655403137207
-0.0077919368632137775 0.007751941680908203 0.4418604373931885
-0.007754824589937925 0.007751941680908203 0.4573643207550049
-0.007815487682819366 0.007751941680908203 0.5193798542022705
-0.007932881824672222 0.007751941680908203 0.5348837375640869
-0.008143582381308079 0.007751941680908203 0.5503876209259033
-0.008449479006230831 0.007751941680908203 0.5658915042877197
-0.00977895874530077 0.007751941680908203 0.5813953876495361
-0.022160710766911507 0.007751941680908203 0.5968992710113525
-0.016408301889896393 0.038759708404541016 0.612403154373169
-0.023019518703222275 0.05426359549164772 0.6279069185256958
-0.016606608405709267 0.10077524185180664 0.674418568611145
-0.014766035601496696 0.1472867727279663 0.7674418687820435
0.006896861828863621 -0.007751941680908203 -0.5968992114067078
0.0037795444950461388 -0.007751941680908203 -0.5813953876495361
0.0010407781228423119 -0.007751941680908203 -0.5658915042877197
-0.0008481678087264299 -0.007751941680908203 -0.5503876209259033
-0.0015677856281399727 -0.007751941680908203 -0.5348837375640869
-0.0022343641612678766 -0.007751941680908203 -0.5193798542022705
-0.0018128277733922005 -0.007751941680908203 -0.5038759708404541
-0.0011255331337451935 -0.007751941680908203 -0.4883720874786377
0.00017044064588844776 -0.007751941680908203 -0.4728682041168213
0.0012172050774097443 -0.007751941680908203 -0.4573643207550049
0.002310437150299549 -0.007751941680908203 -0.4418604373931885
0.004461607895791531 -0.007751941680908203 -0.42635661363601685
0.005817039869725704 -0.007751941680908203 -0.41085273027420044
0.005495063029229641 -0.007751941680908203 -0.39534884691238403
0.003960203379392624 -0.007751941680908203 -0.3798449635505676
0.0032623745501041412 -0.007751941680908203 -0.3643410801887512
0.0026755279395729303 -0.007751941680908203 -0.3488371968269348
0.0027543948963284492 -0.007751941680908203 -0.3333333134651184
0.004015397280454636 -0.007751941680908203 -0.317829430103302
0.006263230927288532 -0.007751941680908203 -0.30232560634613037
0.0075889090076088905 -0.007751941680908203 -0.10077518224716187
0.005838155746459961 -0.007751941680908203 -0.08527129888534546
0.004879605956375599 -0.007751941680908203 -0.06976741552352905
0.0053342897444963455 -0.007751941680908203 -0.05426359176635742
0.006269145756959915 -0.007751941680908203 -0.038759708404541016
0.007458742707967758 -0.007751941680908203 0.25581395626068115
0.0069666532799601555 -0.007751941680908203 0.27131783962249756
0.007675250992178917 -0.007751941680908203 0.41085267066955566
0.006049921736121178 -0.007751941680908203 0.42635655403137207
0.004076014272868633 -0.007751941680908203 0.4418604373931885
0.005076589994132519 -0.007751941680908203 0.4573643207550049
0.007061051204800606 -0.007751941680908203 0.4728682041168213
-0.0004995907656848431 -0.007751941215246916 0.5658915042877197
-0.0007831330876797438 -0.007751941680908203 0.5813953876495361
-0.002079138532280922 0.007751941680908203 -0.9689922332763672
0.004308377392590046 0.007751941680908203 -0.27131783962249756
0.0016683032736182213 0.007751941680908203 -0.25581395626068115
0.0014510441105812788 0.007751941680908203 -0.24031007289886475
0.0013252862263470888 0.007751941680908203 -0.22480618953704834
0.0019009711686521769 0.007751941680908203 -0.20930230617523193
0.0028234662022441626 0.007751941680908203 -0.19379842281341553
0.0033253058791160583 0.007751941680908203 -0.1782945990562439
0.005675717256963253 0.007751941680908203 -0.1627907156944275
0.007280418649315834 0.007751941680908203 -0.14728683233261108
0.006784495897591114 0.007751941680908203 -0.13178294897079468
0.003946931101381779 0.007751941680908203 -0.11627906560897827
0.0025068940594792366 0.007751941680908203 -0.10077518224716187
0.0024945682380348444 0.007751941680908203 -0.08527129888534546
0.0028621896635740995 0.007751941680908203 -0.06976741552352905
0.00345789548009634 0.007751941680908203 -0.05426359176635742
0.003855632385239005 0.007751941680908203 -0.038759708404541016
0.0036305198445916176 0.007751941680908203 -0.02325582504272461
0.0027793722692877054 0.007751941680908203 -0.007751941680908203
0.002022508531808853 0.007751941680908203 0.007751941680908203
0.00126518658362329 0.007751941680908203 0.02325582504272461
0.0006037140265107155 0.007751941680908203 0.038759708404541016
0.0005486514419317245 0.007751941680908203 0.05426359176635742
0.0016321726143360138 0.007751941680908203 0.06976747512817383
0.0033111218363046646 0.007751941680908203 0.08527135848999023
0.003411816665902734 0.007751941680908203 0.10077524185180664
0.0034645795822143555 0.007751941680908203 0.11627912521362305
0.004542022943496704 0.007751941680908203 0.1317828893661499
0.0032944881822913885 0.007751941680908203 0.1472867727279663
0.0030980734154582024 0.007751941680908203 0.16279065608978271
0.003397654742002487 0.007751941680908203 0.17829453945159912
-0.007515201345086098 0.007751941680908203 0.4728681743144989
-0.007239236496388912 0.007751941680908203 0.4883720874786377
-0.007204690482467413 0.007751941215246916 0.5038759708404541
0.018905414268374443 -0.14728683233261108 0.7829457521438599
0.019768113270401955 -0.10077518224716187 0.674418568611145
0.018979482352733612 -0.08527129888534546 0.9689922332763672
0.007946237921714783 -0.007751941680908203 -0.9689922332763672
0.007907849736511707 -0.007751941680908203 -0.9534883499145508
0.008068154565989971 -0.007751941215246916 -0.9379844665527344
0.008322449401021004 -0.007751941680908203 -0.9224807024002075
0.008470450527966022 -0.007751941680908203 -0.9069767594337463
0.0085005396977067 -0.007751941215246916 -0.8914728760719299
0.00852274987846613 -0.007751941680908203 -0.8759689331054688
0.008602168411016464 -0.007751941680908203 -0.8604651093482971
0.008610635064542294 -0.007751941680908203 -0.8449612259864807
0.008620761334896088 -0.007751941680908203 -0.8294573426246643
0.008649012073874474 -0.007751941680908203 -0.8139535188674927
0.008647792041301727 -0.007751941215246916 -0.7984495759010315
0.008594305254518986 -0.007751941680908203 -0.7829457521438599
0.008444705046713352 -0.007751941680908203 -0.7674418687820435
0.008319207467138767 -0.007751941215246916 -0.7519379258155823
0.008149564266204834 -0.007751941680908203 -0.7364341020584106
0.008081360720098019 -0.007751941680908203 -0.7209302186965942
0.008060386404395103 -0.007751941680908203 -0.7054263353347778
0.008043687790632248 -0.007751941680908203 -0.6899224519729614
0.008035804145038128 -0.007751941215246916 -0.674418568611145
0.008023840375244617 -0.007751941680908203 -0.6589146852493286
0.007978027686476707 -0.007751941680908203 -0.643410861492157
0.007873198948800564 -0.007751941680908203 -0.6279070377349854
0.007850488647818565 -0.00775194214656949 -0.6124030947685242
0.007856832817196846 -0.007751941680908203 -0.28682175278663635
0.007942389696836472 -0.007751941215246916 -0.27131783962249756
0.007983256131410599 -0.007751941680908203 -0.25581395626068115
0.00797612126916647 -0.007751941215246916 -0.24031007289886475
0.007923147641122341 -0.007751941680908203 -0.22480618953704834
0.007943656295537949 -0.007751941680908203 -0.20930232107639313
0.007996666245162487 -0.007751941680908203 -0.19379842281341553
0.008049200288951397 -0.007751941680908203 -0.1782945990562439
0.00811852142214775 -0.007751941680908203 -0.1627907156944275
0.008111622184515 -0.007751941680908203 -0.14728683233261108
0.008013210259377956 -0.00775194214656949 -0.13178294897079468
0.007885304279625416 -0.007751941680908203 -0.11627906560897827
0.007756001781672239 -0.007751941680908203 -0.02325582504272461
0.007825632579624653 -0.007751941215246916 -0.007751941215246916
0.007964806631207466 -0.00775194214656949 0.00775194214656949
0.008051563985645771 -0.007751941680908203 0.02325582504272461
0.008046835660934448 -0.00775194214656949 0.038759708404541016
0.008036051876842976 -0.007751941680908203 0.05426359176635742
0.008025825954973698 -0.007751941215246916 0.06976747512817383
0.008054891601204872 -0.007751941680908203 0.08527135848999023
0.008065897971391678 -0.007751941215246916 0.10077524185180664
0.008072820492088795 -0.007751941680908203 0.11627912521362305
0.008096654899418354 -0.007751941680908203 0.1317828893661499
0.008103504776954651 -0.007751941680908203 0.1472867727279663
0.00810430757701397 -0.00775194214656949 0.16279065608978271
0.008136696182191372 -0.007751941215246916 0.17829453945159912
0.008126417174935341 -0.007751941215246916 0.19379842281341553
0.008062653243541718 -0.007751941215246916 0.20930229127407074
0.007927170023322105 -0.007751941680908203 0.22480618953704834
0.007834425196051598 -0.007751941680908203 0.24031007289886475
0.007814615964889526 -0.007751941680908203 0.28682172298431396
0.007869022898375988 -0.007751941680908203 0.30232563614845276
0.007900422438979149 -0.007751941680908203 0.3178294897079468
0.00791847426444292 -0.007751941680908203 0.3333333730697632
0.00796167179942131 -0.007751941680908203 0.3488372564315796
0.008017279207706451 -0.00775194214656949 0.364341139793396
0.007960228249430656 -0.007751941215246916 0.37984487414360046
0.00787715706974268 -0.007751941215246916 0.39534875750541687
0.007953131571412086 -0.007751941680908203 0.4883720874786377
0.008153630420565605 -0.007751941680908203 0.5038759708404541
0.008222533389925957 -0.007751941680908203 0.5193798542022705
0.008131960406899452 -0.007751941680908203 0.5348837375640869
0.00792120210826397 -0.007751941680908203 0.5503876209259033
0.01705736666917801 -0.007751941680908203 0.5968992710113525
0.00792989693582058 0.00775194214656949 -0.9534884095191956
0.008218793198466301 0.007751941680908203 -0.9379844665527344
0.00859979446977377 0.007751941680908203 -0.9224806427955627
0.008821507915854454 0.00775194214656949 -0.9069767594337463
0.008926945738494396 0.007751941680908203 -0.8914728760719299
0.008942654356360435 0.007751941680908203 -0.8759690523147583
0.008979006670415401 0.007751941680908203 -0.8604651093482971
0.008919581770896912 0.007751941680908203 -0.8449612259864807
0.00886279996484518 0.007751941680908203 -0.8294572830200195
0.008815868757665157 0.007751941215246916 -0.8139535188674927
0.008756940253078938 0.007751941680908203 -0.7984496355056763
0.00877105351537466 0.007751941680908203 -0.7829457521438599
0.008789623156189919 0.007751941680908203 -0.7674418687820435
0.008769798092544079 0.00775194214656949 -0.751937985420227
0.008760709315538406 0.007751941680908203 -0.7364341020584106
0.008706624619662762 0.007751941680908203 -0.7209302186965942
0.008664656430482864 0.007751941680908203 -0.7054263353347778
0.008624161593616009 0.007751941680908203 -0.6899224519729614
0.008556141518056393 0.00775194214656949 -0.6744186282157898
0.008468602783977985 0.007751941680908203 -0.6589146852493286
0.008405815809965134 0.007751941680908203 -0.643410861492157
0.008339468389749527 0.007751941680908203 -0.6279069781303406
0.00827225111424923 0.007751941215246916 -0.6124030947685242
0.008252409286797047 0.007751941680908203 -0.5968992114067078
0.008254657499492168 0.007751941680908203 -0.5813953876495361
0.008226743899285793 0.007751941680908203 -0.5658915042877197
0.008140125311911106 0.007751941680908203 -0.5503875613212585
0.008107341825962067 0.007751941680908203 -0.5348837375640869
0.008123195730149746 0.007751941680908203 -0.5193798542022705
0.008143034763634205 0.007751941680908203 -0.5038759708404541
0.00815077405422926 0.007751941680908203 -0.4883720874786377
0.008135511539876461 0.007751941680908203 -0.4728682041168213
0.00811068993061781 0.007751941215246916 -0.4573642909526825
0.008083098568022251 0.007751941680908203 -0.4418604373931885
0.00806544441729784 0.007751941680908203 -0.42635658383369446
0.008067945949733257 0.00775194214656949 -0.41085273027420044
0.008071497082710266 0.007751941680908203 -0.39534884691238403
0.008090413175523281 0.007751941215246916 -0.3798449635505676
0.00809120386838913 0.007751941680908203 -0.3643410801887512
0.008071081712841988 0.007751941680908203 -0.3488371968269348
0.008044631220400333 0.007751941680908203 -0.3333333134651184
0.008014902472496033 0.007751941680908203 -0.317829430103302
0.007951827719807625 0.007751941680908203 -0.30232560634613037
0.007825730368494987 0.007751941680908203 -0.28682172298431396
0.0077639250084757805 0.00775194214656949 0.19379842281341553
0.007775719277560711 0.007751941215246916 0.20930230617523193
0.007802009116858244 0.007751941680908203 0.22480618953704834
0.00781987514346838 0.007751941680908203 0.24031007289886475
0.007797351572662592 0.007751941680908203 0.25581395626068115
0.007781786844134331 0.007751941215246916 0.27131780982017517
0.0077599333599209785 0.007751941680908203 0.28682172298431396
0.007794087287038565 0.00775194214656949 0.30232560634613037
0.007784740999341011 0.007751941680908203 0.3178294897079468
0.007817908190190792 0.007751941680908203 0.33333340287208557
0.007849456742405891 0.007751941680908203 0.3488372564315796
0.007888034917414188 0.00775194214656949 0.364341139793396
0.007966317236423492 0.007751941680908203 0.37984490394592285
0.008052137680351734 0.007751941680908203 0.39534878730773926
0.008144265040755272 0.007751941680908203 0.41085267066955566
0.008188367821276188 0.007751941680908203 0.42635655403137207
0.008231617510318756 0.007751941680908203 0.4418604373931885
0.008199340663850307 0.00775194214656949 0.45736435055732727
0.008182195015251637 0.007751941680908203 0.4728682339191437
0.008159182034432888 0.007751941680908203 0.4883721172809601
0.008119037374854088 0.007751941680908203 0.5038759708404541
0.008107930421829224 0.007751941680908203 0.5193798542022705
0.008033555001020432 0.007751941215246916 0.5348837375640869
0.008041312918066978 0.007751941680908203 0.5503876209259033
0.00787934847176075 0.007751941680908203 0.5658915042877197
0.007837658748030663 0.007751941680908203 0.5813953876495361
0.01730164885520935 0.007751941680908203 0.5968992710113525
0.009478340856730938 0.038759708404541016 0.612403154373169
0.017243657261133194 0.038759708404541016 0.9844961166381836
0.01482316292822361 0.05426359176635742 0.6279069185256958
0.017450032755732536 0.06976747512817383 0.6434108018875122
0.01957595907151699 0.08527135848999023 0.6589146852493286
0.010804975405335426 0.10077524185180664 0.674418568611145
0.01399966049939394 0.1472867727279663 0.7674418687820435
0.031907208263874054 -0.14728683233261108 0.7984496355056763
0.02564733475446701 -0.14728683233261108 0.8914728164672852
0.031196797266602516 -0.13178294897079468 0.7364341020584106
0.03511599823832512 -0.13178294897079468 0.922480583190918
0.03423498570919037 -0.11627906560897827 0.7054263353347778
0.029343102127313614 -0.08527129888534546 0.6589146852493286
0.032992564141750336 -0.06976741552352905 0.6434108018875122
0.03441699221730232 -0.05426359176635742 0.6279069185256958
0.023977793753147125 -0.038759708404541016 0.612403154373169
0.03159616142511368 -0.038759708404541016 0.9844961166381836
0.03864763304591179 -0.02325582504272461 0.612403154373169
0.03591369092464447 0.02325582504272461 0.612403154373169
0.030291346833109856 0.10077524185180664 0.9534883499145508
0.032122012227773666 0.11627912521362305 0.7054263353347778
0.030527085065841675 0.1317828893661499 0.7364341020584106
0.02944786474108696 0.1317828893661499 0.922480583190918
0.031831566244363785 0.1472867727279663 0.7829457521438599
0.026142116636037827 0.1472867727279663 0.8914728760719299
0.04165595769882202 -0.14728683233261108 0.8139535188674927
0.04590968042612076 -0.14728683233261108 0.8294574022293091
0.04723095893859863 -0.14728683233261108 0.8449612855911255
0.04527410864830017 -0.14728683233261108 0.8604651689529419
0.039725083857774734 -0.14728683233261108 0.8759689331054688
0.04839327931404114 -0.13178294897079468 0.751937985420227
0.046082574874162674 -0.11627906560897827 0.9379844665527344
0.051754679530858994 -0.10077518224716187 0.6899224519729614
0.043603166937828064 -0.10077518224716187 0.9534883499145508
0.052307214587926865 -0.06976741552352905 0.9689922332763672
0.051097746938467026 -0.038759708404541016 0.6279069185256958
0.04545615613460541 -0.02325582504272461 0.9844961166381836
0.04387557879090309 -0.007751941680908203 0.612403154373169
0.050909582525491714 -0.007751941680908203 0.9844961166381836
0.04377535730600357 0.007751941680908203 0.612403154373169
0.048834819346666336 0.007751941680908203 0.9844961166381836
0.03948364779353142 0.02325582504272461 0.9844961762428284
0.0444524921476841 0.038759708404541016 0.6279069185256958
0.04903263971209526 0.05426359176635742 0.6434108018875122
0.043910667300224304 0.06976747512817383 0.9689922332763672
0.052282948046922684 0.10077524185180664 0.6899224519729614
0.041018109768629074 0.11627912521362305 0.9379844665527344
0.04931133612990379 0.1317828893661499 0.751937985420227
0.04264470189809799 0.1472867727279663 0.798449695110321
0.048317715525627136 0.1472867727279663 0.8139535188674927
0.050895512104034424 0.1472867727279663 0.8294574022293091
0.05077312886714935 0.1472867727279663 0.8449612855911255
0.04777667298913002 0.1472867727279663 0.8604651689529419
0.040522728115320206 0.1472867727279663 0.8759689331054688
0.058065176010131836 -0.13178294897079468 0.7674418687820435
0.06298718601465225 -0.13178294897079468 0.7829457521438599
0.06717205047607422 -0.13178294897079468 0.7984496355056763
0.06582406163215637 -0.13178294897079468 0.8914728164672852
0.055368196219205856 -0.13178294897079468 0.9069766998291016
0.05808189511299133 -0.11627906560897827 0.7209302186965942
0.06918590515851974 -0.11627906560897827 0.922480583190918
0.058349862694740295 -0.08527129888534546 0.674418568611145
0.06761405616998672 -0.08527129888534546 0.9534883499145508
0.058178916573524475 -0.06976741552352905 0.6589146852493286
0.05603107064962387 -0.05426359549164772 0.6434108018875122
0.06724543869495392 -0.05426359176635742 0.9689922332763672
0.066185362637043 -0.038759708404541016 0.6434108018875122
0.058656997978687286 -0.02325582504272461 0.6279069185256958
0.0614093616604805 -0.007751941215246916 0.6279069185256958
0.06092499941587448 0.007751941680908203 0.6279069185256958
0.05632200092077255 0.02325582504272461 0.6279069185256958
0.06937208771705627 0.02325582504272461 0.6434108018875122
0.061170704662799835 0.038759708404541016 0.6434108018875122
0.06836916506290436 0.05426359176635742 0.6589146852493286
0.0637446716427803 0.05426359176635742 0.9689922332763672
0.05503295734524727 0.06976747512817383 0.6589146852493286
0.057923343032598495 0.08527135848999023 0.674418568611145
0.06433198601007462 0.08527135848999023 0.9534883499145508
0.058061107993125916 0.11627912521362305 0.7209301590919495
0.06810425966978073 0.11627912521362305 0.922480583190918
0.06041108816862106 0.1317828893661499 0.7674418687820435
0.06786405295133591 0.1317828893661499 0.7829457521438599
0.06726237386465073 0.1317828893661499 0.8914728164672852
0.0554538294672966 0.1317828893661499 0.9069766998291016
0.07169720530509949 -0.13178294897079468 0.8139535188674927
0.0745273306965828 -0.13178294897079468 0.8294574022293091
0.07547031342983246 -0.13178294897079468 0.8449612855911255
0.07437320053577423 -0.13178294897079468 0.8604651689529419
0.07139204442501068 -0.13178294897079468 0.8759689331054688
0.0704902932047844 -0.11627905815839767 0.7364340424537659
0.077849380671978 -0.11627906560897827 0.751937985420227
0.08198929578065872 -0.11627906560897827 0.7674418687820435
0.08026844263076782 -0.11627906560897827 0.9069766998291016
0.06988228112459183 -0.10077518224716187 0.7054263949394226
0.08015833050012589 -0.10077518224716187 0.7209302186965942
0.0742407888174057 -0.10077518224716187 0.9379844665527344
0.07442452013492584 -0.08527129888534546 0.6899224519729614
0.07525612413883209 -0.06976741552352905 0.674418568611145
0.08338411897420883 -0.06976741552352905 0.9534883499145508
0.07236941158771515 -0.05426359176635742 0.6589146852493286
0.08500626683235168 -0.05426359176635742 0.674418568611145
0.07844525575637817 -0.038759708404541016 0.6589146852493286
0.07863511890172958 -0.038759708404541016 0.9689922332763672
0.07180960476398468 -0.02325582504272461 0.6434108018875122
0.08179806172847748 -0.02325582504272461 0.6589146852493286
0.08222980797290802 -0.02325582504272461 0.9689922332763672
0.07306148111820221 -0.007751941215246916 0.6434107422828674
0.0828952044248581 -0.007751941680908203 0.6589146852493286
0.08455364406108856 -0.007751941680908203 0.9689922332763672
0.07269355654716492 0.007751941680908203 0.6434108018875122
0.082486592233181 0.007751941680908203 0.6589146852493286
0.08421604335308075 0.007751941680908203 0.9689922332763672
0.07935035228729248 0.02325582504272461 0.6589146852493286
0.08101502805948257 0.02325582504272461 0.9689922332763672
0.07554835081100464 0.038759708404541016 0.6589146852493286
0.07623511552810669 0.038759708404541016 0.9689922332763672
0.081722691655159 0.05426359176635742 0.674418568611145
0.07334324717521667 0.06976747512817383 0.674418568611145
0.08131153881549835 0.06976747512817383 0.9534883499145508
0.07444389164447784 0.08527135848999023 0.6899224519729614
0.07100917398929596 0.10077524185180664 0.7054262757301331
0.08244737982749939 0.10077524185180664 0.7209302186965942
0.07229854166507721 0.10077523440122604 0.9379844665527344
0.07100259512662888 0.11627913266420364 0.7364341020584106
0.0796455442905426 0.11627912521362305 0.751937985420227
0.0819849818944931 0.11627912521362305 0.9069766998291016
0.0734909325838089 0.1317828893661499 0.798449695110321
0.07731924951076508 0.1317828893661499 0.8139535188674927
0.07928325235843658 0.1317828893661499 0.8294574022293091
0.07948793470859528 0.1317828893661499 0.8449612855911255
0.07742081582546234 0.1317828893661499 0.8604651689529419
0.07279413938522339 0.1317828893661499 0.8759689927101135
0.08692919462919235 -0.11627906560897827 0.7829457521438599
0.09060288965702057 -0.11627906560897827 0.7984496355056763
0.09347152709960938 -0.11627906560897827 0.8139535188674927
0.09542885422706604 -0.11627906560897827 0.8294574022293091
0.09648901224136353 -0.11627906560897827 0.8449612855911255
0.09628334641456604 -0.11627906560897827 0.8604651689529419
0.093259796500206 -0.11627906560897827 0.8759689331054688
0.08884240686893463 -0.11627906560897827 0.8914728164672852
0.09005197882652283 -0.10077518224716187 0.7364341020584106
0.09520933032035828 -0.10077518224716187 0.751937985420227
0.09894052892923355 -0.10077518224716187 0.7674418687820435
0.09980309754610062 -0.10077518224716187 0.9069766998291016
0.09104049205780029 -0.10077518224716187 0.922480583190918
0.08530347794294357 -0.08527130633592606 0.7054263353347778
0.09443065524101257 -0.08527129888534546 0.7209302186965942
0.09269288182258606 -0.08527129888534546 0.9379844665527344
0.0864379033446312 -0.06976741552352905 0.6899224519729614
0.09454819560050964 -0.06976741552352905 0.7054263353347778
0.09386356920003891 -0.05426359176635742 0.6899224519729614
0.09547339379787445 -0.05426359176635742 0.9534883499145508
0.09079167246818542 -0.038759708404541016 0.674418568611145
0.09923683106899261 -0.038759708404541016 0.6899224519729614
0.10008637607097626 -0.038759708404541016 0.9534883499145508
0.09306670725345612 -0.02325582504272461 0.674418568611145
0.0937514677643776 -0.007751941680908203 0.674418568611145
0.09356541931629181 0.007751941680908203 0.674418568611145
0.09145469963550568 0.02325582504272461 0.674418568611145
0.0882059708237648 0.038759708404541016 0.674418568611145
0.09786007553339005 0.038759708404541016 0.6899224519729614
0.09256255626678467 0.05426359176635742 0.6899224519729614
0.09450040012598038 0.05426359176635742 0.9534883499145508
0.0853835940361023 0.06976747512817383 0.6899224519729614
0.09515850245952606 0.06976747512817383 0.7054263353347778
0.08652275055646896 0.08527135848999023 0.7054263353347778
0.09604161232709885 0.08527135848999023 0.7209302186965942
0.09083980321884155 0.08527135848999023 0.9379844665527344
0.09180989861488342 0.10077524185180664 0.7364341020584106
0.09819414466619492 0.10077524185180664 0.751937985420227
0.10035271942615509 0.10077524185180664 0.9069766998291016
0.08946041017770767 0.10077524185180664 0.922480583190918
0.08629171550273895 0.11627912521362305 0.7674418687820435
0.09179279208183289 0.11627912521362305 0.7829457521438599
0.09555093944072723 0.11627912521362305 0.7984496355056763
0.09845233708620071 0.11627912521362305 0.8139535188674927
0.10016971826553345 0.11627912521362305 0.8294574022293091
0.10037726163864136 0.11627912521362305 0.8449612855911255
0.09917636215686798 0.11627912521362305 0.8604651689529419
0.09603776037693024 0.11627912521362305 0.8759689331054688
0.08993013948202133 0.11627912521362305 0.8914728164672852
0.10393774509429932 -0.10077518224716187 0.7829457521438599
0.10728031396865845 -0.10077518224716187 0.7984496355056763
0.10976412892341614 -0.10077518224716187 0.8139535188674927
0.11143036186695099 -0.10077518224716187 0.8294574022293091
0.11221978068351746 -0.10077518224716187 0.8449612855911255
0.11173070967197418 -0.10077518224716187 0.8604651689529419
0.10905194282531738 -0.10077518224716187 0.8759689331054688
0.10566875338554382 -0.10077518224716187 0.8914728760719299
0.10159741342067719 -0.08527129888534546 0.7364341020584106
0.10762863606214523 -0.08527129888534546 0.751937985420227
0.11086557805538177 -0.08527129888534546 0.7674418687820435
0.11339087784290314 -0.08527129888534546 0.7829457521438599
0.11109647154808044 -0.08527129888534546 0.9069766998291016
0.10587264597415924 -0.08527129888534546 0.922480583190918
0.1031038761138916 -0.06976741552352905 0.7209302186965942
0.10961466282606125 -0.06976741552352905 0.7364341020584106
0.11376533657312393 -0.06976741552352905 0.751937985420227
0.11264307051897049 -0.06976741552352905 0.922480583190918
0.10233211517333984 -0.06976741552352905 0.9379844665527344
0.10207091271877289 -0.05426359176635742 0.7054263353347778
0.1089395135641098 -0.05426359176635742 0.7209302186965942
0.11463090032339096 -0.05426359176635742 0.7364341020584106
0.11094754189252853 -0.05426359176635742 0.9379844665527344
0.10690116882324219 -0.038759708404541016 0.7054263353347778
0.11267398297786713 -0.038759708404541016 0.7209302186965942
0.11507824063301086 -0.038759708404541016 0.9379844665527344
0.10262026637792587 -0.02325582504272461 0.6899224519729614
0.10944478213787079 -0.02325582504272461 0.7054263353347778
0.10766035318374634 -0.02325582504272461 0.9534883499145508
0.10384700447320938 -0.007751941680908203 0.6899224519729614
0.11120963096618652 -0.007751941680908203 0.7054263353347778
0.11038003116846085 -0.007751941680908203 0.9534883499145508
0.10404469072818756 0.007751941680908203 0.6899225115776062
0.11212314665317535 0.007751941680908203 0.7054263353347778
0.11046823859214783 0.007751941680908203 0.9534883499145508
0.10216966271400452 0.02325582504272461 0.6899225115776062
0.11052244901657104 0.02325582504272461 0.7054263353347778
0.10813184082508087 0.02325582504272461 0.9534883499145508
0.10739396512508392 0.038759708404541016 0.7054263353347778
0.11579015851020813 0.038759708404541016 0.7209302186965942
0.10109647363424301 0.038759708404541016 0.953488290309906
0.1022961214184761 0.05426359549164772 0.7054263353347778
0.11037734150886536 0.05426359176635742 0.7209302186965942
0.11024588346481323 0.05426359176635742 0.9379844665527344
0.10403172671794891 0.06976747512817383 0.7209302186965942
0.11133552342653275 0.06976747512817383 0.7364341020584106
0.11219409108161926 0.06976747512817383 0.922480583190918
0.10211661458015442 0.06976747512817383 0.9379844665527344
0.10378888249397278 0.08527135848999023 0.7364341020584106
0.10992547869682312 0.08527135848999023 0.751937985420227
0.11480435729026794 0.08527135848999023 0.7674418687820435
0.11092901229858398 0.08527135848999023 0.9069766998291016
0.10402461141347885 0.08527135848999023 0.922480583190918
0.10370738804340363 0.10077524185180664 0.7674418687820435
