0.018429605290293694 0.02325582504272461 0.9069766998291016
0.018407389521598816 0.02325582504272461 0.922480583190918
0.017800189554691315 0.02325582504272461 0.9379844665527344
0.016935670748353004 0.02325582504272461 0.9534883499145508
0.009052052162587643 0.02325582504272461 0.9689922332763672
0.02310636080801487 0.038759708404541016 0.8294574022293091
0.01943337358534336 0.038759708404541016 0.8449612855911255
0.01856890134513378 0.038759708404541016 0.8604651689529419
0.017902662977576256 0.038759708404541016 0.8759689331054688
0.017645854502916336 0.038759708404541016 0.8914728164672852
0.017977382987737656 0.038759708404541016 0.9069766998291016
0.017911667004227638 0.038759708404541016 0.922480583190918
0.01745285652577877 0.038759708404541016 0.9379844665527344
0.015149952843785286 0.038759708404541016 0.9534883499145508
0.020461833104491234 0.05426359176635742 0.8294574022293091
0.018236471340060234 0.05426359176635742 0.8449612855911255
0.017895817756652832 0.05426359176635742 0.8604651689529419
0.017300868406891823 0.05426359176635742 0.8759689331054688
0.0170926284044981 0.05426359176635742 0.8914728164672852
0.017478836700320244 0.05426359176635742 0.9069766998291016
0.01737135648727417 0.05426359176635742 0.922480583190918
0.016430899500846863 0.05426359176635742 0.9379844665527344
0.015555500984191895 0.06976747512817383 0.7829457521438599
0.02171153388917446 0.06976747512817383 0.8139535188674927
0.018184522166848183 0.06976747512817383 0.8294574022293091
0.017409097403287888 0.06976747512817383 0.8449612855911255
0.017406636849045753 0.06976747512817383 0.8604651689529419
0.017039373517036438 0.06976747512817383 0.8759689331054688
0.017074624076485634 0.06976747512817383 0.8914728164672852
0.017454931512475014 0.06976747512817383 0.9069766998291016
0.016968466341495514 0.06976747512817383 0.922480583190918
0.009328306652605534 0.06976747512817383 0.9379844665527344
0.008720111101865768 0.08527135848999023 0.5348837375640869
0.016920914873480797 0.08527135848999023 0.5503876209259033
0.02193814143538475 0.08527135848999023 0.5658915042877197
0.020429646596312523 0.08527135848999023 0.5968992710113525
0.010195603594183922 0.08527135848999023 0.612403154373169
0.008245905861258507 0.08527135103940964 0.7674418091773987
0.021318355575203896 0.08527135848999023 0.8139535188674927
0.018259376287460327 0.08527135848999023 0.8294574022293091
0.017639411613345146 0.08527135848999023 0.8449612855911255
0.017439978197216988 0.08527135848999023 0.8604651689529419
0.01730271615087986 0.08527135848999023 0.8759689331054688
0.017992202192544937 0.08527135848999023 0.8914728164672852
0.017746098339557648 0.08527135848999023 0.9069766998291016
0.011299943551421165 0.08527136594057083 0.922480583190918
0.021950779482722282 0.10077524185180664 0.5503876209259033
0.023195618763566017 0.10077524185180664 0.8139535188674927
0.020108619704842567 0.10077524185180664 0.8294574022293091
0.018865754827857018 0.10077524185180664 0.8449612855911255
0.018224818632006645 0.10077524185180664 0.8604651689529419
0.018584704026579857 0.10077524185180664 0.8759689331054688
0.018584920093417168 0.10077524185180664 0.8914728164672852
0.012682933360338211 0.10077524185180664 0.9069766998291016
0.009140280075371265 0.11627912521362305 0.5503876805305481
0.021833209320902824 0.11627912521362305 0.8294574022293091
0.020435897633433342 0.11627912521362305 0.8449612855911255
0.01996179111301899 0.11627912521362305 0.8604651689529419
0.019386176019906998 0.11627912521362305 0.8759689331054688
0.013009978458285332 0.11627912521362305 0.8914728164672852
0.022762790322303772 0.1317828893661499 0.8294574022293091
0.02175101451575756 0.1317828893661499 0.8449612855911255
0.019331572577357292 0.1317828893661499 0.8604651689529419
0.011187948286533356 0.1317828893661499 0.8759689331054688
0.021475190296769142 0.1472867727279663 0.5968992710113525
0.017415359616279602 0.1472867727279663 0.8449612855911255
0.014717279002070427 0.16279065608978271 0.612403154373169
0.014718370512127876 0.16279065608978271 0.8294574022293091
0.01697940193116665 0.19379842281341553 0.674418568611145
0.023937107995152473 0.007751941680908203 0.8139535188674927
0.02370244637131691 0.02325582504272461 0.7984496355056763
0.024393122643232346 0.02325582318007946 0.8139535188674927
0.023363828659057617 0.02325582504272461 0.8294574022293091
0.024037793278694153 0.038759708404541016 0.7984496355056763
0.02433202974498272 0.038759708404541016 0.8139535188674927
0.023868706077337265 0.05426359176635742 0.7984496355056763
0.023712972179055214 0.05426359176635742 0.8139535188674927
0.02361355535686016 0.06976748257875443 0.7984496355056763
0.02330305054783821 0.08527135848999023 0.5813953876495361
0.023857031017541885 0.08527135848999023 0.7829457521438599
0.023963376879692078 0.08527135848999023 0.7984495759010315
0.02671760693192482 0.10077524930238724 0.5658915042877197
0.02867807447910309 0.10077524185180664 0.5813953876495361
0.029328929260373116 0.10077524185180664 0.5968992710113525
0.02931247651576996 0.10077524185180664 0.612403154373169
0.02830567955970764 0.10077524185180664 0.6279069185256958
0.026163317263126373 0.10077524930238724 0.6434108018875122
0.024392543360590935 0.10077524185180664 0.6589146852493286
0.02413199096918106 0.10077524930238724 0.6744186282157898
0.024506043642759323 0.10077524185180664 0.6899225115776062
0.024989578872919083 0.10077524185180664 0.7054263353347778
0.024987343698740005 0.10077524185180664 0.7209302186965942
0.024316886439919472 0.10077523440122604 0.7364340424537659
0.023433975875377655 0.10077524930238724 0.7519380450248718
0.023896299302577972 0.10077524185180664 0.7674418687820435
0.025077667087316513 0.10077523440122604 0.7829457521438599
0.024403633549809456 0.10077524185180664 0.7984496355056763
0.02538902312517166 0.11627912521362305 0.5658915042877197
0.028567295521497726 0.11627912521362305 0.5813953876495361
0.029919352382421494 0.11627912521362305 0.5968992710113525
0.030918177217245102 0.11627912521362305 0.612403154373169
0.03103559836745262 0.11627912521362305 0.6279069185256958
0.030253376811742783 0.11627912521362305 0.6434108018875122
0.029613984748721123 0.11627913266420364 0.6589146852493286
0.029849175363779068 0.11627912521362305 0.674418568611145
0.030221424996852875 0.11627912521362305 0.6899224519729614
0.03028624877333641 0.11627912521362305 0.7054263353347778
0.029760144650936127 0.11627912521362305 0.7209302186965942
0.028744088485836983 0.11627912521362305 0.7364341020584106
0.027343498542904854 0.11627912521362305 0.751937985420227
0.02602114900946617 0.11627912521362305 0.7674418687820435
0.025579769164323807 0.11627912521362305 0.7829457521438599
0.02456553652882576 0.11627912521362305 0.7984496355056763
0.02354276180267334 0.11627912521362305 0.8139535188674927
0.02448655478656292 0.1317828893661499 0.5813953876495361
0.02785748615860939 0.1317828893661499 0.5968992710113525
0.02946384623646736 0.1317828893661499 0.612403154373169
0.030292466282844543 0.1317828893661499 0.6279069185256958
0.030394531786441803 0.1317828893661499 0.6434108018875122
0.030631519854068756 0.1317828893661499 0.6589146852493286
0.031158670783042908 0.1317828893661499 0.674418568611145
0.0314556248486042 0.1317828893661499 0.6899224519729614
0.03152081370353699 0.1317828893661499 0.7054263353347778
0.031228477135300636 0.1317828893661499 0.7209302186965942
0.03046959638595581 0.1317828893661499 0.7364341020584106
0.028945021331310272 0.1317828893661499 0.751937985420227
0.027226604521274567 0.1317828893661499 0.7674418687820435
0.025989120826125145 0.1317828893661499 0.7829457521438599
0.02471136674284935 0.1317828893661499 0.7984496355056763
0.023700179532170296 0.1317828893661499 0.8139535188674927
0.02746911346912384 0.1472867727279663 0.612403154373169
0.029593948274850845 0.1472867727279663 0.6279069185256958
0.030447306111454964 0.1472867727279663 0.6434108018875122
0.030843041837215424 0.1472867727279663 0.6589146852493286
0.03133793920278549 0.1472867727279663 0.674418568611145
0.03157549723982811 0.1472867727279663 0.6899224519729614
0.03167250007390976 0.1472867727279663 0.7054263353347778
0.03151148185133934 0.1472867727279663 0.7209302186965942
0.031046556308865547 0.1472867727279663 0.7364341020584106
0.029766574501991272 0.1472867727279663 0.751937985420227
0.027990801259875298 0.1472867727279663 0.7674418687820435
0.026857223361730576 0.1472867727279663 0.7829457521438599
0.025483833625912666 0.1472867727279663 0.7984496355056763
0.024221614003181458 0.1472867727279663 0.8139535188674927
0.02327783964574337 0.1472867727279663 0.8294574022293091
0.0274752639234066 0.16279065608978271 0.6279069185256958
0.029918715357780457 0.16279065608978271 0.6434108018875122
0.03056524693965912 0.16279065608978271 0.6589146852493286
0.03103339672088623 0.16279065608978271 0.674418568611145
0.031335968524217606 0.16279065608978271 0.6899224519729614
0.031500253826379776 0.16279065608978271 0.7054263353347778
0.03145013749599457 0.16279065608978271 0.7209302186965942
0.03114304319024086 0.16279065608978271 0.7364341020584106
0.030117908492684364 0.16279065608978271 0.751937985420227
0.028679532930254936 0.16279065608978271 0.7674418687820435
0.02802138403058052 0.16279065608978271 0.7829457521438599
0.026854146271944046 0.16279065608978271 0.7984496355056763
0.024657288566231728 0.16279065608978271 0.8139535188674927
0.024351777508854866 0.17829453945159912 0.6434108018875122
0.028582293540239334 0.17829453945159912 0.6589146852493286
0.030191879719495773 0.17829453945159912 0.674418568611145
0.03093934804201126 0.17829453945159912 0.6899224519729614
0.03150187432765961 0.17829453945159912 0.7054263353347778
0.03180620074272156 0.17829453945159912 0.7209302186965942
0.031661082059144974 0.17829453945159912 0.7364341020584106
0.030561324208974838 0.17829453945159912 0.751937985420227
0.02946321666240692 0.17829453945159912 0.7674418687820435
0.028800632804632187 0.17829453945159912 0.7829457521438599
0.025463702157139778 0.17829453945159912 0.7984496355056763
0.027168486267328262 0.19379842281341553 0.6899223923683167
0.030104242265224457 0.19379842281341553 0.7054263353347778
0.03099394217133522 0.19379842281341553 0.7209302186965942
0.030343789607286453 0.19379842281341553 0.7364341020584106
0.028456559404730797 0.19379842281341553 0.751937985420227
0.026021959260106087 0.19379842281341553 0.7674418687820435
-0.038759708404541016 0.14530909061431885 0.6899224519729614
-0.038759708404541016 0.13977137207984924 0.7054263353347778
-0.038759708404541016 0.14136075973510742 0.7209302186965942
-0.038759708404541016 0.15493959188461304 0.7364341020584106
-0.038759708404541016 0.18015863001346588 0.6899224519729614
-0.038759708404541016 0.1942099779844284 0.7054263353347778
-0.038759708404541016 0.19475433230400085 0.7209301590919495
-0.038759708404541016 0.19420716166496277 0.7364341020584106
-0.02325582504272461 -0.19455237686634064 0.8914728164672852
-0.02325582504272461 -0.19798649847507477 0.9069766998291016
-0.02325582504272461 -0.18335531651973724 0.922480583190918
-0.02325582504272461 -0.15807218849658966 0.9379844665527344
-0.02325582504272461 -0.13724617660045624 0.8759689331054688
-0.02325582504272461 -0.13627144694328308 0.9534883499145508
-0.02325582504272461 -0.1043982282280922 0.8604651689529419
-0.02325582504272461 -0.08078595995903015 0.9534883499145508
-0.02325582504272461 -0.06532680243253708 0.8449612855911255
-0.02325582504272461 -0.06253629922866821 0.9379844665527344
-0.02325582504272461 -0.04450749605894089 0.8449612855911255
-0.02325582504272461 -0.03997005149722099 0.9069766998291016
-0.02325582504272461 -0.04875991493463516 0.922480583190918
-0.02325582504272461 -0.03092091903090477 0.8604651689529419
-0.02325582504272461 -0.030601656064391136 0.8759689331054688
-0.02325582504272461 -0.0341792069375515 0.8914728164672852
-0.02325582504272461 -0.015400899574160576 0.8139535188674927
-0.02325582504272461 -0.004117718897759914 0.7984496355056763
-0.02325582504272461 -0.007713201455771923 0.8294574022293091
-0.02325582504272461 0.055602703243494034 0.7829457521438599
-0.02325582504272461 0.08398724347352982 0.5503876209259033
-0.02325582504272461 0.08271146565675735 0.5658915042877197
-0.02325582504272461 0.08313293009996414 0.5813953876495361
-0.02325582504272461 0.08426282554864883 0.5968992710113525
-0.02325582504272461 0.08520060032606125 0.7674418687820435
-0.02325582504272461 0.08685704320669174 0.612403154373169
-0.02325582504272461 0.09361222386360168 0.6279069185256958
-0.02325582504272461 0.09725213795900345 0.6434108018875122
-0.02325582504272461 0.09849118441343307 0.6589146852493286
-0.02325582504272461 0.09845814108848572 0.674418568611145
-0.02325582504272461 0.09821503609418869 0.6899224519729614
-0.02325582504272461 0.09794691205024719 0.7054263353347778
-0.02325582504272461 0.09783913195133209 0.7209302186965942
-0.02325582504272461 0.09797432273626328 0.7364341020584106
-0.02325582504272461 0.0970601961016655 0.751937985420227
-0.02325582504272461 0.08610983192920685 0.8449612855911255
-0.02325582504272461 0.09167246520519257 0.8604651689529419
-0.02325582504272461 0.09327705204486847 0.8759689331054688
-0.02325582504272461 0.1108807921409607 0.5503876209259033
-0.02325582504272461 0.1242179125547409 0.5658915042877197
-0.02325582504272461 0.11998286843299866 0.8759689331054688
-0.02325582504272461 0.13711468875408173 0.5813953876495361
-0.02325582318007946 0.1357225775718689 0.8604651093482971
-0.02325582504272461 0.15034419298171997 0.5968992710113525
-0.02325582504272461 0.149987131357193 0.8449612855911255
-0.02325582504272461 0.16347643733024597 0.612403154373169
-0.02325582504272461 0.17278891801834106 0.6279069185256958
-0.02325582504272461 0.1734081655740738 0.8139535188674927
-0.02325582504272461 0.1637512445449829 0.8294574022293091
-0.02325582504272461 0.18202927708625793 0.6434108018875122
-0.02325582504272461 0.18835188448429108 0.6589146852493286
-0.02325582504272461 0.19313988089561462 0.7829457521438599
-0.02325582504272461 0.18402303755283356 0.7984496355056763
-0.02325582318007946 0.1947309523820877 0.674418568611145
-0.02325582504272461 0.1970292627811432 0.6899224519729614
-0.02325582690536976 0.19856232404708862 0.7054263353347778
-0.02325582504272461 0.19913873076438904 0.7209302186965942
-0.02325582504272461 0.19883286952972412 0.7364341020584106
-0.02325582504272461 0.19780611991882324 0.751937985420227
-0.02325582504272461 0.19634857773780823 0.7674418687820435
-0.007751941680908203 -0.19857683777809143 0.8914728164672852
-0.007751941680908203 -0.20110143721103668 0.9069766998291016
-0.007751941680908203 -0.18807010352611542 0.922480583190918
-0.007751941680908203 -0.16955724358558655 0.9379844665527344
-0.007751941680908203 -0.1601765900850296 0.8759689331054688
-0.007751941680908203 -0.1501772105693817 0.9534883499145508
-0.007751941680908203 -0.11883652955293655 0.8604651689529419
-0.007751941680908203 -0.12904605269432068 0.9689922332763672
-0.007751941680908203 -0.10309135913848877 0.9844961166381836
-0.007751941680908203 -0.0887141078710556 0.8449612855911255
-0.007751941680908203 -0.049824561923742294 0.8294574022293091
-0.007751941680908203 -0.02899917960166931 0.8139535188674927
-0.007751941680908203 -0.010258803144097328 -0.9844961166381836
-0.007751941680908203 -0.00890389271080494 -0.9689922332763672
-0.007751941680908203 -0.008869349025189877 -0.9534883499145508
-0.007751941680908203 -0.008877337910234928 -0.9379844665527344
-0.007751941680908203 -0.00887095183134079 -0.9224806427955627
-0.007751941680908203 -0.008867708966135979 -0.9069767594337463
-0.007751941680908203 -0.008843855932354927 -0.8914728760719299
-0.007751941680908203 -0.008800867944955826 -0.8759689331054688
-0.007751941680908203 -0.008775299414992332 -0.8604651093482971
-0.007751941680908203 -0.008725648745894432 -0.8449612259864807
-0.007751941680908203 -0.00873098336160183 -0.8294573426246643
-0.007751941680908203 -0.008820454590022564 -0.8139535188674927
-0.007751941680908203 -0.008921490982174873 -0.7984496355056763
-0.007751941680908203 -0.008962368592619896 -0.7829457521438599
-0.007751941680908203 -0.008919617161154747 -0.7674418687820435
-0.007751941680908203 -0.008931771852076054 -0.751937985420227
-0.007751941680908203 -0.00893070362508297 -0.7364341020584106
-0.007751941680908203 -0.008933458477258682 -0.7209302186965942
-0.007751941680908203 -0.008953860960900784 -0.7054263353347778
-0.007751941680908203 -0.008973378688097 -0.6899224519729614
-0.007751941680908203 -0.008979817852377892 -0.674418568611145
-0.007751941680908203 -0.00897250510752201 -0.6589146852493286
-0.007751941680908203 -0.008955465629696846 -0.643410861492157
-0.007751941680908203 -0.008963150903582573 -0.6279069781303406
-0.007751941680908203 -0.009010703302919865 -0.6124030947685242
-0.007751941680908203 -0.009012363851070404 -0.5968992114067078
-0.007751941680908203 -0.008962156251072884 -0.5813953876495361
-0.007751941680908203 -0.008892428129911423 -0.5658915042877197
-0.007751941680908203 -0.00886382907629013 -0.5503876209259033
-0.007751941680908203 -0.008882486261427402 -0.5348837375640869
-0.007751941680908203 -0.008904606103897095 -0.5193798542022705
-0.007751941680908203 -0.008930576033890247 -0.5038759708404541
-0.007751941680908203 -0.008952490985393524 -0.4883720874786377
-0.007751941680908203 -0.008967598900198936 -0.4728682041168213
-0.007751941680908203 -0.008963453583419323 -0.4573643207550049
-0.007751941680908203 -0.008956415578722954 -0.4418604373931885
-0.007751941680908203 -0.00901561789214611 -0.42635661363601685
-0.007751941680908203 -0.009056158363819122 -0.41085273027420044
-0.007751941680908203 -0.009033555164933205 -0.39534884691238403
-0.007751941680908203 -0.008962991647422314 -0.3798449635505676
-0.007751941680908203 -0.008891694247722626 -0.3643410801887512
-0.007751941680908203 -0.008863197639584541 -0.3488371968269348
-0.007751941680908203 -0.008874243125319481 -0.3333333134651184
-0.007751941680908203 -0.008876168169081211 -0.317829430103302
-0.007751941680908203 -0.008890132419764996 -0.30232560634613037
-0.007751941680908203 -0.008904934860765934 -0.28682172298431396
-0.007751941680908203 -0.008896572515368462 -0.27131783962249756
-0.007751941680908203 -0.008906139060854912 -0.25581395626068115
-0.007751941680908203 -0.008947898633778095 -0.24031007289886475
-0.007751941680908203 -0.009030431509017944 -0.22480618953704834
-0.007751941680908203 -0.009092055261135101 -0.20930230617523193
-0.007751941680908203 -0.009098293259739876 -0.19379842281341553
-0.007751941680908203 -0.00907016173005104 -0.1782945990562439
-0.007751941680908203 -0.00906280241906643 -0.1627907156944275
-0.007751941680908203 -0.009038230404257774 -0.14728683233261108
-0.007751941680908203 -0.009055336005985737 -0.13178294897079468
-0.007751941680908203 -0.009079049341380596 -0.11627906560897827
-0.007751941680908203 -0.009100990369915962 -0.10077518224716187
-0.007751941680908203 -0.00913289375603199 -0.08527129888534546
-0.007751941680908203 -0.009141664020717144 -0.06976741552352905
-0.007751941680908203 -0.009187771007418633 -0.05426359176635742
-0.007751941680908203 -0.009227228350937366 -0.038759708404541016
-0.007751941680908203 -0.009221875108778477 -0.02325582504272461
-0.007751941680908203 -0.009180608205497265 -0.007751941680908203
-0.007751941680908203 -0.0091741643846035 0.007751941680908203
-0.007751941680908203 -0.009193570353090763 0.02325582504272461
-0.007751941680908203 -0.009149975143373013 0.038759708404541016
-0.007751941680908203 -0.009062528610229492 0.05426359176635742
-0.007751941680908203 -0.008983504958450794 0.06976747512817383
-0.007751941680908203 -0.008922545239329338 0.08527135848999023
-0.007751941680908203 -0.008874860592186451 0.10077524185180664
-0.007751941680908203 -0.008784163743257523 0.11627912521362305
-0.007751941680908203 -0.0086789820343256 0.1317828893661499
-0.007751941680908203 -0.008608677424490452 0.1472867727279663
-0.007751941680908203 -0.008579284884035587 0.16279065608978271
-0.007751941680908203 -0.00852685235440731 0.17829453945159912
-0.007751941680908203 -0.00841541774570942 0.19379842281341553
-0.007751941680908203 -0.008307321928441525 0.20930230617523193
-0.007751941680908203 -0.008251226507127285 0.22480618953704834
-0.007751941680908203 -0.008247487246990204 0.24031007289886475
-0.007751941680908203 -0.00823729857802391 0.25581395626068115
-0.007751941680908203 -0.008250048384070396 0.27131783962249756
-0.007751941680908203 -0.008258916437625885 0.28682172298431396
-0.007751941680908203 -0.00822814367711544 0.30232560634613037
-0.007751941680908203 -0.008179745636880398 0.3178294897079468
-0.007751941680908203 -0.008188368752598763 0.3333333730697632
-0.007751941680908203 -0.008260896429419518 0.3488372564315796
-0.007751941680908203 -0.008294197730720043 0.364341139793396
-0.007751941680908203 -0.00825533177703619 0.37984490394592285
-0.007751941680908203 -0.008222146891057491 0.39534878730773926
-0.007751941680908203 -0.008188092149794102 0.41085267066955566
-0.007751941680908203 -0.008175290189683437 0.42635655403137207
-0.007751941680908203 -0.008043314330279827 0.4418604373931885
-0.007751941680908203 -0.007985956035554409 0.4573643207550049
-0.007751941680908203 -0.007953294552862644 0.4728682041168213
-0.007751941680908203 -0.007920890115201473 0.4883720874786377
-0.007751941680908203 -0.007792013697326183 0.5038759708404541
-0.007751941680908203 -0.01291956752538681 0.7984496355056763
-0.007751941680908203 0.007390291430056095 -0.6279069781303406
-0.007751941680908203 0.006746537052094936 -0.6124030947685242
-0.007751941680908203 0.006331654265522957 -0.5968992114067078
-0.007751941680908203 0.006402850151062012 -0.5813953876495361
-0.007751941680908203 0.006701483391225338 -0.5658915042877197
-0.007751941680908203 0.007117381319403648 -0.5503876209259033
-0.007751941680908203 0.007258355617523193 -0.5348837375640869
-0.007751941680908203 0.00714152492582798 -0.5193798542022705
-0.007751941680908203 0.007269803434610367 -0.5038759708404541
-0.007751941680908203 0.006920968182384968 -0.4883720874786377
-0.007751941680908203 0.006554868072271347 -0.4728682041168213
-0.007751941680908203 0.006799232214689255 -0.4573643207550049
-0.007751941680908203 0.007407110184431076 -0.4418604373931885
-0.007751941680908203 0.00771940965205431 -0.42635661363601685
-0.007751941680908203 -0.00594803411513567 0.5193798542022705
-0.007751941680908203 -0.0032318506855517626 0.5348837375640869
-0.007751941680908203 0.005541495978832245 0.5503876209259033
-0.007751941680908203 -0.00030315411277115345 0.9844961166381836
-0.007751941680908203 0.01089414395391941 -0.9844960570335388
-0.007751941680908203 0.008822144940495491 -0.9689922332763672
-0.00775194214656949 0.008573781698942184 -0.9534884095191956
-0.007751941680908203 0.00850643590092659 -0.9379844665527344
-0.007751941680908203 0.008495759218931198 -0.9224806427955627
-0.007751941680908203 0.008429675363004208 -0.9069767594337463
-0.007751941680908203 0.00838602427393198 -0.8914728760719299
-0.007751941680908203 0.008293532766401768 -0.8759689927101135
-0.007751941680908203 0.008252602070569992 -0.8604651093482971
-0.007751941680908203 0.00820915773510933 -0.8449612259864807
-0.007751941680908203 0.008223731070756912 -0.8294574022293091
-0.007751941680908203 0.008179614320397377 -0.8139535784721375
-0.007751941680908203 0.00811433233320713 -0.7984496355056763
-0.00775194214656949 0.008105956949293613 -0.7829457521438599
-0.007751941680908203 0.008060299791395664 -0.7674418687820435
-0.007751941680908203 0.008096454665064812 -0.751937985420227
-0.007751941680908203 0.00814584270119667 -0.7364341020584106
-0.00775194214656949 0.00812995433807373 -0.720930278301239
-0.007751941680908203 0.008073464035987854 -0.7054263353347778
-0.007751941680908203 0.008007691241800785 -0.6899224519729614
-0.007751941680908203 0.007933887653052807 -0.674418568611145
-0.007751941680908203 0.007844657637178898 -0.6589146852493286
-0.007751941680908203 0.007781467866152525 -0.643410861492157
-0.007751941680908203 0.0077661145478487015 -0.4108527600765228
-0.00775194214656949 0.007823672145605087 -0.39534884691238403
-0.007751941680908203 0.007861478254199028 -0.3798449635505676
-0.00775194214656949 0.007890096865594387 -0.3643410801887512
-0.007751941680908203 0.007921482436358929 -0.3488371670246124
-0.00775194214656949 0.0079780463129282 -0.3333333134651184
-0.00775194214656949 0.00802896823734045 -0.317829430103302
-0.007751941680908203 0.008045997470617294 -0.30232560634613037
-0.007751941680908203 0.008016949519515038 -0.28682172298431396
-0.007751941680908203 0.008057410828769207 -0.27131783962249756
-0.007751941680908203 0.008093583397567272 -0.25581395626068115
-0.007751941680908203 0.008140290156006813 -0.24031007289886475
-0.007751941680908203 0.0081543680280447 -0.22480617463588715
-0.007751941680908203 0.008153925649821758 -0.20930230617523193
-0.007751941215246916 0.008179614320397377 -0.19379842281341553
-0.007751941680908203 0.008153067901730537 -0.1782945990562439
-0.007751941680908203 0.008146134205162525 -0.1627907156944275
-0.007751941680908203 0.008147363550961018 -0.14728683233261108
-0.007751941680908203 0.008221859112381935 -0.13178294897079468
-0.007751941680908203 0.008243965916335583 -0.11627907305955887
-0.007751941680908203 0.008267940022051334 -0.10077518969774246
-0.007751941680908203 0.008273805491626263 -0.08527129888534546
-0.007751941680908203 0.008327914401888847 -0.06976741552352905
-0.00775194214656949 0.008397453464567661 -0.05426359176635742
-0.007751941680908203 0.008407225832343102 -0.038759708404541016
-0.007751941680908203 0.008351055905222893 -0.02325582504272461
-0.007751941680908203 0.00827106088399887 -0.007751941680908203
-0.007751941680908203 0.008307366631925106 0.007751941680908203
-0.007751941680908203 0.008436123840510845 0.02325582504272461
-0.007751941680908203 0.008477316237986088 0.038759708404541016
-0.00775194214656949 0.008439895696938038 0.05426359176635742
-0.007751941680908203 0.008509792387485504 0.06976747512817383
-0.007751941680908203 0.0085807666182518 0.08527136594057083
-0.007751941680908203 0.008631627075374126 0.10077524185180664
-0.00775194214656949 0.008685952983796597 0.11627912521362305
-0.007751941680908203 0.008756597526371479 0.1317828893661499
-0.007751941680908203 0.008760511875152588 0.1472867727279663
-0.007751941680908203 0.008761001750826836 0.16279065608978271
-0.00775194214656949 0.00871683657169342 0.17829453945159912
-0.007751941680908203 0.008682755753397942 0.19379842281341553
-0.007751941680908203 0.00861536804586649 0.20930230617523193
-0.007751941680908203 0.008532222360372543 0.22480618953704834
-0.007751941680908203 0.008475846610963345 0.24031007289886475
-0.00775194214656949 0.008447286672890186 0.25581395626068115
-0.007751941680908203 0.008431675843894482 0.27131783962249756
-0.00775194214656949 0.008423198014497757 0.28682172298431396
-0.007751941680908203 0.008457023650407791 0.30232560634613037
-0.007751941680908203 0.00848477054387331 0.3178294897079468
-0.007751941680908203 0.008524034172296524 0.3333333730697632
-0.007751941680908203 0.008496696129441261 0.3488372564315796
-0.007751941680908203 0.008526341058313847 0.364341139793396
-0.007751941680908203 0.0085001764819026 0.37984490394592285
-0.00775194214656949 0.008474229834973812 0.39534881711006165
-0.00775194214656949 0.008487588725984097 0.41085267066955566
-0.007751941680908203 0.008530644699931145 0.4263565242290497
-0.007751941680908203 0.008576082065701485 0.4418604373931885
-0.007751941680908203 0.008717507123947144 0.4573643207550049
-0.007751941680908203 0.008881179615855217 0.4728682041168213
-0.00775194214656949 0.009000696241855621 0.4883720874786377
-0.007751941680908203 0.0091174878180027 0.5038759708404541
-0.007751941680908203 0.009155991487205029 0.5193798542022705
-0.007751941680908203 0.00888457614928484 0.5348837375640869
-0.007751941680908203 0.008093157783150673 0.5503876209259033
-0.007751941680908203 0.024763984605669975 0.9689921736717224
-0.007751941680908203 0.04524170234799385 0.7829457521438599
-0.007751941680908203 0.05083213746547699 0.9534883499145508
-0.007751941680908203 0.08079369366168976 0.5348837375640869
-0.007751941680908203 0.07448828220367432 0.5503876209259033
-0.007751941680908203 0.07589775323867798 0.5658915042877197
-0.007751941680908203 0.0798451229929924 0.5813953876495361
-0.007751941680908203 0.08251636475324631 0.5968992710113525
-0.007751941680908203 0.08442085981369019 0.612403154373169
-0.007751941680908203 0.08298931270837784 0.7674418687820435
-0.007751941680908203 0.07138441503047943 0.9379845261573792
-0.007751941680908203 0.09166167676448822 0.6279069185256958
-0.007751941680908203 0.09541005641222 0.6434108018875122
-0.007751941680908203 0.09616938978433609 0.6589146852493286
-0.007751941680908203 0.09607966244220734 0.674418568611145
-0.007751941680908203 0.09616503864526749 0.6899224519729614
-0.007751941680908203 0.0961078330874443 0.7054263353347778
-0.007751941680908203 0.09573450684547424 0.7209302186965942
-0.007751941680908203 0.09521018713712692 0.7364341020584106
-0.007751941680908203 0.09277515113353729 0.751937985420227
-0.007751941215246916 0.08915712684392929 0.922480583190918
-0.007751941680908203 0.10150139033794403 0.5348837375640869
-0.007751941680908203 0.10561296343803406 0.9069766998291016
-0.007751941215246916 0.11712474375963211 0.5503875613212585
-0.007751941680908203 0.12842130661010742 0.5658915042877197
-0.007751941680908203 0.12087447941303253 0.8914728164672852
-0.007751941680908203 0.1405155211687088 0.5813953876495361
-0.007751941680908203 0.14667288959026337 0.8604651689529419
-0.007751941680908203 0.134632408618927 0.8759689331054688
-0.007751941680908203 0.1529533565044403 0.5968992710113525
-0.007751941680908203 0.1555483639240265 0.8449612855911255
-0.007751941680908203 0.16545411944389343 0.612403154373169
-0.007751941680908203 0.1752987802028656 0.6279069185256958
-0.007751941680908203 0.1769520789384842 0.8139535188674927
-0.007751941680908203 0.16670407354831696 0.8294574618339539
-0.007751941215246916 0.18333888053894043 0.6434108018875122
-0.007751941680908203 0.18917541205883026 0.6589146852493286
-0.007751941680908203 0.19352193176746368 0.7829457521438599
-0.007751941680908203 0.18415719270706177 0.7984496355056763
-0.007751941215246916 0.19500623643398285 0.674418568611145
-0.007751941680908203 0.19706474244594574 0.6899224519729614
-0.007751941680908203 0.1984797865152359 0.7054263353347778
-0.007751941680908203 0.19905413687229156 0.7209302186965942
-0.007751941680908203 0.19886073470115662 0.7364341020584106
-0.007751941680908203 0.1980396807193756 0.751937985420227
-0.007751941680908203 0.1965198814868927 0.7674418687820435
0.007751941680908203 -0.19585013389587402 0.8914728164672852
0.007751941680908203 -0.20073498785495758 0.9069766998291016
0.007751941680908203 -0.18726123869419098 0.922480583190918
0.007751941680908203 -0.1681656837463379 0.9379844665527344
0.007751941680908203 -0.14876849949359894 0.9534883499145508
0.007751941680908203 -0.14456036686897278 0.8759689331054688
0.007751941680908203 -0.12837527692317963 0.9689922332763672
0.007751941680908203 -0.10883329063653946 0.8604651689529419
0.007751941680908203 -0.10266871750354767 0.9844961166381836
0.007751941680908203 -0.07852183282375336 0.8449612855911255
0.007751941680908203 -0.0396328903734684 0.8294574022293091
0.007751941680908203 -0.024014264345169067 0.8139535188674927
0.007751941680908203 -0.007898147217929363 -0.9689922332763672
0.007751941680908203 -0.008175430819392204 -0.9534883499145508
0.007751941680908203 -0.00823948998004198 -0.9379844665527344
0.007751941680908203 -0.008134179748594761 -0.9224806427955627
0.007751941680908203 -0.0080651780590415 -0.9069767594337463
0.007751941680908203 -0.007964768446981907 -0.8914728760719299
0.007751941680908203 -0.007884824648499489 -0.8759689927101135
0.007751941680908203 -0.007893878035247326 -0.8604651093482971
0.007751941680908203 -0.007850296795368195 -0.8449612259864807
0.007751941680908203 -0.007882114499807358 -0.8294573426246643
0.007751941680908203 -0.007968530990183353 -0.8139535188674927
0.007751941680908203 -0.008000507019460201 -0.7984496355056763
0.007751941680908203 -0.007919746451079845 -0.7829457521438599
0.007751941680908203 -0.007787191774696112 -0.7674418687820435
0.007751941680908203 -0.007782388012856245 -0.6124030947685242
0.007751941680908203 -0.007774585857987404 -0.5968992114067078
0.007751941680908203 -0.0077635603956878185 -0.4728682041168213
0.007751941680908203 -0.007834468968212605 -0.4573643207550049
0.007751941680908203 -0.007915381342172623 -0.4418604373931885
0.007751941680908203 -0.008033361285924911 -0.42635661363601685
0.007751941680908203 -0.008101147599518299 -0.41085273027420044
0.007751941680908203 -0.008115958422422409 -0.39534884691238403
0.007751941680908203 -0.00807410478591919 -0.3798449635505676
0.007751941680908203 -0.00804510060697794 -0.3643410801887512
0.007751941680908203 -0.008061817847192287 -0.3488371968269348
0.007751941680908203 -0.008135832846164703 -0.3333333134651184
0.007751941680908203 -0.008230959065258503 -0.317829430103302
0.007751941680908203 -0.008270940743386745 -0.30232560634613037
0.007751941680908203 -0.008230418898165226 -0.28682172298431396
0.007751941680908203 -0.008112900890409946 -0.27131783962249756
0.007751941680908203 -0.008014120161533356 -0.25581395626068115
0.007751941680908203 -0.00797149259597063 -0.24031007289886475
0.007751941680908203 -0.007961446419358253 -0.22480618953704834
0.007751941680908203 -0.0080003896728158 -0.20930230617523193
0.007751941680908203 -0.008002438582479954 -0.19379842281341553
0.007751941680908203 -0.007971685379743576 -0.1782945990562439
0.007751941680908203 -0.007970410399138927 -0.1627907156944275
0.007751941680908203 -0.007980293594300747 -0.14728683233261108
0.007751941680908203 -0.008026386611163616 -0.13178294897079468
0.007751941680908203 -0.008064883761107922 -0.11627906560897827
0.007751941680908203 -0.00807386077940464 -0.10077518224716187
0.007751941680908203 -0.0081091383472085 -0.08527129888534546
0.007751941680908203 -0.008095769211649895 -0.06976741552352905
0.007751941680908203 -0.008127551525831223 -0.05426359176635742
0.007751941680908203 -0.008143600076436996 -0.038759708404541016
0.007751941680908203 -0.008096994832158089 -0.02325582504272461
0.007751941680908203 -0.008010553196072578 -0.007751941680908203
0.007751941680908203 -0.008059748448431492 0.007751941680908203
0.007751941680908203 -0.008256934583187103 0.02325582504272461
0.007751941680908203 -0.00836789608001709 0.038759708404541016
0.007751941680908203 -0.008405391126871109 0.05426359176635742
0.007751941680908203 -0.008419576101005077 0.06976747512817383
0.007751941680908203 -0.008477876894176006 0.08527135848999023
0.007751941680908203 -0.008503655903041363 0.10077524185180664
0.007751941680908203 -0.008498702198266983 0.11627912521362305
0.007751941680908203 -0.008482962846755981 0.1317828893661499
0.007751941680908203 -0.008443194441497326 0.1472867727279663
0.007751941680908203 -0.008445283398032188 0.16279065608978271
0.007751941680908203 -0.008412745781242847 0.17829453945159912
0.007751941680908203 -0.008260872215032578 0.19379842281341553
0.007751941680908203 -0.008128008805215359 0.20930230617523193
0.007751941680908203 -0.008069074712693691 0.22480618953704834
0.007751941680908203 -0.008083155378699303 0.24031007289886475
0.007751941680908203 -0.008059795945882797 0.25581395626068115
0.007751941680908203 -0.008108853362500668 0.27131783962249756
0.007751941680908203 -0.00812456849962473 0.28682172298431396
0.007751941680908203 -0.008106622844934464 0.30232560634613037
0.007751941680908203 -0.00791617576032877 0.3178294897079468
0.007751941680908203 -0.0094948410987854 0.7984496355056763
0.007751941680908203 0.004404906183481216 -0.8759689927101135
0.007751941680908203 0.0016534114256501198 -0.7984496355056763
0.00775194214656949 -0.0026797871105372906 -0.7829457521438599
0.00775194214656949 -0.006774635519832373 -0.7674418687820435
0.007751941680908203 -0.007416578009724617 -0.6124030947685242
0.007751941680908203 -0.007521575316786766 -0.5968992114067078
0.007751941680908203 -0.007647546008229256 -0.4728681743144989
0.007751941215246916 -0.006969493348151445 -0.4573642909526825
0.007751941680908203 -0.006104122847318649 -0.4418604373931885
0.007751941680908203 -0.004907817579805851 -0.42635661363601685
0.00775194214656949 -0.004393901210278273 -0.41085273027420044
0.007751941680908203 -0.004124675877392292 -0.39534884691238403
0.007751941680908203 -0.004470291547477245 -0.37984493374824524
0.007751941680908203 -0.004579191096127033 -0.3643410801887512
0.007751941680908203 -0.004264441318809986 -0.3488371968269348
0.007751941680908203 -0.0030824225395917892 -0.3333333134651184
0.007751941680908203 -0.001063731499016285 -0.317829430103302
0.007751941680908203 0.0003428098279982805 -0.30232560634613037
0.007751941680908203 0.0005021023098379374 -0.28682172298431396
0.007751941680908203 0.0013095047324895859 -0.27131783962249756
0.007751941680908203 0.0025823498144745827 -0.25581395626068115
0.007751941680908203 0.002654279349371791 -0.24031007289886475
0.007751941680908203 0.0017165029421448708 -0.22480618953704834
0.007751941680908203 0.0014334165025502443 -0.20930230617523193
0.007751941680908203 0.00033551990054547787 -0.19379842281341553
0.007751941680908203 -0.0012555301655083895 -0.1782945990562439
0.007751941680908203 -0.0015749642625451088 -0.1627907156944275
0.007751941680908203 -0.0011299662292003632 -0.14728683233261108
0.007751941680908203 0.00045376899652183056 -0.13178294897079468
0.007751941680908203 0.001367941265925765 -0.11627906560897827
0.007751941680908203 0.0010673347860574722 -0.10077518224716187
0.007751941680908203 0.0010814808774739504 -0.08527129888534546
0.007751941680908203 0.000900759594514966 -0.06976741552352905
0.007751941680908203 0.0019953649025410414 -0.05426359176635742
0.007751941680908203 0.0036018078681081533 -0.038759708404541016
0.007751941680908203 0.004879831336438656 -0.02325582504272461
0.007751941680908203 0.0025868278462439775 -0.007751941680908203
0.00775194214656949 -0.006150083150714636 0.3333333730697632
0.007751941680908203 7.061357609927654e-05 0.3488372564315796
0.007751941680908203 0.00289814081043005 0.364341139793396
0.007751941680908203 0.004421638324856758 0.37984490394592285
0.007751941680908203 0.00476221926510334 0.39534878730773926
0.007751941680908203 0.00434680562466383 0.41085267066955566
0.007751941680908203 0.004789697006344795 0.42635655403137207
0.007751941680908203 0.005292457528412342 0.4418604373931885
0.007751941680908203 0.0051592206582427025 0.4573643207550049
0.007751941680908203 0.005117149092257023 0.4728682041168213
0.007751941680908203 0.00553198903799057 0.4883720874786377
0.007751941680908203 0.006444750353693962 0.5038759708404541
0.007751941680908203 0.006662565283477306 0.5193798542022705
0.007751941680908203 -0.0010807628277689219 0.9844961166381836
0.007751941680908203 0.00791841372847557 -0.968992292881012
0.007751941680908203 0.008047840557992458 -0.9534883499145508
0.007751941680908203 0.008030812256038189 -0.9379844665527344
0.007751941680908203 0.007921974174678326 -0.922480583190918
0.007751941680908203 0.00786537118256092 -0.9069767594337463
0.007751941215246916 0.00779679324477911 -0.8914728164672852
0.00775194214656949 0.007776801940053701 -0.8604651689529419
0.00775194214656949 0.007774315774440765 -0.8449612855911255
0.00775194214656949 0.007805071771144867 -0.8294573426246643
0.00775194214656949 0.007764647249132395 -0.8139535784721375
0.007751941680908203 0.007775767240673304 0.007751941680908203
0.007751941680908203 0.008093529380857944 0.02325582504272461
0.007751941215246916 0.008201672695577145 0.038759708404541016
0.007751941680908203 0.00812757108360529 0.05426359176635742
0.00775194214656949 0.00814664177596569 0.06976748257875443
0.007751941680908203 0.008232254534959793 0.08527135848999023
0.007751941680908203 0.008252647705376148 0.10077524185180664
0.007751941215246916 0.008245534263551235 0.11627912521362305
0.007751941215246916 0.008236256428062916 0.1317828893661499
0.007751941680908203 0.008241440169513226 0.1472867727279663
0.007751941680908203 0.00819925032556057 0.16279065608978271
0.007751941680908203 0.008164138533174992 0.17829453945159912
0.007751941215246916 0.0081443190574646 0.19379842281341553
0.007751941680908203 0.008074698969721794 0.20930230617523193
0.007751941215246916 0.008076136000454426 0.22480618953704834
0.007751941680908203 0.008096408098936081 0.24031007289886475
0.007751941680908203 0.008122315630316734 0.25581395626068115
0.007751941680908203 0.008125481195747852 0.27131783962249756
0.007751941680908203 0.008091304451227188 0.28682172298431396
0.007751941680908203 0.008060391061007977 0.30232560634613037
0.007751941680908203 0.008001360110938549 0.3178294897079468
0.007751941680908203 0.008010179735720158 0.3333333730697632
0.007751941215246916 0.008059218525886536 0.3488372266292572
0.007751941680908203 0.00805870071053505 0.3643411695957184
0.007751941680908203 0.008048241958022118 0.37984490394592285
0.00775194214656949 0.00808022916316986 0.39534878730773926
0.00775194214656949 0.008192548528313637 0.41085270047187805
0.007751941215246916 0.008155783638358116 0.42635655403137207
0.007751941680908203 0.008122515864670277 0.4418604373931885
0.007751941680908203 0.008159465156495571 0.4573643207550049
0.007751941215246916 0.0081717474386096 0.4728681743144989
0.00775194214656949 0.00809120386838913 0.4883721172809601
0.00775194214656949 0.007937552407383919 0.5038759708404541
0.007751941680908203 0.007930482737720013 0.5193798542022705
0.007751941680908203 0.025148073211312294 0.9689922332763672
0.007751941680908203 0.05059162154793739 0.9534883499145508
0.007751941680908203 0.0545927993953228 0.7829457521438599
0.007751941680908203 0.08423616737127304 0.5348837375640869
0.007751941680908203 0.078219473361969 0.5503876209259033
0.007751941680908203 0.07858629524707794 0.5658915042877197
0.007751941680908203 0.08118903636932373 0.5813953876495361
0.007751941680908203 0.08323439210653305 0.5968992710113525
0.007751941680908203 0.08499033004045486 0.612403154373169
0.007751941680908203 0.0850515365600586 0.7674418687820435
0.007751941680908203 0.07090810686349869 0.9379844665527344
0.007751941680908203 0.09464260935783386 0.5348837375640869
0.007751941680908203 0.09334404766559601 0.6279069185256958
0.007751941680908203 0.09641006588935852 0.6434108018875122
0.007751941680908203 0.09702013432979584 0.6589146852493286
0.007751941680908203 0.09681807458400726 0.674418568611145
0.007751941680908203 0.09671975672245026 0.6899224519729614
0.007751941680908203 0.09656719118356705 0.7054263353347778
0.007751941680908203 0.09628994762897491 0.7209302186965942
0.007751941680908203 0.09604138135910034 0.7364341020584106
0.007751941680908203 0.09434320777654648 0.751937985420227
0.007751941680908203 0.08837319165468216 0.922480583190918
0.007751941215246916 0.1050303727388382 0.9069766998291016
0.007751941680908203 0.11679315567016602 0.5503876209259033
0.007751941680908203 0.12785305082798004 0.5658915042877197
0.007751941680908203 0.12038616091012955 0.8914728760719299
0.007751941680908203 0.13985443115234375 0.5813953876495361
0.007751941680908203 0.14506450295448303 0.8604651689529419
0.007751941680908203 0.13409845530986786 0.8759689331054688
0.007751941680908203 0.15206831693649292 0.5968992710113525
0.007751941680908203 0.15481941401958466 0.8449612855911255
0.00775194214656949 0.16458433866500854 0.612403154373169
0.007751941680908203 0.17383509874343872 0.6279069185256958
0.007751941680908203 0.17568574845790863 0.8139535188674927
0.007751941680908203 0.16626602411270142 0.8294574022293091
0.007751941680908203 0.18249662220478058 0.6434108018875122
0.007751941680908203 0.188089519739151 0.6589146852493286
0.007751941680908203 0.19309210777282715 0.7829457521438599
0.007751941680908203 0.18392089009284973 0.7984496355056763
0.007751941680908203 0.194565549492836 0.674418568611145
0.007751941680908203 0.1967802792787552 0.6899224519729614
0.007751941680908203 0.1982918381690979 0.7054263353347778
0.007751941680908203 0.1988827884197235 0.7209302186965942
0.007751941680908203 0.1986818015575409 0.7364341020584106
0.007751941680908203 0.19787617027759552 0.751937985420227
0.007751941680908203 0.19646373391151428 0.7674418687820435
0.02325582504272461 0.0008905816357582808 0.8139535188674927
0.02325582504272461 0.014541469514369965 0.7984496355056763
0.02325582504272461 0.017995931208133698 0.8294574022293091
0.02325582504272461 0.03522682562470436 0.8294574022293091
0.02325582504272461 0.06335949152708054 0.8139535188674927
0.02325582504272461 0.08524627983570099 0.5813953876495361
0.02325582504272461 0.0811024159193039 0.7829457521438599
0.02325582504272461 0.08764000236988068 0.5658915042877197
0.02325582504272461 0.08788329362869263 0.5968992710113525
0.02325582504272461 0.09286569058895111 0.612403154373169
0.02325582504272461 0.09679888188838959 0.6279069185256958
0.02325582504272461 0.0991736575961113 0.6434108018875122
0.02325582504272461 0.10022108256816864 0.6589146852493286
0.02325582504272461 0.10029855370521545 0.674418568611145
0.02325582504272461 0.10004793107509613 0.6899224519729614
0.02325582504272461 0.09975084662437439 0.7054263353347778
0.02325582504272461 0.09972702711820602 0.7209302186965942
0.02325582504272461 0.10008756816387177 0.7364341020584106
0.02325582504272461 0.10058552771806717 0.751937985420227
0.02325582504272461 0.09857989847660065 0.7674418687820435
0.02325582318007946 0.1014157384634018 0.8139535188674927
0.02325582504272461 0.11980222910642624 0.5658915042877197
0.02325582504272461 0.13347090780735016 0.5813953876495361
0.02325582504272461 0.1457003355026245 0.5968992710113525
0.02325582504272461 0.14455191791057587 0.8294574022293091
0.02325582504272461 0.1571587324142456 0.612403154373169
0.02325582504272461 0.14744476974010468 0.8294574022293091
0.02325582504272461 0.16857174038887024 0.6279069185256958
0.02325582504272461 0.1669972985982895 0.8139535784721375
0.02325582504272461 0.17922696471214294 0.6434108018875122
0.02325582504272461 0.18494822084903717 0.6589146852493286
0.02325582504272461 0.19186973571777344 0.674418568611145
0.02325582504272461 0.1894121766090393 0.7829457521438599
0.02325582504272461 0.18143001198768616 0.7984496355056763
0.02325582504272461 0.1957601010799408 0.6899224519729614
0.02325582504272461 0.19778476655483246 0.7054263353347778
0.02325582690536976 0.19856101274490356 0.7209302186965942
0.02325582504272461 0.19820398092269897 0.7364341020584106
0.02325582504272461 0.1970389187335968 0.751937985420227
0.02325582504272461 0.19557255506515503 0.7674418687820435
-0.038759708404541016 0.1472867727279663 0.6862348914146423
-0.038759708404541016 0.1472867727279663 0.7315759658813477
-0.038759708404541016 0.16279065608978271 0.6817202568054199
-0.038759708404541016 0.16279065608978271 0.7394028306007385
-0.038759708404541016 0.17829453945159912 0.6868978142738342
-0.038759708404541016 0.17829453945159912 0.7508823275566101
-0.038759708404541016 0.19379842281341553 0.7015402317047119
-0.038759708404541016 0.19379842281341553 0.7403033971786499
-0.02325582504272461 -0.19379842281341553 0.8911588191986084
-0.02325582504272461 -0.19379842281341553 0.9130228757858276
-0.02325582504272461 -0.1782945990562439 0.8895552754402161
-0.02325582504272461 -0.1782945990562439 0.9257274866104126
-0.02325582504272461 -0.1627907156944275 0.8869912028312683
-0.02325582504272461 -0.1627907156944275 0.9346628785133362
-0.02325582504272461 -0.14728683233261108 0.8814140558242798
-0.02325582504272461 -0.14728683233261108 0.9442799687385559
-0.02325582504272461 -0.13178294897079468 0.875203013420105
-0.02325582504272461 -0.13178294897079468 0.9563475251197815
